# .PCD v0.7 - Point Cloud Data file format
VERSION 0.7
FIELDS x y z rgb
SIZE 4 4 4 4
TYPE F F F F
COUNT 1 1 1 1
WIDTH 324
HEIGHT 1
VIEWPOINT 0 0 0 1 0 0 0
POINTS 324
DATA ascii
-2552.4299 1226.348 134 9.2197031e-39
-1059.05 1387.873 136.966 9.2197031e-39
-999.14001 1384.6599 139.66499 9.2197031e-39
364.867 1548.292 138.088 9.2197031e-39
385.11264 1545.6549 139.41267 9.2197031e-39
391.86899 1549.2329 138.668 9.2197031e-39
2415.52 1782.21 138.933 9.2197031e-39
2429.3799 1802.35 134 9.2197031e-39
-960.92499 1358.615 147.77299 9.2197031e-39
-980.32098 1366.105 145.183 9.2197031e-39
-980.85699 1376.569 142.381 9.2197031e-39
-478.86801 1422.5239 145.59801 9.2197031e-39
-441.36301 1423.155 146.584 9.2197031e-39
-389.198 1427.256 147.09801 9.2197031e-39
-348.91599 1429.849 147.647 9.2197031e-39
-303.83499 1434.1431 147.892 9.2197031e-39
-283.28201 1433.824 148.60899 9.2197031e-39
-264.71301 1433.397 149.29401 9.2197031e-39
-219.918 1439.51 149.04601 9.2197031e-39
-182.063 1444.6951 148.83099 9.2197031e-39
-120.128 1456.6909 147.54401 9.2197031e-39
-86.638702 1459.271 147.88699 9.2197031e-39
-92.249603 1460.781 147.313 9.2197031e-39
-55.0667 1465.1851 147.285 9.2197031e-39
-36.0919 1467.9861 147.12399 9.2197031e-39
-28.6675 1467.646 147.442 9.2197031e-39
95.8283 1480.625 147.819 9.2197031e-39
116.784 1487.7367 146.571 9.2197031e-39
109.453 1499.0601 143.332 9.2197031e-39
113.00733 1496.5468 144.11 9.2197031e-39
100.849 1505.293 141.408 9.2197031e-39
116.44728 1505.2001 141.91243 9.2197031e-39
379.39301 1506.564 149.642 9.2197031e-39
386.55103 1507.6321 149.5775 9.2197031e-39
355.98001 1511.897 147.502 9.2197031e-39
365.832 1511.4714 147.918 9.2197031e-39
371.944 1512.512 147.82899 9.2197031e-39
386.496 1516.5343 147.20667 9.2197031e-39
392.29721 1513.3796 148.2244 9.2197031e-39
378.01669 1527.1603 144.11732 9.2197031e-39
385.65369 1522.9707 145.46735 9.2197031e-39
375.82672 1532.7532 142.56126 9.2197031e-39
383.10898 1533.9287 142.47234 9.2197031e-39
393.27402 1537.861 141.73834 9.2197031e-39
396.56601 1541.486 140.87468 9.2197031e-39
2399.1699 1743.77 148.662 9.2197031e-39
2400.47 1762.23 143.789 9.2197031e-39
-930.638 1353.252 150.133 9.2197031e-39
-31.3183 1432.554 156.701 9.2197031e-39
2375.1201 1705.4399 158.12601 9.2197031e-39
2388.73 1724.62 153.439 9.2197031e-39
-130.263 1382.906 166.87199 9.2197031e-39
-78.714104 1409.146 161.47301 9.2197031e-39
2375.3201 1669.36 167.73399 9.2197031e-39
2362.3301 1686.5601 162.757 9.2197031e-39
-157.789 1366.5381 170.381 9.2197031e-39
2383.8501 1633.6699 177.49699 9.2197031e-39
2380.1699 1651.5699 172.618 9.2197031e-39
2381.75 1597.494 187.062 9.2197031e-39
2363.3999 1614.9709 181.845 9.2197031e-39
2388.95 1579.556 192.058 9.2197031e-39
-1352.33 703.98639 309.974 9.2197031e-39
-1350.0699 722.47198 305.12299 9.2197031e-39
-1350.26 739.50403 300.58401 9.2197031e-39
-1354.46 667.68408 319.57101 9.2197031e-39
-1357.87 683.50928 315.254 9.2197031e-39
-1348.86 635.02679 328.436 9.2197031e-39
-1356.08 648.92517 324.51401 9.2197031e-39
-1347.6899 599.24292 337.99701 9.2197031e-39
-1348.38 617.16418 333.20599 9.2197031e-39
-1350.2 579.19788 343.255 9.2197031e-39
-1297.21 537.711 355.92899 9.2197031e-39
-1265.02 540.26929 356.23901 9.2197031e-39
-1265.79 520.94061 361.35901 9.2197031e-39
1901.48 861.32599 368.23099 9.2197031e-39
1921.53 869.797 366.59399 9.2197031e-39
1905.83 825.84802 377.80899 9.2197031e-39
1906.95 842.27502 373.47 9.2197031e-39
-1416.3 397.44598 389.599 9.2197031e-39
-1530.72 405.97198 383.80801 9.2197031e-39
2190.6699 780.07397 398.759 9.2197031e-39
-1755.15 309.159 402.67099 9.2197031e-39
-1698.6801 321.095 401.23099 9.2197031e-39
-1551.62 257.39499 422.71301 9.2197031e-39
-1361.72 263.54001 426.92099 9.2197031e-39
-1331.75 265.14001 427.418 9.2197031e-39
-1326.6801 223.60999 438.62799 9.2197031e-39
-1314.11 257.03699 430.117 9.2197031e-39
-1713.74 166.026 442.043 9.2197031e-39
-1350.76 179.56699 449.60999 9.2197031e-39
-1684.74 136.32401 450.84201 9.2197031e-39
-1336.21 168.211 453.08099 9.2197031e-39
-1724.47 81.088013 464.32199 9.2197031e-39
-1667.88 97.598999 461.66901 9.2197031e-39
-1599.61 98.83197 463.44101 9.2197031e-39
-1351.54 105.479 469.306 9.2197031e-39
-1351.85 130.064 462.75299 9.2197031e-39
2914.73 598.14618 469.46701 9.2197031e-39
2914.02 624.03558 462.55399 9.2197031e-39
-1690.88 53.752991 472.63101 9.2197031e-39
-1341.46 89.495972 473.871 9.2197031e-39
2922.6399 569.44159 477.35001 9.2197031e-39
-1350.8 29.106018 489.65799 9.2197031e-39
-1345.62 60.070007 481.57501 9.2197031e-39
2922.79 543.32001 484.30801 9.2197031e-39
-1341.38 11.690002 494.58401 9.2197031e-39
2922.6799 517.11798 491.27899 9.2197031e-39
-1342.8199 -43.969971 509.354 9.2197031e-39
-1338.78 -12.611023 501.13199 9.2197031e-39
-1337.45 -66.348999 515.47699 9.2197031e-39
-1347.51 -105.09698 525.48102 9.2197031e-39
2386.47 315.17999 528.52802 9.2197031e-39
2421.76 319.78799 528.38702 9.2197031e-39
2459.73 323.46399 528.578 9.2197031e-39
-1339.08 -154.56799 538.90802 9.2197031e-39
-1348.2 -134.81897 533.37097 9.2197031e-39
2360.1699 281.07501 536.797 9.2197031e-39
2359.77 306.069 530.13098 9.2197031e-39
2919.02 357.14401 533.74799 9.2197031e-39
-1343 -188.83698 547.909 9.2197031e-39
2342.52 241.73199 546.72498 9.2197031e-39
2344.29 265.754 540.38599 9.2197031e-39
2926.3301 298.20599 549.66101 9.2197031e-39
2927.79 325.49301 542.44202 9.2197031e-39
-1337.22 -213.034 554.52802 9.2197031e-39
-1123.79 -207.44397 559.60797 9.2197031e-39
-1094.86 -201.63397 558.95203 9.2197031e-39
-1066.12 -195.47101 558.19598 9.2197031e-39
-1039.35 -191.32898 557.91699 9.2197031e-39
-1007.57 -179.71698 555.80499 9.2197031e-39
-983.479 -178.09802 556.11499 9.2197031e-39
-955.58398 -170.57599 554.97101 9.2197031e-39
-927.91602 -162.71698 553.73102 9.2197031e-39
-882.97498 -160.72601 554.58398 9.2197031e-39
-902.11603 -156.96503 552.99402 9.2197031e-39
2332.1499 222.92801 551.41101 9.2197031e-39
2923.6799 271.27301 556.74799 9.2197031e-39
-1343.48 -251.29102 564.51801 9.2197031e-39
-1321.48 -257.797 566.927 9.2197031e-39
-1287.36 -249.83502 565.85797 9.2197031e-39
-1253.5 -241.43701 564.664 9.2197031e-39
-1221.78 -234.88599 563.89697 9.2197031e-39
-1189.0601 -226.40997 562.64801 9.2197031e-39
-1154.15 -214.43903 560.53601 9.2197031e-39
-860.46899 -192.474 563.72699 9.2197031e-39
-877.13898 -184.854 561.18597 9.2197031e-39
2371.25 172.047 566.15802 9.2197031e-39
2919.8601 244.71899 563.698 9.2197031e-39
-853.44702 -250.70398 579.44299 9.2197031e-39
-862.86298 -230.69598 573.82703 9.2197031e-39
2921.97 186.12 579.36102 9.2197031e-39
2924.6201 213.716 572.09698 9.2197031e-39
2405.4399 96.036987 587.44299 9.2197031e-39
2423.5701 111.173 583.97198 9.2197031e-39
2918.1499 158.92001 586.48297 9.2197031e-39
-855.79303 -290.83698 590.05298 9.2197031e-39
2377.77 60.148987 596.14301 9.2197031e-39
2393.72 76.642029 592.24402 9.2197031e-39
2921.8999 127.504 594.961 9.2197031e-39
-859.96802 -335.35797 601.77502 9.2197031e-39
2372.5701 8.0029907 609.86298 9.2197031e-39
2368.9099 38.677002 601.586 9.2197031e-39
2918.3301 99.684021 602.25598 9.2197031e-39
-927.64502 -492 641.38599 9.2197031e-39
2481.9299 -101.09698 642.26898 9.2197031e-39
2440.5601 -320.81702 699.47998 9.2197031e-39
2467.3 -310.271 697.49597 9.2197031e-39
2509.1899 -311.88599 699.21503 9.2197031e-39
2546.7 -309.23297 699.66302 9.2197031e-39
2572.02 -296.32001 697.005 9.2197031e-39
2598.0601 -283.72601 694.45398 9.2197031e-39
2423.0701 -372.77802 712.77197 9.2197031e-39
2447.1599 -359.96899 710.104 9.2197031e-39
2775.01 -351.55603 717.95398 9.2197031e-39
2706.04 -333.54901 711.039 9.2197031e-39
1873.61 -500.63 729.89203 9.2197031e-39
1895.85 -491.20996 728.06897 9.2197031e-39
1926.11 -491.34998 729.03998 9.2197031e-39
1952.11 -485.91003 728.39203 9.2197031e-39
1977.51 -479.44995 727.453 9.2197031e-39
1810.75 -533.03003 736.58301 9.2197031e-39
1834.34 -525.77002 735.37799 9.2197031e-39
1858.52 -519.05005 734.33197 9.2197031e-39
2060.0901 -501.53003 735.87097 9.2197031e-39
2018.95 -491.13 731.83698 9.2197031e-39
1785.85 -577.56995 747.672 9.2197031e-39
1800.47 -558.06995 742.92999 9.2197031e-39
67.245903 -818.89001 759.01501 9.2197031e-39
89.884804 -800.82996 754.90503 9.2197031e-39
174.616 -809.73999 759.88501 9.2197031e-39
1756.47 -617.13 757.297 9.2197031e-39
1769.87 -595.41003 751.92798 9.2197031e-39
-1023.76 -958.73999 762.66302 9.2197031e-39
195.733 -818.77002 762.93799 9.2197031e-39
217.209 -810.22998 761.32501 9.2197031e-39
238.509 -810.19995 761.97302 9.2197031e-39
259.81 -809.98999 762.57397 9.2197031e-39
281.10999 -809.60999 763.12598 9.2197031e-39
302.35901 -807.10999 763.11499 9.2197031e-39
323.69901 -808.30005 764.08801 9.2197031e-39
344.82001 -803.51001 763.46399 9.2197031e-39
2454.8 -580.38 769.00598 9.2197031e-39
2481.21 -568.22998 766.586 9.2197031e-39
2521.9199 -569.15002 768.08301 9.2197031e-39
2544.74 -553.01001 764.48901 9.2197031e-39
2581.3 -549.08997 764.57098 9.2197031e-39
-818.172 -983.76001 775.64899 9.2197031e-39
-787.96899 -974.42004 774.09497 9.2197031e-39
498.59299 -841.97998 778.435 9.2197031e-39
1765.34 -671.69995 772.09601 9.2197031e-39
2387.6799 -627.68005 779.53003 9.2197031e-39
2408.0901 -610.05005 775.466 9.2197031e-39
2426.95 -590.87 770.94299 9.2197031e-39
-986.08099 -1053.8 789.12701 9.2197031e-39
-950.36102 -1037.35 785.84601 9.2197031e-39
-895.00598 -1037.13 787.49298 9.2197031e-39
-915.42902 -1021.39 782.672 9.2197031e-39
-778.54797 -1016.3101 785.53497 9.2197031e-39
478.47501 -859.57996 782.50201 9.2197031e-39
2369.8301 -647.93994 784.375 9.2197031e-39
-1057.8 -1083.74 794.88702 9.2197031e-39
-1019.64 -1064.58 790.96301 9.2197031e-39
-743.90698 -1063.76 799.22998 9.2197031e-39
-875.53699 -1055.42 792.95801 9.2197031e-39
-758.58801 -1032.83 790.54498 9.2197031e-39
615.51398 -888.30005 794.362 9.2197031e-39
636.76099 -880.13 792.84302 9.2197031e-39
1773.5 -771.23999 798.84198 9.2197031e-39
1790.16 -751.63 794.13397 9.2197031e-39
2343.5601 -698.78003 797.09998 9.2197031e-39
2357.8501 -674.44995 791.06299 9.2197031e-39
-1203.62 -1135.22 804.104 9.2197031e-39
-1169.4 -1128.15 803.27502 9.2197031e-39
-1134.97 -1119.84 802.12299 9.2197031e-39
-700.64502 -1090.66 807.71997 9.2197031e-39
-723.37 -1080.03 804.19202 9.2197031e-39
1607.42 -830.51001 809.50702 9.2197031e-39
-688.336 -1131.4 818.94299 9.2197031e-39
2344.8701 -781.34998 819.11798 9.2197031e-39
-645.67499 -1163.89 828.90601 9.2197031e-39
-671.00598 -1159.23 826.88599 9.2197031e-39
-351.185 -1132.41 829.58899 9.2197031e-39
-450.89301 -1124.58 824.43597 9.2197031e-39
-426.54001 -1129.22 826.41998 9.2197031e-39
-399.42899 -1122.33 825.42102 9.2197031e-39
-375.32999 -1127.47 827.53101 9.2197031e-39
143.27 -1071.01 828.46301 9.2197031e-39
838.95203 -962.97998 821.11902 9.2197031e-39
863.5 -965.19995 822.46503 9.2197031e-39
886.69897 -961.57996 822.21399 9.2197031e-39
911.61902 -964.29004 823.70398 9.2197031e-39
959.37701 -960.66003 824.20801 9.2197031e-39
984.245 -961.78003 825.27002 9.2197031e-39
1009.75 -964.51001 826.78302 9.2197031e-39
1134.04 -960.87 829.63898 9.2197031e-39
934.33197 -958.39001 822.83197 9.2197031e-39
1032.1801 -956.85999 825.43597 9.2197031e-39
1057.52 -958.21997 826.578 9.2197031e-39
1082.33 -957.51001 827.15198 9.2197031e-39
1207.46 -951.42004 829.38202 9.2197031e-39
-629.15698 -1196.1 837.98798 9.2197031e-39
-303.33801 -1144.52 834.28497 9.2197031e-39
-252.937 -1143.45 835.54999 9.2197031e-39
-227.64 -1141.63 835.84399 9.2197031e-39
-203.362 -1145.3199 837.57397 9.2197031e-39
-179.05 -1148.8 839.25 9.2197031e-39
-326.38901 -1134.3 830.85498 9.2197031e-39
-277.19299 -1139.34 833.71002 9.2197031e-39
1110.34 -965.71997 830.19897 9.2197031e-39
1159.71 -961.28003 830.53601 9.2197031e-39
1185.8101 -962.33997 831.62299 9.2197031e-39
1266.4399 -968.52002 835.75 9.2197031e-39
1344.2 -963.44995 836.79102 9.2197031e-39
1236.48 -959.21997 832.35199 9.2197031e-39
1289.21 -959.63 834.08197 9.2197031e-39
1392.79 -951.19995 835.026 9.2197031e-39
1504.9301 -954.39001 839.32703 9.2197031e-39
1418.7 -948.25 835.039 9.2197031e-39
1553.73 -939.25 836.79999 9.2197031e-39
-530.26898 -1225 848.72302 9.2197031e-39
-607.83197 -1214.3101 843.49103 9.2197031e-39
-155.412 -1156.87 842.125 9.2197031e-39
382.694 -1122.71 849.591 9.2197031e-39
1379.61 -982.18005 842.86798 9.2197031e-39
-1340.79 -1328.49 851.32599 9.2197031e-39
-592.90503 -1254.7 854.70001 9.2197031e-39
1340.04 -1016.45 850.77197 9.2197031e-39
-571.38702 -1274.52 860.638 9.2197031e-39
-146.782 -1274.05 873.58099 9.2197031e-39
85.956001 -1246.9 873.51501 9.2197031e-39
857.32898 -1149 871.19702 9.2197031e-39
109.865 -1275.9301 881.98102 9.2197031e-39
415.582 -1264.92 888.45697 9.2197031e-39
439.57501 -1242.9301 883.34302 9.2197031e-39
-141.14999 -1430.6201 915.42798 9.2197031e-39
-114.607 -1436.4299 917.79199 9.2197031e-39
-87.557999 -1438.1699 919.08899 9.2197031e-39
629.49902 -1328.23 911.89099 9.2197031e-39
-61.480999 -1449.3101 922.85602 9.2197031e-39
-33.616501 -1442.8999 922.00702 9.2197031e-39
-6.3710999 -1442.03 922.61401 9.2197031e-39
1757.77 -1265.52 929.92401 9.2197031e-39
619.02899 -1456.1699 945.625 9.2197031e-39
2064.71 -1323.34 954.75897 9.2197031e-39
-619.091 -1653.8101 960.12701 9.2197031e-39
2113.3999 -1342.78 961.43298 9.2197031e-39
2879.3101 -1322.91 979.716 9.2197031e-39
-1721.47 -1946.46 1004.1 9.2197031e-39
817.09003 -1803.05 1044.05 9.2197031e-39
847.71301 -1799.76 1044.12 9.2197031e-39
517.90302 -1912.1599 1063.89 9.2197031e-39
550.00897 -1919.1001 1066.72 9.2197031e-39
644.99902 -1919.05 1069.63 9.2197031e-39
901.18103 -1916.75 1076.9 9.2197031e-39
934.18799 -1919.3601 1078.62 9.2197031e-39
998.44598 -1914.26 1079.23 9.2197031e-39
739.27502 -1909.8601 1070.09 9.2197031e-39
967.49298 -1922.6299 1080.51 9.2197031e-39
2139.77 -1901.51 1110.97 9.2197031e-39
2180.01 -1901.23 1112.13 9.2197031e-39
2260.4099 -1898.5801 1113.9 9.2197031e-39
2300.0701 -1895.3799 1114.27 9.2197031e-39
2340.8301 -1893.4299 1115 9.2197031e-39
2379.1499 -1886.9199 1114.45 9.2197031e-39
