# .PCD v0.7 - Point Cloud Data file format
VERSION 0.7
FIELDS x y z rgb
SIZE 4 4 4 4
TYPE F F F F
COUNT 1 1 1 1
WIDTH 324
HEIGHT 1
VIEWPOINT 0 0 0 1 0 0 0
POINTS 324
DATA ascii
-20.052401 -2101.49 133.884 9.2197031e-39
-3.7230699 -2109.4199 138.739 9.2197031e-39
622.255 -1000.72 139.59 9.2197031e-39
619.763 -990.33997 137.645 9.2197031e-39
948.18201 -421.89001 139.826 9.2197031e-39
951.06897 -411.21997 139.101 9.2197031e-39
953.49103 -396 137.672 9.2197031e-39
1094.2266 -156.76233 139.17799 9.2197031e-39
1100.86 -150.08899 139.853 9.2197031e-39
1101.79 -144.50098 139.338 9.2197031e-39
1104.89 -135.59698 138.89301 9.2197031e-39
2930.1599 3151.78 134.21899 9.2197031e-39
629.19098 -1002.08 141.388 9.2197031e-39
648.64203 -979.43994 142.964 9.2197031e-39
734.12598 -822.06006 142.29601 9.2197031e-39
778.70697 -752.53003 143.593 9.2197031e-39
799.229 -700.29004 141.537 9.2197031e-39
817.05499 -681.05005 143.179 9.2197031e-39
859.80798 -596.15002 142.033 9.2197031e-39
886.612 -543.52002 141.392 9.2197031e-39
932.79602 -470.54004 142.612 9.2197031e-39
945.185 -442.07996 141.77499 9.2197031e-39
954.474 -422.57001 141.3855 9.2197031e-39
972.88898 -423.96997 145.87199 9.2197031e-39
960.07202 -412.31995 141.35001 9.2197031e-39
976.93201 -416.62799 145.85402 9.2197031e-39
983.31201 -410.67004 146.563 9.2197031e-39
967.07825 -402.45999 141.69299 9.2197031e-39
972.15552 -407.17999 143.49925 9.2197031e-39
983.841 -407.71503 146.3 9.2197031e-39
968.14099 -399.14001 141.507 9.2197031e-39
972.76898 -399.38 142.619 9.2197031e-39
1111.4299 -196.83099 148.4525 9.2197031e-39
1117.3633 -185.46635 148.34868 9.2197031e-39
1122.98 -184.72198 149.563 9.2197031e-39
1099.22 -171.04303 142.217 9.2197031e-39
1106.85 -171.55499 144.067 9.2197031e-39
1119.13 -171.724 146.959 9.2197031e-39
1125.615 -173.37375 148.69 9.2197031e-39
1098.52 -161.06097 140.745 9.2197031e-39
1104.7067 -167.11366 142.98383 9.2197031e-39
1114.97 -167.82349 145.47549 9.2197031e-39
1125.0439 -162.79161 147.16899 9.2197031e-39
1132.22 -165.65198 149.22 9.2197031e-39
1099.15 -156.39203 140.27901 9.2197031e-39
1105.9399 -154.60725 141.63174 9.2197031e-39
2929.4199 3085.51 142.737 9.2197031e-39
793.48901 -775.46997 150.056 9.2197031e-39
802.64203 -765.18005 150.84599 9.2197031e-39
833.33899 -723.52002 152.554 9.2197031e-39
1127.7 -182.79999 150.41499 9.2197031e-39
2926.8899 2953.75 159.427 9.2197031e-39
2927.5701 3016.0901 151.408 9.2197031e-39
2927.6699 2892.54 167.636 9.2197031e-39
2928.8601 2836.6001 175.252 9.2197031e-39
2931.0601 2780.8799 183.073 9.2197031e-39
2936.1499 2677.51 197.819 9.2197031e-39
2936.05 2733.73 190.424 9.2197031e-39
2936.4299 2625.6401 204.688 9.2197031e-39
2933.1299 2517.55 218.095 9.2197031e-39
2936.04 2571.5 211.698 9.2197031e-39
2939.79 2476.1001 225.08701 9.2197031e-39
738.573 -1975.76 294.64999 9.2197031e-39
753.48602 -1977.7 298.388 9.2197031e-39
759.94501 -2034.6001 307.36099 9.2197031e-39
767.71698 -2094.53 317.03699 9.2197031e-39
1344.85 -1076.36 318.34799 9.2197031e-39
782.79102 -2097.0701 320.892 9.2197031e-39
814.95898 -2090.95 327.60599 9.2197031e-39
799.797 -2089.6699 323.89499 9.2197031e-39
1337.13 -1142.75 325.25101 9.2197031e-39
1341.67 -1131.26 324.806 9.2197031e-39
1342.05 -1110.84 322.216 9.2197031e-39
1345.8 -1098.48 321.47101 9.2197031e-39
1359.72 -1091.02 323.745 9.2197031e-39
1379.12 -1095.8 328.905 9.2197031e-39
1366.26 -1086.83 324.724 9.2197031e-39
1383.64 -1087.02 328.81 9.2197031e-39
830.901 -2092.1499 331.48801 9.2197031e-39
846.091 -2093.1599 335.17001 9.2197031e-39
862.05902 -2094.0801 339.021 9.2197031e-39
1331.72 -1256.39 338.89301 9.2197031e-39
1334.0601 -1235.65 336.71799 9.2197031e-39
1335.83 -1212.9399 334.15302 9.2197031e-39
1337.17 -1191.37 331.63599 9.2197031e-39
1342.28 -1179.8101 331.315 9.2197031e-39
1395.0601 -1092.1801 332.155 9.2197031e-39
1405.005 -1085.35 333.582 9.2197031e-39
1418.37 -1085.39 336.70901 9.2197031e-39
1429.64 -1089.2 339.84299 9.2197031e-39
877.90997 -2085.8999 341.65201 9.2197031e-39
893.82202 -2086.53 345.452 9.2197031e-39
909.03198 -2086 348.93701 9.2197031e-39
1322.63 -1355.1 349.71399 9.2197031e-39
1327.53 -1337.95 348.60999 9.2197031e-39
1328.26 -1306.58 344.66699 9.2197031e-39
1331.62 -1286.6801 342.841 9.2197031e-39
1439.75 -1091.35 342.48801 9.2197031e-39
1445.2 -1083.73 342.763 9.2197031e-39
1453.5 -1082.27 344.51001 9.2197031e-39
1464.54 -1084.76 347.41699 9.2197031e-39
1468.54 -1075.49 347.134 9.2197031e-39
939.78003 -2095.47 357.36301 9.2197031e-39
924.90601 -2087.3401 352.82199 9.2197031e-39
1315.11 -1443.9199 359.60599 9.2197031e-39
1317.75 -1412.3101 356.077 9.2197031e-39
1319.92 -1382.8101 352.715 9.2197031e-39
1483.58 -1084.51 351.83099 9.2197031e-39
1488.98 -1077.64 352.19299 9.2197031e-39
1494.66 -1070.51 352.58401 9.2197031e-39
1505.55 -1072.6801 355.414 9.2197031e-39
1516.87 -1074.47 358.29501 9.2197031e-39
1523.17 -1069.01 359.04999 9.2197031e-39
956.04401 -2086.6001 360.00101 9.2197031e-39
971.21503 -2086.53 363.53601 9.2197031e-39
987.15302 -2086.3101 367.23099 9.2197031e-39
1312.49 -1522.45 369.29401 9.2197031e-39
1313.42 -1479.25 363.845 9.2197031e-39
1535.11 -1071.38 362.15201 9.2197031e-39
1547.34 -1074.65 365.43799 9.2197031e-39
1553.97 -1068.6899 366.20499 9.2197031e-39
1564.1 -1068.51 368.54599 9.2197031e-39
1002.3 -2094.8899 371.896 9.2197031e-39
1018.27 -2085.46 374.39001 9.2197031e-39
1033.46 -2085.8401 377.98801 9.2197031e-39
1307.7 -1603.22 378.76901 9.2197031e-39
1309.35 -1556.97 373.09 9.2197031e-39
1576.3 -1070.33 371.63501 9.2197031e-39
1587.09 -1070.67 374.203 9.2197031e-39
1593.67 -1064.37 374.91299 9.2197031e-39
1608.6 -1069.9301 379.13101 9.2197031e-39
1049.58 -2092.98 382.69299 9.2197031e-39
1064.83 -2092.0901 386.138 9.2197031e-39
1080.48 -2082.1101 388.48599 9.2197031e-39
1305.22 -1646.53 383.86899 9.2197031e-39
1632.0699 -1070.95 384.75 9.2197031e-39
1645.28 -1072.62 388.05399 9.2197031e-39
1618.71 -1068.0601 381.24799 9.2197031e-39
1653.34 -1068.37 389.38 9.2197031e-39
1813.73 -752.93994 385.48599 9.2197031e-39
1809.6 -740.93005 382.94501 9.2197031e-39
1809.71 -731.08997 381.67999 9.2197031e-39
1814.5699 -724.46997 381.94901 9.2197031e-39
1818.73 -716.98999 381.939 9.2197031e-39
1825.1899 -711.19995 382.68799 9.2197031e-39
1830.9399 -704.52002 383.15701 9.2197031e-39
1830.45 -695.05005 381.79901 9.2197031e-39
1835.22 -687.85999 381.97101 9.2197031e-39
1844.08 -683.12 383.42099 9.2197031e-39
1840.92 -672.03003 381.228 9.2197031e-39
1843.58 -664.28003 380.832 9.2197031e-39
1851.61 -658.56006 381.95801 9.2197031e-39
1869.14 -657.45996 385.909 9.2197031e-39
1879.8101 -652.58997 387.763 9.2197031e-39
1096.02 -2088.8701 393.004 9.2197031e-39
1112.01 -2087.51 396.56201 9.2197031e-39
1127.22 -2086.0801 399.92899 9.2197031e-39
1311.61 -1739.24 397.52301 9.2197031e-39
1669.13 -1072.72 393.64099 9.2197031e-39
1680.97 -1072.7 396.40302 9.2197031e-39
1691.3101 -1070.01 398.46701 9.2197031e-39
1900.0699 -652.13 392.43701 9.2197031e-39
1915.21 -648.70996 395.52701 9.2197031e-39
1923.04 -642.54004 396.548 9.2197031e-39
1939.1 -639.06006 399.84201 9.2197031e-39
1939.67 -629.83997 398.76599 9.2197031e-39
1947.55 -622.93994 399.703 9.2197031e-39
1143.1899 -2084.4399 403.44501 9.2197031e-39
1158.96 -2089.6399 407.811 9.2197031e-39
1711.51 -1079.2 404.39401 9.2197031e-39
2426.99 153.746 409.85901 9.2197031e-39
2421.6899 165.96201 407.01999 9.2197031e-39
2427.71 181.082 406.444 9.2197031e-39
1174.42 -2081.8 410.396 9.2197031e-39
1190.59 -2089.6699 415.20499 9.2197031e-39
1205.53 -2077.6299 417.117 9.2197031e-39
1732.28 -1087.77 410.37 9.2197031e-39
1743.8101 -1086.29 412.87 9.2197031e-39
1753.11 -1081.48 414.41 9.2197031e-39
1763.35 -1078.3199 416.39001 9.2197031e-39
2445.6299 132.12 417.04999 9.2197031e-39
2428.25 140.98401 411.827 9.2197031e-39
2471.74 209.539 412.99701 9.2197031e-39
2959.3301 1044.957 417.35699 9.2197031e-39
2956.9299 1067.121 413.88901 9.2197031e-39
2958.6299 1093.578 410.81601 9.2197031e-39
1221.83 -2085.2 421.92001 9.2197031e-39
1237.8199 -2082.7 425.327 9.2197031e-39
1253.01 -2080.1799 428.548 9.2197031e-39
1783.3199 -1084.51 421.866 9.2197031e-39
1797.03 -1084.5 425.07001 9.2197031e-39
1811.16 -1083.95 428.29901 9.2197031e-39
1923.87 -830.32996 421.371 9.2197031e-39
2463.45 69.578003 429.418 9.2197031e-39
2451.3799 79.781982 425.259 9.2197031e-39
2449.5701 93.064026 423.09399 9.2197031e-39
2443.98 104.71503 420.26099 9.2197031e-39
2452.3799 120.76901 420.117 9.2197031e-39
2957.54 948.776 429.55301 9.2197031e-39
2961.98 974.396 427.23001 9.2197031e-39
2958.97 996.68201 423.60199 9.2197031e-39
2963.6799 1023.096 421.23999 9.2197031e-39
1285.47 -2083.3899 436.55099 9.2197031e-39
1301.45 -2080.3101 439.88101 9.2197031e-39
1269.1 -2078.3799 432.07001 9.2197031e-39
1825.6801 -1084.26 431.733 9.2197031e-39
1845.48 -1088.73 436.94501 9.2197031e-39
1954.88 -909.34998 438.98099 9.2197031e-39
1962.04 -902.02002 439.69101 9.2197031e-39
1958.0601 -886.82996 436.76999 9.2197031e-39
1970.75 -883.07996 439.24301 9.2197031e-39
1969.78 -870.04004 437.306 9.2197031e-39
2479.8201 46.304016 436.29599 9.2197031e-39
2483.23 60.267029 435.26001 9.2197031e-39
2963.0801 882.78003 439.50299 9.2197031e-39
2961.03 904.83997 436.129 9.2197031e-39
2960.0601 926.62299 433.047 9.2197031e-39
1334.5 -2084.55 448.159 9.2197031e-39
1316.8101 -2078.21 443.19501 9.2197031e-39
1865.77 -1093.96 442.37201 9.2197031e-39
1883.0601 -1095.1801 446.57101 9.2197031e-39
1956.16 -923.04004 441.07501 9.2197031e-39
2471.73 -61.744019 448.577 9.2197031e-39
2475.1299 -48.375977 447.61801 9.2197031e-39
2958.3401 813.75299 447.44901 9.2197031e-39
2956.5801 834.26404 444.34698 9.2197031e-39
2956.74 857.138 441.384 9.2197031e-39
1349.73 -2081.1899 451.27899 9.2197031e-39
1365.52 -2076.5601 454.35999 9.2197031e-39
1900.09 -1096.55 450.729 9.2197031e-39
1916.85 -1096.62 454.65601 9.2197031e-39
1976.55 -1017.36 458.20999 9.2197031e-39
2469.48 -140.539 458.38599 9.2197031e-39
2472.5901 -127.52002 457.405 9.2197031e-39
2479.4299 -113.388 457.14899 9.2197031e-39
2479.3999 -100.56097 455.45901 9.2197031e-39
2477.26 -87.330017 453.22299 9.2197031e-39
2474.1001 -74.901001 450.85501 9.2197031e-39
2496.6899 -31.341003 450.42099 9.2197031e-39
2958.8899 727.73602 458.858 9.2197031e-39
2958.8501 748.49097 456.12601 9.2197031e-39
2958.1799 770.14697 453.13101 9.2197031e-39
2958.5901 791.495 450.42599 9.2197031e-39
1948.49 -1110.4 463.85699 9.2197031e-39
1987.95 -1011.8101 460.14499 9.2197031e-39
2029.58 -986.82996 466.59698 9.2197031e-39
2497.03 -164.59399 467.97699 9.2197031e-39
2474.0801 -153.51001 461.16101 9.2197031e-39
2587.6599 -2.7479858 467.92599 9.2197031e-39
2956.75 663.32001 466.80701 9.2197031e-39
2957.8501 685.14062 464.203 9.2197031e-39
2958.23 705.75989 461.58701 9.2197031e-39
1981.55 -1123.87 473.34799 9.2197031e-39
2001.36 -1125.9 478.242 9.2197031e-39
2019.48 -1064.7 474.448 9.2197031e-39
2517.3401 -189.98199 476.05301 9.2197031e-39
2516.99 -176.91602 474.25699 9.2197031e-39
2960.27 583.34332 478.12 9.2197031e-39
2962.22 604.90668 475.746 9.2197031e-39
2962.49 624.89417 473.189 9.2197031e-39
2964 646.62262 470.69199 9.2197031e-39
2012.78 -1119.71 480.10001 9.2197031e-39
2947.3301 479.85999 488.66901 9.2197031e-39
2959.8 503.73901 488.45001 9.2197031e-39
2961.6499 524.63159 486.142 9.2197031e-39
2963.6101 544.76318 483.95901 9.2197031e-39
2957.79 562.71692 480.24399 9.2197031e-39
2074.1899 -1139.11 496.99301 9.2197031e-39
2086.21 -1133.24 499.03101 9.2197031e-39
2489.5 -416.53003 499.26199 9.2197031e-39
2757.6599 89.828979 495.50601 9.2197031e-39
2964.6201 428.04102 499.505 9.2197031e-39
2958.9199 445.65198 495.862 9.2197031e-39
2963.49 466.18799 494.23599 9.2197031e-39
2080.3899 -1160.75 501.27802 9.2197031e-39
2511.1299 -459.15002 509.90399 9.2197031e-39
2516.8799 -446.51001 509.59 9.2197031e-39
2504.27 -431.17004 504.63199 9.2197031e-39
2502.72 -404.02002 500.70999 9.2197031e-39
2508.03 -391.33002 500.285 9.2197031e-39
2522.02 -378.52399 501.875 9.2197031e-39
2551.3799 -367.10901 507.23801 9.2197031e-39
2941.74 382.16299 500.17499 9.2197031e-39
2960.6101 407.98999 501.19699 9.2197031e-39
2518.9399 -501.84998 517.32898 9.2197031e-39
2515.54 -487.18994 514.61298 9.2197031e-39
2516.71 -473.92004 513.146 9.2197031e-39
2446.1299 -708.59998 527.43298 9.2197031e-39
2457.72 -697.55005 528.69202 9.2197031e-39
2535.96 -532.55005 525.33301 9.2197031e-39
2524.24 -516.22998 520.45398 9.2197031e-39
2472.51 -730.71997 536.5 9.2197031e-39
2471.8301 -687.77002 530.70697 9.2197031e-39
2484.22 -676.60999 532.138 9.2197031e-39
2559.03 -565.22998 535.00897 9.2197031e-39
2547.6499 -548.43005 530.14697 9.2197031e-39
2960.6101 78.788025 544.37402 9.2197031e-39
2964.8401 96.888 542.98901 9.2197031e-39
2962.05 114.60101 540.013 9.2197031e-39
2502.1101 -815.46997 554.53003 9.2197031e-39
2515.4299 -804.58997 556.216 9.2197031e-39
2542.5601 -768.30005 557.79602 9.2197031e-39
2600.52 -677.85999 559.47601 9.2197031e-39
2601.4399 -663.23999 557.77399 9.2197031e-39
2607.1299 -649.05005 557.242 9.2197031e-39
2552.22 -802.37 564.52002 9.2197031e-39
2552.6399 -786.60999 562.55298 9.2197031e-39
2596.46 -692.45996 560.44299 9.2197031e-39
2631.4099 -639.79004 561.70099 9.2197031e-39
2670.98 -632.70996 570.01801 9.2197031e-39
2715.8101 -610.43994 577.57202 9.2197031e-39
2954.97 -184.12 577.53802 9.2197031e-39
2893.3799 -371.03802 587.66302 9.2197031e-39
2960.8799 -235.47302 585.65503 9.2197031e-39
2961.01 -218.54797 583.46399 9.2197031e-39
2961.96 -200.73901 581.34998 9.2197031e-39
2759.74 -635.94995 591.18103 9.2197031e-39
2968.72 -322.95398 598.95898 9.2197031e-39
2969.6101 -305.07703 596.82397 9.2197031e-39
2970.3201 -288.05701 594.75598 9.2197031e-39
2961.1699 -270.18201 590.27399 9.2197031e-39
2971.3201 -253.15503 590.41302 9.2197031e-39
2966.52 -357.83502 603.021 9.2197031e-39
2967.72 -339.96698 600.95801 9.2197031e-39
