# .PCD v0.7 - Point Cloud Data file format
VERSION 0.7
FIELDS x y z rgb
SIZE 4 4 4 4
TYPE F F F F
COUNT 1 1 1 1
WIDTH 330
HEIGHT 1
VIEWPOINT 0 0 0 1 0 0 0
POINTS 330
DATA ascii
2929.0701 251.79199 133.42 9.2197031e-39
2934.21 261.681 136.36 9.2197031e-39
2925.5601 271.16599 138.09599 9.2197031e-39
1797.74 626.914 139.067 9.2197031e-39
1807.28 625.96729 139.58649 9.2197031e-39
1812.09 624.44318 139.58099 9.2197031e-39
-1758.78 1725.37 136.15199 9.2197031e-39
2929.54 281.327 141.01199 9.2197031e-39
2931.3 287.66299 142.774 9.2197031e-39
2920.6001 301.76401 145.52699 9.2197031e-39
2786.73 343.21799 145.44501 9.2197031e-39
2617.22 394.862 145.12399 9.2197031e-39
2548.29 416.12299 145.06 9.2197031e-39
2505.9399 432.70099 145.92 9.2197031e-39
2446.26 449.88599 145.552 9.2197031e-39
2427.8501 459.44598 146.52699 9.2197031e-39
2414.78 465.41901 147.01199 9.2197031e-39
2402.02 473.16699 147.976 9.2197031e-39
2365.25 483.19299 147.605 9.2197031e-39
2312.3201 499.772 147.621 9.2197031e-39
2343.4099 491.763 148.054 9.2197031e-39
2271.5 510.41 147.084 9.2197031e-39
2192.8101 524.7251 144.464 9.2197031e-39
2132.28 539.58478 143.433 9.2197031e-39
2144.8999 535.73743 143.45599 9.2197031e-39
2173.4099 530.28638 144.338 9.2197031e-39
2071.0801 549.64368 141.121 9.2197031e-39
2102.6699 544.40613 142.30299 9.2197031e-39
2068.8799 553.7583 141.99776 9.2197031e-39
2075.0999 554.60999 142.71266 9.2197031e-39
2081.6001 559.01465 144.358 9.2197031e-39
2133.47 559.81018 148.702 9.2197031e-39
1794.54 635.39478 140.981 9.2197031e-39
1804.6224 635.82745 141.897 9.2197031e-39
1812.7666 637.1897 142.89566 9.2197031e-39
1792.66 643.11218 142.806 9.2197031e-39
1807.66 646.43683 144.853 9.2197031e-39
1814.3151 643.69562 144.68324 9.2197031e-39
1837.41 648.85388 147.84599 9.2197031e-39
1798.13 657.18652 146.842 9.2197031e-39
1806.04 654.08221 146.67926 9.2197031e-39
1815.02 656.89252 148.11501 9.2197031e-39
1824.0349 656.64575 148.77124 9.2197031e-39
1838.9 650.4519 148.37399 9.2197031e-39
1808.77 661.31458 148.74701 9.2197031e-39
-1761.79 1752.1801 142.76801 9.2197031e-39
2154.4099 560.72021 150.606 9.2197031e-39
2175.3301 562.90521 152.834 9.2197031e-39
2184.28 564.44379 153.942 9.2197031e-39
2248.99 567.74371 159.951 9.2197031e-39
1819.78 666.38239 150.922 9.2197031e-39
1814.28 675.00519 152.689 9.2197031e-39
-1775.64 1799.76 153.83501 9.2197031e-39
2312.6799 570.81097 165.82001 9.2197031e-39
-1802.71 1835.21 160.742 9.2197031e-39
2378.24 576.59528 172.532 9.2197031e-39
-1852.27 1896.6 172.487 9.2197031e-39
2487.6001 583.10669 182.927 9.2197031e-39
-1919.9 1947.98 180.231 9.2197031e-39
2678.27 597.38708 201.799 9.2197031e-39
2900.6899 613.40723 223.651 9.2197031e-39
2936.6499 625.8811 229.711 9.2197031e-39
2952.96 633.44092 232.94701 9.2197031e-39
2957.8601 644.6875 236.215 9.2197031e-39
2970.05 652.33569 239.145 9.2197031e-39
2965.8201 663.0166 241.53799 9.2197031e-39
2968.95 670.02893 243.582 9.2197031e-39
2977.8799 685.55762 248.267 9.2197031e-39
-3529.76 2696.3799 243.16 9.2197031e-39
-5224.7202 3219.5 241.673 9.2197031e-39
2969.73 705.95221 252.83299 9.2197031e-39
2981.6399 700.71643 252.444 9.2197031e-39
2976.71 718.22498 256.52899 9.2197031e-39
2975.51 724.91003 258.14301 9.2197031e-39
-3486.1799 2719.1799 252.47 9.2197031e-39
-5224.3501 3271.24 254.938 9.2197031e-39
2982.25 737.39697 261.875 9.2197031e-39
2981.8999 744.28699 263.60901 9.2197031e-39
2978.6201 755.21204 266.14301 9.2197031e-39
2976.2 761.729 267.616 9.2197031e-39
2982.46 774.52802 271.39001 9.2197031e-39
2977.97 780.65302 272.59698 9.2197031e-39
2983.01 793.41101 276.26401 9.2197031e-39
2989.04 801.88403 278.91199 9.2197031e-39
2998.6299 816.034 283.297 9.2197031e-39
3016.98 827.78302 287.767 9.2197031e-39
3007.02 837.56104 289.47299 9.2197031e-39
3009.8 845.70398 291.77802 9.2197031e-39
3004.45 856.59802 294.13699 9.2197031e-39
3011.8401 866.14099 297.168 9.2197031e-39
3008.1699 877.58099 299.80099 9.2197031e-39
3007.78 885.04901 301.67999 9.2197031e-39
3002.01 895.86304 303.98599 9.2197031e-39
3001.49 903.32703 305.853 9.2197031e-39
3006.79 917.75201 309.96701 9.2197031e-39
3002.3701 924.021 311.21701 9.2197031e-39
2998.05 935.36902 313.77499 9.2197031e-39
3003.75 945.19299 316.74301 9.2197031e-39
-5225.21 3497.95 312.85901 9.2197031e-39
3008.46 959.96704 320.89801 9.2197031e-39
3006.55 967.22803 322.60199 9.2197031e-39
3001.75 978.62701 325.134 9.2197031e-39
2997.8601 985.13696 326.48999 9.2197031e-39
-5230.1099 3553.3 326.625 9.2197031e-39
2999.79 1007.426 332.345 9.2197031e-39
3012.04 1004.266 332.51401 9.2197031e-39
2999.4399 1029.134 337.86899 9.2197031e-39
3002.7 1022.251 336.36801 9.2197031e-39
3002.03 1044.098 341.90302 9.2197031e-39
2996.8301 1050.161 343.039 9.2197031e-39
3002.6799 1066.913 347.79099 9.2197031e-39
2998.23 1073.377 349.08899 9.2197031e-39
-5217.9902 3636.8899 348.974 9.2197031e-39
3001.95 1089.4761 353.504 9.2197031e-39
2997.3601 1095.923 354.78699 9.2197031e-39
2999.8701 1111.734 359.03101 9.2197031e-39
2996 1118.609 360.48099 9.2197031e-39
2999.03 1135.022 364.92099 9.2197031e-39
3002.77 1146.119 368.05801 9.2197031e-39
2996.8301 1157.984 370.61899 9.2197031e-39
2999.48 1168.718 373.57599 9.2197031e-39
2992.4299 1180.074 375.91699 9.2197031e-39
2996.55 1191.895 379.26999 9.2197031e-39
2995.1101 1206.777 382.96201 9.2197031e-39
2990.6001 1213.6321 384.35501 9.2197031e-39
2999.6299 1235.3411 390.629 9.2197031e-39
2994.1001 1241.7009 391.814 9.2197031e-39
2993.6101 1257.8369 395.90201 9.2197031e-39
2996.9099 1270.103 399.30301 9.2197031e-39
2996.01 1286.3989 403.39899 9.2197031e-39
2990.96 1293.2681 404.754 9.2197031e-39
2990.51 1310.193 409.047 9.2197031e-39
2991.6599 1321.584 412.052 9.2197031e-39
2996.3101 1342.7009 417.82401 9.2197031e-39
2992.45 1350.744 419.57401 9.2197031e-39
2605.95 1441.298 411.88599 9.2197031e-39
2605.1799 1452.652 414.728 9.2197031e-39
2629.6399 1451.512 416.38901 9.2197031e-39
2991.1399 1367.9651 423.87399 9.2197031e-39
2990.95 1378.9861 426.67801 9.2197031e-39
2652.6299 1468.1909 422.48999 9.2197031e-39
2677.55 1478.415 427.09399 9.2197031e-39
548.44202 2134.3999 424.93799 9.2197031e-39
2989.99 1396.9341 431.19199 9.2197031e-39
2990.29 1408.652 434.21301 9.2197031e-39
2702.96 1496.7319 433.80801 9.2197031e-39
478.82999 2178.1201 430.565 9.2197031e-39
2994.9099 1431.683 440.47299 9.2197031e-39
2994.8899 1443.541 443.505 9.2197031e-39
2986.25 1456.152 446.04099 9.2197031e-39
2985.97 1468.0601 449.065 9.2197031e-39
2988.76 1490.8989 455.129 9.2197031e-39
2988.8799 1503.5759 458.38101 9.2197031e-39
2985.29 1521.4299 462.66101 9.2197031e-39
2985.0901 1534.2009 465.91199 9.2197031e-39
2786.1299 1574.422 460.319 9.2197031e-39
2800.01 1576.936 462.069 9.2197031e-39
2716.54 1624.4399 467.55899 9.2197031e-39
2986.71 1557.489 471.99701 9.2197031e-39
2986.8601 1571.056 475.48001 9.2197031e-39
2987.8401 1594.5869 481.577 9.2197031e-39
2987.6201 1608.286 485.06299 9.2197031e-39
2877.98 1643.53 485.327 9.2197031e-39
2984.2549 1635.4751 491.74899 9.2197031e-39
2911.8101 1667.13 494.064 9.2197031e-39
2981.6699 1664.21 498.89301 9.2197031e-39
2638.5601 1772.2 499.12799 9.2197031e-39
2952.3701 1687.45 502.49701 9.2197031e-39
2962.71 1683.62 502.34601 9.2197031e-39
2988.71 1686.61 505.185 9.2197031e-39
2814.2 1773.76 513.54602 9.2197031e-39
-491.931 2830.51 519.94897 9.2197031e-39
2698.8999 1842.48 521.91998 9.2197031e-39
2840.8601 1840.11 532.64697 9.2197031e-39
2848.21 1869.0601 540.638 9.2197031e-39
2721.8201 1936.24 547.73199 9.2197031e-39
-438.26999 2906.98 543.79401 9.2197031e-39
-502.384 2919.53 541.88599 9.2197031e-39
-428.98199 2928.1201 549.94098 9.2197031e-39
2857.4299 1914.11 552.89502 9.2197031e-39
-395.26599 2944.6499 556.86102 9.2197031e-39
-653.026 3033.0801 558.90503 9.2197031e-39
-391.11899 2971.3101 564.01202 9.2197031e-39
2890.3899 1982.8 573.09601 9.2197031e-39
103.745 2867.6599 577 9.2197031e-39
-378.172 3009.6399 574.849 9.2197031e-39
-361.867 3024.0601 579.83801 9.2197031e-39
109.989 2890.6899 583.388 9.2197031e-39
111.679 2940.7 596.315 9.2197031e-39
-235.985 3055.45 597.91602 9.2197031e-39
-83.073997 3047.53 608.09399 9.2197031e-39
-186.61099 3052.0901 600.99799 9.2197031e-39
-177.645 3074.3701 607.41101 9.2197031e-39
2962.6299 2127.4102 615.85199 9.2197031e-39
-138.567 3082.25 612.547 9.2197031e-39
2966.6499 2156.8999 623.71698 9.2197031e-39
2960.45 2186.8799 630.89001 9.2197031e-39
2961.6001 2213.3398 637.74902 9.2197031e-39
2958.45 2250.0898 646.89899 9.2197031e-39
2956.5601 2392.1899 683.09399 9.2197031e-39
2955.23 2419.26 689.91199 9.2197031e-39
2955.21 2469.55 702.77399 9.2197031e-39
2955.24 2501.0898 710.84399 9.2197031e-39
2952.27 2549.1802 722.90698 9.2197031e-39
2955.6599 2589.5698 733.508 9.2197031e-39
2951.02 2638 745.52698 9.2197031e-39
2947.74 2667.3701 752.77698 9.2197031e-39
1047.6899 3276.1699 756.83502 9.2197031e-39
1021.41 3294.8899 759.52502 9.2197031e-39
2944.8401 2723.05 766.78699 9.2197031e-39
1077.3101 3286.6599 761.88202 9.2197031e-39
2943 2757.8401 775.53998 9.2197031e-39
1075.85 3356.1201 779.534 9.2197031e-39
1106.13 3367.24 784.79401 9.2197031e-39
2941.8101 2821.79 791.80298 9.2197031e-39
2937.6299 2854.1499 799.745 9.2197031e-39
2935.54 2921.1399 816.71301 9.2197031e-39
2933.1899 2960.79 826.66803 9.2197031e-39
1082.86 3518.3999 821.59998 9.2197031e-39
2930.3401 3031.75 844.59003 9.2197031e-39
2871.6201 3063.6201 848.05499 9.2197031e-39
2827.8799 3084.5601 849.91901 9.2197031e-39
855.073 3678.22 844.29901 9.2197031e-39
2928.4199 3076.1101 855.78497 9.2197031e-39
2847.3501 3084.8101 851.539 9.2197031e-39
1084.35 3640.3601 852.91699 9.2197031e-39
818.82001 3714.98 850.80701 9.2197031e-39
-411.15601 4104.9102 852.36902 9.2197031e-39
-481.686 4127.21 852.44202 9.2197031e-39
1089.88 3701.8401 869.08301 9.2197031e-39
-339.01099 4128.8203 864.242 9.2197031e-39
-397.67999 4135.0601 861.15503 9.2197031e-39
-311.979 4137.8101 868.70001 9.2197031e-39
2924.5701 3151.0701 874.65002 9.2197031e-39
-220.214 4127.7998 873.46399 9.2197031e-39
-259.98001 4140.4297 873.521 9.2197031e-39
-174.673 4139.4297 880.073 9.2197031e-39
-144.765 4142.1602 883.15997 9.2197031e-39
-96.323097 4147.75 888.45599 9.2197031e-39
-894.64398 4387.77 886.12598 9.2197031e-39
-857.42102 4389.3203 889.49597 9.2197031e-39
-963.48401 4393.9199 882.20398 9.2197031e-39
-66.052803 4149.0303 891.20001 9.2197031e-39
-757.45599 4389.5801 897.54102 9.2197031e-39
-799.573 4396.0898 895.84302 9.2197031e-39
-689.914 4380.4102 900.58502 9.2197031e-39
2877.6001 3322.8799 914.84802 9.2197031e-39
1078.45 3890.26 916.36603 9.2197031e-39
2865.52 3349.3701 920.65802 9.2197031e-39
2835.8799 3365.1599 922.33301 9.2197031e-39
2684.1001 3414.77 922.90503 9.2197031e-39
2719.1899 3417.24 926.33698 9.2197031e-39
2738.8501 3412.71 926.75 9.2197031e-39
2774.3999 3415.47 930.29303 9.2197031e-39
2795.47 3415.21 931.90802 9.2197031e-39
2830.6899 3415.46 934.784 9.2197031e-39
1074.62 4000.2 944.18103 9.2197031e-39
-118.948 4399.5303 951.052 9.2197031e-39
-156.34399 4408.4102 950.33698 9.2197031e-39
-70.900398 4409.73 957.49597 9.2197031e-39
-33.8736 4400.1201 957.99402 9.2197031e-39
12.2528 4412.8501 964.93103 9.2197031e-39
44.591801 4411.3398 967.12598 9.2197031e-39
98.766899 4406.3604 970.17499 9.2197031e-39
127.916 4410.4102 973.53802 9.2197031e-39
176.78 4415.0601 978.63 9.2197031e-39
2721.9199 3643.54 984.44098 9.2197031e-39
2690.6799 3666.4299 987.80103 9.2197031e-39
208.67799 4412.2998 980.46899 9.2197031e-39
287.85501 4415.3398 987.565 9.2197031e-39
254.99001 4421.3999 986.49298 9.2197031e-39
1069.54 4190.3501 992.41101 9.2197031e-39
337.444 4415.3999 991.539 9.2197031e-39
365.55899 4419.5801 994.854 9.2197031e-39
414.91699 4418.71 998.57202 9.2197031e-39
442.965 4422.3701 1001.75 9.2197031e-39
483.16299 4444.4102 1010.59 9.2197031e-39
2699.6101 3798.52 1022.3 9.2197031e-39
1061.27 4336.7598 1029.2 9.2197031e-39
498.50699 4482.4902 1021.56 9.2197031e-39
1078.6801 4457.21 1061.4 9.2197031e-39
1101.09 4480.1797 1069.0699 9.2197031e-39
1144.78 4487.9199 1074.53 9.2197031e-39
1171.26 4492.3701 1077.78 9.2197031e-39
1320.14 4463.21 1082.21 9.2197031e-39
1217.02 4488.8301 1080.53 9.2197031e-39
1243.34 4493.7803 1083.9 9.2197031e-39
1288.47 4492.3301 1087.13 9.2197031e-39
1358.33 4505.1797 1095.99 9.2197031e-39
1412.11 4645.02 1136.05 9.2197031e-39
1361.36 4677.6797 1140.36 9.2197031e-39
2710.26 4333.04 1159.87 9.2197031e-39
2754.3999 4332.2998 1163.21 9.2197031e-39
2781.9099 4334.9697 1166.08 9.2197031e-39
2686.1299 4345.9902 1161.26 9.2197031e-39
2279.5601 4475.98 1162.0601 9.2197031e-39
2306.0801 4473.1797 1163.46 9.2197031e-39
2353.97 4506.6499 1175.84 9.2197031e-39
2381.9099 4513.9297 1179.9301 9.2197031e-39
2662.1101 4453.3203 1186.79 9.2197031e-39
2426.05 4507.1602 1181.72 9.2197031e-39
2454.0601 4513 1185.45 9.2197031e-39
2499.1499 4512.1699 1188.84 9.2197031e-39
1416.5601 4838.6899 1185.95 9.2197031e-39
2526.0801 4508.9102 1190.16 9.2197031e-39
2598.49 4505.4902 1195.0601 9.2197031e-39
2644.23 4505.9502 1198.83 9.2197031e-39
2571.8601 4511.1201 1194.37 9.2197031e-39
1398.17 5445.3701 1339.66 9.2197031e-39
1846.53 7281.4902 1845.1 9.2197031e-39
1921.66 7298.0098 1855.3199 9.2197031e-39
1967.29 7305.79 1860.95 9.2197031e-39
2165.4099 7345.8198 1887 9.2197031e-39
2043.98 7381.0698 1886.33 9.2197031e-39
2212.0601 7360.73 1894.54 9.2197031e-39
2090.54 7396.7598 1894.0601 9.2197031e-39
1796.6801 7503.5498 1897.92 9.2197031e-39
2288.6599 7365.6001 1901.9 9.2197031e-39
2336.28 7388.3799 1911.53 9.2197031e-39
2413.6599 7395.7798 1919.6 9.2197031e-39
1194.8199 7743 1911.12 9.2197031e-39
1275.03 7748.8501 1919.02 9.2197031e-39
2461.0701 7406.1499 1926.03 9.2197031e-39
1404.73 7745.8198 1928.6 9.2197031e-39
1323.6899 7751.0098 1923.46 9.2197031e-39
1453.23 7749.0801 1933.3 9.2197031e-39
1533.55 7752.2002 1940.51 9.2197031e-39
1582.17 7753.6699 1944.77 9.2197031e-39
1711.5 7747.3501 1953.48 9.2197031e-39
1662.5699 7755.4302 1951.64 9.2197031e-39
