# .PCD v0.7 - Point Cloud Data file format
VERSION 0.7
FIELDS x y z rgb
SIZE 4 4 4 4
TYPE F F F F
COUNT 1 1 1 1
WIDTH 327
HEIGHT 1
VIEWPOINT 0 0 0 1 0 0 0
POINTS 327
DATA ascii
2936.3301 283.043 134 9.2197031e-39
2939.8 291.19 136.358 9.2197031e-39
2931.6399 302.64801 138.666 9.2197031e-39
1806.6967 643.63812 139.08833 9.2197031e-39
1788.99 650.60913 139.507 9.2197031e-39
-1765.4 1701.35 134.00101 9.2197031e-39
2936.8601 310.246 141.019 9.2197031e-39
2940.0801 318.42599 143.367 9.2197031e-39
2925.8 331.10999 145.515 9.2197031e-39
2862.8301 355.53601 146.909 9.2197031e-39
2609.8701 424.08398 144.918 9.2197031e-39
2543.9299 445.19 145.23 9.2197031e-39
2490.3799 462.371 145.494 9.2197031e-39
2464.95 472.633 146.159 9.2197031e-39
2429.4099 488.79401 147.554 9.2197031e-39
2447.23 480.867 146.89999 9.2197031e-39
2396.75 499.14801 147.683 9.2197031e-39
2361.01 509.465 147.563 9.2197031e-39
2347.79 515.362 148.054 9.2197031e-39
2323.6499 522.76251 148.084 9.2197031e-39
2287.5701 531.53741 147.543 9.2197031e-39
2204.8701 546.30542 144.93201 9.2197031e-39
2157.8401 556.77191 143.97701 9.2197031e-39
2177.4299 552.26733 144.338 9.2197031e-39
2081.8799 569.96002 141.48199 9.2197031e-39
2107.5901 565.95801 142.44501 9.2197031e-39
2146.1399 560.01971 143.905 9.2197031e-39
2076.2778 576.66577 142.7692 9.2197031e-39
2083.1233 573.99353 142.61333 9.2197031e-39
2075.3899 581.12762 143.845 9.2197031e-39
2138.21 581.39569 148.77499 9.2197031e-39
1803.21 649.09326 140.218 9.2197031e-39
1802.276 654.86572 141.62639 9.2197031e-39
1815.308 655.90295 142.9012 9.2197031e-39
1820.755 652.05786 142.3365 9.2197031e-39
1808.51 668.97858 145.729 9.2197031e-39
1815.5525 665.10535 145.28024 9.2197031e-39
1809.4132 674.79645 147.29167 9.2197031e-39
1812.0934 676.70807 147.98933 9.2197031e-39
1824.8075 675.18164 148.58176 9.2197031e-39
1831.98 673.2179 148.633 9.2197031e-39
1810.04 682.69879 149.367 9.2197031e-39
-1750.12 1730.74 142.72301 9.2197031e-39
2158.1399 582.97888 150.72301 9.2197031e-39
2179.04 584.90289 152.834 9.2197031e-39
2188.96 587.05988 154.155 9.2197031e-39
1826.5934 681.57495 150.36 9.2197031e-39
-1746.01 1763.61 151.472 9.2197031e-39
2255.6399 590.50043 160.198 9.2197031e-39
2314.28 594.849 165.85201 9.2197031e-39
-1765.33 1804.3 160.41701 9.2197031e-39
-1803.15 1851.8199 169.67999 9.2197031e-39
2373.8501 600.23047 171.841 9.2197031e-39
-1831.91 1897.09 179.06799 9.2197031e-39
2480.0901 608.73499 182.244 9.2197031e-39
-1899.6801 1957.08 189.21201 9.2197031e-39
2657.76 622.88611 199.62399 9.2197031e-39
2898.75 644.0108 223.692 9.2197031e-39
2947.6699 655.67841 230.47 9.2197031e-39
2961.7 665.43091 234.058 9.2197031e-39
2966.71 674.64642 236.81 9.2197031e-39
2970.6399 683.8606 239.47701 9.2197031e-39
2978.4399 693.56689 242.571 9.2197031e-39
2972.3 701.84387 244.21899 9.2197031e-39
2978.9299 711.59711 247.23399 9.2197031e-39
2987.4199 721.73303 250.492 9.2197031e-39
2979.53 738.82898 254.26601 9.2197031e-39
2984 730.37598 252.444 9.2197031e-39
2985.78 748.91699 257.33701 9.2197031e-39
2987.02 758.31201 259.84399 9.2197031e-39
-5222.5898 3214.1201 254.543 9.2197031e-39
2984.26 767.06104 261.875 9.2197031e-39
2982.4099 775.95801 264.01401 9.2197031e-39
2988.27 786.341 267.13101 9.2197031e-39
2985.26 795.07898 269.14001 9.2197031e-39
2986.0601 804.60101 271.64499 9.2197031e-39
2993.5601 815.64099 275.056 9.2197031e-39
2988.3601 823.96204 276.789 9.2197031e-39
-5215.7998 3280.29 272.04401 9.2197031e-39
3002.3799 836.78998 281.16501 9.2197031e-39
3011.4399 848.69397 284.92001 9.2197031e-39
3018.4399 860.28302 288.435 9.2197031e-39
-5209.29 3346.8899 289.63199 9.2197031e-39
3018.6499 875.23199 292.28549 9.2197031e-39
3016.76 889.703 295.85101 9.2197031e-39
3011.8899 898.336 297.689 9.2197031e-39
3008.8501 907.48499 299.80099 9.2197031e-39
3015.1699 919.54797 303.384 9.2197031e-39
3011.9399 928.72699 305.48901 9.2197031e-39
3008.6201 937.88 307.57999 9.2197031e-39
-5211.4199 3417.24 307.51401 9.2197031e-39
3012.3599 954.61096 312.1615 9.2197031e-39
3016.77 971.85101 316.92599 9.2197031e-39
3013.0701 981.05103 318.99899 9.2197031e-39
3017.5901 993.367 322.509 9.2197031e-39
3013.6899 1002.577 324.57001 9.2197031e-39
3010.6299 1012.12 326.78101 9.2197031e-39
-5219.3101 3490.4399 325.68201 9.2197031e-39
3014.78 1024.631 330.31201 9.2197031e-39
3010.6001 1033.821 332.34601 9.2197031e-39
3007.25 1043.365 334.534 9.2197031e-39
3010.1201 1055.665 337.91199 9.2197031e-39
3005.6699 1064.819 339.91501 9.2197031e-39
3010.97 1078.4661 343.827 9.2197031e-39
3003.6399 1086.3721 345.28699 9.2197031e-39
3010.4299 1101.027 349.573 9.2197031e-39
-5211.6602 3557.8301 343.561 9.2197031e-39
3005.5701 1110.189 351.547 9.2197031e-39
3008.53 1123.292 355.13699 9.2197031e-39
3013.0801 1137.3879 359.10599 9.2197031e-39
3007.8899 1146.577 361.061 9.2197031e-39
3010.4099 1159.906 364.67599 9.2197031e-39
3005.02 1169.0759 366.61099 9.2197031e-39
2999.55 1178.2009 368.52802 9.2197031e-39
3002.52 1192.1479 372.336 9.2197031e-39
3004.47 1205.7009 375.96399 9.2197031e-39
3006.26 1219.338 379.60001 9.2197031e-39
2998.6599 1227.464 381.09601 9.2197031e-39
3002.6699 1242.73 385.323 9.2197031e-39
3003.1599 1256.027 388.77301 9.2197031e-39
3004.3301 1269.917 392.42599 9.2197031e-39
2997.1299 1278.5129 394.07401 9.2197031e-39
3006.1499 1297.921 399.75101 9.2197031e-39
2999.52 1307.072 401.58499 9.2197031e-39
3000.8501 1321.7471 405.453 9.2197031e-39
3008.3799 1341.0229 410.98099 9.2197031e-39
3001.3601 1350.199 412.79199 9.2197031e-39
3001.3601 1364.522 416.466 9.2197031e-39
3000.3999 1378.323 419.93201 9.2197031e-39
2619.0701 1457.964 410.853 9.2197031e-39
2628.8201 1454.287 410.664 9.2197031e-39
2608.72 1460.7729 410.77301 9.2197031e-39
2658.7 1475.4131 418.396 9.2197031e-39
3000.04 1392.7629 423.60901 9.2197031e-39
3001.0601 1408.459 427.71301 9.2197031e-39
2676.0601 1480.355 421.00699 9.2197031e-39
2693.5701 1485.069 423.57101 9.2197031e-39
2717.53 1496.9351 428.47 9.2197031e-39
2642.0701 1521.624 428.96399 9.2197031e-39
3000.3301 1423.0291 431.39499 9.2197031e-39
2998.6699 1437.041 434.86099 9.2197031e-39
2998.3401 1452.3301 438.758 9.2197031e-39
513.48602 2188.0801 435.211 9.2197031e-39
2997.0701 1467.0591 442.43799 9.2197031e-39
2995.6201 1481.8359 446.116 9.2197031e-39
3000.6201 1502.3989 451.77802 9.2197031e-39
2998.75 1517.3259 455.46201 9.2197031e-39
2996.6799 1532.2949 459.14301 9.2197031e-39
2813.1799 1590.5439 459.88501 9.2197031e-39
2995.1499 1547.9609 463.043 9.2197031e-39
2993.4199 1563.679 466.94101 9.2197031e-39
344.638 2347.45 463.03101 9.2197031e-39
2997.1499 1584.7949 472.647 9.2197031e-39
2994.96 1600.657 476.547 9.2197031e-39
2866.78 1633.1 474.95099 9.2197031e-39
2998.8301 1622.6899 482.49799 9.2197031e-39
3000.3201 1642.8101 487.77499 9.2197031e-39
2624.49 1738.79 483.315 9.2197031e-39
2995.3701 1656.8101 490.983 9.2197031e-39
2923.8401 1677.7 490.806 9.2197031e-39
2995 1675.7 495.79999 9.2197031e-39
2987.6599 1687.62 498.29099 9.2197031e-39
2959.4299 1697.04 498.521 9.2197031e-39
2974.21 1693.12 498.659 9.2197031e-39
2825.71 1788.36 511.60001 9.2197031e-39
2694.22 1830.37 512.203 9.2197031e-39
2677.8 1854.3 517.07001 9.2197031e-39
-468.65302 2789.46 513.48199 9.2197031e-39
2843.1299 1835.3101 524.99298 9.2197031e-39
-475.30301 2833.79 524.34003 9.2197031e-39
2830.1799 1865.2 531.659 9.2197031e-39
2845.1699 1862.11 532.02698 9.2197031e-39
-492.146 2888.6299 537.10498 9.2197031e-39
2859.49 1932.9301 551.302 9.2197031e-39
-455.436 2932.8899 551.29901 9.2197031e-39
-426.922 2944.99 556.60999 9.2197031e-39
-404.62701 2963.1399 562.992 9.2197031e-39
-393.90302 2993.2 571.534 9.2197031e-39
-369.82999 3009.6101 577.60498 9.2197031e-39
-676.77899 3106.55 578.71997 9.2197031e-39
93.509804 2890.6201 582.93701 9.2197031e-39
114.602 2905.01 588.26001 9.2197031e-39
-359.17001 3040.26 586.29303 9.2197031e-39
126.764 2930.9399 595.854 9.2197031e-39
-340.75601 3062.8799 593.52002 9.2197031e-39
2952.3601 2097.8301 600.78998 9.2197031e-39
-197.06599 3073.1201 607.26801 9.2197031e-39
-242.423 3082.1899 606.08502 9.2197031e-39
2969.95 2154.3799 616.65802 9.2197031e-39
-174.983 3090.71 613.48999 9.2197031e-39
-101.619 3090.04 618.99402 9.2197031e-39
-149.58299 3104.3101 618.94202 9.2197031e-39
2972.4199 2189.3799 625.828 9.2197031e-39
2973.8201 2223.74 634.75 9.2197031e-39
2968.0601 2247.55 640.41199 9.2197031e-39
-60.6432 3220.55 655.64398 9.2197031e-39
2966.45 2386.79 676.00702 9.2197031e-39
2968.9199 2429.52 687.16101 9.2197031e-39
2969.3 2469.8999 697.55103 9.2197031e-39
2970.8701 2513.8501 708.94598 9.2197031e-39
2964.54 2544.28 716.26202 9.2197031e-39
2967.45 2593.6899 729.16101 9.2197031e-39
2964.78 2633.8 739.24402 9.2197031e-39
2961.04 2673.1599 749.052 9.2197031e-39
2960.4299 2720.47 761.14099 9.2197031e-39
1049.8199 3294.5 760.54602 9.2197031e-39
1076.42 3294.02 762.48401 9.2197031e-39
2958.22 2766.1899 772.70001 9.2197031e-39
1089.15 3338.0901 774.77301 9.2197031e-39
1114.9 3340.98 777.50598 9.2197031e-39
2956.48 2814.6899 785.00598 9.2197031e-39
2951.5801 2858.04 795.74799 9.2197031e-39
2951.77 2914.78 810.31799 9.2197031e-39
1095.42 3500.1699 816.836 9.2197031e-39
2948.74 2966.3799 823.32001 9.2197031e-39
2945.24 3019.01 836.54999 9.2197031e-39
1098.95 3587.5 839.51202 9.2197031e-39
868.49597 3663.05 841.06 9.2197031e-39
2944.1101 3079.8401 852.06799 9.2197031e-39
2873.3201 3098.5901 851.40002 9.2197031e-39
2850.8601 3107.75 852.01398 9.2197031e-39
2901.2 3103.6699 854.862 9.2197031e-39
2835.3799 3136.78 858.26202 9.2197031e-39
878.83698 3722.3999 857.08502 9.2197031e-39
2944.0901 3146.25 869.10199 9.2197031e-39
1101.9399 3682.49 864.112 9.2197031e-39
-393.55499 4147.6299 867.70801 9.2197031e-39
-485.81 4151.9697 861.68298 9.2197031e-39
-439.854 4150.4697 864.85303 9.2197031e-39
774.95697 3839.4199 879.065 9.2197031e-39
-264.267 4149.4697 878.185 9.2197031e-39
-351.73199 4150.9199 871.78699 9.2197031e-39
-307.91501 4150.4297 875.05298 9.2197031e-39
-225.383 4155.6299 882.77301 9.2197031e-39
-184.534 4158.0098 886.54498 9.2197031e-39
-140.32899 4154.0098 888.94202 9.2197031e-39
1098.24 3809.6899 896.45697 9.2197031e-39
-104.142 4163.2197 894.10199 9.2197031e-39
-61.6987 4160.9199 896.797 9.2197031e-39
-911.78198 4411.6104 895.32501 9.2197031e-39
-862.61603 4414.27 899.81201 9.2197031e-39
-811.87701 4413.98 903.664 9.2197031e-39
-761.341 4413.1201 907.35498 9.2197031e-39
2859.5901 3365.1899 918.729 9.2197031e-39
-711.01398 4411.7002 910.88501 9.2197031e-39
2887.5 3365.03 920.84802 9.2197031e-39
2766.6101 3424.4299 926.73199 9.2197031e-39
2795.3 3427 929.60901 9.2197031e-39
2713.1499 3431.55 924.42102 9.2197031e-39
2740.9299 3431.8301 926.64203 9.2197031e-39
2823.54 3427.4399 931.90802 9.2197031e-39
2850.6699 3423.9399 933.11102 9.2197031e-39
1092.73 3953.21 932.849 9.2197031e-39
-118.575 4339.2002 938.13 9.2197031e-39
2717.1001 3551.54 955.508 9.2197031e-39
5.1835899 4426.0498 969.98901 9.2197031e-39
-125.044 4430.3203 961.00598 9.2197031e-39
-83.451401 4433.1104 964.94 9.2197031e-39
-41.054501 4433.7402 968.383 9.2197031e-39
1087.9 4104.5898 971.30798 9.2197031e-39
87.471603 4428.6699 977.02698 9.2197031e-39
42.047901 4436.3701 975.48798 9.2197031e-39
2717.0601 3664.3601 984.44501 9.2197031e-39
128.034 4430.2598 980.57397 9.2197031e-39
166.448 4435.9102 984.99597 9.2197031e-39
208.05299 4434.04 987.737 9.2197031e-39
248.321 4434.46 990.96002 9.2197031e-39
289.63501 4431.79 993.47198 9.2197031e-39
327.38699 4436.8398 997.69 9.2197031e-39
444.73599 4438.9697 1007.32 9.2197031e-39
363.638 4445.1699 1002.63 9.2197031e-39
404.26599 4442.27 1005.03 9.2197031e-39
1082.21 4271.4297 1013.67 9.2197031e-39
480.89899 4446.2598 1011.99 9.2197031e-39
2724.8701 3817.79 1024.41 9.2197031e-39
499.90201 4500.0498 1027.25 9.2197031e-39
1080.72 4432.8604 1054.96 9.2197031e-39
1105.4399 4485.04 1070.26 9.2197031e-39
1137.45 4505.6001 1078.01 9.2197031e-39
1357.9 4477.3896 1087.84 9.2197031e-39
1319.4 4496.02 1089.64 9.2197031e-39
1172.76 4510.6201 1082.04 9.2197031e-39
1207.76 4517.2598 1086.45 9.2197031e-39
1244.86 4512.1104 1087.99 9.2197031e-39
1280.0601 4517.1797 1092.02 9.2197031e-39
1380.5601 4569.0703 1113.11 9.2197031e-39
1406.34 4649.0801 1135.63 9.2197031e-39
2815.77 4338.4902 1165.02 9.2197031e-39
2781.6499 4345.4697 1164.17 9.2197031e-39
2711.9099 4351.9502 1160.4399 9.2197031e-39
2747.8899 4354.0601 1163.76 9.2197031e-39
2678.8301 4363.75 1160.9 9.2197031e-39
2307.79 4492.6001 1165.24 9.2197031e-39
2346.54 4523.29 1176.12 9.2197031e-39
2382.52 4523.8203 1179.04 9.2197031e-39
2277.05 4548.29 1177.15 9.2197031e-39
1427.3 4780.0098 1170.84 9.2197031e-39
2419.03 4527.8799 1182.9 9.2197031e-39
2454.52 4522.98 1184.39 9.2197031e-39
2490.9099 4524.4902 1187.6 9.2197031e-39
2527.8101 4528.5498 1191.49 9.2197031e-39
2563.1699 4521.79 1192.49 9.2197031e-39
2600.0701 4524.25 1195.98 9.2197031e-39
2637.24 4527.3398 1199.65 9.2197031e-39
2673.99 4527.25 1202.47 9.2197031e-39
1429.29 5099.96 1253.0699 9.2197031e-39
1846.5601 7308.6802 1851.97 9.2197031e-39
1906.95 7310.0098 1856.98 9.2197031e-39
1967.41 7316.6299 1863.36 9.2197031e-39
1211.41 7598.5 1877.16 9.2197031e-39
2028.99 7397.3101 1888.8199 9.2197031e-39
2211.6399 7365.0498 1894.6801 9.2197031e-39
2090.54 7409.6499 1896.75 9.2197031e-39
2273.9299 7388.3999 1905.49 9.2197031e-39
2152.0601 7412.7598 1902.3101 9.2197031e-39
2335.9399 7398.6499 1912.92 9.2197031e-39
2398.3899 7411.25 1920.98 9.2197031e-39
2460.5901 7416.5498 1927.15 9.2197031e-39
1258.98 7765.5498 1923.7 9.2197031e-39
1323.41 7769.8301 1929.78 9.2197031e-39
1388.7 7762.9199 1933.0601 9.2197031e-39
1453.0601 7767.0698 1939.11 9.2197031e-39
1517.52 7769.7002 1944.77 9.2197031e-39
1582.45 7763.0801 1948.1 9.2197031e-39
1646.9 7764.6099 1953.48 9.2197031e-39
1775.86 7766.0498 1963.83 9.2197031e-39
1711.1 7774.3198 1960.9399 9.2197031e-39
