# .PCD v0.7 - Point Cloud Data file format
VERSION 0.7
FIELDS x y z rgb
SIZE 4 4 4 4
TYPE F F F F
COUNT 1 1 1 1
WIDTH 311
HEIGHT 1
VIEWPOINT 0 0 0 1 0 0 0
POINTS 311
DATA ascii
3181.8401 883.38696 137.44701 9.2197031e-39
3178.98 904.46704 134 9.2197031e-39
2229 1828.62 139.42 9.2197031e-39
2197.3799 1858.6 139.74899 9.2197031e-39
2201.5249 1856.0601 139.4435 9.2197031e-39
2197.52 1866.1801 138.28999 9.2197031e-39
2191.1101 1872.6 138.28999 9.2197031e-39
2008.39 2057.6401 137.955 9.2197031e-39
2021.73 2054.8901 135.94299 9.2197031e-39
1993.9725 2065.1274 139.27275 9.2197031e-39
2003.1074 2067.355 137.11826 9.2197031e-39
1991.3 2073.0898 138.27499 9.2197031e-39
426.069 3665.5601 134 9.2197031e-39
3181.1699 827.50403 148.145 9.2197031e-39
3181.1799 846.685 144.515 9.2197031e-39
3181.6299 865.07001 140.952 9.2197031e-39
2177.1001 1827.61 149.46051 9.2197031e-39
2183.1602 1825.86 148.642 9.2197031e-39
2172.51 1838.09 148.349 9.2197031e-39
2182.9858 1837.3359 146.50381 9.2197031e-39
2202.6299 1836.275 142.97699 9.2197031e-39
2165.7224 1842.3975 148.82199 9.2197031e-39
2183.3701 1846.8368 144.633 9.2197031e-39
2191.52 1849.9301 142.5 9.2197031e-39
2204.4521 1842.124 141.5244 9.2197031e-39
2184.52 1853.9261 143.0744 9.2197031e-39
1978.41 2036.74 147.59599 9.2197031e-39
1985.7351 2036.005 146.34549 9.2197031e-39
1967.25 2048.1699 147.55099 9.2197031e-39
1975.4751 2046.1775 146.3685 9.2197031e-39
1986.926 2047.864 143.87659 9.2197031e-39
1967.62 2051.1401 146.92 9.2197031e-39
1987.3701 2056.52 142.1555 9.2197031e-39
1992.4821 2053.166 141.8194 9.2197031e-39
1982.1733 2068.1799 140.935 9.2197031e-39
-184.41299 4201.4297 148.459 9.2197031e-39
-176.957 4231.98 141.26601 9.2197031e-39
3184.9199 763.54602 159.534 9.2197031e-39
3182.3999 786.69702 155.632 9.2197031e-39
3186.3101 802.35199 151.92799 9.2197031e-39
2186 1814.61 150.23199 9.2197031e-39
2169.8799 1827.5 150.851 9.2197031e-39
2164.1851 1833.4199 150.81149 9.2197031e-39
-184.992 4164.7002 155.51801 9.2197031e-39
3183.79 722.96698 167.425 9.2197031e-39
3179.24 749.32501 163.302 9.2197031e-39
-180.347 4087.6001 169.224 9.2197031e-39
-183.64799 4126.7402 162.444 9.2197031e-39
3190.49 671.33081 175.924 9.2197031e-39
3184.75 700.2785 171.536 9.2197031e-39
3188.24 651.51172 180.10001 9.2197031e-39
2960.9099 -460.25 433.56699 9.2197031e-39
2923.6399 -418.84998 432.806 9.2197031e-39
2889.9299 -385.5 432.89301 9.2197031e-39
2858.22 -426.66003 446.69601 9.2197031e-39
2879.22 -421.72998 441.78 9.2197031e-39
2848.04 -467.48999 456.353 9.2197031e-39
2829.4299 -481.64001 462.56299 9.2197031e-39
2804.4099 -473.69995 465.806 9.2197031e-39
2815.3601 -596.53003 486.966 9.2197031e-39
-1147.8199 3310.8401 499.755 9.2197031e-39
-1335.27 3456.8501 507.70001 9.2197031e-39
2806.52 -747.02002 517.11401 9.2197031e-39
2827.51 -732.09998 510.311 9.2197031e-39
-1364.47 3434.4399 517.47998 9.2197031e-39
2760.48 -761.88 528.66199 9.2197031e-39
2786.74 -767.53003 524.75 9.2197031e-39
2739.8501 -780.10999 536.026 9.2197031e-39
2724.8501 -825.25 547.41302 9.2197031e-39
-1052.55 2906.6299 558.14899 9.2197031e-39
-1517.87 3390.8 554.84302 9.2197031e-39
2628.75 -848.31995 570.01202 9.2197031e-39
2576.8301 -837.63 577.84198 9.2197031e-39
2601.72 -837.25 573.047 9.2197031e-39
2676.28 -965 583.06897 9.2197031e-39
2557.1299 -870.97998 587.888 9.2197031e-39
-1186.4399 2915.4399 581.88599 9.2197031e-39
-1364.15 3030.97 593.75098 9.2197031e-39
2780.7 -1212.1801 610.01599 9.2197031e-39
2548.3701 -982.32996 610.61603 9.2197031e-39
-2091.78 3656.3201 613.51099 9.2197031e-39
-1494.35 2936.75 636.28101 9.2197031e-39
-1519.37 2976.8999 633.43298 9.2197031e-39
2790.21 -1402.17 644.15698 9.2197031e-39
-2879.96 4274.1602 646.17902 9.2197031e-39
-2882.02 4223.8101 656.09601 9.2197031e-39
-2431.99 3703.1499 669.20502 9.2197031e-39
-2887.21 4175.1602 666.28497 9.2197031e-39
2581.9199 -1413.4399 685.81097 9.2197031e-39
-2211.8201 3329.3899 698.138 9.2197031e-39
-2218.1201 3372.1899 691.237 9.2197031e-39
-2573.1899 3711.25 694.46503 9.2197031e-39
2563.3799 -1500.55 705.81 9.2197031e-39
2503.1499 -1507.74 718.59802 9.2197031e-39
2532.46 -1497.4199 711.08398 9.2197031e-39
-2680.22 3704.54 716.04401 9.2197031e-39
2440.3201 -1488.3501 726.85199 9.2197031e-39
2470.1299 -1483.47 720.27301 9.2197031e-39
2411.95 -1510.6499 736.45203 9.2197031e-39
-2802.3999 3701.3501 739.83197 9.2197031e-39
2382.22 -1519.9199 743.849 9.2197031e-39
1688.66 -822.88 743.58002 9.2197031e-39
1665.0699 -812.42004 746.07898 9.2197031e-39
1642.92 -794.06995 746.80902 9.2197031e-39
1619.33 -785.18005 749.60303 9.2197031e-39
2351.8601 -1522.0601 750.01501 9.2197031e-39
2321.0601 -1517.0601 754.91199 9.2197031e-39
1596.74 -771.28003 751.26099 9.2197031e-39
1572.83 -764.88 754.586 9.2197031e-39
1549.1801 -757.31006 757.64203 9.2197031e-39
-2263.98 3062.1399 758.59601 9.2197031e-39
-2266.1799 3102.72 751.33698 9.2197031e-39
-2796.8301 3605.6201 756.883 9.2197031e-39
-2830.8501 3664.02 752.29303 9.2197031e-39
1838.1801 -1106.14 768.79797 9.2197031e-39
1497.61 -761.56006 768.23297 9.2197031e-39
1522.3101 -764.81006 764.159 9.2197031e-39
-2267.1799 3023.05 766.599 9.2197031e-39
1862.64 -1140.61 770.67902 9.2197031e-39
1810.65 -1108.53 774.47498 9.2197031e-39
1451.4301 -741.16003 773.13501 9.2197031e-39
1475.13 -748.60999 770.047 9.2197031e-39
1426.36 -739.18005 777.51703 9.2197031e-39
-2257.49 2981.0701 772.703 9.2197031e-39
1781.99 -1120.41 782.15997 9.2197031e-39
1755.01 -1115.49 786.349 9.2197031e-39
1729.04 -1102.5699 788.83197 9.2197031e-39
1400.02 -741.67004 782.987 9.2197031e-39
1376.13 -734.52002 786.16699 9.2197031e-39
-2304.4199 2951.9399 787.11902 9.2197031e-39
1350.4399 -733.71997 790.88898 9.2197031e-39
1696.37 -1140.8199 802.26801 9.2197031e-39
1315.98 -762.57996 802.88898 9.2197031e-39
-963.58801 1431.141 820.41199 9.2197031e-39
-998.04303 1453.3679 822.74402 9.2197031e-39
1894.16 -1512.3601 835.02802 9.2197031e-39
-986.61102 1398.79 830.90002 9.2197031e-39
-1023.66 1363.183 844.66699 9.2197031e-39
2318.02 -2057.3601 857.70801 9.2197031e-39
1636.6899 -1362.63 855.55402 9.2197031e-39
-1021.13 1305.8821 855.02802 9.2197031e-39
1856.38 -1610.9299 860.84601 9.2197031e-39
-1070.8199 1324.7219 860.89099 9.2197031e-39
2249.28 -2104.0901 879.59198 9.2197031e-39
2284.8301 -2103.98 872.82599 9.2197031e-39
2213.72 -2103.8899 886.302 9.2197031e-39
-1112.3101 1256.548 881.66199 9.2197031e-39
2142.52 -2094.6899 898.07098 9.2197031e-39
2178.02 -2095.51 891.48999 9.2197031e-39
2107.0701 -2053.27 896.961 9.2197031e-39
1186.62 -1104.16 892.05701 9.2197031e-39
1903.77 -1901.05 906.73798 9.2197031e-39
-1158.01 1185.2791 903.81702 9.2197031e-39
-1207.55 1204.443 909.59198 9.2197031e-39
2071.3999 -2101.9299 912.93597 9.2197031e-39
2036 -2090.3601 917.46399 9.2197031e-39
1139.28 -1160.0601 911.61499 9.2197031e-39
-902.66199 865.216 915.91699 9.2197031e-39
-1188.78 1146.803 916.93402 9.2197031e-39
2000.2 -2099.0901 925.909 9.2197031e-39
1102.46 -1179.2 922.22302 9.2197031e-39
-888.27698 809.22803 923.77899 9.2197031e-39
-908.32098 832.40802 923.19702 9.2197031e-39
-1191.6 1083.438 929.45801 9.2197031e-39
-1192.7 1114.563 923.77802 9.2197031e-39
-2044.0699 1942.42 928.70599 9.2197031e-39
-2062.1399 1978.76 925.26001 9.2197031e-39
1929.04 -2094.03 938.453 9.2197031e-39
1964.98 -2086.9099 930.28802 9.2197031e-39
-982.69098 867.086 930.74799 9.2197031e-39
-1194.9 1050.941 936.23199 9.2197031e-39
-955.58099 751.466 947.47803 9.2197031e-39
645.09302 -908.02002 957.70502 9.2197031e-39
-950.72498 689.4364 958.29199 9.2197031e-39
-942.97101 724.70801 950.14697 9.2197031e-39
-2254.8401 2017.15 954.55902 9.2197031e-39
649.56201 -964.12 967.46899 9.2197031e-39
610.14801 -912.26001 965.138 9.2197031e-39
-696.85999 388.78799 967 9.2197031e-39
-720.76202 408.72302 967.76398 9.2197031e-39
544.73602 -910.19995 977.159 9.2197031e-39
578.64001 -909.27002 970.54999 9.2197031e-39
633.66498 -1063.95 989.37299 9.2197031e-39
515.854 -901.43994 980.98199 9.2197031e-39
483.16501 -899.14001 986.75 9.2197031e-39
668.50598 -1206.87 1009.8 9.2197031e-39
649.76898 -1172.9399 1006.94 9.2197031e-39
424.646 -940.88 1005.75 9.2197031e-39
689.67999 -1236.29 1011.35 9.2197031e-39
615.24402 -1173.1 1013.52 9.2197031e-39
703.74402 -1364.54 1032.9399 9.2197031e-39
660.73602 -1382.26 1044.46 9.2197031e-39
-1103.3 235.121 1073.1899 9.2197031e-39
-1354.86 483.51401 1073.9301 9.2197031e-39
-841.54797 -308.46198 1126.37 9.2197031e-39
-859.16803 -279.54401 1124.24 9.2197031e-39
-885.82703 -257.43201 1125.11 9.2197031e-39
-1525.37 371.543 1127.47 9.2197031e-39
788.00403 -2036.3799 1144.0601 9.2197031e-39
750.45398 -2029.8799 1149.95 9.2197031e-39
680.59998 -2001.21 1157.78 9.2197031e-39
718.03802 -2008.3501 1152.03 9.2197031e-39
-1582.66 306.65201 1150.62 9.2197031e-39
640.79401 -2000.1001 1165.13 9.2197031e-39
599.492 -2002.23 1173.37 9.2197031e-39
562.96802 -1991.27 1178.22 9.2197031e-39
60.6306 -1496.6101 1179.96 9.2197031e-39
522.15802 -1990.79 1185.88 9.2197031e-39
18.2873 -1496.5601 1187.98 9.2197031e-39
-1562.22 113.31601 1183.3199 9.2197031e-39
-1581.17 145.189 1180.88 9.2197031e-39
484.91 -1980.9299 1191.08 9.2197031e-39
-22.205601 -1492.73 1194.9399 9.2197031e-39
-498.65601 -1037.8101 1199.29 9.2197031e-39
-1547.51 37.411011 1194.89 9.2197031e-39
-1559.36 73.156982 1190.37 9.2197031e-39
-101.447 -1480.49 1207.66 9.2197031e-39
-60.239899 -1484.3701 1200.58 9.2197031e-39
-464.56 -1109.26 1206.33 9.2197031e-39
-480.25 -1071.72 1202.21 9.2197031e-39
-431.832 -1184.27 1214.3101 9.2197031e-39
-453.327 -1152.75 1212.4301 9.2197031e-39
-407.97501 -1272.89 1226.55 9.2197031e-39
-425.58801 -1235.37 1222.8 9.2197031e-39
-385.29199 -1366.38 1239.9399 9.2197031e-39
-391.668 -1312.6801 1230.99 9.2197031e-39
-359.86099 -1395.3199 1240.58 9.2197031e-39
-5347.6099 3558.96 1249.72 9.2197031e-39
-1589.7 -248.28497 1256.9399 9.2197031e-39
-5343.3999 3491.0601 1261.77 9.2197031e-39
-1492.84 -464.33997 1279.4399 9.2197031e-39
-5339.5601 3423.51 1273.8199 9.2197031e-39
-726.48297 -1241.3 1281.01 9.2197031e-39
-1537.64 -446.97998 1284.65 9.2197031e-39
-1567.85 -419.54004 1285.2 9.2197031e-39
-1611.74 -400.60999 1289.9399 9.2197031e-39
-1637.55 -369.836 1289.02 9.2197031e-39
-1662.3 -338.30103 1287.75 9.2197031e-39
-5339.96 3357.01 1286.48 9.2197031e-39
-1505.36 -520.62 1292.46 9.2197031e-39
-5341.7202 3290.9099 1299.3199 9.2197031e-39
-1535.37 -590.12 1311.3 9.2197031e-39
-5360.4302 3227.79 1314.8101 9.2197031e-39
-5367.8599 3162.7 1328.53 9.2197031e-39
-392.18399 -1857.4399 1334.14 9.2197031e-39
-5385.4702 3099.1399 1343.9 9.2197031e-39
-5203.8701 2878.3799 1351.2 9.2197031e-39
-5391.77 3033.8201 1357.45 9.2197031e-39
-5384.77 2966.74 1368.8101 9.2197031e-39
-506.80099 -1954.9399 1374.34 9.2197031e-39
-5289.6299 2823.96 1377.77 9.2197031e-39
-557.56201 -1953.9099 1383.78 9.2197031e-39
-599.16699 -1938.78 1388.8101 9.2197031e-39
-649.10797 -1935.0701 1397.58 9.2197031e-39
-680.00403 -1904.1299 1397.59 9.2197031e-39
-5388.6699 2769.53 1406.86 9.2197031e-39
-5384.2402 2703.3601 1418.54 9.2197031e-39
-1245.79 -1499.5801 1428.42 9.2197031e-39
-4871.8999 2165.45 1423.09 9.2197031e-39
-1222.98 -1538.9399 1431.53 9.2197031e-39
-4881.0298 2104.6899 1436.3199 9.2197031e-39
-5389.04 2638.1699 1431.79 9.2197031e-39
-5393.2798 2572.9102 1444.9399 9.2197031e-39
-1340.04 -1533.0601 1452.63 9.2197031e-39
-5393.9902 2507.3701 1457.47 9.2197031e-39
-5384.3101 2441.21 1468.15 9.2197031e-39
-1433.8101 -1563.77 1476.24 9.2197031e-39
-4886.6499 1860.27 1483.63 9.2197031e-39
-5259.3999 2240.4302 1482.4301 9.2197031e-39
-5387.8101 2375.97 1481.16 9.2197031e-39
-1529.12 -1593.76 1499.99 9.2197031e-39
-4883.2798 1799.11 1494.5601 9.2197031e-39
-5390.73 2310.6499 1494.0699 9.2197031e-39
-1898.17 -1241.48 1503.37 9.2197031e-39
-4883.2998 1737.83 1506.15 9.2197031e-39
-1853.86 -1325.36 1510.83 9.2197031e-39
-1910.65 -1311.58 1519 9.2197031e-39
-4888.6602 1676.25 1518.8199 9.2197031e-39
-1381.4 -1911.27 1532.03 9.2197031e-39
-4891.52 1614.621 1531.02 9.2197031e-39
-1450.83 -1917.1699 1546.3199 9.2197031e-39
-4886.98 1553.2939 1541.76 9.2197031e-39
-1498.92 -1898.8501 1551.98 9.2197031e-39
-4888.7598 1491.512 1553.79 9.2197031e-39
-4889.98 1429.629 1565.73 9.2197031e-39
-4886.75 1367.989 1576.78 9.2197031e-39
-4877.1401 1306.8831 1586.51 9.2197031e-39
-1844.6 -1833.24 1605.16 9.2197031e-39
-4886.4702 1243.834 1600.21 9.2197031e-39
-4864.5498 1121.724 1619.15 9.2197031e-39
-4872.1899 1058.276 1632.61 9.2197031e-39
-1991.24 -1903.49 1646.28 9.2197031e-39
-2047.42 -1886.03 1653.64 9.2197031e-39
-2124.3501 -1886.76 1668.37 9.2197031e-39
-2603.5701 -1404.42 1668.05 9.2197031e-39
-2210.3 -1894.1599 1686.08 9.2197031e-39
-2608.3999 -1472.72 1681.89 9.2197031e-39
-2269.8799 -1876.76 1694.09 9.2197031e-39
-2344.8899 -1871.8701 1707.4 9.2197031e-39
-2440.1001 -1882.8201 1727.54 9.2197031e-39
-2601.02 -1735.29 1730.16 9.2197031e-39
-5400.7798 -193.508 1969.73 9.2197031e-39
-5422.21 -272.487 1988.74 9.2197031e-39
-5414.9199 -343.46698 2000.78 9.2197031e-39
-5421.7998 -419.23999 2016.42 9.2197031e-39
-5415.9102 -491.43005 2028.96 9.2197031e-39
-5324.9302 -609.38 2034.01 9.2197031e-39
-5417.6201 -566.53003 2043.5 9.2197031e-39
-4763.6001 -1277.03 2053.8101 9.2197031e-39
-4823.7402 -1229.6801 2056.27 9.2197031e-39
-4865.54 -1402.09 2096.8201 9.2197031e-39
