# .PCD v0.7 - Point Cloud Data file format
VERSION 0.7
FIELDS x y z rgb
SIZE 4 4 4 4
TYPE F F F F
COUNT 1 1 1 1
WIDTH 319
HEIGHT 1
VIEWPOINT 0 0 0 1 0 0 0
POINTS 319
DATA ascii
3319.8401 709.8045 137.98399 9.2197031e-39
3313.46 727.599 134.056 9.2197031e-39
1811.62 1237.9451 138.89301 9.2197031e-39
1784.46 1248.437 138.662 9.2197031e-39
1794.7666 1242.2831 139.29834 9.2197031e-39
1508.55 1341.944 139.614 9.2197031e-39
1513.776 1345.2574 138.31119 9.2197031e-39
1523.495 1346.781 137.06 9.2197031e-39
1532.48 1345.5785 136.56351 9.2197031e-39
1496.33 1359.269 136.32401 9.2197031e-39
-1955.4399 2585.9102 133.879 9.2197031e-39
3324.3899 676.24158 146.06 9.2197031e-39
3318.3799 694.25983 142.04201 9.2197031e-39
1798.62 1199.871 149.674 9.2197031e-39
1784.8301 1207.5085 148.9715 9.2197031e-39
1796.8525 1205.9707 148.28949 9.2197031e-39
1800.11 1208.0869 147.464 9.2197031e-39
1767.71 1212.6327 149.20233 9.2197031e-39
1771.49 1212.036 149.01599 9.2197031e-39
1792.9 1215.079 146.339 9.2197031e-39
1779.72 1229.1431 143.96001 9.2197031e-39
1785.2167 1224.2733 144.70099 9.2197031e-39
1802.39 1225.406 142.884 9.2197031e-39
1777.6 1234.8459 142.70799 9.2197031e-39
1784.1074 1232.4962 142.7215 9.2197031e-39
1794.9825 1234.4185 141.267 9.2197031e-39
1801.205 1233.2209 141.015 9.2197031e-39
1489.87 1316.3311 147.75101 9.2197031e-39
1499.85 1317.333 146.608 9.2197031e-39
1504.4 1319.151 145.744 9.2197031e-39
1506.1 1322.9976 144.62 9.2197031e-39
1516.4717 1325.4603 143.07367 9.2197031e-39
1499.365 1338.874 141.2085 9.2197031e-39
1513.8175 1332.5151 141.5275 9.2197031e-39
1493.34 1342.147 140.918 9.2197031e-39
1506.34 1341.021 140.04401 9.2197031e-39
-2054.1699 2585.1201 142.87199 9.2197031e-39
3322.4299 628.16028 158.38499 9.2197031e-39
3319.8999 645.71539 154.175 9.2197031e-39
3317.95 662.4234 150.12601 9.2197031e-39
1769.675 1205.8989 150.729 9.2197031e-39
1772.88 1200.011 151.931 9.2197031e-39
1785.63 1203.1489 150.002 9.2197031e-39
1793.6 1200.1431 150.05099 9.2197031e-39
1384.25 1317.6389 156.83099 9.2197031e-39
3350.0601 583.29651 167.25999 9.2197031e-39
3324.9399 610.91034 162.52 9.2197031e-39
1268.7 1314.019 168.03999 9.2197031e-39
1347.38 1315.984 160.533 9.2197031e-39
3356.55 546.36139 176.01601 9.2197031e-39
3353.95 564.88013 171.56799 9.2197031e-39
3359.51 510.293 184.867 9.2197031e-39
3360.04 527.73029 180.414 9.2197031e-39
1135.28 1310.865 180.724 9.2197031e-39
-4879.1499 3431.8601 180.586 9.2197031e-39
1000.775 1296.9225 196.23001 9.2197031e-39
1044.78 1305.644 190.106 9.2197031e-39
-4878.3198 3371.6799 195.72 9.2197031e-39
954.49298 1265.847 208.20651 9.2197031e-39
953.74402 1274.912 205.983 9.2197031e-39
961.27899 1281.177 203.728 9.2197031e-39
975.82703 1287.707 200.782 9.2197031e-39
941.0365 1234.056 217.4395 9.2197031e-39
938.87598 1243.126 215.34 9.2197031e-39
947.24402 1253.152 212.0605 9.2197031e-39
-4868.7798 3307.47 211.097 9.2197031e-39
937.96301 1186.453 229.743 9.2197031e-39
945.57001 1193.9719 227.16499 9.2197031e-39
939.39203 1205.623 224.771 9.2197031e-39
958.13 1202.2739 223.948 9.2197031e-39
934.88751 1214.5161 222.92499 9.2197031e-39
935.41302 1224.085 220.46001 9.2197031e-39
925.935 1158.248 237.942 9.2197031e-39
934.26398 1153.353 238.437 9.2197031e-39
924.47998 1164.4409 236.506 9.2197031e-39
936.67401 1173.3989 233.15601 9.2197031e-39
942.18402 1180.73 230.813 9.2197031e-39
913.953 1115.068 249.92101 9.2197031e-39
920.74701 1123.5491 247.173 9.2197031e-39
914.33698 1135.553 244.71001 9.2197031e-39
920.85699 1130.439 245.422 9.2197031e-39
930.02002 1145.937 240.689 9.2197031e-39
902.62299 1098.0649 255.22701 9.2197031e-39
919.71899 1109.6331 250.78101 9.2197031e-39
3171.27 -342.99597 417.267 9.2197031e-39
3197.4399 -342.59601 414.83401 9.2197031e-39
3063.04 -305.66699 417.47601 9.2197031e-39
3082.26 -300.11499 414.36099 9.2197031e-39
3436.8101 -473.69995 426.638 9.2197031e-39
3284.6699 -407.16003 423.37799 9.2197031e-39
3167.49 -367.08197 423.69101 9.2197031e-39
3047.1001 -343.81598 428.53699 9.2197031e-39
3071.0601 -343.76898 426.39001 9.2197031e-39
3437.52 -505.62 434.64099 9.2197031e-39
3048.6399 -375.258 436.345 9.2197031e-39
3445.1299 -544.42004 443.76801 9.2197031e-39
3016.26 -394.84003 444.177 9.2197031e-39
3037.0601 -390.34998 441.19101 9.2197031e-39
3015.5 -455.42004 459.55701 9.2197031e-39
3010.53 -417.51001 450.41699 9.2197031e-39
3097.0801 -630.13 496.436 9.2197031e-39
3067.3501 -624.13 497.56799 9.2197031e-39
3035.05 -614.88 498.10901 9.2197031e-39
3114.3899 -618.05005 491.84299 9.2197031e-39
3008.6699 -648.58997 508.978 9.2197031e-39
3019.9299 -628.38 502.86801 9.2197031e-39
2997.0801 -667.62 514.82001 9.2197031e-39
2978.5901 -714.91003 528.41803 9.2197031e-39
2987.48 -691.02002 521.58801 9.2197031e-39
2964.0901 -731.62 533.93103 9.2197031e-39
2968.22 -777.18994 545.07898 9.2197031e-39
2908.1899 -760.28003 546.15601 9.2197031e-39
-793.43298 554.04187 543.81097 9.2197031e-39
2956.1399 -798.89001 551.63898 9.2197031e-39
2897.0701 -783.28003 552.95697 9.2197031e-39
2868.8701 -776.10999 553.65698 9.2197031e-39
-784.19202 510.32098 554.03601 9.2197031e-39
-796.547 530.08093 550.14398 9.2197031e-39
-904.80402 544.28223 556.20001 9.2197031e-39
-934.742 559.3584 555.05701 9.2197031e-39
2860.77 -804.88 561.64899 9.2197031e-39
-785.32001 462.776 566.15198 9.2197031e-39
-796.20801 483.10602 561.98401 9.2197031e-39
2846.1699 -866.48999 578.521 9.2197031e-39
2861.3799 -848.87 572.71301 9.2197031e-39
-791.03601 412.88202 579.26898 9.2197031e-39
-782.85199 440.17102 571.64398 9.2197031e-39
2834.97 -890.68994 585.63397 9.2197031e-39
-788.08698 390.12601 584.75702 9.2197031e-39
2825.6101 -920.34998 593.96301 9.2197031e-39
-780.35498 344.314 595.64502 9.2197031e-39
-789.26202 364.983 591.21503 9.2197031e-39
2799.0601 -965.32996 607.69501 9.2197031e-39
2820.3799 -957.63 603.84802 9.2197031e-39
2763.5901 -994.08997 618.12201 9.2197031e-39
2784.29 -984.93994 613.96698 9.2197031e-39
2745.46 -1007.26 623.06403 9.2197031e-39
-469.564 100.31 629.61603 9.2197031e-39
2634.1299 -1031.8 639.18597 9.2197031e-39
2658.6599 -1031.9 637.02502 9.2197031e-39
-456.84799 57.846985 639.21399 9.2197031e-39
-467.392 76.361023 635.47498 9.2197031e-39
2765.3701 -1105.37 646.08301 9.2197031e-39
2557.21 -1016.87 642.26501 9.2197031e-39
2527.5901 -1001.11 640.92401 9.2197031e-39
1856.21 -784.20996 645.927 9.2197031e-39
-1029.1899 218.33701 649.64899 9.2197031e-39
2724.26 -1127.34 655.29901 9.2197031e-39
1901.08 -848.04004 658.05902 9.2197031e-39
1879.46 -824.42004 654.01801 9.2197031e-39
1802.29 -819.22998 659.58002 9.2197031e-39
1819.92 -802.87 653.87598 9.2197031e-39
1839.1 -801.82996 651.90302 9.2197031e-39
-479.34399 18.663025 651.12 9.2197031e-39
-838.82098 113.63101 659.14801 9.2197031e-39
-866.68903 126.92401 658.27197 9.2197031e-39
-905.55298 136.30099 659.36499 9.2197031e-39
2625.1101 -1130.04 664.815 9.2197031e-39
1765.11 -840.84998 668.35699 9.2197031e-39
1783.5601 -830.60999 664.12598 9.2197031e-39
1592.96 -786.18005 669.87903 9.2197031e-39
1574.78 -776.43005 669.03497 9.2197031e-39
-457.65701 -45.419983 665.38202 9.2197031e-39
-468.30399 -26.327026 661.505 9.2197031e-39
-844.12097 83.702026 667.18402 9.2197031e-39
2791.02 -1218.9399 672.49799 9.2197031e-39
2557.6499 -1145.84 674.81897 9.2197031e-39
1727.15 -860.87 676.797 9.2197031e-39
1745.95 -850.94995 672.61499 9.2197031e-39
1649.4399 -833 676.677 9.2197031e-39
1630.17 -816.89001 674.32397 9.2197031e-39
1611.8199 -796.78003 670.87701 9.2197031e-39
1536.47 -788.34998 675.46002 9.2197031e-39
1555.4 -782.93994 672.40601 9.2197031e-39
-466.13501 -77.780029 674.315 9.2197031e-39
-833.02502 34.596008 678.604 9.2197031e-39
-850.27698 53.744995 675.302 9.2197031e-39
2163.4099 -1061.45 688.61603 9.2197031e-39
1707.6 -869.66003 680.76099 9.2197031e-39
1668.46 -854.75 680.479 9.2197031e-39
1495.8101 -823.71997 688.021 9.2197031e-39
1516.3101 -802.25 680.76801 9.2197031e-39
-585.84198 -72.312988 683.59802 9.2197031e-39
2567.21 -1242.49 698.39001 9.2197031e-39
2101.54 -1083.62 699.73297 9.2197031e-39
2141.1499 -1061.4 690.58899 9.2197031e-39
1688.74 -902.53003 690.74799 9.2197031e-39
-1217.96 112.85599 693.12299 9.2197031e-39
2200.46 -1130.91 702.86798 9.2197031e-39
-574.70801 -176.48499 708.93103 9.2197031e-39
-903.81702 -29.656006 701.14801 9.2197031e-39
-1198.5601 62.088013 704.224 9.2197031e-39
-1216.36 83.622009 700.36798 9.2197031e-39
2739.8899 -1351.09 710.44897 9.2197031e-39
2045.22 -1141.67 719.41699 9.2197031e-39
2068.5701 -1149.38 719.28699 9.2197031e-39
2090.5 -1144.33 716.05603 9.2197031e-39
2135.4099 -1143.33 711.80402 9.2197031e-39
-1193.73 34.047974 710.88 9.2197031e-39
1956.3 -1142.67 727.59302 9.2197031e-39
1977.92 -1140.5699 725.13501 9.2197031e-39
2023.41 -1147.29 722.78302 9.2197031e-39
2000.27 -1139.1801 722.79303 9.2197031e-39
2262.1599 -1298.67 739.76501 9.2197031e-39
-1020.86 -121.25299 734.72198 9.2197031e-39
-591.349 -305.04498 742.901 9.2197031e-39
1411.0601 -1075.45 759.185 9.2197031e-39
1432.8101 -1077.98 757.88397 9.2197031e-39
1455.5601 -1061.92 751.80103 9.2197031e-39
-661.89001 -325.18402 754.27502 9.2197031e-39
-719.26001 -303.492 753.90503 9.2197031e-39
1388.28 -1087.24 764.19397 9.2197031e-39
1367.15 -1078.58 763.88599 9.2197031e-39
1022.65 -946.65002 761.23999 9.2197031e-39
1170.75 -1066.51 778.33398 9.2197031e-39
1153.55 -1040.95 773.40802 9.2197031e-39
976.51001 -1027.77 785.85101 9.2197031e-39
829.17297 -983.34998 787.75201 9.2197031e-39
876.69598 -980.64001 782.83398 9.2197031e-39
784.73602 -976.10999 789.88098 9.2197031e-39
808.18701 -975.65002 787.67603 9.2197031e-39
855.422 -974.27002 783.11798 9.2197031e-39
885.24103 -1023.3101 792.854 9.2197031e-39
687.85797 -977.87 798.95697 9.2197031e-39
712.00897 -977.43994 796.698 9.2197031e-39
736.65302 -977.02002 794.39398 9.2197031e-39
760.27002 -977.02002 792.28998 9.2197031e-39
2678.04 -1723.1399 809.97803 9.2197031e-39
1060.67 -1147.97 808.72601 9.2197031e-39
620.16602 -963.15002 801.26703 9.2197031e-39
2721.6799 -1762.03 815.91699 9.2197031e-39
873.448 -1133.3199 821.70502 9.2197031e-39
-603.61902 -639.26001 828.45001 9.2197031e-39
-997.95502 -526.40002 835.06403 9.2197031e-39
528.96503 -1105.27 845.30902 9.2197031e-39
886.36298 -1250.8101 850.24597 9.2197031e-39
861.22498 -1249.08 852.047 9.2197031e-39
1294.42 -1465.8799 868.23901 9.2197031e-39
1118.98 -1440.8301 877.53998 9.2197031e-39
974.95099 -1391.3199 877.85901 9.2197031e-39
1028.41 -1383.84 871.20599 9.2197031e-39
927.362 -1374.49 877.84698 9.2197031e-39
2723.96 -2055.8401 889.96198 9.2197031e-39
2750.7 -2036.04 882.57599 9.2197031e-39
2657.45 -2050.5601 894.55298 9.2197031e-39
2592.4399 -2047.8201 899.65198 9.2197031e-39
2625.1899 -2048.76 896.97198 9.2197031e-39
2689.78 -2049.04 891.28699 9.2197031e-39
1033.3101 -1477.3799 894.40802 9.2197031e-39
938.65302 -1431.6799 891.29199 9.2197031e-39
-1704.3 -523.57996 897.28101 9.2197031e-39
2498.26 -2050.3999 908.69598 9.2197031e-39
2529.5 -2050.51 905.94098 9.2197031e-39
2562.3799 -2052.98 903.63397 9.2197031e-39
-186.367 -1097.61 907.10303 9.2197031e-39
-879.34302 -838.16003 903.27899 9.2197031e-39
-1685.13 -551.90002 902.72998 9.2197031e-39
2467.6001 -2055.8899 912.81403 9.2197031e-39
-156.01801 -1148.24 917.19501 9.2197031e-39
-174.573 -1126.6 913.37903 9.2197031e-39
383.90201 -1351.08 920.34998 9.2197031e-39
297.78601 -1344.64 926.39502 9.2197031e-39
357.19901 -1345.86 921.409 9.2197031e-39
269.38901 -1339.98 927.74799 9.2197031e-39
331.543 -1336.6 921.35498 9.2197031e-39
-126.682 -1201.77 928.10797 9.2197031e-39
-142.97501 -1176.38 923.14301 9.2197031e-39
-1215.49 -791.93994 921.547 9.2197031e-39
174.965 -1343.61 937.078 9.2197031e-39
237.064 -1343.92 931.62097 9.2197031e-39
147.72301 -1335.23 937.38599 9.2197031e-39
208.52499 -1338.66 932.836 9.2197031e-39
-114.605 -1232.21 934.72302 9.2197031e-39
-277.20001 -1168.9399 933.22198 9.2197031e-39
-1246.38 -853.65002 939.89398 9.2197031e-39
83.586502 -1335.52 943.17401 9.2197031e-39
114.839 -1337.83 940.97198 9.2197031e-39
-87.497704 -1291.88 947.388 9.2197031e-39
-99.825798 -1260.6801 940.60101 9.2197031e-39
-330.20599 -1190.83 943.47498 9.2197031e-39
-355.69901 -1176.1 942.02502 9.2197031e-39
-1200.62 -899.37 947.37097 9.2197031e-39
-68.221397 -1314.62 951.41699 9.2197031e-39
-423.685 -1213.98 957.65503 9.2197031e-39
-1201.3199 -941.25 958.01703 9.2197031e-39
-1263.35 -907.32996 954.97302 9.2197031e-39
-45.073799 -1383.84 966.84601 9.2197031e-39
-61.4319 -1355.51 961.14502 9.2197031e-39
-1203.61 -983.84998 968.98602 9.2197031e-39
-9.9252501 -1436.5801 977.04303 9.2197031e-39
-26.9953 -1408.4 971.44202 9.2197031e-39
-486.29999 -1242.1899 970.36298 9.2197031e-39
-1203.99 -1026.75 979.862 9.2197031e-39
389.54599 -1604.75 983.94897 9.2197031e-39
364.76401 -1590.8 982.63098 9.2197031e-39
-558.41803 -1281.11 986.62097 9.2197031e-39
-1204.4301 -1069.16 990.617 9.2197031e-39
-632.08002 -1318.42 1002.61 9.2197031e-39
-1187.28 -1186.72 1018.8 9.2197031e-39
-711.091 -1361.03 1020.42 9.2197031e-39
1149.84 -2087.4199 1038.1899 9.2197031e-39
1181.62 -2080.72 1033.66 9.2197031e-39
-1198.71 -1241.42 1033.64 9.2197031e-39
1023.45 -2089.1499 1049.88 9.2197031e-39
1055.1801 -2086.4399 1046.37 9.2197031e-39
1087.66 -2083.6001 1042.76 9.2197031e-39
1117.95 -2087.96 1041.16 9.2197031e-39
-1258.4 -1342.38 1064.47 9.2197031e-39
-1763.12 -1914.1001 1253.91 9.2197031e-39
-1513.84 -2138.7 1288.46 9.2197031e-39
-1459.2 -2139.8899 1283.89 9.2197031e-39
-1627.39 -2136.3301 1297.98 9.2197031e-39
-1568.28 -2134.6299 1292.28 9.2197031e-39
-1746.67 -2135.97 1308.51 9.2197031e-39
-1688.35 -2137.1599 1303.62 9.2197031e-39
-1814.39 -2141.4399 1315.9301 9.2197031e-39
-1945.9 -2146.49 1328.92 9.2197031e-39
-1876.75 -2142.1101 1321.65 9.2197031e-39
-2059.4399 -2130.27 1334.9399 9.2197031e-39
