# .PCD v0.7 - Point Cloud Data file format
VERSION 0.7
FIELDS x y z rgb
SIZE 4 4 4 4
TYPE F F F F
COUNT 1 1 1 1
WIDTH 309
HEIGHT 1
VIEWPOINT 0 0 0 1 0 0 0
POINTS 309
DATA ascii
3181.8401 883.38696 137.44701 9.2197031e-39
3178.98 904.46704 134 9.2197031e-39
2221.51 1837.99 139.069 9.2197031e-39
2196.79 1859.41 139.709 9.2197031e-39
2203.3101 1856.7733 138.96901 9.2197031e-39
2014.6951 2058.22 136.649 9.2197031e-39
1989.64 2066.01 139.92999 9.2197031e-39
1998.0299 2064.3801 138.64534 9.2197031e-39
2004.2649 2065.5925 137.23349 9.2197031e-39
1988.05 2070.55 139.371 9.2197031e-39
424.65601 3666.98 134 9.2197031e-39
3177.0801 831.89398 148.091 9.2197031e-39
3181.8701 845.96002 144.522 9.2197031e-39
3182.3201 864.34998 140.95599 9.2197031e-39
2177.52 1828.3149 149.24701 9.2197031e-39
2182.075 1828.105 148.42349 9.2197031e-39
2166.73 1839.05 149.26401 9.2197031e-39
2173.1335 1835.4933 148.72166 9.2197031e-39
2183.4141 1835.986 146.6772 9.2197031e-39
2164.75 1844.15 148.67551 9.2197031e-39
2184.0649 1846.825 144.504 9.2197031e-39
2197.9834 1842.1967 142.73799 9.2197031e-39
2203.9651 1844.3451 141.19699 9.2197031e-39
2159.8501 1850.3101 148.438 9.2197031e-39
2179.6799 1853.51 144.071 9.2197031e-39
2185.064 1853.0859 143.12999 9.2197031e-39
1974.8101 2038.4399 147.959 9.2197031e-39
1975.9434 2043.2118 146.84016 9.2197031e-39
1985.6832 2046.1832 144.431 9.2197031e-39
1995.0468 2045.84 142.71899 9.2197031e-39
1964.98 2052.55 147.153 9.2197031e-39
1979.75 2050.6001 144.72099 9.2197031e-39
1992.3 2053.2939 141.82962 9.2197031e-39
1983.4824 2066.415 141.02051 9.2197031e-39
-183.69501 4200.7402 148.455 9.2197031e-39
-176.245 4231.27 141.26401 9.2197031e-39
3184.26 764.29498 159.51801 9.2197031e-39
3185.0801 783.72601 155.687 9.2197031e-39
3180.23 808.987 151.826 9.2197031e-39
2167.3999 1824.55 151.88049 9.2197031e-39
-184.269 4164.0098 155.511 9.2197031e-39
3185.0901 721.448 167.466 9.2197031e-39
3186.46 741.03003 163.50101 9.2197031e-39
-180.347 4087.6001 169.224 9.2197031e-39
-183.64799 4126.7402 162.444 9.2197031e-39
3190.49 671.33081 175.924 9.2197031e-39
3183.46 701.80829 171.491 9.2197031e-39
96.1054 3801.54 170.88499 9.2197031e-39
3195.8101 642.20502 180.425 9.2197031e-39
2959.6001 -456.5 433.10501 9.2197031e-39
2924.9199 -422.60999 433.276 9.2197031e-39
2890.24 -386.45001 433.01199 9.2197031e-39
2858.22 -426.66003 446.69601 9.2197031e-39
2879.8201 -423.62 442.02301 9.2197031e-39
2848.04 -467.48999 456.353 9.2197031e-39
2829.4299 -481.64001 462.56299 9.2197031e-39
2801.99 -465.10999 464.64099 9.2197031e-39
2809.8799 -576.43994 484.207 9.2197031e-39
-1147.8199 3310.8401 499.755 9.2197031e-39
2825.23 -723.47998 509.11099 9.2197031e-39
-1346.24 3461.5601 508.888 9.2197031e-39
2802.8501 -732.60999 515.086 9.2197031e-39
-1363.5601 3434.0601 517.37903 9.2197031e-39
2787.21 -769.45996 525.02399 9.2197031e-39
2740.29 -782.04004 536.30798 9.2197031e-39
2765.5 -783.07996 531.72101 9.2197031e-39
2728.8601 -843.63 550.12701 9.2197031e-39
-1051.6 2906.3501 558.02197 9.2197031e-39
-1527.13 3394.4199 555.91602 9.2197031e-39
2715.79 -902.27002 563.703 9.2197031e-39
2681.71 -860.96997 562.35602 9.2197031e-39
2655.6299 -857.18994 566.591 9.2197031e-39
2633.01 -871.66003 573.61902 9.2197031e-39
2607.3 -869.39001 578.06799 9.2197031e-39
-1172.13 2911.3501 579.94501 9.2197031e-39
2583.5801 -878.57996 584.30798 9.2197031e-39
2565.5 -924.66003 596.45502 9.2197031e-39
-1365.1 3031.26 593.87701 9.2197031e-39
-2095.48 3657.8 613.93201 9.2197031e-39
2560.1599 -1062.4399 623.53601 9.2197031e-39
-1484.77 2934.1899 634.948 9.2197031e-39
-1522.24 2977.6899 633.82703 9.2197031e-39
-2862.78 4266.25 644.41699 9.2197031e-39
-2882.02 4223.8101 656.09601 9.2197031e-39
-2431.99 3703.1499 669.20502 9.2197031e-39
-2880.8401 4172.3501 665.60602 9.2197031e-39
2581.1101 -1407.58 684.85498 9.2197031e-39
-2209.9299 3328.8 697.89099 9.2197031e-39
-2218.1201 3372.1899 691.237 9.2197031e-39
-2573.1899 3711.25 694.46503 9.2197031e-39
2563.3799 -1500.55 705.81 9.2197031e-39
2532.8201 -1500.3601 711.573 9.2197031e-39
2501.72 -1495 716.45801 9.2197031e-39
-2683.96 3705.8899 716.49799 9.2197031e-39
2471.4399 -1496.22 722.435 9.2197031e-39
2413.05 -1523.4099 738.65997 9.2197031e-39
2442.1799 -1507.98 730.21399 9.2197031e-39
2351.6599 -1519.1201 749.495 9.2197031e-39
2381.99 -1516.98 743.33502 9.2197031e-39
1687.1899 -832.54004 745.68701 9.2197031e-39
1665.53 -809.53003 745.44299 9.2197031e-39
1643.25 -792.15002 746.383 9.2197031e-39
1619.5 -784.20996 749.38898 9.2197031e-39
-2810.8401 3704.3101 740.87097 9.2197031e-39
2320.6499 -1510.1799 753.68799 9.2197031e-39
1596.5601 -772.23999 751.47699 9.2197031e-39
1572.83 -764.88 754.586 9.2197031e-39
1549.38 -756.35999 757.42401 9.2197031e-39
-2263.02 3061.8999 758.45898 9.2197031e-39
-2265.22 3102.47 751.20203 9.2197031e-39
-2796.8301 3605.6201 756.883 9.2197031e-39
-2834.6101 3665.3 752.763 9.2197031e-39
1837.74 -1111.02 769.80402 9.2197031e-39
1522.3101 -764.81006 764.159 9.2197031e-39
1499.75 -752.05005 766.026 9.2197031e-39
1477.13 -740.06006 768.05103 9.2197031e-39
-2258.52 3020.97 765.34802 9.2197031e-39
1862.24 -1145.49 771.67798 9.2197031e-39
1810.9301 -1105.61 773.86798 9.2197031e-39
1426.12 -740.12 777.74103 9.2197031e-39
1451.4301 -741.16003 773.13501 9.2197031e-39
-2257.49 2981.0701 772.703 9.2197031e-39
1782.41 -1116.52 781.34399 9.2197031e-39
1756.14 -1105.77 784.29602 9.2197031e-39
1400.02 -741.67004 782.987 9.2197031e-39
1376.13 -734.52002 786.16699 9.2197031e-39
-2294.76 2949.8 785.69 9.2197031e-39
1728.0699 -1110.34 790.48602 9.2197031e-39
1350.1801 -734.65002 791.11603 9.2197031e-39
1696.37 -1140.8199 802.26801 9.2197031e-39
1315.71 -763.52002 803.117 9.2197031e-39
-963.58801 1431.141 820.41199 9.2197031e-39
-998.04303 1453.3679 822.74402 9.2197031e-39
1894.53 -1506.49 833.84802 9.2197031e-39
-986.61102 1398.79 830.90002 9.2197031e-39
-1024.62 1362.996 844.88397 9.2197031e-39
2318.02 -2057.3601 857.70801 9.2197031e-39
1637.66 -1355.85 854.08899 9.2197031e-39
-1015.41 1307.1011 853.711 9.2197031e-39
-1064.12 1326.085 859.36298 9.2197031e-39
1856.38 -1610.9299 860.84601 9.2197031e-39
2249.28 -2104.0901 879.59198 9.2197031e-39
2284.8301 -2103.98 872.82599 9.2197031e-39
2213.52 -2096.02 884.84998 9.2197031e-39
-1109.45 1257.183 881 9.2197031e-39
2142.52 -2094.6899 898.07098 9.2197031e-39
2178.02 -2095.51 891.48999 9.2197031e-39
2107.0801 -2050.3201 896.40198 9.2197031e-39
1186.9 -1103.23 891.828 9.2197031e-39
1903.83 -1900.0701 906.54303 9.2197031e-39
-1161.8 1184.3669 904.70898 9.2197031e-39
-1197.1 1206.8621 907.151 9.2197031e-39
2035.98 -2091.3401 917.65302 9.2197031e-39
2071.49 -2093.0901 911.24597 9.2197031e-39
1139.28 -1160.0601 911.61499 9.2197031e-39
-904.48602 864.54602 916.39001 9.2197031e-39
-1185.9399 1147.5129 916.26202 9.2197031e-39
2000.47 -2089.28 924.00098 9.2197031e-39
1104.83 -1171.79 920.37 9.2197031e-39
-883.75 810.98401 922.58801 9.2197031e-39
-908.32098 832.40802 923.19702 9.2197031e-39
-950.65698 878.52899 922.505 9.2197031e-39
-1191.6 1083.438 929.45801 9.2197031e-39
-1193.64 1114.318 924.00299 9.2197031e-39
-2044.0699 1942.42 928.70599 9.2197031e-39
-2060.1799 1978.75 924.888 9.2197031e-39
1929.09 -2093.05 938.25897 9.2197031e-39
1964.98 -2086.9099 930.28802 9.2197031e-39
-1203.34 1048.588 938.27899 9.2197031e-39
-939.37598 726.17603 949.18799 9.2197031e-39
-959.18903 750.03003 948.43402 9.2197031e-39
-2230.27 2016.91 949.94397 9.2197031e-39
648.61298 -901.12 955.72998 9.2197031e-39
-950.72498 689.4364 958.29199 9.2197031e-39
649.99402 -963.25 967.22302 9.2197031e-39
609.25299 -913.97998 965.633 9.2197031e-39
-704.45099 384.509 969.25 9.2197031e-39
-720.76202 408.72302 967.76398 9.2197031e-39
544.73602 -910.19995 977.159 9.2197031e-39
579.09497 -908.41003 970.302 9.2197031e-39
633.24103 -1064.8199 989.61798 9.2197031e-39
514.91302 -903.13 981.48102 9.2197031e-39
483.16501 -899.14001 986.75 9.2197031e-39
693.22101 -1228.3101 1009.17 9.2197031e-39
668.50598 -1206.87 1009.8 9.2197031e-39
653.85999 -1164.15 1004.5 9.2197031e-39
429.01501 -933.33997 1003.5 9.2197031e-39
613.57703 -1176.6 1014.5 9.2197031e-39
703.74402 -1364.54 1032.9399 9.2197031e-39
665.36298 -1371.5699 1041.5601 9.2197031e-39
-1103.3 235.121 1073.1899 9.2197031e-39
-1354.86 483.51401 1073.9301 9.2197031e-39
-856.08698 -277.20898 1123.21 9.2197031e-39
-892.80798 -262.62299 1127.42 9.2197031e-39
-853.02301 -317.32098 1130.22 9.2197031e-39
-1559.12 356.69299 1136.6801 9.2197031e-39
788.00403 -2036.3799 1144.0601 9.2197031e-39
750.76703 -2028.96 1149.72 9.2197031e-39
715.14398 -2016.6101 1154.14 9.2197031e-39
677.96301 -2008.53 1159.67 9.2197031e-39
-1587.96 304.26001 1152.08 9.2197031e-39
643.49597 -1992.8101 1163.24 9.2197031e-39
562.96802 -1991.27 1178.22 9.2197031e-39
602.94897 -1993.1499 1170.99 9.2197031e-39
60.6306 -1496.6101 1179.96 9.2197031e-39
-1567.27 152.06601 1176.9399 9.2197031e-39
521.79602 -1991.6899 1186.12 9.2197031e-39
18.2873 -1496.5601 1187.98 9.2197031e-39
-1556.78 74.492981 1189.63 9.2197031e-39
-1562.22 113.31601 1183.3199 9.2197031e-39
484.17099 -1982.73 1191.5601 9.2197031e-39
-58.695 -1481.9099 1199.8199 9.2197031e-39
-19.6672 -1488.6101 1193.6801 9.2197031e-39
-489.79199 -1027.6 1195.67 9.2197031e-39
-1538.95 41.939026 1192.41 9.2197031e-39
-106.148 -1487.8201 1209.9399 9.2197031e-39
-464.56 -1109.26 1206.33 9.2197031e-39
-475.237 -1065.84 1200.14 9.2197031e-39
-434.86499 -1188.03 1215.6 9.2197031e-39
-451.487 -1150.51 1211.66 9.2197031e-39
-410.939 -1276.71 1227.84 9.2197031e-39
-421.98999 -1230.8199 1221.25 9.2197031e-39
-380.07999 -1359.41 1237.63 9.2197031e-39
-391.668 -1312.6801 1230.99 9.2197031e-39
-361.005 -1396.88 1241.1 9.2197031e-39
-5344.71 3558.3401 1249.29 9.2197031e-39
-1600.49 -254.75702 1260.21 9.2197031e-39
-5340.5 3490.47 1261.33 9.2197031e-39
-721.36603 -1235.51 1278.95 9.2197031e-39
-1492.84 -464.33997 1279.4399 9.2197031e-39
-5340.5298 3423.7 1273.97 9.2197031e-39
-1530.39 -442.17004 1282.37 9.2197031e-39
-1567.85 -419.54004 1285.2 9.2197031e-39
-1611.74 -400.60999 1289.9399 9.2197031e-39
-1637.55 -369.836 1289.02 9.2197031e-39
-1668.08 -341.83801 1289.51 9.2197031e-39
-5338.9902 3356.8301 1286.33 9.2197031e-39
-1498.2 -515.68005 1290.17 9.2197031e-39
-5342.6899 3291.0801 1299.47 9.2197031e-39
-1531.41 -587.33997 1310.03 9.2197031e-39
-5350.6802 3226.1499 1313.27 9.2197031e-39
-5367.8599 3162.7 1328.53 9.2197031e-39
-395.36099 -1862.29 1335.67 9.2197031e-39
-5385.4702 3099.1399 1343.9 9.2197031e-39
-5202.8901 2878.26 1351.04 9.2197031e-39
-5391.77 3033.8201 1357.45 9.2197031e-39
-5374.9902 2965.4399 1367.2 9.2197031e-39
-506.26401 -1954.1299 1374.09 9.2197031e-39
-5288.6499 2823.8501 1377.61 9.2197031e-39
-557.56201 -1953.9099 1383.78 9.2197031e-39
-599.16699 -1938.78 1388.8101 9.2197031e-39
-649.66602 -1935.8601 1397.84 9.2197031e-39
-680.00403 -1904.1299 1397.59 9.2197031e-39
-5388.6699 2769.53 1406.86 9.2197031e-39
-5386.2002 2703.5601 1418.88 9.2197031e-39
-1246.46 -1500.28 1428.67 9.2197031e-39
-4871.8999 2165.45 1423.09 9.2197031e-39
-1222.98 -1538.9399 1431.53 9.2197031e-39
-4881.0298 2104.6899 1436.3199 9.2197031e-39
-5388.0601 2638.0801 1431.62 9.2197031e-39
-5391.3101 2572.75 1444.59 9.2197031e-39
-1346.14 -1539.25 1454.96 9.2197031e-39
-5384.1699 2506.6699 1455.74 9.2197031e-39
-5386.27 2441.3398 1468.5 9.2197031e-39
-1434.5 -1564.45 1476.49 9.2197031e-39
-4886.6499 1860.27 1483.63 9.2197031e-39
-5269.23 2240.79 1484.23 9.2197031e-39
-5387.8101 2375.97 1481.16 9.2197031e-39
-4884.2598 1799.08 1494.75 9.2197031e-39
-5389.75 2310.6099 1493.89 9.2197031e-39
-1542.9301 -1607.28 1505.17 9.2197031e-39
-1898.17 -1241.48 1503.37 9.2197031e-39
-4883.2998 1737.83 1506.15 9.2197031e-39
-1853.86 -1325.36 1510.83 9.2197031e-39
-1909.16 -1310.36 1518.49 9.2197031e-39
-4888.6602 1676.25 1518.8199 9.2197031e-39
-1380.76 -1910.55 1531.77 9.2197031e-39
-4891.52 1614.621 1531.02 9.2197031e-39
-1444.96 -1910.76 1544 9.2197031e-39
-4894.8101 1552.825 1543.34 9.2197031e-39
-1498.92 -1898.8501 1551.98 9.2197031e-39
-4886.7998 1491.646 1553.39 9.2197031e-39
-4889.98 1429.629 1565.73 9.2197031e-39
-4886.75 1367.989 1576.78 9.2197031e-39
-4884.9399 1306.14 1588.13 9.2197031e-39
-4883.54 1244.1379 1599.6 9.2197031e-39
-1844.6 -1833.24 1605.16 9.2197031e-39
-4858.6099 1060.054 1629.7 9.2197031e-39
-4878.1401 1120.0649 1622.05 9.2197031e-39
-1983.52 -1896.1899 1643.4301 9.2197031e-39
-2047.42 -1886.03 1653.64 9.2197031e-39
-2122.21 -1884.8 1667.59 9.2197031e-39
-2609.8601 -1408.92 1670.1 9.2197031e-39
-2203.8201 -1888.3601 1683.75 9.2197031e-39
-2608.3999 -1472.72 1681.89 9.2197031e-39
-2269.8799 -1876.76 1694.09 9.2197031e-39
-2344.8899 -1871.8701 1707.4 9.2197031e-39
-2440.1001 -1882.8201 1727.54 9.2197031e-39
-2601.78 -1735.8899 1730.42 9.2197031e-39
-5400.7798 -193.508 1969.73 9.2197031e-39
-5422.21 -272.487 1988.74 9.2197031e-39
-5424.2202 -346.32898 2003.09 9.2197031e-39
-5421.7998 -419.23999 2016.42 9.2197031e-39
-5413.1401 -490.52002 2028.27 9.2197031e-39
-5327.6802 -610.32996 2034.72 9.2197031e-39
-5426.8398 -569.64001 2045.83 9.2197031e-39
-4763.6001 -1277.03 2053.8101 9.2197031e-39
-4806.1299 -1221.55 2051.3899 9.2197031e-39
-4865.54 -1402.09 2096.8201 9.2197031e-39
