# .PCD v0.7 - Point Cloud Data file format
VERSION 0.7
FIELDS x y z rgb
SIZE 4 4 4 4
TYPE F F F F
COUNT 1 1 1 1
WIDTH 306
HEIGHT 1
VIEWPOINT 0 0 0 1 0 0 0
POINTS 306
DATA ascii
2525.21 -1194.36 134 9.2197031e-39
2532.48 -1184.7 136.14999 9.2197031e-39
2540.8601 -1187.92 138.31799 9.2197031e-39
2468.95 -381.89001 136.65401 9.2197031e-39
2476.5232 -381.85336 138.67799 9.2197031e-39
2468.0901 -375.94452 136.5545 9.2197031e-39
2471.1567 -373.06332 137.43599 9.2197031e-39
2453.26 -101.74902 138.561 9.2197031e-39
2454.125 -94.325012 138.953 9.2197031e-39
2454.02 -85.282013 139.121 9.2197031e-39
1795.6899 7758.9702 134.00101 9.2197031e-39
2568.02 -1366.0601 141.69701 9.2197031e-39
2496.5601 -444.57996 142.66499 9.2197031e-39
2494.97 -430.55005 142.54401 9.2197031e-39
2489.24 -420.65002 141.23 9.2197031e-39
2483.8301 -403.44 140.16 9.2197031e-39
2490.8799 -404.75995 142.0135 9.2197031e-39
2511.1001 -406.41003 147.379 9.2197031e-39
2490.1001 -393.57001 142.05 9.2197031e-39
2497.29 -380.72998 144.24899 9.2197031e-39
2488.01 -374.38199 141.907 9.2197031e-39
2494.6125 -374.77625 143.66325 9.2197031e-39
2486.0249 -367.6915 141.5235 9.2197031e-39
2491.9199 -368.87799 143.07201 9.2197031e-39
2491.01 -114.996 148.3535 9.2197031e-39
2471.8701 -101.09998 143.545 9.2197031e-39
2468.6152 -95.427521 142.798 9.2197031e-39
2472.49 -93.096336 143.88399 9.2197031e-39
2489.3101 -91.208008 148.418 9.2197031e-39
2492.4951 -95.944504 149.16501 9.2197031e-39
2458.9099 -88.133972 140.36501 9.2197031e-39
2464.97 -86.505981 142.01833 9.2197031e-39
2478.115 -85.097504 145.56 9.2197031e-39
2493.1101 -83.02002 149.61 9.2197031e-39
2457.0801 -76.958984 140.121 9.2197031e-39
2464.6926 -75.701004 142.17999 9.2197031e-39
2485.8633 -75.376839 147.84117 9.2197031e-39
2491.855 -74.806 149.45349 9.2197031e-39
2683.3301 -2139.8201 155.65401 9.2197031e-39
2699.3601 -2137.7 159.981 9.2197031e-39
2665.5601 -2126.8799 151.189 9.2197031e-39
2552.0901 -495.16003 156.394 9.2197031e-39
2535.97 -460.85999 152.834 9.2197031e-39
2523.3101 -433.73999 150.04201 9.2197031e-39
2495.97 -95.612 150.10001 9.2197031e-39
2502.6699 -88.630981 152.03999 9.2197031e-39
1863.76 7755.1802 152.099 9.2197031e-39
2597.79 -590.43994 166.526 9.2197031e-39
2573.3899 -540.22998 161.101 9.2197031e-39
2618.6699 -630.18005 171.237 9.2197031e-39
1931.15 7759.75 170.196 9.2197031e-39
2696.5601 -777.26495 188.83701 9.2197031e-39
2661.72 -717.80005 180.828 9.2197031e-39
1998.58 7763.71 188.28999 9.2197031e-39
2721.3799 -799.31995 194.985 9.2197031e-39
2706.78 -781.07996 191.48399 9.2197031e-39
2723.54 -785.815 195.85599 9.2197031e-39
2732.27 -785.60999 198.19299 9.2197031e-39
2735.01 -779.52002 199.058 9.2197031e-39
2758.99 -801.27002 204.989 9.2197031e-39
2744.3 -785.67004 201.40401 9.2197031e-39
2754.95 -782.87 204.30901 9.2197031e-39
2761.51 -783.55005 206.04601 9.2197031e-39
2776.26 -787.21997 209.90601 9.2197031e-39
2763.0801 -775.56995 206.64 9.2197031e-39
2066.04 7767.0698 206.38 9.2197031e-39
2782.9099 -782.32501 211.78799 9.2197031e-39
2793.905 -779.15497 214.79401 9.2197031e-39
2804.605 -775.35004 217.735 9.2197031e-39
2846.0801 -780.28003 228.702 9.2197031e-39
2813.6101 -773.78003 220.173 9.2197031e-39
2823.1851 -772.86499 222.75 9.2197031e-39
2834.55 -774.18994 225.756 9.2197031e-39
2133.53 7769.8101 224.464 9.2197031e-39
2855.96 -783.82996 231.26401 9.2197031e-39
2855.1499 -773.05005 231.282 9.2197031e-39
2859.03 -768.58997 232.416 9.2197031e-39
2861.6499 -762.54004 233.246 9.2197031e-39
2865.4451 -753.45001 234.45801 9.2197031e-39
2872.77 -744.36499 236.6125 9.2197031e-39
2879.46 -738.96997 238.51601 9.2197031e-39
2880.3999 -731.35999 238.93401 9.2197031e-39
2887.25 -726.21497 240.87451 9.2197031e-39
2894.05 -720.97998 242.804 9.2197031e-39
2898.77 -717.66003 244.13699 9.2197031e-39
2902.79 -713.58997 245.299 9.2197031e-39
2907.7051 -706.35999 246.77051 9.2197031e-39
2912.54 -699.06995 248.218 9.2197031e-39
2914.7 -677.59998 249.26401 9.2197031e-39
2201.05 7771.9502 242.541 9.2197031e-39
2920.7749 -695.16498 250.504 9.2197031e-39
2927.0898 -677.57501 252.571 9.2197031e-39
2934.4199 -672.71997 254.63699 9.2197031e-39
2942.49 -672.21997 256.802 9.2197031e-39
2946.8601 -668.39001 258.05301 9.2197031e-39
2951.96 -665.15002 259.48499 9.2197031e-39
2274.04 7528.5698 256.73901 9.2197031e-39
2957.04 -661.85999 260.91299 9.2197031e-39
2961.5649 -654.33002 262.2865 9.2197031e-39
2966.01 -646.75 263.63699 9.2197031e-39
2970.97 -643.27002 265.039 9.2197031e-39
2972.8 -637.34998 265.655 9.2197031e-39
2980.8401 -636.14001 267.82901 9.2197031e-39
2977.0601 -626.09998 267.03699 9.2197031e-39
2977.9099 -619.59998 267.40701 9.2197031e-39
2987.49 -619.33997 269.97101 9.2197031e-39
2989.0601 -613.34998 270.521 9.2197031e-39
2992.9299 -605.44501 271.72501 9.2197031e-39
3000.78 -600.19995 273.93701 9.2197031e-39
3002.98 -594.68005 274.64401 9.2197031e-39
3013.3899 -594.35999 277.431 9.2197031e-39
3015.53 -588.73999 278.125 9.2197031e-39
3014.45 -577.755 278.07501 9.2197031e-39
3018.26 -569.82996 279.26401 9.2197031e-39
2339.48 7532.4502 274.30099 9.2197031e-39
3030.3401 -570.01001 282.48801 9.2197031e-39
3026.29 -560.93005 281.603 9.2197031e-39
3037.5801 -557.04004 284.7045 9.2197031e-39
3038.53 -547.44995 285.16501 9.2197031e-39
3046.3 -544.79004 287.29901 9.2197031e-39
3049.72 -539.81995 288.32001 9.2197031e-39
3053.1001 -534.81006 289.332 9.2197031e-39
3058.2 -530.60999 290.784 9.2197031e-39
3071.2 -530.06995 294.26901 9.2197031e-39
3070.0801 -522.81006 294.12799 9.2197031e-39
3072.4399 -517.18994 294.88101 9.2197031e-39
3080.99 -514.28003 297.228 9.2197031e-39
3076.1201 -505.5 296.11801 9.2197031e-39
3077.4399 -499.44995 296.60101 9.2197031e-39
3086.075 -493.07996 299.0455 9.2197031e-39
3087.4099 -483.71997 299.60599 9.2197031e-39
3069.1699 -423.83502 296.03799 9.2197031e-39
3076.5701 -416.88 298.16699 9.2197031e-39
3075.01 -407.32501 297.95648 9.2197031e-39
2405.03 7527.75 291.703 9.2197031e-39
3091.3401 -475.38501 300.83701 9.2197031e-39
3104.8301 -467.11005 304.62048 9.2197031e-39
3103.9448 -453.68994 304.677 9.2197031e-39
3118.1599 -448.44995 308.58701 9.2197031e-39
3089.28 -401.96997 301.884 9.2197031e-39
3111.3101 -401.31 307.78299 9.2197031e-39
3105.1001 -393.51001 306.29401 9.2197031e-39
3090.3101 -383.89001 302.55399 9.2197031e-39
3084.1101 -370.47803 301.189 9.2197031e-39
3090.55 -377.88098 302.74899 9.2197031e-39
3085.1799 -364.72699 301.60101 9.2197031e-39
3086.21 -358.96698 302 9.2197031e-39
3094.8 -354.58698 304.39099 9.2197031e-39
3102.4199 -349.89502 306.52701 9.2197031e-39
3112.8701 -345.54303 309.41199 9.2197031e-39
3110.8601 -339.08899 309.017 9.2197031e-39
2470.49 7522.46 309.07001 9.2197031e-39
3132.73 -336.15802 314.922 9.2197031e-39
2536.04 7531.5698 326.77399 9.2197031e-39
2601.4099 7523.0898 344.048 9.2197031e-39
3486.27 -377.98999 408.42899 9.2197031e-39
3491.21 -369.09497 409.94199 9.2197031e-39
3483.5701 -349.18799 408.33499 9.2197031e-39
3484.3398 -335.10352 408.8465 9.2197031e-39
3485.9099 -321.091 409.57199 9.2197031e-39
3485.5701 -311.64203 409.686 9.2197031e-39
3479.98 -245.85699 409.625 9.2197031e-39
3479.97 -236.53101 409.82501 9.2197031e-39
3470.54 -181.01501 408.513 9.2197031e-39
3491.28 -359.55499 410.16699 9.2197031e-39
3487.0801 -302.32703 410.29199 9.2197031e-39
3487.54 -292.93597 410.62 9.2197031e-39
3487.9299 -283.54199 410.927 9.2197031e-39
3488.24 -274.14398 411.21301 9.2197031e-39
3488.46 -264.74298 411.478 9.2197031e-39
3487.6399 -255.323 411.465 9.2197031e-39
3479.8799 -227.20398 410.00299 9.2197031e-39
3479.71 -217.87799 410.16101 9.2197031e-39
3481.3999 -208.50098 410.815 9.2197031e-39
3479.1399 -199.23102 410.414 9.2197031e-39
3480.6599 -189.82501 411.026 9.2197031e-39
3479.6201 -171.16199 411.15302 9.2197031e-39
3478.98 -161.83801 411.185 9.2197031e-39
3476.3301 -152.677 410.677 9.2197031e-39
3484.1899 -142.59802 412.996 9.2197031e-39
3476.5801 -133.90302 411.15302 9.2197031e-39
3484.27 -123.66498 413.42899 9.2197031e-39
3483.23 -114.29797 413.354 9.2197031e-39
3482.1101 -104.94098 413.258 9.2197031e-39
3480.9099 -95.593994 413.14099 9.2197031e-39
3479.6299 -86.257019 413.00299 9.2197031e-39
3478.27 -76.932007 412.84399 9.2197031e-39
3476.8301 -67.619019 412.66299 9.2197031e-39
3484.8401 -56.669006 415.039 9.2197031e-39
3481.3301 -47.643005 414.29901 9.2197031e-39
3479.6499 -38.302002 414.052 9.2197031e-39
3477.8899 -28.97699 413.785 9.2197031e-39
3484.5601 -17.872986 415.80801 9.2197031e-39
3483.5701 -8.2940063 415.75201 9.2197031e-39
3481.55 1.0670166 415.418 9.2197031e-39
3477.29 19.736023 414.68399 9.2197031e-39
3481.3401 10.861023 415.57401 9.2197031e-39
3474.5801 38.825989 414.37601 9.2197031e-39
3485.3301 31.700989 417.09399 9.2197031e-39
3476.1799 59.237 415.24899 9.2197031e-39
3480.55 50.435974 416.224 9.2197031e-39
3482.8701 71.288025 417.297 9.2197031e-39
3477.4199 89.976013 416.24799 9.2197031e-39
3480.1799 80.643982 416.78299 9.2197031e-39
3483.77 102.28998 418.21301 9.2197031e-39
3480.8301 111.65399 417.63 9.2197031e-39
3479.6299 121.62701 417.52701 9.2197031e-39
3482.8999 133.233 418.65302 9.2197031e-39
3479.6899 142.59 418 9.2197031e-39
3476.3999 151.918 417.32501 9.2197031e-39
3482.0701 164.71799 419.116 9.2197031e-39
3477.7 173.70999 418.14401 9.2197031e-39
3474.1499 183.01999 417.39899 9.2197031e-39
3478.5601 195.67001 418.853 9.2197031e-39
3474.8301 204.98801 418.05899 9.2197031e-39
3479.8899 218.17999 419.69699 9.2197031e-39
3475.96 227.51001 418.85199 9.2197031e-39
3475.77 249.797 419.28601 9.2197031e-39
3472.45 259.513 418.61099 9.2197031e-39
3471.6201 281.948 418.87799 9.2197031e-39
3470.3501 304.50601 419.02802 9.2197031e-39
3468.6201 327.17999 419.06 9.2197031e-39
3480.76 240.87201 420.42499 9.2197031e-39
3476.8799 273.082 420.08801 9.2197031e-39
3474.9199 295.21899 420.048 9.2197031e-39
3473.3899 317.90701 420.13101 9.2197031e-39
3471.3999 340.70401 420.09601 9.2197031e-39
3473.1799 353.83701 420.858 9.2197031e-39
3469.79 364.09302 420.17499 9.2197031e-39
3470.47 376.83301 420.63501 9.2197031e-39
3467.3 399.91498 420.29001 9.2197031e-39
3472.6799 390.64801 421.52399 9.2197031e-39
3470.05 414.358 421.33899 9.2197031e-39
3471 427.841 421.88699 9.2197031e-39
3473.4299 442.466 422.854 9.2197031e-39
3474.8799 456.64099 423.54999 9.2197031e-39
3476.1699 470.896 424.20401 9.2197031e-39
3470.1201 480.19598 422.789 9.2197031e-39
3471.1201 494.53799 423.37 9.2197031e-39
3465.6499 504.366 422.12399 9.2197031e-39
3466.3701 518.797 422.62799 9.2197031e-39
3466.9199 533.29749 423.09 9.2197031e-39
3467.3 547.86688 423.509 9.2197031e-39
3466.74 561.90112 423.66501 9.2197031e-39
3467.55 577.20319 424.21399 9.2197031e-39
3467.4199 591.96619 424.50101 9.2197031e-39
3460.3401 601.18848 422.81201 9.2197031e-39
3465.8999 621.04315 424.72699 9.2197031e-39
3463.77 634.70361 424.457 9.2197031e-39
3463.7 650.31989 424.77802 9.2197031e-39
3461.98 664.70367 424.63199 9.2197031e-39
3460.8201 679.78088 424.651 9.2197031e-39
3459.49 694.90692 424.62299 9.2197031e-39
3458.6899 710.74847 424.754 9.2197031e-39
3462.6599 731.37598 426.263 9.2197031e-39
3461.4399 747.375 426.285 9.2197031e-39
3458.6299 762.05103 425.854 9.2197031e-39
3462.5601 783.69702 427.37601 9.2197031e-39
3459.3501 798.48303 426.84 9.2197031e-39
3462.76 820.35999 428.22699 9.2197031e-39
3459.1499 835.24701 427.586 9.2197031e-39
3463.3601 858.78101 429.224 9.2197031e-39
3453.3799 867.245 426.741 9.2197031e-39
3456.4299 890.23596 428.056 9.2197031e-39
3458.51 912.63 429.10001 9.2197031e-39
3455.8 929.948 428.75299 9.2197031e-39
3457.3201 952.54797 429.65201 9.2197031e-39
3453.8501 991.25299 429.565 9.2197031e-39
3451.8101 1033.282 429.936 9.2197031e-39
3449.47 1053.246 429.74399 9.2197031e-39
3459.1699 976.01904 430.65701 9.2197031e-39
3454.51 1014.143 430.23999 9.2197031e-39
3450.45 1077.96 430.54401 9.2197031e-39
3449.8999 1101.215 430.905 9.2197031e-39
3449.04 1124.562 431.18301 9.2197031e-39
3447.8601 1147.9971 431.379 9.2197031e-39
3444.0901 1168.3 430.811 9.2197031e-39
3447.3701 1199.157 432.35901 9.2197031e-39
3446.3 1224.4829 432.62601 9.2197031e-39
3442.1399 1245.806 431.979 9.2197031e-39
3441.5 1272.9341 432.396 9.2197031e-39
3443.1399 1304.3091 433.51999 9.2197031e-39
3437.99 1325.8259 432.612 9.2197031e-39
3440.3799 1359.9451 433.992 9.2197031e-39
3436.6101 1384.952 433.52899 9.2197031e-39
3436.04 1415.949 434.05099 9.2197031e-39
3433.02 1443.651 433.84799 9.2197031e-39
3431.5801 1474.854 434.14301 9.2197031e-39
3429.21 1505.298 434.17099 9.2197031e-39
3425.9099 1534.9651 433.93701 9.2197031e-39
3426.4299 1572.5381 434.89301 9.2197031e-39
3425.46 1608.509 435.41699 9.2197031e-39
3425.3301 1647.24 436.22501 9.2197031e-39
3425.96 1688.75 437.297 9.2197031e-39
3425.0901 1728.65 437.93201 9.2197031e-39
3417.54 1756.21 436.51501 9.2197031e-39
3419.8301 1805.26 438.194 9.2197031e-39
3417.6001 1846.41 438.49399 9.2197031e-39
3414.3401 1886.78 438.50101 9.2197031e-39
3414.8999 1937.22 439.74899 9.2197031e-39
3413.5 1985.1 440.41699 9.2197031e-39
3410.98 2032.21 440.76901 9.2197031e-39
3409.25 2083.1201 441.41599 9.2197031e-39
3406 2132.3198 441.617 9.2197031e-39
3404.8999 2189.04 442.55899 9.2197031e-39
3404.3501 2249.6299 443.73001 9.2197031e-39
