# .PCD v0.7 - Point Cloud Data file format
VERSION 0.7
FIELDS x y z rgb
SIZE 4 4 4 4
TYPE F F F F
COUNT 1 1 1 1
WIDTH 327
HEIGHT 1
VIEWPOINT 0 0 0 1 0 0 0
POINTS 327
DATA ascii
307.651 -440.97998 134.244 9.2197031e-39
301.24399 -424.35999 138.944 9.2197031e-39
2049.25 629.99908 139.383 9.2197031e-39
2053.1602 633.64148 139.6795 9.2197031e-39
2065.1433 634.37915 138.19267 9.2197031e-39
2307.25 771.99799 136.323 9.2197031e-39
3274.3 1343.515 133.85899 9.2197031e-39
3275.29 1357.296 136.88699 9.2197031e-39
3276.6699 1370.238 139.666 9.2197031e-39
294.94901 -405.64001 144.11301 9.2197031e-39
285.392 -390.92999 148.811 9.2197031e-39
2034.88 628.22827 140.963 9.2197031e-39
2037.8025 634.7821 142.06424 9.2197031e-39
2045.13 636.55676 141.459 9.2197031e-39
2045.98 645.28113 143.34399 9.2197031e-39
2052.365 647.35229 142.93726 9.2197031e-39
2024.225 657.6123 149.1815 9.2197031e-39
2034.9525 655.70898 147.26149 9.2197031e-39
2046.3766 654.22784 145.343 9.2197031e-39
2054.71 652.92084 143.8905 9.2197031e-39
2035.7959 664.19012 149.09219 9.2197031e-39
2049.0601 670.23303 148.647 9.2197031e-39
2053.5701 675.43182 149.217 9.2197031e-39
2287.7349 788.29095 142.75925 9.2197031e-39
2292.7634 787.1994 141.81401 9.2197031e-39
2270.1599 792.46399 146.146 9.2197031e-39
2288.9766 795.63202 144.27266 9.2197031e-39
2284.3835 805.758 147.23166 9.2197031e-39
2295.3301 807.15698 146.0405 9.2197031e-39
2297.51 815.81549 147.7265 9.2197031e-39
2340.48 826.32098 144.2 9.2197031e-39
2382.9299 861.27802 146.358 9.2197031e-39
2396.5901 869.96698 146.464 9.2197031e-39
2411.02 879.25696 146.60201 9.2197031e-39
2438.0801 898.34802 147.244 9.2197031e-39
2491.6101 938.70996 149.11099 9.2197031e-39
2532.02 966.67102 149.944 9.2197031e-39
2550.74 976.914 149.709 9.2197031e-39
2563.5701 981.65796 149.024 9.2197031e-39
2591.3601 998.03601 148.94299 9.2197031e-39
2612.51 1008.237 148.36099 9.2197031e-39
2637.6299 1021.421 147.91701 9.2197031e-39
2655.1599 1027.9709 146.99699 9.2197031e-39
2697.8201 1052.592 146.75301 9.2197031e-39
2737.9399 1073.803 146.076 9.2197031e-39
3274.8 1382.5349 142.74699 9.2197031e-39
3272.55 1393.4041 145.554 9.2197031e-39
3270.4199 1405.7261 148.677 9.2197031e-39
245.595 -370.66803 158.961 9.2197031e-39
275.078 -374.53998 153.998 9.2197031e-39
2025.27 668.31873 151.495 9.2197031e-39
2039.83 672.7121 150.491 9.2197031e-39
2040.92 671.64008 150.09399 9.2197031e-39
171.985 -387.84998 165.192 9.2197031e-39
2438.8999 969.64197 163.49699 9.2197031e-39
56.409199 -403.87 177.48801 9.2197031e-39
107.694 -400.89001 171.084 9.2197031e-39
-19.181801 -420.41003 184.138 9.2197031e-39
-172.429 -448.06995 198.96899 9.2197031e-39
-77.238899 -424.63 191.192 9.2197031e-39
-252.787 -460.31995 207.263 9.2197031e-39
3376.97 2179.25 311.51501 9.2197031e-39
3378.1299 2208.3 318.02399 9.2197031e-39
3372.8701 2227.05 323.056 9.2197031e-39
3379.8601 2265.02 330.80399 9.2197031e-39
3381.0901 2293.46 337.164 9.2197031e-39
3378.1699 2319.78 343.60699 9.2197031e-39
3376.28 2345.1899 349.703 9.2197031e-39
3377.1899 2378.1401 357.14001 9.2197031e-39
3377.9199 2408.6201 364.03601 9.2197031e-39
3374.49 2436.8901 371 9.2197031e-39
3373.25 2465.9199 377.83499 9.2197031e-39
3376.5801 2505.96 386.565 9.2197031e-39
3373.3401 2533.53 393.34201 9.2197031e-39
3371.8201 2567.98 401.46201 9.2197031e-39
3367.73 2595.6899 408.38699 9.2197031e-39
3367.26 2633.71 417.17999 9.2197031e-39
3367.8799 2670.9199 425.63599 9.2197031e-39
3365.21 2707.48 434.396 9.2197031e-39
3368.1699 2750.9399 443.96399 9.2197031e-39
3365.75 2790.3201 453.33801 9.2197031e-39
3361.6699 2823.6599 461.55499 9.2197031e-39
3212.48 2803.99 477.659 9.2197031e-39
3362.29 2871.0701 472.35199 9.2197031e-39
-782.62 438.427 486.80099 9.2197031e-39
3357.1001 2904.5601 480.759 9.2197031e-39
3311.97 2910.8 488.42801 9.2197031e-39
3341.76 2924.0801 487.35999 9.2197031e-39
-790.80499 462.09 493.36499 9.2197031e-39
-785.02399 489.33099 498.819 9.2197031e-39
3291.1101 2919.3401 493.272 9.2197031e-39
-774.953 514.19598 503.13501 9.2197031e-39
-770.67102 541.08899 508.716 9.2197031e-39
-771.06403 565.20502 514.30701 9.2197031e-39
3285.4299 3007.4099 514.27197 9.2197031e-39
-770.271 591.86023 520.31598 9.2197031e-39
-769.245 616.00842 525.71698 9.2197031e-39
-1230.99 369.71802 532.99902 9.2197031e-39
-760.052 642.76642 530.58899 9.2197031e-39
-741.75598 666.95172 533.612 9.2197031e-39
3215.4299 3068.49 537.96899 9.2197031e-39
-744.979 693.34039 540.11499 9.2197031e-39
-740.13397 717.24158 544.93201 9.2197031e-39
3175.48 3089.1001 548.22302 9.2197031e-39
3201.74 3090.77 544.97498 9.2197031e-39
-748.82501 743.80701 552.23199 9.2197031e-39
-761.36499 768.16199 559.55603 9.2197031e-39
3357.72 3213.0601 551.48901 9.2197031e-39
-745.83301 794.24799 563.39697 9.2197031e-39
3179.05 3155.1001 562.88 9.2197031e-39
3357.76 3274.1299 565.50299 9.2197031e-39
-754.96899 818.69598 570.27197 9.2197031e-39
-749.849 845.07703 575.62 9.2197031e-39
3357.8401 3331.74 578.71698 9.2197031e-39
-778.27399 870.96899 585.492 9.2197031e-39
-766.75 897.10303 589.89899 9.2197031e-39
3248.9199 3399.3899 609.29999 9.2197031e-39
-891.20898 931.27399 614.94397 9.2197031e-39
3235.46 3431.25 618.474 9.2197031e-39
3152.24 3428.5701 629.35999 9.2197031e-39
3180.46 3428.8601 625.52502 9.2197031e-39
3202.95 3420.4099 620.479 9.2197031e-39
-946.99902 964.25598 630.22601 9.2197031e-39
3126.46 3427.28 632.62799 9.2197031e-39
-873.07001 1090.3779 648.96002 9.2197031e-39
-1074.51 1002.479 656.62299 9.2197031e-39
-1103.92 1035.458 668.258 9.2197031e-39
-977.99402 1077.671 660.54498 9.2197031e-39
-904.474 1123.1221 660.81702 9.2197031e-39
-915.51898 1150.782 668.69299 9.2197031e-39
-1080.4301 1060.175 670.68597 9.2197031e-39
-897.565 1176.844 672.19397 9.2197031e-39
-905.19098 1204.2419 679.53699 9.2197031e-39
-932.37402 1238.033 691.05103 9.2197031e-39
-942.33301 1266.4829 698.95801 9.2197031e-39
-882.802 1284.5029 694.867 9.2197031e-39
-881.71301 1310.675 700.72498 9.2197031e-39
-937.48199 1351.746 717.85999 9.2197031e-39
3314.25 4074.1699 755.16803 9.2197031e-39
3140.8601 4026.54 768.19897 9.2197031e-39
3299.6001 4124.5703 768.76202 9.2197031e-39
3122.8401 4080.52 783.08002 9.2197031e-39
3302.3999 4243.3999 795.65399 9.2197031e-39
3115 4164.1201 803.35602 9.2197031e-39
3229.1699 4224.27 801.38501 9.2197031e-39
3285.8701 4294.7998 809.73798 9.2197031e-39
3088.99 4195.1699 814.07703 9.2197031e-39
3059.3701 4200.5801 819.41199 9.2197031e-39
1468.53 3272.2 826.16998 9.2197031e-39
1492.79 3270.21 822.35999 9.2197031e-39
1514.63 3286.45 823.07098 9.2197031e-39
1519.62 3361.1201 839.521 9.2197031e-39
1537.27 3398.8601 845.745 9.2197031e-39
3054.51 4322.9102 848.16602 9.2197031e-39
1529.21 3539.79 879.21002 9.2197031e-39
3032.01 4524.1699 897.47601 9.2197031e-39
3069.4299 4526.0801 892.742 9.2197031e-39
1534.6801 3642.9299 902.13098 9.2197031e-39
2961.9399 4524.5303 907.24402 9.2197031e-39
2999.8401 4529.98 903.255 9.2197031e-39
1545.14 3718.1399 917.94897 9.2197031e-39
2891.1499 4518.8398 915.71899 9.2197031e-39
2928.4399 4523.02 911.526 9.2197031e-39
2747.8201 4484.3203 927.60602 9.2197031e-39
2785.8701 4498.5498 925.61298 9.2197031e-39
2822.1699 4520.5801 925.65503 9.2197031e-39
2858.99 4523.4902 921.23199 9.2197031e-39
168.02901 3020.1499 948.05402 9.2197031e-39
194.765 3033.73 947.47803 9.2197031e-39
218.839 3046.0601 946.97998 9.2197031e-39
249.99001 3053.8799 944.46997 9.2197031e-39
276.56 3062.6799 942.81799 9.2197031e-39
299.276 3080.46 943.75897 9.2197031e-39
318.81299 3097.9199 945.06799 9.2197031e-39
1295.5601 3684.8999 944.815 9.2197031e-39
1317.61 3704.9299 946.36401 9.2197031e-39
2725.1201 4553.75 946.67999 9.2197031e-39
97.428596 3060.3201 967.03302 9.2197031e-39
309.10001 3158.4099 960.29498 9.2197031e-39
1536.35 3909.02 962.98199 9.2197031e-39
1535.42 4061.6799 998.15399 9.2197031e-39
-20.1117 3146.52 1003.07 9.2197031e-39
1165.61 4007.0901 1036.73 9.2197031e-39
1529.11 4275.3896 1048.08 9.2197031e-39
1802.53 4468.5303 1054.63 9.2197031e-39
1766.1 4504.8701 1068.01 9.2197031e-39
1832.95 4526.1299 1063.65 9.2197031e-39
1536.22 4415.3501 1079.23 9.2197031e-39
1696.49 4508.52 1078.47 9.2197031e-39
1730.01 4503.71 1072.73 9.2197031e-39
1563.08 4470.9297 1088.27 9.2197031e-39
1627.39 4505.1699 1087.25 9.2197031e-39
1660.8101 4502.8799 1082.1 9.2197031e-39
1856.2 4640.3203 1086.65 9.2197031e-39
-588.03101 3225.48 1099.6801 9.2197031e-39
1590.09 4509.4502 1093.39 9.2197031e-39
1890.58 4678.1797 1090.59 9.2197031e-39
-639.70801 3224.24 1106.54 9.2197031e-39
-582.138 3263.8601 1107.6801 9.2197031e-39
2784.97 5293.0098 1108.11 9.2197031e-39
-583.271 3314.0701 1119.36 9.2197031e-39
-557.53699 3334.5801 1120.51 9.2197031e-39
-568.61102 3395.8999 1136.12 9.2197031e-39
-575.09399 3449.1001 1149.23 9.2197031e-39
-562.74103 3489.1399 1156.71 9.2197031e-39
-567.88397 3542.8401 1169.75 9.2197031e-39
889.94702 4419.6699 1169.54 9.2197031e-39
928.80402 4421.2402 1164.53 9.2197031e-39
386.87201 4155.5898 1178.45 9.2197031e-39
814.23199 4419.3501 1179.9301 9.2197031e-39
852.98297 4422.5801 1175.3199 9.2197031e-39
950.72302 4462.6797 1171.01 9.2197031e-39
982.74701 4485.7803 1171.89 9.2197031e-39
-568.36102 3597.8501 1182.4399 9.2197031e-39
307.629 4153.73 1188.98 9.2197031e-39
349.08701 4155.2598 1183.6 9.2197031e-39
739.45697 4413.9502 1189.03 9.2197031e-39
780.409 4412.5 1183.03 9.2197031e-39
-565.43103 3645.0601 1192.88 9.2197031e-39
271.43701 4149.2197 1192.9399 9.2197031e-39
226.873 4151.8604 1199.71 9.2197031e-39
662.91302 4410.6899 1198.86 9.2197031e-39
704.13501 4410.04 1193.01 9.2197031e-39
1894.61 5134.7998 1194.85 9.2197031e-39
-556.58801 3691.99 1202.4301 9.2197031e-39
146.022 4147.4399 1209.87 9.2197031e-39
187.57001 4151.5898 1205.08 9.2197031e-39
625.94598 4409.6602 1203.73 9.2197031e-39
583.672 4411.27 1209.9399 9.2197031e-39
102.455 4152.96 1217.16 9.2197031e-39
507.84698 4401.4297 1218.17 9.2197031e-39
548.79797 4404.1797 1213.14 9.2197031e-39
60.604301 4147.8701 1221.77 9.2197031e-39
16.598 4152.4399 1228.9 9.2197031e-39
426.42401 4401.4902 1229.4301 9.2197031e-39
468.85599 4402.4399 1223.79 9.2197031e-39
-28.6574 4151.2998 1234.9 9.2197031e-39
317.49799 4374.27 1238.24 9.2197031e-39
345.26501 4398.1299 1239.88 9.2197031e-39
387.55301 4400.8203 1234.65 9.2197031e-39
1917.9301 5462 1266.74 9.2197031e-39
-232.41901 4399.2598 1319.98 9.2197031e-39
-317.61801 4382.3501 1327.87 9.2197031e-39
-272.35699 4383.5 1321.88 9.2197031e-39
-367.44101 4380.04 1334.23 9.2197031e-39
-465.5 4377.5703 1347.22 9.2197031e-39
-414.16699 4379.4502 1340.55 9.2197031e-39
-514.323 4378.2402 1354.12 9.2197031e-39
-571.85999 4382.9102 1363.14 9.2197031e-39
-3246.9199 3168.0601 1453.99 9.2197031e-39
-3183.1799 3199.4199 1452.38 9.2197031e-39
-3185.1001 3255.6101 1465.54 9.2197031e-39
-3182.26 3315.78 1478.96 9.2197031e-39
-3182.1001 3371.98 1491.84 9.2197031e-39
-3187.51 3437.4299 1507.61 9.2197031e-39
-3178.3301 3490.04 1518.42 9.2197031e-39
-3191.78 3561.1001 1536.59 9.2197031e-39
-3106.48 3637.52 1542.35 9.2197031e-39
-3191.6599 3619.6399 1550.01 9.2197031e-39
-3119.8701 3704.01 1559.46 9.2197031e-39
-5362.5898 2356.3 1560.05 9.2197031e-39
-2028.54 4405.8896 1569.75 9.2197031e-39
-5357.0801 2427.6001 1575.66 9.2197031e-39
-3122.9199 3771.6101 1575.4 9.2197031e-39
-2091.27 4390.1699 1574.8101 9.2197031e-39
-3125.53 3833.5 1589.97 9.2197031e-39
-2170.6899 4394.3604 1586.74 9.2197031e-39
3014.8 7505.23 1584.17 9.2197031e-39
-5370.8198 2496.9102 1593.47 9.2197031e-39
-2238.98 4381.2197 1593.17 9.2197031e-39
2951.54 7510.5 1594.12 9.2197031e-39
-5364.8999 2568.77 1609.15 9.2197031e-39
-3133.6699 3905.79 1607.6899 9.2197031e-39
-2332.5801 4394.4297 1609.13 9.2197031e-39
2894.5601 7518.6699 1603.87 9.2197031e-39
-2415.76 4390.7998 1619.8 9.2197031e-39
2830.1299 7512.1499 1611.28 9.2197031e-39
-5367.79 2636.25 1625.04 9.2197031e-39
-3136.47 3969.3401 1622.66 9.2197031e-39
2709.29 7518.5298 1629.4399 9.2197031e-39
2772.96 7518.3599 1620.61 9.2197031e-39
-3139.6101 4040.3701 1639.4 9.2197031e-39
-2503.55 4396.0601 1633.14 9.2197031e-39
-5368.0898 2710.3799 1642.1 9.2197031e-39
-2588.25 4390.6499 1643.6 9.2197031e-39
2655.1101 7569.5498 1648.64 9.2197031e-39
-5366.8301 2777.5 1657.33 9.2197031e-39
-3143.3501 4106.1201 1655.01 9.2197031e-39
-2672.25 4389.98 1655.0601 9.2197031e-39
-4787.1499 3155.1001 1663.89 9.2197031e-39
-2766.1799 4388.5703 1667.72 9.2197031e-39
2467.1699 7525.04 1664.4 9.2197031e-39
2534.02 7589.46 1669.95 9.2197031e-39
2592.1399 7588.1299 1661.61 9.2197031e-39
-5366.6499 2852.28 1674.47 9.2197031e-39
-4782.1802 3225.8999 1679.46 9.2197031e-39
-3159.4299 4187.4399 1675.9 9.2197031e-39
2409.6499 7528.29 1673.1 9.2197031e-39
-5357.5 2917.78 1688.24 9.2197031e-39
-3152.6299 4248.0498 1688.87 9.2197031e-39
-2855.6101 4388.98 1680.17 9.2197031e-39
2346.1201 7532 1682.73 9.2197031e-39
-5323.0601 2982.8601 1698.42 9.2197031e-39
-4995.6499 3161.53 1694.1801 9.2197031e-39
-4783.52 3292.6201 1694.96 9.2197031e-39
-2951.1599 4385.4502 1692.5699 9.2197031e-39
-3145.0901 4315.5898 1703.33 9.2197031e-39
-3044.55 4385.5898 1705.51 9.2197031e-39
-5312.77 3048.23 1712 9.2197031e-39
-4784.4302 3366.5901 1712.0601 9.2197031e-39
-3136.9099 4376.5303 1716.1899 9.2197031e-39
-5209.98 3159.3301 1723.3 9.2197031e-39
-4784.3999 3433.78 1727.48 9.2197031e-39
-5369.48 3142.72 1741.53 9.2197031e-39
-4781.0698 3507.1599 1743.87 9.2197031e-39
2292.04 7773.1299 1745.55 9.2197031e-39
-4780.5698 3575.1599 1759.41 9.2197031e-39
2226.1201 7771.7998 1754.36 9.2197031e-39
2166.3701 7770.0801 1762.22 9.2197031e-39
-4784.7202 3652.79 1777.8 9.2197031e-39
2040.7 7764.8799 1778.4 9.2197031e-39
2100.4399 7767.6201 1770.77 9.2197031e-39
1974.52 7770.04 1788.73 9.2197031e-39
-4781 3720.51 1792.83 9.2197031e-39
1914.74 7766.27 1796.13 9.2197031e-39
1848.78 7761.5498 1804.16 9.2197031e-39
-4783.5298 3798.75 1811.14 9.2197031e-39
