# .PCD v0.7 - Point Cloud Data file format
VERSION 0.7
FIELDS x y z rgb
SIZE 4 4 4 4
TYPE F F F F
COUNT 1 1 1 1
WIDTH 326
HEIGHT 1
VIEWPOINT 0 0 0 1 0 0 0
POINTS 326
DATA ascii
-97.445099 -388.64001 139.65401 9.2197031e-39
-39.155701 -376.323 134.136 9.2197031e-39
1888.77 858.448 139.371 9.2197031e-39
1890.22 857.68701 138.992 9.2197031e-39
1897.73 865.35999 139.662 9.2197031e-39
1903.9851 864.85803 138.65649 9.2197031e-39
2147.7 1008.052 136.392 9.2197031e-39
2149.085 1012.06 137.1035 9.2197031e-39
2152.6899 1022.02 138.849 9.2197031e-39
2185.1899 1032.129 136.509 9.2197031e-39
3253.1101 1691.9 133.92 9.2197031e-39
3263.28 1713.1899 137.3 9.2197031e-39
-146.34399 -392.95001 145.647 9.2197031e-39
1878.24 862.87097 141.877 9.2197031e-39
1884.365 866.49805 141.8255 9.2197031e-39
1891.66 866.93896 140.88499 9.2197031e-39
1900.4399 869.22101 140.151 9.2197031e-39
1890.35 873.29901 142.515 9.2197031e-39
1901.5 879.26447 142.2785 9.2197031e-39
1863.59 888.46802 149.771 9.2197031e-39
1884.7219 887.78839 146.6044 9.2197031e-39
1895.03 883.42505 144.14499 9.2197031e-39
1904.486 885.48242 143.2636 9.2197031e-39
1875.8701 893.23846 149.1035 9.2197031e-39
1884.785 894.39905 148.09549 9.2197031e-39
1893.9 899.98999 148.065 9.2197031e-39
1890.9268 901.96027 148.93466 9.2197031e-39
1905.9 907.74951 148.114 9.2197031e-39
2133.6169 1025.079 142.263 9.2197031e-39
2126.4351 1036.1021 145.78751 9.2197031e-39
2135.3103 1032.6556 143.74001 9.2197031e-39
2148.01 1031.844 141.745 9.2197031e-39
2126.4849 1043.1016 147.368 9.2197031e-39
2135.22 1042.0093 145.87433 9.2197031e-39
2140.6399 1049.6741 146.842 9.2197031e-39
2137.8301 1050.676 147.468 9.2197031e-39
2140.8799 1052.057 147.34801 9.2197031e-39
2263.4199 1135.1021 148.716 9.2197031e-39
2458.0901 1262.718 149.91 9.2197031e-39
2468.8999 1265.197 148.92999 9.2197031e-39
2494.72 1279.251 148.438 9.2197031e-39
3264.29 1728.1899 140.55901 9.2197031e-39
3264.79 1743.77 144.021 9.2197031e-39
3264.6299 1758.34 147.349 9.2197031e-39
-290.043 -426.92004 158.429 9.2197031e-39
-209.532 -406.12 151.67 9.2197031e-39
1878.05 906.58899 151.821 9.2197031e-39
1882.26 904.48401 150.743 9.2197031e-39
2309.9299 1173.075 150.69901 9.2197031e-39
2332.99 1189.283 151.08701 9.2197031e-39
2367.8 1214.796 151.912 9.2197031e-39
2399.8899 1237.292 152.439 9.2197031e-39
2417.95 1246.9451 152.05499 9.2197031e-39
2436.0601 1256.475 151.63499 9.2197031e-39
3265.5901 1774.6 150.901 9.2197031e-39
-272.37799 -391.38 163.974 9.2197031e-39
-943.92798 -644.28003 202.353 9.2197031e-39
-880.83502 -578.97998 208.17101 9.2197031e-39
-885.823 -551.27002 215.168 9.2197031e-39
-892.92499 -523.23999 222.539 9.2197031e-39
3350.6101 2641.46 335.43799 9.2197031e-39
3359.3101 2684.3201 343.92001 9.2197031e-39
3353.8999 2707.71 349.99899 9.2197031e-39
3355.01 2742.1101 357.64499 9.2197031e-39
3348.28 2764.79 363.74899 9.2197031e-39
888.27301 1283.469 378.44601 9.2197031e-39
914.935 1296.813 377.672 9.2197031e-39
922.37 1305.4861 378.57999 9.2197031e-39
931.53101 1312.9399 378.965 9.2197031e-39
3151.45 2706.02 378.48099 9.2197031e-39
3179.0601 2715 376.582 9.2197031e-39
3208.3 2727.4399 375.23401 9.2197031e-39
3356.47 2810.8 373.01999 9.2197031e-39
853.96399 1283.151 383.26599 9.2197031e-39
887.22998 1295.145 381.24399 9.2197031e-39
928.96301 1325.0701 382.08301 9.2197031e-39
931.83502 1334.7639 383.87201 9.2197031e-39
3084.77 2698.45 386.271 9.2197031e-39
3126.9399 2699.6499 380.53201 9.2197031e-39
3105.95 2700.23 383.655 9.2197031e-39
3352.8899 2839.3501 380.005 9.2197031e-39
3353.6599 2876.72 388.37299 9.2197031e-39
904.849 1356.432 392.63599 9.2197031e-39
3072.9199 2714.02 391.49301 9.2197031e-39
3061.1299 2728.23 396.39801 9.2197031e-39
3355.8101 2915.3501 396.83301 9.2197031e-39
2975.1201 2717.55 406.23801 9.2197031e-39
3028.1499 2742.05 404.23599 9.2197031e-39
3049.3601 2744.51 401.76999 9.2197031e-39
3012.3601 2751.1201 408.54401 9.2197031e-39
2972.6799 2751.71 414.33701 9.2197031e-39
2964.24 2773.2 420.41501 9.2197031e-39
2949.4299 2784.3701 425.06 9.2197031e-39
2952.0701 2829.8301 434.99701 9.2197031e-39
-822.64001 603.33881 468.09698 9.2197031e-39
-816.75 629.2464 473.13501 9.2197031e-39
-804.612 654.40509 477.11099 9.2197031e-39
3052.4099 3086.1699 478.84399 9.2197031e-39
-810.12201 679.0022 483.47699 9.2197031e-39
-809.414 702.95032 488.80899 9.2197031e-39
-803.59802 728.42499 493.759 9.2197031e-39
-796.52399 752.65802 498.24799 9.2197031e-39
-793.22699 777.75702 503.47198 9.2197031e-39
-789.68799 801.60498 508.37799 9.2197031e-39
-789.90997 826.44897 514.04602 9.2197031e-39
-803.77899 849.737 521.30603 9.2197031e-39
-795.63702 874.85803 525.84399 9.2197031e-39
-777.39398 898.74304 528.66199 9.2197031e-39
-763.86798 923.51001 532.35199 9.2197031e-39
-761.06 946.95599 537.271 9.2197031e-39
-756.01398 971.51697 542.12299 9.2197031e-39
3202.3201 3458.8101 542.008 9.2197031e-39
3178.78 3466.51 547.10999 9.2197031e-39
-774.54999 995.41699 550.18799 9.2197031e-39
-774.00598 1020.207 555.73401 9.2197031e-39
3127.1599 3468.1001 554.83197 9.2197031e-39
3153.8899 3468.1101 551.02399 9.2197031e-39
3103.51 3471.95 559.078 9.2197031e-39
-773.32599 1043.817 560.99402 9.2197031e-39
-766.41803 1068.323 565.56799 9.2197031e-39
-768.28198 1092.074 571.22198 9.2197031e-39
-775.72803 1117.4719 578.04602 9.2197031e-39
-795.86499 1142.819 586.66699 9.2197031e-39
-808.724 1169.1489 594.474 9.2197031e-39
-850.95599 1197.3049 606.883 9.2197031e-39
-895.65601 1227.749 620.16302 9.2197031e-39
-922.54401 1255.783 630.35699 9.2197031e-39
-990.06201 1290.5391 647.86902 9.2197031e-39
-883.86499 1329.1641 641.48901 9.2197031e-39
-968.39502 1313.7051 650.03497 9.2197031e-39
-925.30298 1360.464 654.49902 9.2197031e-39
-929.16498 1388.004 661.297 9.2197031e-39
-866.13501 1455.344 667.58698 9.2197031e-39
3332.9199 4095.8401 667.90399 9.2197031e-39
3269.3401 4095.74 676.94897 9.2197031e-39
3306.1799 4106.7002 674.18201 9.2197031e-39
3173.6101 4088.47 688.948 9.2197031e-39
3207.1201 4097.21 686.15399 9.2197031e-39
3240.46 4100.5498 682.15503 9.2197031e-39
3138.6299 4078.8999 691.76398 9.2197031e-39
3111.6299 4087.22 697.50299 9.2197031e-39
3111.27 4275.2402 740.20801 9.2197031e-39
3160.98 4330.5898 745.67798 9.2197031e-39
1477.85 3321.3 756.69202 9.2197031e-39
1496.64 3340.97 758.474 9.2197031e-39
3102.53 4352.3203 758.94098 9.2197031e-39
1455.2 3323.46 760.41199 9.2197031e-39
3075.4399 4367.7998 766.31598 9.2197031e-39
1502.34 3418.1101 775.16199 9.2197031e-39
3046.3601 4382.5 773.797 9.2197031e-39
1514.71 3474.71 786.23901 9.2197031e-39
1515.45 3590.1201 812.315 9.2197031e-39
3032.0801 4567.3799 817.77502 9.2197031e-39
3069.6799 4576.4902 814.48199 9.2197031e-39
2963.05 4562.9697 826.61798 9.2197031e-39
3000.8301 4574.6699 823.88397 9.2197031e-39
1519.2 3706.96 838.28802 9.2197031e-39
2896.6699 4566.8701 836.96698 9.2197031e-39
2932.28 4571.5898 832.95801 9.2197031e-39
2755.6499 4528.7998 848.435 9.2197031e-39
2828.8899 4562.8799 845.72498 9.2197031e-39
2863.6299 4565.3604 841.33301 9.2197031e-39
1531.48 3779.78 853.05798 9.2197031e-39
2724.3 4531.8398 853.59698 9.2197031e-39
2797.6299 4568.46 851.448 9.2197031e-39
1323.72 3754.6899 876.98901 9.2197031e-39
142.487 3065.96 889.164 9.2197031e-39
166.631 3076.47 888.10498 9.2197031e-39
188.642 3091.22 888.31403 9.2197031e-39
214.12399 3099.78 886.62201 9.2197031e-39
243.64799 3105.1201 883.62402 9.2197031e-39
266.672 3116.1201 882.836 9.2197031e-39
291.327 3126.8999 881.76703 9.2197031e-39
306.14301 3148.1201 884.46899 9.2197031e-39
1272.79 3742.3899 881.46002 9.2197031e-39
1296.42 3758.2 881.67798 9.2197031e-39
2712.1299 4648.7402 881.84998 9.2197031e-39
114.835 3057.24 891.12903 9.2197031e-39
312.82401 3182.3101 891.27301 9.2197031e-39
1240.1899 3764.0801 891.03003 9.2197031e-39
34.073299 3068.02 905.09003 9.2197031e-39
60.046799 3079.73 904.04303 9.2197031e-39
1520.3101 4008.97 906.64502 9.2197031e-39
-33.608002 3062.04 913.38397 9.2197031e-39
-2.8894701 3069.54 910.70502 9.2197031e-39
-104.131 3096.46 931.24701 9.2197031e-39
1520.12 4185.6797 946.76099 9.2197031e-39
2751.3999 5063.98 970.45599 9.2197031e-39
1793.16 4508.79 981.133 9.2197031e-39
1760.87 4522.1899 988.77502 9.2197031e-39
1725.9301 4544.8203 998.89099 9.2197031e-39
1514.22 4432.1299 1003.51 9.2197031e-39
1660.65 4546.6899 1008.62 9.2197031e-39
1693.75 4549.8604 1004.62 9.2197031e-39
1818.7 4634.2197 1005.95 9.2197031e-39
1536.13 4498.8604 1015.53 9.2197031e-39
1595.27 4546.4399 1017.89 9.2197031e-39
1628.29 4551.1602 1014.25 9.2197031e-39
1848.4399 4685.5 1013.34 9.2197031e-39
1563.87 4541.6699 1021.29 9.2197031e-39
-600.07599 3282.1299 1044.08 9.2197031e-39
-604.30603 3330.03 1055.55 9.2197031e-39
1874.6801 4887.5498 1055.4399 9.2197031e-39
2773.46 5430.8198 1050.53 9.2197031e-39
-674.14899 3306.02 1060.0601 9.2197031e-39
-596.91302 3365.8799 1062.63 9.2197031e-39
-576.724 3392.3 1065.75 9.2197031e-39
-586.69098 3445.6201 1079.26 9.2197031e-39
-594.76001 3500.47 1092.86 9.2197031e-39
-576.5 3527.8799 1096.47 9.2197031e-39
936.06598 4477.3604 1096.21 9.2197031e-39
868.74701 4467.9697 1103.6801 9.2197031e-39
903.052 4473.54 1100.05 9.2197031e-39
953.15302 4539.8301 1107.9399 9.2197031e-39
990.37598 4530.1797 1100.45 9.2197031e-39
334.60599 4188.9902 1116.54 9.2197031e-39
366.97601 4200.4297 1114.52 9.2197031e-39
763.68103 4465.0703 1118 9.2197031e-39
796.57599 4471.0498 1114.67 9.2197031e-39
832.271 4473.6299 1110.16 9.2197031e-39
254.868 4196.54 1129.63 9.2197031e-39
295.11801 4194.23 1123.36 9.2197031e-39
690.841 4466.1001 1128.62 9.2197031e-39
728.21802 4460.9297 1122.12 9.2197031e-39
217.27299 4196.6899 1135.02 9.2197031e-39
368.241 4270.52 1130.25 9.2197031e-39
617.14301 4466.5801 1139.24 9.2197031e-39
654.50403 4463.0498 1133.11 9.2197031e-39
104.14 4187.2002 1149 9.2197031e-39
145.024 4186.5801 1143.03 9.2197031e-39
178.076 4195.6104 1140.36 9.2197031e-39
543.69098 4463.8203 1149.08 9.2197031e-39
581.70801 4460.1299 1142.8199 9.2197031e-39
58.5341 4198.1499 1157.99 9.2197031e-39
470.61099 4457.8398 1158.14 9.2197031e-39
508.13599 4456.6699 1152.53 9.2197031e-39
-19.2642 4192.1699 1167.72 9.2197031e-39
21.755199 4190.3999 1161.47 9.2197031e-39
393.95901 4457.4297 1168.98 9.2197031e-39
433.76901 4452.6201 1162.22 9.2197031e-39
-60.8918 4190.9297 1173.38 9.2197031e-39
319.72299 4449.3701 1177.74 9.2197031e-39
356.92801 4451.46 1172.91 9.2197031e-39
1890.38 5484.79 1188.6899 9.2197031e-39
-263.48401 4438.3896 1258.4 9.2197031e-39
-351.63599 4433.1797 1269.79 9.2197031e-39
-305.048 4430.6899 1262.58 9.2197031e-39
-394.521 4426.1299 1274.3101 9.2197031e-39
-491.97501 4429.75 1289.02 9.2197031e-39
-443.17999 4429.96 1282.11 9.2197031e-39
-539.99902 4430.8799 1296.12 9.2197031e-39
-585.76202 4424.8701 1301.29 9.2197031e-39
-3259.29 3218.8401 1408.88 9.2197031e-39
-3196.6201 3248.1899 1406.61 9.2197031e-39
-3191.8401 3300.27 1417.74 9.2197031e-39
-3191.6001 3357.5801 1430.71 9.2197031e-39
-3193.6599 3413.71 1443.73 9.2197031e-39
-3193.9299 3472.3201 1457.0699 9.2197031e-39
-5380.4302 2147.72 1468.3199 9.2197031e-39
-3193.8999 3528.49 1469.8101 9.2197031e-39
-5378.6001 2215.3701 1483.41 9.2197031e-39
-3199.8501 3591.1001 1484.86 9.2197031e-39
3063.49 7548.9399 1489.7 9.2197031e-39
-3198.5601 3647.75 1497.53 9.2197031e-39
3002.1699 7546.2202 1497.83 9.2197031e-39
-3156.6899 3686.27 1500.29 9.2197031e-39
-3124.3999 3726.72 1504.87 9.2197031e-39
2946.0901 7559.1401 1508.75 9.2197031e-39
-5371.8198 2347.4399 1512.4 9.2197031e-39
-3128.8101 3790.3201 1519.9301 9.2197031e-39
-2050.0801 4449.9399 1515.76 9.2197031e-39
2885.6899 7562.1499 1518.05 9.2197031e-39
-5378.5 2414.1401 1528.49 9.2197031e-39
-2122.8601 4449.71 1526.09 9.2197031e-39
2828.3999 7566.3301 1527.17 9.2197031e-39
-3132.97 3851.55 1534.41 9.2197031e-39
-2195.3401 4444.8203 1535.3101 9.2197031e-39
2767.21 7561.4902 1534.79 9.2197031e-39
-5380.8901 2483.6499 1544.6 9.2197031e-39
-2268 4442.0303 1545.04 9.2197031e-39
2710.01 7565.6499 1543.89 9.2197031e-39
-3141.8101 3919.21 1551.02 9.2197031e-39
-2347.0901 4440.02 1555.86 9.2197031e-39
-5387.2598 2551.04 1560.79 9.2197031e-39
-3144.52 3981.1101 1565.45 9.2197031e-39
-2429.5 4442.4199 1568.15 9.2197031e-39
2653.03 7603.5801 1560.62 9.2197031e-39
-5384.5 2620.1001 1576.0699 9.2197031e-39
-2512.3701 4440.54 1579.54 9.2197031e-39
2474.71 7573.75 1579.28 9.2197031e-39
2597.8999 7636 1575.84 9.2197031e-39
-3153.4399 4050.55 1582.47 9.2197031e-39
2414.3201 7573.5698 1587.85 9.2197031e-39
2536.4399 7630.0601 1583.25 9.2197031e-39
-5391.5 2688.3899 1592.5601 9.2197031e-39
-3159.6499 4116.1602 1598.24 9.2197031e-39
-2600.96 4444.7598 1593.13 9.2197031e-39
2357.3201 7582.5601 1598.02 9.2197031e-39
-5391.23 2758.71 1608.47 9.2197031e-39
-2683.8201 4439.8999 1603.84 9.2197031e-39
-3157.8401 4180.7598 1612.64 9.2197031e-39
-2771.6799 4440.5303 1616.51 9.2197031e-39
-5376.9399 2822.3799 1620.88 9.2197031e-39
-3160.0601 4245.4697 1627.64 9.2197031e-39
-2855.21 4433.2803 1626.78 9.2197031e-39
-5382 2894.6799 1638 9.2197031e-39
-3165.6899 4316.4399 1644.54 9.2197031e-39
-2954.9099 4439.2998 1642.36 9.2197031e-39
-5375.98 2960.98 1652.1899 9.2197031e-39
-3158.26 4376.4297 1657.09 9.2197031e-39
-3047.1299 4435.0601 1654.55 9.2197031e-39
2305.6499 7802.8198 1655.35 9.2197031e-39
-5345.7002 3024.0701 1662.1801 9.2197031e-39
-3138.9299 4432.27 1667 9.2197031e-39
2246.53 7811.8101 1665.8199 9.2197031e-39
-5333.79 3088.9399 1675.2 9.2197031e-39
2184.0601 7812.4702 1674.88 9.2197031e-39
2124.5601 7811.6602 1683.1801 9.2197031e-39
2002.54 7807.46 1699.62 9.2197031e-39
2062.04 7809.29 1691.5601 9.2197031e-39
1940.03 7804.9902 1707.98 9.2197031e-39
-4797.48 3603.0601 1715.37 9.2197031e-39
1880.52 7803.1099 1716.03 9.2197031e-39
-4801.8101 3676.3 1732.6 9.2197031e-39
-4796.7402 3742.8401 1746.97 9.2197031e-39
-4801.3501 3817.3999 1764.54 9.2197031e-39
