# .PCD v0.7 - Point Cloud Data file format
VERSION 0.7
FIELDS x y z rgb
SIZE 4 4 4 4
TYPE F F F F
COUNT 1 1 1 1
WIDTH 321
HEIGHT 1
VIEWPOINT 0 0 0 1 0 0 0
POINTS 321
DATA ascii
-932.23901 1129.2581 133.44 9.2197031e-39
-936.39801 1152.842 139.48 9.2197031e-39
1013.09 2266.3398 139.332 9.2197031e-39
1028.53 2276.0601 139.53999 9.2197031e-39
1030.85 2278.3398 139.763 9.2197031e-39
1042.6599 2285.21 139.789 9.2197031e-39
1073.26 2293.4302 137.632 9.2197031e-39
1288.8101 2409.8301 136.054 9.2197031e-39
1293.7 2418.6201 137.448 9.2197031e-39
1300.63 2419.1499 136.651 9.2197031e-39
1296.99 2421.73 137.7355 9.2197031e-39
1302.9701 2426.2334 137.98833 9.2197031e-39
1309.14 2438.02 139.909 9.2197031e-39
1314.0601 2439.8301 139.67599 9.2197031e-39
3176.6599 3502.3501 139.22 9.2197031e-39
3214.9299 3504.1001 134.53999 9.2197031e-39
-931.284 1176.621 144.332 9.2197031e-39
1037.5179 2288.0239 141.1286 9.2197031e-39
1032.71 2291.155 142.4955 9.2197031e-39
1043.425 2297.1399 142.4635 9.2197031e-39
1024.7267 2307.0935 147.265 9.2197031e-39
1034.7167 2306.1733 145.72301 9.2197031e-39
1046.515 2302.9866 143.41284 9.2197031e-39
1025.1741 2313.0698 148.59561 9.2197031e-39
1032.5601 2318.8101 148.94949 9.2197031e-39
1034.775 2321.625 149.30951 9.2197031e-39
1047.46 2324.8901 148.382 9.2197031e-39
1050.27 2327.4199 148.597 9.2197031e-39
1283.4301 2428.3101 141.069 9.2197031e-39
1276.11 2435.8799 143.804 9.2197031e-39
1286.188 2435.6279 142.405 9.2197031e-39
1294.76 2436.6001 141.491 9.2197031e-39
1303.595 2436.9551 140.399 9.2197031e-39
1286.4275 2443.9302 144.30475 9.2197031e-39
1303.735 2441.4751 141.4325 9.2197031e-39
1311.34 2443.28 140.84 9.2197031e-39
1276.35 2450.3301 147.133 9.2197031e-39
1284.7968 2454.885 147.06984 9.2197031e-39
1293.49 2459.21 146.92 9.2197031e-39
3135.6799 3502.9299 144.80499 9.2197031e-39
3121.6599 3514.5801 149.38 9.2197031e-39
-936.67603 1199.1421 150.28799 9.2197031e-39
-936.37 1219.89 155.07401 9.2197031e-39
1035.9299 2326.0251 150.17801 9.2197031e-39
3213.52 3596.1799 156.147 9.2197031e-39
-939.51202 1243.298 160.937 9.2197031e-39
-939.66699 1263.475 165.65199 9.2197031e-39
3348.6499 3702.53 162.924 9.2197031e-39
3345.0801 3728.52 169.444 9.2197031e-39
-951.28003 1282.363 171.59 9.2197031e-39
-946.55798 1304.689 176.15601 9.2197031e-39
-1065.01 1293.527 189.30701 9.2197031e-39
-1013.77 1297.093 183.325 9.2197031e-39
-627.60901 1517.5339 183.26601 9.2197031e-39
-500.354 1590.656 183.358 9.2197031e-39
1518.88 3370.1799 328.88101 9.2197031e-39
1479.36 3369.72 334.02701 9.2197031e-39
1471.1899 3371.75 335.586 9.2197031e-39
1491.33 3373.73 333.36801 9.2197031e-39
1501.55 3378.1201 333.03201 9.2197031e-39
1511.3101 3374.3899 330.866 9.2197031e-39
1464.24 3385.54 339.71799 9.2197031e-39
1463.9399 3417.8501 347.27301 9.2197031e-39
1464.04 3462.0601 357.54501 9.2197031e-39
1462.83 3495.4099 365.466 9.2197031e-39
1462.1 3542.6101 376.54199 9.2197031e-39
1463.8 3594.22 388.323 9.2197031e-39
1462.34 3646.3301 400.64001 9.2197031e-39
3064.95 4596.5498 408.62601 9.2197031e-39
1465.52 3713.4399 415.828 9.2197031e-39
3004.9099 4601.7998 417.82999 9.2197031e-39
3041.6299 4603.5601 413.35599 9.2197031e-39
333.16299 3118.45 427.96201 9.2197031e-39
351.79199 3129.25 427.99799 9.2197031e-39
2915.3701 4602.8999 429.98901 9.2197031e-39
2945.2 4605.6899 426.67099 9.2197031e-39
2977.3301 4602.7998 421.728 9.2197031e-39
330.487 3136.5901 432.53699 9.2197031e-39
348.70599 3148.0801 432.78799 9.2197031e-39
360.89001 3149.2 431.42899 9.2197031e-39
363.647 3162.6399 434.189 9.2197031e-39
356.923 3182.95 439.81 9.2197031e-39
1466.39 3787.79 433.01099 9.2197031e-39
2803.55 4577.21 438.88 9.2197031e-39
2854.49 4602.3701 437.95999 9.2197031e-39
2883.46 4605.0303 434.728 9.2197031e-39
364.125 3192.3401 441.035 9.2197031e-39
371.15201 3198.8 441.603 9.2197031e-39
379.84201 3206.6499 442.27399 9.2197031e-39
388.28 3211.5601 442.29401 9.2197031e-39
395.80301 3220.6899 443.42001 9.2197031e-39
401.77499 3228.3701 444.41199 9.2197031e-39
405.07901 3242.55 447.271 9.2197031e-39
1319.71 3742.6201 442.004 9.2197031e-39
1468.5601 3861.8201 449.94299 9.2197031e-39
2771.01 4568.1001 441.086 9.2197031e-39
2762.6599 4601.1104 449.87701 9.2197031e-39
406.88501 3255.3601 450.01001 9.2197031e-39
407.49301 3273.3201 454.108 9.2197031e-39
407.22601 3289.21 457.841 9.2197031e-39
1355.96 3837.8301 459.33401 9.2197031e-39
1367.26 3831.9299 456.45801 9.2197031e-39
1382.21 3833.4299 454.81799 9.2197031e-39
1393.95 3831.2 452.741 9.2197031e-39
1409.23 3834.3799 451.448 9.2197031e-39
2754.51 4626.6201 456.89499 9.2197031e-39
126.254 3177.74 469.26501 9.2197031e-39
1275.55 3833.72 469.069 9.2197031e-39
1287.73 3837.1799 468.254 9.2197031e-39
1302.05 3832.6299 465.29199 9.2197031e-39
1313.85 3831.02 463.349 9.2197031e-39
1341.53 3840.9399 461.97501 9.2197031e-39
1468.4301 3945.99 469.54199 9.2197031e-39
2750.26 4667.0801 466.87399 9.2197031e-39
-85.785004 3096.6599 478.59399 9.2197031e-39
-64.439201 3097.4399 475.93799 9.2197031e-39
-51.640202 3106.3 476.297 9.2197031e-39
-44.367699 3115.4199 477.452 9.2197031e-39
-24.110701 3119.25 475.64801 9.2197031e-39
-27.306299 3135.1101 479.763 9.2197031e-39
132.561 3189.74 471.21799 9.2197031e-39
88.0159 3193.9399 478.117 9.2197031e-39
146.36 3192.4299 470.008 9.2197031e-39
146.905 3209.27 473.85501 9.2197031e-39
149.70599 3221.1899 476.25601 9.2197031e-39
162.339 3227.96 476.14899 9.2197031e-39
383.66 3338.3301 472.39999 9.2197031e-39
455.52301 3396.5601 476.39401 9.2197031e-39
458.22198 3411.1799 479.435 9.2197031e-39
1261.62 3846.79 473.961 9.2197031e-39
-19.1071 3146.71 481.37201 9.2197031e-39
-19.558701 3161.0601 484.771 9.2197031e-39
-11.108 3172.6001 486.33099 9.2197031e-39
6.9423699 3174.05 484.26901 9.2197031e-39
9.2256298 3189.9099 487.655 9.2197031e-39
17.108601 3198.53 488.61099 9.2197031e-39
159.558 3244.99 480.48099 9.2197031e-39
150.099 3271.77 487.96899 9.2197031e-39
359.05899 3386.51 486.88101 9.2197031e-39
425.05301 3417.8601 485.39999 9.2197031e-39
460.992 3430.3601 483.52899 9.2197031e-39
885.68201 3695.6299 488.77802 9.2197031e-39
925.03198 3695.49 483.51199 9.2197031e-39
898.47699 3701.5901 488.46201 9.2197031e-39
909.99103 3701.1799 486.83701 9.2197031e-39
934.21198 3707.27 485.03299 9.2197031e-39
946.88202 3714.7 485.078 9.2197031e-39
1447.9301 3999.1399 484.633 9.2197031e-39
-144.785 3114.47 490.57999 9.2197031e-39
-186.72099 3124.45 498.478 9.2197031e-39
18.5362 3230.02 495.74899 9.2197031e-39
473.039 3475.78 492.49301 9.2197031e-39
474.87201 3498.4199 497.51599 9.2197031e-39
808.46002 3694.25 498.72299 9.2197031e-39
821.60797 3699.02 498.08499 9.2197031e-39
833.75299 3697.3701 496.086 9.2197031e-39
859.46198 3698.1499 492.85001 9.2197031e-39
846.71002 3702.8501 495.638 9.2197031e-39
872.87799 3701.51 491.84799 9.2197031e-39
1474.52 4057.8201 494.74799 9.2197031e-39
2834.0701 4832.4502 494.20099 9.2197031e-39
-22.139099 3245.99 504.871 9.2197031e-39
768.63702 3699.3 505.19299 9.2197031e-39
796.51398 3694.75 500.42801 9.2197031e-39
751.74799 3706.04 509.005 9.2197031e-39
779.60303 3702.75 504.53601 9.2197031e-39
681.51398 3672.75 510.60001 9.2197031e-39
660.05103 3696.54 518.98798 9.2197031e-39
690.12903 3690.51 513.586 9.2197031e-39
701.367 3693.6499 512.82098 9.2197031e-39
714.479 3699.4099 512.41901 9.2197031e-39
725.15399 3704.1899 512.112 9.2197031e-39
738.97101 3707.8999 511.138 9.2197031e-39
586.74298 3697.21 528.89001 9.2197031e-39
604.39801 3693.3601 525.64697 9.2197031e-39
618.32599 3690.9299 523.22998 9.2197031e-39
632.47498 3694.78 522.24298 9.2197031e-39
642.37701 3701.97 522.599 9.2197031e-39
-329.83401 3187.1799 532.099 9.2197031e-39
557.95599 3695.78 532.38397 9.2197031e-39
573.02502 3698.46 531.00403 9.2197031e-39
539.21698 3707.25 537.54498 9.2197031e-39
923.97803 3927.45 537.61603 9.2197031e-39
2982.05 5111.9199 539.54199 9.2197031e-39
499.77399 3725.7 547.08002 9.2197031e-39
512.27698 3728.6101 546.09399 9.2197031e-39
2908.7 5101.4399 546.85602 9.2197031e-39
2944.79 5100.8198 541.91302 9.2197031e-39
335.16501 3673.26 556.76599 9.2197031e-39
366.96799 3700.6499 558.909 9.2197031e-39
404.983 3723.72 559.22302 9.2197031e-39
419.49301 3724.05 557.37 9.2197031e-39
449.117 3729.0601 554.59601 9.2197031e-39
467.823 3726.8501 551.59497 9.2197031e-39
433.76599 3730.72 557.02399 9.2197031e-39
479.95599 3730.8899 550.922 9.2197031e-39
927.15802 4012.75 557.03802 9.2197031e-39
2814.0901 5100.4902 559.21399 9.2197031e-39
2846.4299 5106.2998 556.26599 9.2197031e-39
2883.8899 5108.96 551.90399 9.2197031e-39
-1048.7 2925.9199 566.89398 9.2197031e-39
-1035.84 2941.1399 568.72601 9.2197031e-39
-468.36801 3247.8201 564.625 9.2197031e-39
371.323 3724.51 563.88202 9.2197031e-39
382.11499 3731.8601 564.15698 9.2197031e-39
1266.88 4221.1499 560.35303 9.2197031e-39
2790.4199 5120.1602 566.93701 9.2197031e-39
288.30801 3716.74 573.10999 9.2197031e-39
927.68903 4105.3398 578.50598 9.2197031e-39
2795 5178.3398 579.862 9.2197031e-39
191.05299 3728.22 588.71198 9.2197031e-39
119.476 3720.3701 596.40198 9.2197031e-39
171.52901 3726.23 590.84399 9.2197031e-39
125.542 3735.76 599.17603 9.2197031e-39
149.912 3732.0801 595.07898 9.2197031e-39
2794.0801 5240.27 594.39203 9.2197031e-39
-1335.4 2908.48 600.95502 9.2197031e-39
-1324.4399 2926.6201 603.71997 9.2197031e-39
930.508 4217.8301 604.30103 9.2197031e-39
2798.3101 5301.4702 608.06702 9.2197031e-39
932.96698 4321.2803 628.04102 9.2197031e-39
2801.3999 5375.1602 624.79901 9.2197031e-39
-1415.24 2995.8701 631.90002 9.2197031e-39
-1111.5699 3183.0901 635.08099 9.2197031e-39
-1089.72 3200.0901 636.13098 9.2197031e-39
2803.23 5435.9399 638.69598 9.2197031e-39
-1157.5 3179.1299 640.26801 9.2197031e-39
941.62598 4418.6299 649.53699 9.2197031e-39
1261.62 4582.8501 645.19598 9.2197031e-39
1243.98 4591.6602 649.59003 9.2197031e-39
956.94897 4433.4502 650.94598 9.2197031e-39
1163.96 4590.1299 659.875 9.2197031e-39
1181.9301 4590.71 657.62097 9.2197031e-39
1203.97 4591.2402 654.81201 9.2197031e-39
1221.9399 4591.5098 652.48602 9.2197031e-39
2801.71 5505.7402 655.13397 9.2197031e-39
-1116.46 3325.46 668.85199 9.2197031e-39
1083.95 4585.8701 669.51898 9.2197031e-39
1101.91 4587.0601 667.40997 9.2197031e-39
1123.9399 4588.3398 664.77802 9.2197031e-39
1141.91 4589.23 662.59601 9.2197031e-39
-1125.71 3356.0901 677.20697 9.2197031e-39
1043.98 4582.7002 674.09802 9.2197031e-39
1061.92 4584.21 672.06201 9.2197031e-39
1021.3 4590.3701 678.896 9.2197031e-39
2805.1899 5573.96 670.54401 9.2197031e-39
-1267.37 3317.0801 686.96698 9.2197031e-39
962.69299 4589.7998 686.55701 9.2197031e-39
1003.3 4588.5498 680.86603 9.2197031e-39
980.11401 4598.71 686.31299 9.2197031e-39
2802.22 5645.96 687.68799 9.2197031e-39
-1248.34 3359.4299 694.28802 9.2197031e-39
-985.85498 3505.75 693.43103 9.2197031e-39
2804.8701 5717.27 703.92603 9.2197031e-39
-2258.05 2931.02 728.86902 9.2197031e-39
2807.45 5806.6602 724.37799 9.2197031e-39
-2254.3501 2957.98 734.64899 9.2197031e-39
-1502.02 3380.8501 732.99902 9.2197031e-39
-2253.9199 2991.8799 742.47699 9.2197031e-39
-2258.4299 3020.5801 749.75201 9.2197031e-39
2810.24 5883.8101 741.95398 9.2197031e-39
-2263.1299 3055.8501 758.58398 9.2197031e-39
-1406.6899 3535.04 756.19501 9.2197031e-39
-1364.66 3540.2 751.80701 9.2197031e-39
-1345.9 3561.5601 754.28198 9.2197031e-39
-2243.03 3079.6101 761.43799 9.2197031e-39
2808.6599 5971.04 762.45801 9.2197031e-39
2805.4199 6040.5 779.047 9.2197031e-39
-2259.6699 3181.0601 787.25299 9.2197031e-39
-4543.1899 1935.29 801.039 9.2197031e-39
2811.8899 6153.5601 804.48901 9.2197031e-39
2802.3601 6214.2798 819.88202 9.2197031e-39
-4849.1699 1960.1899 847.513 9.2197031e-39
2802.4099 6320.6099 844.61102 9.2197031e-39
-4841.9502 2017.5601 859.90002 9.2197031e-39
-5221.7002 2046.6 917.14502 9.2197031e-39
-2265.0701 3747.5901 919.76703 9.2197031e-39
2907.51 6674.75 913.02502 9.2197031e-39
-5218.46 2107.1899 930.80798 9.2197031e-39
-4954.7798 2269.1201 933.42297 9.2197031e-39
-4873.1201 2327.25 936.08801 9.2197031e-39
-2196.8501 3860.77 937.02502 9.2197031e-39
-5271.1699 2154.9399 948.92499 9.2197031e-39
-4960.7998 2374.3901 958.71503 9.2197031e-39
-5381.8901 2213.75 977.328 9.2197031e-39
-3185.4199 3570.73 1000.99 9.2197031e-39
-3181.04 3606.53 1008.73 9.2197031e-39
-3175.6299 3650.6101 1018.27 9.2197031e-39
-5377.4702 2438.8398 1029.1 9.2197031e-39
-3173.3799 3687.3401 1026.51 9.2197031e-39
-3167.1299 3731.5 1035.96 9.2197031e-39
-3036.8201 3808.8701 1036.63 9.2197031e-39
-5384.8398 2489.6099 1041.89 9.2197031e-39
-5256.0601 2597.3999 1049.85 9.2197031e-39
-3171.6399 3770.8 1045.7 9.2197031e-39
-5381.1699 2551.7 1055.85 9.2197031e-39
-5134.5098 2701.4399 1057.89 9.2197031e-39
-3170.0901 3817.01 1056.24 9.2197031e-39
-5383.8398 2664.8799 1082.54 9.2197031e-39
3209.2 7576.8999 1082.79 9.2197031e-39
3107.6799 7583.21 1097.75 9.2197031e-39
3165.02 7583.77 1090.26 9.2197031e-39
-5380.54 2778.0701 1108.4301 9.2197031e-39
3062.8999 7587.3999 1104.6801 9.2197031e-39
-5364.4502 2827.8899 1117.88 9.2197031e-39
3009.3799 7596.0098 1113.8 9.2197031e-39
2965.5801 7602.1802 1121.0601 9.2197031e-39
-5372.25 2891.1101 1133.63 9.2197031e-39
-5375.9502 2942.6101 1146.1 9.2197031e-39
-5368.8398 3004.8201 1159.62 9.2197031e-39
-5350.9902 3054.23 1168.74 9.2197031e-39
-3039.5601 4422.9902 1179.86 9.2197031e-39
-5342.7798 3116.25 1182.08 9.2197031e-39
-5333.8701 3166.53 1192.6 9.2197031e-39
-3041.25 4475.2803 1192.25 9.2197031e-39
-5333.3701 3229.6399 1207.21 9.2197031e-39
-3040.4199 4517.1797 1201.89 9.2197031e-39
-5335.2798 3281.5601 1219.54 9.2197031e-39
-5137.96 3365.0601 1212.73 9.2197031e-39
-3026.3101 4562.1602 1210.47 9.2197031e-39
-5390.1602 3353.6001 1243.6 9.2197031e-39
