# .PCD v0.7 - Point Cloud Data file format
VERSION 0.7
FIELDS x y z rgb
SIZE 4 4 4 4
TYPE F F F F
COUNT 1 1 1 1
WIDTH 327
HEIGHT 1
VIEWPOINT 0 0 0 1 0 0 0
POINTS 327
DATA ascii
3384.3401 1485.178 139.57899 9.2197031e-39
3382.03 1498.069 136.771 9.2197031e-39
3383.1499 1509.085 134 9.2197031e-39
2146.6699 2107.1001 139.815 9.2197031e-39
2154.0752 2107.175 138.905 9.2197031e-39
2147.2566 2113.7366 138.15633 9.2197031e-39
2153.3442 2114.356 137.274 9.2197031e-39
-330.082 3377.9199 134 9.2197031e-39
3381.6599 1450.9241 148.101 9.2197031e-39
3381.5 1463.005 145.228 9.2197031e-39
3378.5701 1476.459 142.36099 9.2197031e-39
2532.8501 1870.85 149.841 9.2197031e-39
2510.8601 1884.9301 149.121 9.2197031e-39
2493.01 1896.23 148.565 9.2197031e-39
2463.79 1917.3 147.04201 9.2197031e-39
2378.6499 1948.54 149.82201 9.2197031e-39
2383.425 1946.575 149.71649 9.2197031e-39
2390.8401 1941.67 149.99699 9.2197031e-39
2406.1748 1943.9399 147.606 9.2197031e-39
2376.9448 1951.62 149.28799 9.2197031e-39
2385.155 1951.16 148.4115 9.2197031e-39
2396.655 1956.9399 145.642 9.2197031e-39
2389.6799 1967.63 143.924 9.2197031e-39
2397.4602 1964.2885 143.78633 9.2197031e-39
2401.1899 1966.95 142.701 9.2197031e-39
2129.54 2078.29 148.774 9.2197031e-39
2139.7 2079.6699 147.21899 9.2197031e-39
2159.3201 2075.8398 145.77299 9.2197031e-39
2133.95 2085.8813 146.42542 9.2197031e-39
2143.21 2089.5 144.444 9.2197031e-39
2145.1775 2093.9299 143.14626 9.2197031e-39
2153.3376 2093.8276 142.18825 9.2197031e-39
2137.8149 2107.2151 140.855 9.2197031e-39
2145.97 2101.2952 141.28949 9.2197031e-39
2126.8501 2110.6699 141.347 9.2197031e-39
-353.65799 3361.97 140.659 9.2197031e-39
3377.51 1404.2581 159.769 9.2197031e-39
3382.1799 1413.927 156.89301 9.2197031e-39
3378.1101 1428.6431 153.86099 9.2197031e-39
3385.1599 1436.825 151.054 9.2197031e-39
2889.28 1663.02 156.647 9.2197031e-39
2848.5801 1683.14 156.73599 9.2197031e-39
2794.25 1713.52 156.009 9.2197031e-39
2760.96 1730.48 155.959 9.2197031e-39
2723.9299 1750.87 155.53999 9.2197031e-39
2695.3701 1766 155.35899 9.2197031e-39
2659.8701 1786.92 154.629 9.2197031e-39
2621.5601 1810.8 153.52699 9.2197031e-39
2576.54 1840.76 151.77901 9.2197031e-39
2486.5801 1858.89 158.27699 9.2197031e-39
3364.6499 1374.395 168.467 9.2197031e-39
3371.29 1382.908 165.629 9.2197031e-39
3375.3101 1393.056 162.716 9.2197031e-39
2533.54 1797.95 167.205 9.2197031e-39
2520.05 1816.61 164.36501 9.2197031e-39
2504.8799 1836.46 161.442 9.2197031e-39
-2913.48 4569.0703 160.10001 9.2197031e-39
3357.9299 1365.948 171.298 9.2197031e-39
2570.24 1753.35 173.461 9.2197031e-39
-1944.45 4014.3601 176.138 9.2197031e-39
-2926.25 4521.2402 173.086 9.2197031e-39
2623.48 1688.88 182.478 9.2197031e-39
-2906.6599 4405.6797 198.38499 9.2197031e-39
-2940.75 4368.1797 211.468 9.2197031e-39
3411.1399 602.36951 347.646 9.2197031e-39
3405.0901 557.83063 359.03601 9.2197031e-39
3412.76 574.18298 354.198 9.2197031e-39
3408.3101 526.26678 366.202 9.2197031e-39
3405.9099 473.237 379.18399 9.2197031e-39
3406.4399 501.005 372.474 9.2197031e-39
3401.02 451.08801 385.07401 9.2197031e-39
3400.2 391.862 399.34799 9.2197031e-39
3400.8301 421.52698 392.172 9.2197031e-39
3395.8701 367.078 405.802 9.2197031e-39
3385.6001 318.233 418.73001 9.2197031e-39
3390.6399 343.08801 412.173 9.2197031e-39
3386.95 282.392 427.146 9.2197031e-39
3385.7 249.802 435.09698 9.2197031e-39
3383.9399 217.116 443.13101 9.2197031e-39
3380.3999 148.90201 459.88501 9.2197031e-39
3379.7 187.76099 450.66901 9.2197031e-39
3377.1201 115.952 468.16699 9.2197031e-39
3372.8501 83.797974 476.37701 9.2197031e-39
3371.3601 45.48999 485.72501 9.2197031e-39
3368.3501 8.8280029 494.862 9.2197031e-39
3367.03 -32.307983 504.867 9.2197031e-39
3365.5 -74.437012 515.13501 9.2197031e-39
3359.8 -109.59198 524.23602 9.2197031e-39
3358.7 -155.46002 535.34698 9.2197031e-39
3355.6001 -198.77301 546.08698 9.2197031e-39
3349.3301 -236.80298 555.94501 9.2197031e-39
3347.3201 -285.66498 567.88202 9.2197031e-39
-402.427 1616.224 564.36798 9.2197031e-39
-469.41 1629.6599 569.22101 9.2197031e-39
-304.99399 1539.448 571.00702 9.2197031e-39
3344.9099 -335.54303 580.10999 9.2197031e-39
3341.6899 -385.53003 592.46198 9.2197031e-39
-695.784 1620.8201 598.60498 9.2197031e-39
3341.0901 -443.79004 606.479 9.2197031e-39
3335.05 -491.26001 618.56799 9.2197031e-39
-706.16998 1539.661 619.28198 9.2197031e-39
-852.10303 1625.55 616.30298 9.2197031e-39
-700.70001 1513.927 624.78198 9.2197031e-39
-963.51398 1638.75 626.565 9.2197031e-39
-1792.8101 2060.3999 625.54199 9.2197031e-39
-1854.21 2095.8599 624.45099 9.2197031e-39
-1937.16 2132.74 625.61798 9.2197031e-39
3333.3601 -551.59998 633.21301 9.2197031e-39
-712.45099 1484.8989 633.146 9.2197031e-39
-1785.72 2025.53 633.034 9.2197031e-39
3326.73 -601.96997 646.06799 9.2197031e-39
3136.8401 -502.96997 645.24701 9.2197031e-39
3080.0901 -479.23999 646.40302 9.2197031e-39
3100.0901 -465.53003 640.71198 9.2197031e-39
3048.28 -454.26001 644.25598 9.2197031e-39
2996.8101 -441.06995 647.29901 9.2197031e-39
3017.52 -430.82996 642.35498 9.2197031e-39
-709.95801 1431.327 645.66699 9.2197031e-39
2975.97 -451.13 652.21899 9.2197031e-39
-706.46997 1377.615 658.10303 9.2197031e-39
-719.90002 1401.9651 653.89301 9.2197031e-39
-1265.13 1661.96 657.34302 9.2197031e-39
3302.1499 -678.89001 667.43903 9.2197031e-39
3324.8701 -667.12 661.88599 9.2197031e-39
3239.0901 -652.68005 668.763 9.2197031e-39
3262.6499 -644.19995 663.89502 9.2197031e-39
3202.46 -622.81006 666.02502 9.2197031e-39
2942.0801 -503.05005 668.72601 9.2197031e-39
2915.1899 -490.77002 669.026 9.2197031e-39
2962.98 -491.37 663.41199 9.2197031e-39
-707.22803 1350.03 664.797 9.2197031e-39
-1392.47 1679.8101 668.409 9.2197031e-39
-685.99902 1300.225 674.15997 9.2197031e-39
-706.76501 1322.603 671.30499 9.2197031e-39
-1501.08 1701.5699 676.28497 9.2197031e-39
2901.3601 -532.57996 680.69897 9.2197031e-39
-699.06 1241.2729 689.84302 9.2197031e-39
-694.58398 1270.339 682.34698 9.2197031e-39
-1638.24 1722.7 687.75 9.2197031e-39
-695.66699 1214.2 695.914 9.2197031e-39
-714.68103 1180.4861 706.27399 9.2197031e-39
-704.61603 1126.455 717.99298 9.2197031e-39
-700.35901 1156.3101 710.33502 9.2197031e-39
2925.95 -747.18994 729.10303 9.2197031e-39
2900.04 -747.05005 732.19202 9.2197031e-39
-755.35602 1081.431 734.88202 9.2197031e-39
2857.48 -792.15002 748.112 9.2197031e-39
2881.53 -782.14001 742.81799 9.2197031e-39
2827.8101 -773.13 747.133 9.2197031e-39
2778.51 -786.29004 756.22198 9.2197031e-39
2803.3799 -780.78003 751.90698 9.2197031e-39
-772.29901 986.69501 759.59802 9.2197031e-39
2729.73 -804.40002 766.43298 9.2197031e-39
2753.25 -789.66003 760.07202 9.2197031e-39
-775.737 955.29602 767.52698 9.2197031e-39
-873.59198 1012.936 765.51898 9.2197031e-39
2706.26 -820.89001 773.20599 9.2197031e-39
-743.104 906.664 775.23602 9.2197031e-39
-760.43799 930.54901 771.60699 9.2197031e-39
-859.66101 986.92798 770.065 9.2197031e-39
-805.08301 851.98499 795.789 9.2197031e-39
-4734.0298 2843.3301 792.45001 9.2197031e-39
-799.82898 822.71497 802.16199 9.2197031e-39
-2878.75 1839.36 809.25897 9.2197031e-39
-2996.46 1925.08 802.92297 9.2197031e-39
-4742.0098 2783.73 807.67798 9.2197031e-39
-2861.48 1795.8199 817.60101 9.2197031e-39
-785.823 701.15228 829.57001 9.2197031e-39
-855.04797 768.50702 821.78802 9.2197031e-39
-2810.2 1754.54 821.30402 9.2197031e-39
-4751.4502 2724.2 823.06201 9.2197031e-39
-791.59302 666.09943 838.65503 9.2197031e-39
-829.14099 714.66412 831.55402 9.2197031e-39
-882.40601 724.63 835.58502 9.2197031e-39
-4746.48 2663.3501 837.02698 9.2197031e-39
2730.95 -1195.2 859.82098 9.2197031e-39
-4751.8701 2603.45 852.01398 9.2197031e-39
-4746.7998 2542.79 865.922 9.2197031e-39
1756.34 -770.12 875.48401 9.2197031e-39
1733.28 -753.35999 874.25 9.2197031e-39
1710.85 -734.53003 872.44397 9.2197031e-39
1686.05 -727.83997 873.83197 9.2197031e-39
1662.8 -714.33997 873.40002 9.2197031e-39
1589.61 -690.56995 876.52802 9.2197031e-39
1614.54 -696.18994 874.86902 9.2197031e-39
1640.62 -696.89001 871.89502 9.2197031e-39
1565.46 -681.93005 877.36902 9.2197031e-39
-3434.8999 1864.89 870.14301 9.2197031e-39
1774.34 -816.26001 884.35901 9.2197031e-39
1485.09 -683.58997 887.44598 9.2197031e-39
1512.4 -681.72998 883.71301 9.2197031e-39
1537.8101 -686.15002 881.71002 9.2197031e-39
-4758.0698 2483.25 881.53101 9.2197031e-39
1429.87 -687.43005 895.01801 9.2197031e-39
1456.55 -688.88 892.15002 9.2197031e-39
-4343.9102 2231.46 891.90503 9.2197031e-39
-4723.1299 2421.1602 892.18298 9.2197031e-39
1398.38 -700.44995 901.92798 9.2197031e-39
-4717.4399 2360.96 905.90698 9.2197031e-39
-4682.4102 2299.8501 916.31201 9.2197031e-39
1955.48 -1094.17 929.05402 9.2197031e-39
1928.3101 -1081.75 929.354 9.2197031e-39
1870.67 -1085.08 937.09302 9.2197031e-39
1900.85 -1072.96 930.55798 9.2197031e-39
2746.6799 -1551.53 943.21399 9.2197031e-39
2680.8 -1541.51 948.75 9.2197031e-39
2713.9099 -1548.6001 946.45898 9.2197031e-39
1841.2 -1090.2 941.86902 9.2197031e-39
1784.77 -1081.45 946.57501 9.2197031e-39
1814.64 -1074.9301 941.414 9.2197031e-39
2583.5901 -1534.05 958.67603 9.2197031e-39
2615.6201 -1533.26 954.62701 9.2197031e-39
2647.54 -1531.22 950.29303 9.2197031e-39
2519.6499 -1536.77 967.02802 9.2197031e-39
2551.28 -1530.6899 961.763 9.2197031e-39
2487.1201 -1527.99 968.84601 9.2197031e-39
2391.1699 -1524.3201 979.526 9.2197031e-39
2455.1899 -1528.6599 972.85199 9.2197031e-39
2422.8899 -1519.3301 974.51001 9.2197031e-39
-4520.7798 1944.84 981.81299 9.2197031e-39
731.62402 -840.44995 1015.75 9.2197031e-39
672.80798 -823.72998 1018.84 9.2197031e-39
704.53497 -827.98999 1016.04 9.2197031e-39
-773.01001 -83.372009 1015.8 9.2197031e-39
-1471.41 278.52399 1013.31 9.2197031e-39
1709.83 -1351.27 1020.18 9.2197031e-39
601.37097 -827.56995 1028.36 9.2197031e-39
637.659 -825 1023.38 9.2197031e-39
-1457.4399 203.61099 1029.5601 9.2197031e-39
-1460.65 243.004 1020.52 9.2197031e-39
728.66602 -909.93994 1032.74 9.2197031e-39
570.841 -819.77002 1030.17 9.2197031e-39
-1443.34 169.41299 1036.04 9.2197031e-39
511.133 -859.52002 1046.88 9.2197031e-39
-1443.6801 127.66699 1046.08 9.2197031e-39
-762.47302 -242.18201 1052.54 9.2197031e-39
-792.98901 -222.36603 1051.47 9.2197031e-39
-1406.87 63.156006 1057.08 9.2197031e-39
-1421.1 97.619019 1050.55 9.2197031e-39
1929.2 -1657.74 1067.11 9.2197031e-39
701.19501 -1029.54 1064.6801 9.2197031e-39
1166.03 -1314.6801 1076.9301 9.2197031e-39
703.97998 -1093.8101 1079.72 9.2197031e-39
738.49298 -1095.89 1076.0699 9.2197031e-39
-1470.99 -14.594971 1083.42 9.2197031e-39
736.90698 -1172.49 1094.59 9.2197031e-39
-893.77802 -385.96997 1102.77 9.2197031e-39
-1508.45 -79.265015 1103.41 9.2197031e-39
2333.01 -2078.22 1119.11 9.2197031e-39
2369.51 -2060.22 1110.4 9.2197031e-39
2222.53 -2068.0701 1129.98 9.2197031e-39
2259.3501 -2067.55 1125.42 9.2197031e-39
2296.1299 -2068.6699 1121.26 9.2197031e-39
2149.0601 -2061.3601 1137.23 9.2197031e-39
2185.79 -2064.3799 1133.53 9.2197031e-39
1938.29 -1935.1399 1132.41 9.2197031e-39
729.43298 -1344.13 1136.5699 9.2197031e-39
2112.1799 -2061.8999 1141.8 9.2197031e-39
2038.67 -2056.21 1149.29 9.2197031e-39
2075.4199 -2059.21 1145.58 9.2197031e-39
-1514.46 -263.82098 1148.3 9.2197031e-39
-1550.17 -239.14203 1146.7 9.2197031e-39
-1584.9 -213.54602 1144.76 9.2197031e-39
2001.95 -2052.8999 1152.92 9.2197031e-39
1965.24 -2049.28 1156.48 9.2197031e-39
675.78497 -1378.78 1151.33 9.2197031e-39
-1410.67 -337.96802 1153.55 9.2197031e-39
-1445.95 -314.00098 1152.0601 9.2197031e-39
-1481.9301 -290.13898 1150.6801 9.2197031e-39
-399.677 -906.13 1167.75 9.2197031e-39
-1418.34 -389.96997 1166.92 9.2197031e-39
-360.41199 -970.60999 1178.45 9.2197031e-39
-373.14099 -930.46997 1170.38 9.2197031e-39
-348.436 -1012.25 1186.98 9.2197031e-39
-1333.92 -523.92004 1188.8101 9.2197031e-39
-339.04599 -1057.64 1196.71 9.2197031e-39
-321.64301 -1094.1801 1203.36 9.2197031e-39
-1343.73 -580.02002 1203.42 9.2197031e-39
643.71399 -1618.25 1212.51 9.2197031e-39
-316.00601 -1145.6801 1215.01 9.2197031e-39
135.105 -1405.42 1222.83 9.2197031e-39
95.503304 -1399.0699 1226.08 9.2197031e-39
58.983501 -1387.4301 1227.7 9.2197031e-39
-301.80399 -1187.53 1223.3101 9.2197031e-39
16.095501 -1385.12 1232.3101 9.2197031e-39
-23.701799 -1377.53 1235.29 9.2197031e-39
-288.85101 -1231.6801 1232.3199 9.2197031e-39
-622.487 -1094.25 1239.62 9.2197031e-39
-273.54401 -1273.5699 1240.5 9.2197031e-39
-1340.39 -780.70996 1251.05 9.2197031e-39
-1678.22 -612.5 1251.48 9.2197031e-39
868.74701 -1963 1267.91 9.2197031e-39
910.95502 -1958.6101 1261.78 9.2197031e-39
-1348.26 -839.57996 1266.09 9.2197031e-39
830.63 -1955.1599 1270.63 9.2197031e-39
791.84998 -1948.78 1273.77 9.2197031e-39
715.30701 -1932.27 1279.04 9.2197031e-39
755.479 -1935.74 1275.03 9.2197031e-39
-1350.83 -895.16003 1279.7 9.2197031e-39
636.22803 -1920.6201 1285.78 9.2197031e-39
678.68903 -1919.47 1280.39 9.2197031e-39
600.802 -1904.47 1286.1801 9.2197031e-39
560.104 -1900.4099 1290.11 9.2197031e-39
-174.07401 -1530.46 1290 9.2197031e-39
-1414.08 -1001.75 1312.83 9.2197031e-39
-437.72601 -1838.5701 1395.51 9.2197031e-39
-598.02399 -1766.1101 1397.47 9.2197031e-39
-490.42599 -1838.54 1401.85 9.2197031e-39
-534.82898 -1826.1699 1404.24 9.2197031e-39
-593.63599 -1832.76 1412.9 9.2197031e-39
-1316.15 -1775.3401 1486.1899 9.2197031e-39
-1435.75 -1762.54 1497.53 9.2197031e-39
-1375.1801 -1768.6001 1491.6899 9.2197031e-39
-1941.54 -1501.6299 1496.01 9.2197031e-39
-1502.66 -1761.9199 1505.4399 9.2197031e-39
-1569.87 -1760.4399 1513.1899 9.2197031e-39
-2562.03 -1270.45 1515.4301 9.2197031e-39
-1702.36 -1752.23 1527.1801 9.2197031e-39
-1638.0699 -1758.78 1521 9.2197031e-39
-1980.13 -1599.8201 1524.16 9.2197031e-39
-1772.52 -1750.1699 1535.14 9.2197031e-39
-1838.6899 -1743.26 1541.46 9.2197031e-39
-1989.1 -1742.3899 1559.37 9.2197031e-39
-1915.88 -1745.28 1551.24 9.2197031e-39
-2058.96 -1735.3401 1566.1 9.2197031e-39
-3322.8501 -1166.14 1582.11 9.2197031e-39
-4576.6201 -1117.29 1721.4399 9.2197031e-39
