# .PCD v0.7 - Point Cloud Data file format
VERSION 0.7
FIELDS x y z rgb
SIZE 4 4 4 4
TYPE F F F F
COUNT 1 1 1 1
WIDTH 323
HEIGHT 1
VIEWPOINT 0 0 0 1 0 0 0
POINTS 323
DATA ascii
3373.1799 1360.65 139.791 9.2197031e-39
3369.3401 1374.824 136.873 9.2197031e-39
3369.79 1386.626 134 9.2197031e-39
2367.8401 1876.48 138.826 9.2197031e-39
2095.9099 2010.61 139.853 9.2197031e-39
2104.4524 2013.6938 138.07812 9.2197031e-39
2110.5649 2016.9651 136.5535 9.2197031e-39
-2299.8401 4272.8701 134.00101 9.2197031e-39
3367.1499 1326.839 148.59801 9.2197031e-39
3367.23 1339.244 145.625 9.2197031e-39
3370.7 1349.704 142.70599 9.2197031e-39
2481.95 1772.26 149.841 9.2197031e-39
2460.02 1786.4399 149.121 9.2197031e-39
2443 1797.2 148.621 9.2197031e-39
2420.8 1812.6801 147.62399 9.2197031e-39
2360 1838.45 148.86 9.2197031e-39
2337.3899 1849.09 149.06799 9.2197031e-39
2345.7332 1843.5267 149.38167 9.2197031e-39
2327.6499 1855.9299 148.61801 9.2197031e-39
2331.27 1854.37 148.552 9.2197031e-39
2348.355 1855.925 146.10324 9.2197031e-39
2350.3401 1854.01 146.317 9.2197031e-39
2318.49 1864.5601 147.673 9.2197031e-39
2347.2061 1866.2581 143.77519 9.2197031e-39
2353.02 1867.04 142.882 9.2197031e-39
2341.5701 1872.1899 143.043 9.2197031e-39
2072.5901 1989.72 147.677 9.2197031e-39
2084.2949 1985.0326 147.3725 9.2197031e-39
2091.7131 1984.7667 146.53366 9.2197031e-39
2082.335 1993.625 145.55899 9.2197031e-39
2095.8501 1994.998 143.5878 9.2197031e-39
2102.28 1996.37 142.479 9.2197031e-39
2095.8174 2004.2549 141.38251 9.2197031e-39
2104.26 2000.1801 141.327 9.2197031e-39
2086.3 2011.7051 140.76001 9.2197031e-39
-2598.3799 4373.7002 146.213 9.2197031e-39
3375.52 1283.7529 157.868 9.2197031e-39
3374.3401 1297.363 154.76199 9.2197031e-39
3370.3999 1312.402 151.64999 9.2197031e-39
2793.5 1585.35 156.601 9.2197031e-39
2748.3701 1609.749 156.261 9.2197031e-39
2708.5901 1631.4199 155.92101 9.2197031e-39
2675.72 1649.0699 155.702 9.2197031e-39
2652.05 1660.77 155.786 9.2197031e-39
2617.3999 1681.1899 155.123 9.2197031e-39
2587.1001 1699.15 154.517 9.2197031e-39
2546.8601 1725.52 153.112 9.2197031e-39
2336.72 1839.74 151.382 9.2197031e-39
2333.8301 1841.3 151.35899 9.2197031e-39
-1940.89 4002.1201 155.01801 9.2197031e-39
3371.3701 1246.819 167.192 9.2197031e-39
3373.1699 1258.978 164.069 9.2197031e-39
3376.55 1270.079 161.008 9.2197031e-39
2502.28 1682.49 168.806 9.2197031e-39
2464.8201 1726.47 162.858 9.2197031e-39
-2240.3301 4101.6699 167.646 9.2197031e-39
3363.5601 1238.432 170.144 9.2197031e-39
2533.6001 1643.73 174.255 9.2197031e-39
-1076.95 3477.8601 175.185 9.2197031e-39
-1374.85 3651.02 170.05 9.2197031e-39
-1021.06 3419.1899 182.399 9.2197031e-39
3400.75 438.91498 356.539 9.2197031e-39
3394.5901 392.05099 368.47699 9.2197031e-39
3396.9399 416.702 362.30499 9.2197031e-39
3392.47 366.53101 374.82901 9.2197031e-39
3391.0901 309.58701 388.595 9.2197031e-39
3395.72 332.84601 382.478 9.2197031e-39
3393.4099 275.65201 396.41699 9.2197031e-39
3389.1201 250.62601 402.91299 9.2197031e-39
3384.3201 192.96301 417.26599 9.2197031e-39
3387.75 220.591 410.25101 9.2197031e-39
3381.01 164.439 424.48001 9.2197031e-39
3379.3701 132.48901 432.30801 9.2197031e-39
3374.1299 69.169983 448.06601 9.2197031e-39
3377.76 99.60199 440.35699 9.2197031e-39
3374.55 30.992981 457.13101 9.2197031e-39
3370.9099 -1.3109741 465.28699 9.2197031e-39
3367.27 -34.544983 473.66501 9.2197031e-39
3364.5601 -70.442993 482.56699 9.2197031e-39
3364.5901 -112.51202 492.60901 9.2197031e-39
3357.9299 -143.36401 500.78601 9.2197031e-39
3359.46 -190.901 511.95099 9.2197031e-39
3356.6399 -231.55499 522.00098 9.2197031e-39
3352.74 -271.41901 531.99402 9.2197031e-39
3352.97 -321.12299 543.83502 9.2197031e-39
-415.086 1607.681 541.30499 9.2197031e-39
3348.1499 -362.06403 554.19702 9.2197031e-39
-361.26099 1522.937 554.99799 9.2197031e-39
3340.1799 -397.71002 563.67798 9.2197031e-39
3341.0601 -454.02002 577.01703 9.2197031e-39
-703.37799 1595.085 579.35797 9.2197031e-39
3338.6101 -505.08997 589.50897 9.2197031e-39
-700.18799 1517.928 597.39398 9.2197031e-39
-696.91803 1544.3201 590.69397 9.2197031e-39
-912.58899 1624.11 597.85901 9.2197031e-39
3334.9399 -555.37 601.961 9.2197031e-39
-709.06097 1490.501 605.02197 9.2197031e-39
-1768.99 2015.63 608.47101 9.2197031e-39
-1795.15 2050.49 603.32898 9.2197031e-39
-1887.55 2087.8101 605.64801 9.2197031e-39
-1991.54 2127.1699 608.89099 9.2197031e-39
3328.53 -601.20996 613.68701 9.2197031e-39
3143.5601 -517.56995 616.19897 9.2197031e-39
3078.5601 -470.07996 612.76099 9.2197031e-39
3102.6101 -470.82996 610.01599 9.2197031e-39
3050.2 -456.05005 612.85999 9.2197031e-39
3000.3 -445.87 616.49402 9.2197031e-39
3020.9299 -438 612.10699 9.2197031e-39
-715.302 1436.949 618.56799 9.2197031e-39
3327.8 -662.57996 628.43103 9.2197031e-39
2979.01 -451.68994 620.47101 9.2197031e-39
-705.02802 1386.016 629.48102 9.2197031e-39
-714.64398 1410.652 624.76703 9.2197031e-39
3308.7 -681.18005 635.19397 9.2197031e-39
3247.8601 -661 637.771 9.2197031e-39
3270.21 -651.09998 632.68799 9.2197031e-39
2923.72 -500.17004 638.77002 9.2197031e-39
2948.4399 -505.21997 636.96899 9.2197031e-39
2967.98 -492.14001 631.47101 9.2197031e-39
2895.5801 -481.64001 637.76398 9.2197031e-39
-716.46301 1357.146 637.76501 9.2197031e-39
3223.3201 -665.18994 641.75403 9.2197031e-39
-718.922 1329.874 644.57599 9.2197031e-39
-722.091 1275.252 658.005 9.2197031e-39
-719.19397 1302.9299 651.04303 9.2197031e-39
-1446.96 1662.96 653.54102 9.2197031e-39
-707.96301 1224.3369 668.44501 9.2197031e-39
-709.39203 1251.151 662.216 9.2197031e-39
-1605.5 1683.37 667.93799 9.2197031e-39
-695.79602 1200.199 672.72998 9.2197031e-39
-708.78998 1141.804 688.25299 9.2197031e-39
-711.94897 1168.542 682.25299 9.2197031e-39
-1765 1706.4 681.82703 9.2197031e-39
2946.6299 -767.51001 699.82202 9.2197031e-39
-714.83502 1112.332 696.026 9.2197031e-39
-1931.38 1731.75 696 9.2197031e-39
2896.6399 -771.17004 706.771 9.2197031e-39
2921.75 -769.93005 703.422 9.2197031e-39
-714.91901 1084.358 702.716 9.2197031e-39
2873.97 -782.68994 712.27802 9.2197031e-39
-719.42902 1054.865 710.30701 9.2197031e-39
2857.9199 -824.62 724.242 9.2197031e-39
2802.8301 -805.56995 726.39099 9.2197031e-39
2776.24 -799.03003 728.06201 9.2197031e-39
2826.3101 -796.55005 721.38202 9.2197031e-39
-784.55298 1005.974 729.89801 9.2197031e-39
2729.4299 -818.93994 738.50598 9.2197031e-39
2752.6499 -807.64001 732.98602 9.2197031e-39
2682.6399 -841.93005 749.68298 9.2197031e-39
2707.1699 -836.80005 745.47601 9.2197031e-39
-744.77899 902.461 749.78101 9.2197031e-39
-769.68298 923.17499 747.862 9.2197031e-39
-781.41901 948.59399 743.21899 9.2197031e-39
-813.48999 967.43298 742.61902 9.2197031e-39
-759.39301 867.63 759.87402 9.2197031e-39
-817.70203 815.935 779.30701 9.2197031e-39
-2906.24 1898.9301 774.58301 9.2197031e-39
-802.05402 791.29797 783.28802 9.2197031e-39
-4745.7598 2774.1499 789.20398 9.2197031e-39
-2881 1811.47 792.40002 9.2197031e-39
-776.26099 677.95911 807.216 9.2197031e-39
-800.08398 699.24469 805.02899 9.2197031e-39
-2911.9099 1766.35 806.92999 9.2197031e-39
-4746.0801 2714.02 803.59998 9.2197031e-39
-934.862 708.16132 819.284 9.2197031e-39
-861.927 705.38232 811.08099 9.2197031e-39
-4746.8501 2654.02 818.02002 9.2197031e-39
-800.77899 635.84631 820.25201 9.2197031e-39
-4754.0098 2594.6699 833.065 9.2197031e-39
1712.4399 -766.22998 849.54498 9.2197031e-39
1689.38 -754.30005 849.5 9.2197031e-39
1643.3101 -731.79004 849.72302 9.2197031e-39
1620.28 -721.19995 849.995 9.2197031e-39
1670.09 -725.14001 844.88098 9.2197031e-39
-4745.7798 2533.99 846.55298 9.2197031e-39
1777.83 -829.59998 856.729 9.2197031e-39
1756.54 -803.85999 853.16998 9.2197031e-39
1734.4301 -784.65002 851.27002 9.2197031e-39
1571.5699 -711.68005 853.64398 9.2197031e-39
1596.03 -716.07996 851.71997 9.2197031e-39
1522.45 -703.18994 857.58698 9.2197031e-39
1547.13 -707.07996 855.51501 9.2197031e-39
1442.37 -710.62 869.09399 9.2197031e-39
1470.4301 -704.06006 864.117 9.2197031e-39
1497 -701.89001 860.36798 9.2197031e-39
-4760.8101 2475.22 862.41302 9.2197031e-39
1412.13 -723.35999 875.81299 9.2197031e-39
1390.09 -709.06006 875.07898 9.2197031e-39
-4741.5801 2414.03 874.68903 9.2197031e-39
-4718.8198 2353 886.495 9.2197031e-39
1956.38 -1099.53 899.479 9.2197031e-39
1928.66 -1100.09 902.98297 9.2197031e-39
1901.64 -1093.67 904.73297 9.2197031e-39
1874.35 -1089.9 907.15198 9.2197031e-39
-3858.4199 1835.13 905.56403 9.2197031e-39
-4086.0601 1938.75 908.49298 9.2197031e-39
-4720.3398 2293.55 900.875 9.2197031e-39
2699.7 -1553.1699 917.44702 9.2197031e-39
2732.23 -1559.6499 915.03699 9.2197031e-39
2763.46 -1556.1699 910.40997 9.2197031e-39
1845.97 -1094.5601 911.71399 9.2197031e-39
1791.95 -1082.01 915.28497 9.2197031e-39
1819.59 -1083.6 912.30298 9.2197031e-39
2604.9399 -1551.46 928.55701 9.2197031e-39
2636.6799 -1553.9199 925.28601 9.2197031e-39
2667.6499 -1549.3201 920.422 9.2197031e-39
-4299.04 1993.92 921.20801 9.2197031e-39
2509.99 -1541.48 937.71399 9.2197031e-39
2573.0701 -1546.79 931.315 9.2197031e-39
2540.8799 -1536.98 932.88599 9.2197031e-39
1755.59 -1135.71 932.52802 9.2197031e-39
2415.8401 -1531.97 946.888 9.2197031e-39
2447.0901 -1534.1101 943.60101 9.2197031e-39
2478.3101 -1535.01 940.021 9.2197031e-39
2385.6001 -1552.9099 955.56598 9.2197031e-39
716.24701 -842.45996 988.84497 9.2197031e-39
-758.24701 -75.828003 985.02197 9.2197031e-39
733.49402 -871.43005 993.66602 9.2197031e-39
650.99402 -840.63 996.34003 9.2197031e-39
682.50702 -843.82996 993.27301 9.2197031e-39
-1464.02 229.048 998.01501 9.2197031e-39
-1477.55 262.44699 991.68402 9.2197031e-39
617.46802 -840.44995 1000.37 9.2197031e-39
587.25 -834.08997 1002.53 9.2197031e-39
555.51001 -829.91003 1005.39 9.2197031e-39
-1472.24 185.18201 1009.49 9.2197031e-39
723.92798 -952.58997 1014.21 9.2197031e-39
-1450.97 155.20499 1014.06 9.2197031e-39
-735.01703 -259.85699 1026.14 9.2197031e-39
-767.19098 -242.39801 1025.88 9.2197031e-39
-1433.8199 82.544983 1029.33 9.2197031e-39
-1458.3199 111.009 1025.51 9.2197031e-39
1937.51 -1653.8899 1034.15 9.2197031e-39
-1407.38 55.250977 1032.63 9.2197031e-39
738.36499 -1126.42 1053.96 9.2197031e-39
710.54199 -1112.6899 1054.0699 9.2197031e-39
686.34198 -1091.85 1052.03 9.2197031e-39
-1460.88 -14.52301 1055.8 9.2197031e-39
746.39398 -1181.78 1066.21 9.2197031e-39
-988.10797 -274.21399 1060.34 9.2197031e-39
-1492.8101 -74.171021 1073.92 9.2197031e-39
2335.6101 -2090.25 1089.95 9.2197031e-39
2371.6799 -2090.27 1085.5699 9.2197031e-39
-1512 -127.89502 1089.08 9.2197031e-39
2263.3999 -2081.49 1096.64 9.2197031e-39
2299.4199 -2082.1299 1092.41 9.2197031e-39
2155.3601 -2077.72 1108.87 9.2197031e-39
2191.3799 -2078.3101 1104.63 9.2197031e-39
2227.3899 -2079.5701 1100.5601 9.2197031e-39
711.35498 -1331.88 1106.3101 9.2197031e-39
746.31598 -1334.21 1102.61 9.2197031e-39
2083.3501 -2073.6699 1116.66 9.2197031e-39
2119.3501 -2075.8501 1112.8 9.2197031e-39
2047.37 -2071.1799 1120.4399 9.2197031e-39
1975.45 -2065.29 1127.77 9.2197031e-39
2011.34 -2069.3601 1124.38 9.2197031e-39
1942.78 -2018.3201 1120.53 9.2197031e-39
-1421.88 -340.836 1128.97 9.2197031e-39
-1459.75 -319.08502 1128.38 9.2197031e-39
-1495.02 -295.35901 1127.01 9.2197031e-39
-1527.65 -269.72302 1124.85 9.2197031e-39
-1563.5 -245.672 1123.47 9.2197031e-39
-1406.9 -376.84601 1135.75 9.2197031e-39
-372.16599 -943.67004 1145.3199 9.2197031e-39
-399.897 -921.93005 1143.5 9.2197031e-39
-359.64001 -982.57996 1153.09 9.2197031e-39
-333.74799 -1061.21 1168.72 9.2197031e-39
-349.16199 -1024.4399 1161.8101 9.2197031e-39
-1457.6 -455.95996 1160.8101 9.2197031e-39
-326.57199 -1108.35 1179.1 9.2197031e-39
-1356.84 -577.18994 1177.51 9.2197031e-39
-317.52701 -1154.12 1188.9301 9.2197031e-39
-1326.1 -603.38 1180.02 9.2197031e-39
156.28799 -1421.75 1195.24 9.2197031e-39
-298.758 -1188.6899 1194.91 9.2197031e-39
114.401 -1420.96 1200.14 9.2197031e-39
-2.57201 -1401.35 1209.6801 9.2197031e-39
41.248001 -1401.01 1204.27 9.2197031e-39
81.217598 -1405.88 1200.58 9.2197031e-39
-35.714901 -1385.2 1209.85 9.2197031e-39
-267.694 -1267.5601 1209.96 9.2197031e-39
-284.978 -1230.03 1203.1 9.2197031e-39
-613.69501 -1099.67 1211.9301 9.2197031e-39
-1325.67 -750.63 1215.13 9.2197031e-39
951.32001 -1963.8401 1228.04 9.2197031e-39
907.71301 -1976.4199 1236.35 9.2197031e-39
870.44299 -1969.3799 1239.2 9.2197031e-39
-1345.0601 -816.20996 1233.15 9.2197031e-39
828.284 -1975.6499 1245.8199 9.2197031e-39
792.245 -1964.27 1247.48 9.2197031e-39
761.08002 -1939.9299 1245.46 9.2197031e-39
564.58698 -1825.5701 1242.04 9.2197031e-39
-1347.52 -869.71997 1246.23 9.2197031e-39
718.64801 -1945.0801 1251.85 9.2197031e-39
641.55298 -1933.52 1258.46 9.2197031e-39
679.93799 -1939.9299 1255.3199 9.2197031e-39
606.14398 -1919.6299 1259.4399 9.2197031e-39
-1348.54 -922.91003 1259.05 9.2197031e-39
566.63098 -1915.1899 1263.1899 9.2197031e-39
-418.797 -1526.52 1290.17 9.2197031e-39
-1496.2 -1096.91 1318.55 9.2197031e-39
-406.38699 -1855.6201 1367.24 9.2197031e-39
-509.767 -1855.73 1379.84 9.2197031e-39
-457.12399 -1854.78 1373.21 9.2197031e-39
-556.93402 -1848.26 1383.79 9.2197031e-39
-594.35199 -1827.1299 1383.29 9.2197031e-39
-1380.85 -1785.0901 1468.86 9.2197031e-39
-1320.4399 -1789.4399 1462.55 9.2197031e-39
-1439.4399 -1777.9099 1474.27 9.2197031e-39
-1928.1 -1513.0801 1470.4301 9.2197031e-39
-1505.76 -1777.55 1482.24 9.2197031e-39
-2563 -1239.8 1482.35 9.2197031e-39
-1572.38 -1776.3301 1490.05 9.2197031e-39
-1653.96 -1788.3799 1502.84 9.2197031e-39
-1700.15 -1765.3301 1502.95 9.2197031e-39
-1994.41 -1633 1507.12 9.2197031e-39
-1772.54 -1766.21 1511.96 9.2197031e-39
-1917.62 -1764.4399 1529.1801 9.2197031e-39
-1843.84 -1764.8201 1520.3 9.2197031e-39
-1982.28 -1754.74 1534.72 9.2197031e-39
-2061.79 -1756.9099 1544.9 9.2197031e-39
-3313.01 -1195.3101 1562.9 9.2197031e-39
-4467.7002 -1032.8 1664.46 9.2197031e-39
