# .PCD v0.7 - Point Cloud Data file format
VERSION 0.7
FIELDS x y z rgb
SIZE 4 4 4 4
TYPE F F F F
COUNT 1 1 1 1
WIDTH 317
HEIGHT 1
VIEWPOINT 0 0 0 1 0 0 0
POINTS 317
DATA ascii
3199.8701 -131.04401 138.495 9.2197031e-39
3199.3501 -112.04999 134 9.2197031e-39
1550.67 683.98853 139.815 9.2197031e-39
1560.7849 681.95764 139.095 9.2197031e-39
1538.3401 692.51715 139.241 9.2197031e-39
1541.14 694.82458 138.353 9.2197031e-39
1287.01 818.71002 138.966 9.2197031e-39
1296.27 817.94897 138.043 9.2197031e-39
1278.9399 822.91296 138.92101 9.2197031e-39
1285.88 824.45898 137.72099 9.2197031e-39
1293.208 823.94788 136.96921 9.2197031e-39
636.98102 1162.821 134 9.2197031e-39
3201.1799 -169.69598 147.61099 9.2197031e-39
3198.4099 -149.18298 143.021 9.2197031e-39
1518.01 659.60712 149.563 9.2197031e-39
1523.655 659.73883 148.85699 9.2197031e-39
1536.072 655.69971 148.34399 9.2197031e-39
1515.75 664.16669 148.73801 9.2197031e-39
1520.675 663.06891 148.414 9.2197031e-39
1534.702 664.86157 146.3094 9.2197031e-39
1504.85 672.03851 148.151 9.2197031e-39
1528.08 676.87421 144.218 9.2197031e-39
1533.624 676.71533 143.59439 9.2197031e-39
1546.0267 674.60394 142.62067 9.2197031e-39
1551.1034 675.62677 141.76967 9.2197031e-39
1529.71 684.65411 142.157 9.2197031e-39
1542.71 685.77466 140.33649 9.2197031e-39
1282.0934 788.23236 146.864 9.2197031e-39
1264.3733 796.50067 146.99567 9.2197031e-39
1275.9266 795.0506 145.96468 9.2197031e-39
1283.76 797.90601 144.34399 9.2197031e-39
1275.27 803.09003 144.11432 9.2197031e-39
1283.4199 806.03564 142.4348 9.2197031e-39
1290.78 802.52698 142.39799 9.2197031e-39
1278.11 813.57269 141.26067 9.2197031e-39
1255.9301 823.17798 141.604 9.2197031e-39
1267.6899 823.94897 140.015 9.2197031e-39
1230.4551 833.82251 142.0905 9.2197031e-39
-3144.9199 2996.5801 145.483 9.2197031e-39
3202.52 -209.10999 156.907 9.2197031e-39
3200.2 -188.41498 152.21899 9.2197031e-39
1526.78 642.54932 152.60699 9.2197031e-39
1519.5601 655.77252 150.298 9.2197031e-39
3202.1201 -248.31799 166.36 9.2197031e-39
3200.25 -227.45697 161.57899 9.2197031e-39
-3137.29 2898.46 168.11301 9.2197031e-39
-4846.98 3760.4399 165.39 9.2197031e-39
3199.1499 -286.74597 175.93401 9.2197031e-39
3202.03 -268.26703 171.15601 9.2197031e-39
-3135.8799 2851.1699 179.28999 9.2197031e-39
3197.04 -326.39502 185.69701 9.2197031e-39
3200.3401 -307.841 180.85201 9.2197031e-39
3196.0701 -346.56598 190.651 9.2197031e-39
-3152.25 2812.1799 190.595 9.2197031e-39
-3243.4099 2805.8301 203.002 9.2197031e-39
2627.51 -804.68994 368.41501 9.2197031e-39
2648.52 -804.15002 365.77701 9.2197031e-39
-1070.14 1037.467 367.82901 9.2197031e-39
2571.8899 -814.53003 377.414 9.2197031e-39
2592.1699 -813.83997 374.82901 9.2197031e-39
2611.9299 -812.14001 372.06299 9.2197031e-39
-1061.42 993.81201 377.26099 9.2197031e-39
-1067.86 1015.793 372.75601 9.2197031e-39
2529.3899 -841.41003 388.93701 9.2197031e-39
2542.8799 -831.48999 384.94601 9.2197031e-39
2559.72 -826.31006 381.694 9.2197031e-39
-1057.87 950.92798 387.125 9.2197031e-39
-1063.71 972.67499 382.60501 9.2197031e-39
2522.4399 -861.08997 394.48801 9.2197031e-39
-1062.49 908.68896 397.81 9.2197031e-39
-1061.76 929.92297 392.629 9.2197031e-39
2526.1299 -897.31006 402.73599 9.2197031e-39
-1053.4399 865.80798 407.017 9.2197031e-39
-1053.09 886.97699 401.897 9.2197031e-39
-1053.5699 823.45099 417.19299 9.2197031e-39
-1053.6 844.633 412.116 9.2197031e-39
-1038.04 781.013 425.521 9.2197031e-39
-1053.35 802.26599 422.24899 9.2197031e-39
-1025.75 739.03101 434.125 9.2197031e-39
-1052.34 759.88904 432.29501 9.2197031e-39
-1046.4399 696.42279 446.81699 9.2197031e-39
-1045.62 717.62122 441.633 9.2197031e-39
2664.1001 -1178.42 453.70401 9.2197031e-39
2687.05 -1177.37 450.715 9.2197031e-39
-1050.49 653.80267 457.52399 9.2197031e-39
-1042.12 675.38678 451.34698 9.2197031e-39
2578.52 -1189.54 466.58899 9.2197031e-39
2595.1599 -1179.24 462.13101 9.2197031e-39
2495.8899 -1161.67 469.76401 9.2197031e-39
-1054.75 610.91718 468.32101 9.2197031e-39
-1048.76 632.60901 462.40201 9.2197031e-39
2406.77 -1154.74 478.73901 9.2197031e-39
2468.51 -1151.16 470.51199 9.2197031e-39
2381.8701 -1146.6899 479.77802 9.2197031e-39
2420.9199 -1141.49 473.871 9.2197031e-39
2444.6399 -1146.46 472.23099 9.2197031e-39
-1049.34 568.53369 477.84299 9.2197031e-39
-1052.64 589.67828 473.16299 9.2197031e-39
2319.71 -1145.03 486.79999 9.2197031e-39
2339.9399 -1144.9 484.35501 9.2197031e-39
2361.52 -1147.23 482.33899 9.2197031e-39
-1052.0601 525.3689 488.522 9.2197031e-39
-1047.84 547.24353 482.771 9.2197031e-39
2242.8799 -1151.73 497.577 9.2197031e-39
2264.1101 -1155.0699 495.845 9.2197031e-39
2285.46 -1158.2 494.048 9.2197031e-39
2304.05 -1154.83 491.021 9.2197031e-39
2222.1399 -1149.08 499.418 9.2197031e-39
-1051.03 482.35101 498.71899 9.2197031e-39
-1059.02 503.077 494.70099 9.2197031e-39
2205.1899 -1155.35 502.94501 9.2197031e-39
2182.04 -1145.91 503.444 9.2197031e-39
2140.8799 -1138.28 506.52701 9.2197031e-39
2158.75 -1135.3101 503.67999 9.2197031e-39
-977.25 406.591 508.08801 9.2197031e-39
-968.258 429.04999 501.62601 9.2197031e-39
-1029.12 463.45001 500.638 9.2197031e-39
2126.7 -1151.25 511.32999 9.2197031e-39
2087.23 -1146.22 514.836 9.2197031e-39
2105.1101 -1143.74 512.104 9.2197031e-39
2047.5 -1138.5699 517.742 9.2197031e-39
2064.96 -1135.51 514.922 9.2197031e-39
1631.11 -913.22998 513.38098 9.2197031e-39
1584.88 -903.10999 516.47101 9.2197031e-39
1599.96 -904.03003 514.89301 9.2197031e-39
1614.61 -900.93994 512.40198 9.2197031e-39
1995.85 -1149.66 526.56598 9.2197031e-39
1955.77 -1136.45 528.18201 9.2197031e-39
2010.22 -1136.73 521.74902 9.2197031e-39
2029.42 -1139.61 520.14801 9.2197031e-39
1934.8101 -1125.3 528.00897 9.2197031e-39
1971.8 -1129.48 524.59601 9.2197031e-39
1541.39 -922.90002 526.41101 9.2197031e-39
1556.3 -920.31006 524.01001 9.2197031e-39
1570.58 -910.80005 520.02301 9.2197031e-39
-620.97803 142.46701 528.927 9.2197031e-39
1865.2 -1130.1801 537.487 9.2197031e-39
1885 -1139.1899 537.28601 9.2197031e-39
1900.71 -1130.9 533.422 9.2197031e-39
1920.72 -1139.5601 533.11102 9.2197031e-39
1846.86 -1126.72 538.84497 9.2197031e-39
1680.22 -1047.59 539.75201 9.2197031e-39
1497.28 -951.29004 538.487 9.2197031e-39
1511.92 -937.42004 533.40997 9.2197031e-39
1526.95 -934.10999 530.823 9.2197031e-39
1376.62 -879.70996 535.716 9.2197031e-39
1362.61 -860.39001 532.75201 9.2197031e-39
1391.65 -865.89001 530.60797 9.2197031e-39
1304.8101 -850.81995 537.35602 9.2197031e-39
1348.48 -850.66003 532.10602 9.2197031e-39
1319.55 -848.31006 534.99402 9.2197031e-39
1334.01 -849.55005 533.565 9.2197031e-39
-625.11902 121.57901 534.43201 9.2197031e-39
-1123.58 361.89899 536.27502 9.2197031e-39
1777.96 -1130.4399 547.96198 9.2197031e-39
1794.99 -1128.77 545.53003 9.2197031e-39
1810.64 -1120.25 541.61603 9.2197031e-39
1829.83 -1128.83 541.38397 9.2197031e-39
1666.98 -1071.52 547.073 9.2197031e-39
1482.17 -958.22998 541.95502 9.2197031e-39
1420.61 -944.80005 546.08099 9.2197031e-39
1405.67 -914.15002 540.50897 9.2197031e-39
1274.35 -864.15002 544.18903 9.2197031e-39
1289.45 -859.96997 541.38501 9.2197031e-39
-675.76202 85.333008 549.172 9.2197031e-39
-772.79901 137.57901 548.21997 9.2197031e-39
-707.14001 136.314 540.68701 9.2197031e-39
-1263.88 410.53302 541.354 9.2197031e-39
1709.74 -1135.62 557.34802 9.2197031e-39
1744.83 -1139.11 553.99597 9.2197031e-39
1761.9301 -1137.73 551.62402 9.2197031e-39
1725.4301 -1125.86 553.13397 9.2197031e-39
1467.51 -989.35999 551.172 9.2197031e-39
-589.24799 14.653015 555.802 9.2197031e-39
-597.31598 31.754028 552.66199 9.2197031e-39
-613.565 45.968994 551.19098 9.2197031e-39
-636.21997 58.155029 550.97198 9.2197031e-39
-657.89099 70.97998 550.48199 9.2197031e-39
-823.45398 144.14301 552.69202 9.2197031e-39
-865.62299 153.82501 555.40198 9.2197031e-39
-907.80798 164.177 557.95398 9.2197031e-39
-567.79901 -37.679016 565.79602 9.2197031e-39
-568.11102 -17.526001 560.99799 9.2197031e-39
-586.526 -4.4899902 560.06897 9.2197031e-39
-973.89301 169.21301 564.633 9.2197031e-39
1436.76 -1091.08 579.24402 9.2197031e-39
1453.34 -1090.39 577.10101 9.2197031e-39
-578.27002 -83.166016 577.95801 9.2197031e-39
-575.42499 -61.281006 572.36798 9.2197031e-39
-1035.3 176.48801 570.21802 9.2197031e-39
-1093.91 185.43399 575.06702 9.2197031e-39
-576.97998 -124.50403 587.72101 9.2197031e-39
-568.30603 -99.689026 580.73199 9.2197031e-39
-1155.46 194.68799 580.19299 9.2197031e-39
-1204.52 207.63 582.94397 9.2197031e-39
1241.8 -1038.99 590.01898 9.2197031e-39
-588.91901 -151.17401 595.54401 9.2197031e-39
-1410.77 240.12799 599.76501 9.2197031e-39
-1469.86 280.729 597.078 9.2197031e-39
1186.77 -1083.3 607.216 9.2197031e-39
1203.02 -1088.61 606.55103 9.2197031e-39
1219.97 -1088 604.38098 9.2197031e-39
-624.46002 -189.33099 608.94 9.2197031e-39
-1470.52 254.83499 603.36798 9.2197031e-39
1151.53 -1092.42 613.60999 9.2197031e-39
1135.47 -1085.72 613.922 9.2197031e-39
1169.14 -1088.42 610.54901 9.2197031e-39
1069.5601 -1070.98 618.25 9.2197031e-39
1086.78 -1070.59 616.10101 9.2197031e-39
1102.78 -1076.72 615.66302 9.2197031e-39
1119.8101 -1076.99 613.69501 9.2197031e-39
-1464.33 204.19601 614.77802 9.2197031e-39
1016.42 -1076.89 626.01001 9.2197031e-39
1034.8101 -1072.24 622.70099 9.2197031e-39
1051.53 -1075.01 621.36798 9.2197031e-39
983.34998 -1068.71 627.99701 9.2197031e-39
-686.81 -241.284 628.84497 9.2197031e-39
-1484.5699 174.026 624.43201 9.2197031e-39
997.25299 -1084.1801 630.04901 9.2197031e-39
893.51099 -1072.78 639.69598 9.2197031e-39
910.34998 -1076.77 638.64398 9.2197031e-39
927.966 -1077.8199 636.79199 9.2197031e-39
964.04901 -1075.6801 631.97198 9.2197031e-39
948.95697 -1065.6 631.35498 9.2197031e-39
768.79401 -1011.14 639.79303 9.2197031e-39
842.55603 -1061.77 643.13599 9.2197031e-39
877.24902 -1066.79 640.19897 9.2197031e-39
772.79102 -1050.77 648.82501 9.2197031e-39
808.151 -1055.21 645.66998 9.2197031e-39
825.80298 -1057.1899 644.03699 9.2197031e-39
861.33002 -1059.74 640.40802 9.2197031e-39
791.75098 -1049.42 646.23798 9.2197031e-39
751.40997 -1008.64 641.26801 9.2197031e-39
694.72101 -1057.88 659.84698 9.2197031e-39
681.57501 -1043.0699 657.86401 9.2197031e-39
717.88397 -1047.39 654.56702 9.2197031e-39
664.50897 -1037.98 658.68103 9.2197031e-39
603.10199 -1044.6899 667.61798 9.2197031e-39
622.24799 -1045.9 665.625 9.2197031e-39
645.55402 -1037.1801 660.75 9.2197031e-39
551.401 -1069.6 679.76599 9.2197031e-39
582.68799 -1045.91 670.34802 9.2197031e-39
487.72299 -1032.53 678.47198 9.2197031e-39
455.271 -1015.34 678.22302 9.2197031e-39
479.17099 -1009.5 673.96997 9.2197031e-39
445.25101 -995.56995 674.67499 9.2197031e-39
524.26001 -1083.33 686.29901 9.2197031e-39
514.00598 -1062.13 682.43701 9.2197031e-39
494.85699 -1058.99 683.96899 9.2197031e-39
350.496 -1011.38 689.77698 9.2197031e-39
345.034 -984.41003 683.96002 9.2197031e-39
-791.82703 -597.30005 726.78601 9.2197031e-39
-1074.25 -454.01001 726.12 9.2197031e-39
101.344 -1103.8 741.68701 9.2197031e-39
62.331902 -1122.55 750.841 9.2197031e-39
18.290199 -1146.99 761.96301 9.2197031e-39
150.265 -1259.39 773.17401 9.2197031e-39
-36.156799 -1183.98 777.33502 9.2197031e-39
62.358101 -1314.75 796.94598 9.2197031e-39
87.584503 -1317.0601 794.49103 9.2197031e-39
9.3857298 -1272.79 793.20398 9.2197031e-39
-108.394 -1242.47 799.987 9.2197031e-39
10.6046 -1310.89 802.19897 9.2197031e-39
34.914799 -1315.37 800.37201 9.2197031e-39
-173.592 -1251.37 809.90601 9.2197031e-39
-145.632 -1253.23 807.01501 9.2197031e-39
-478.24399 -1130.6899 817.31598 9.2197031e-39
-493.50201 -1111.84 814.617 9.2197031e-39
-510.67001 -1094.91 812.60303 9.2197031e-39
-444.04999 -1199.92 829.84302 9.2197031e-39
-457.95401 -1179.2 826.53198 9.2197031e-39
-468.92001 -1155.64 822.19 9.2197031e-39
130.99699 -1512.72 836.24701 9.2197031e-39
-422.121 -1248.25 838.82098 9.2197031e-39
-430.586 -1221.26 833.35602 9.2197031e-39
-612.22601 -1157.8101 839.815 9.2197031e-39
-1489.41 -721.63 839.87402 9.2197031e-39
-1488.4399 -688.83997 831.89301 9.2197031e-39
-378.21899 -1310.3101 848.46802 9.2197031e-39
-400.978 -1298.66 848.38898 9.2197031e-39
-409.436 -1270.9399 842.75 9.2197031e-39
-642.61798 -1151.74 841.98499 9.2197031e-39
-1496.95 -758.17004 849.54102 9.2197031e-39
-308.48599 -1381.77 857.28699 9.2197031e-39
-351.772 -1355.9399 856.25897 9.2197031e-39
-362.93201 -1330.5699 851.505 9.2197031e-39
-707.466 -1176.6801 855.71002 9.2197031e-39
-1454.66 -834.66003 862.84302 9.2197031e-39
-1536.79 -812.47998 867.32397 9.2197031e-39
-1479.84 -815.19995 861.17999 9.2197031e-39
-378.35901 -1427.66 876.638 9.2197031e-39
-776.55701 -1203.89 870.48297 9.2197031e-39
-1457.98 -904.04004 879.88202 9.2197031e-39
-1454.8199 -868.30005 870.93201 9.2197031e-39
17.9142 -1660.6899 885.242 9.2197031e-39
-860.16498 -1242.23 889.66101 9.2197031e-39
-1457.35 -937.98999 887.95099 9.2197031e-39
-1396.22 -1004.79 896.67999 9.2197031e-39
-1442.99 -963.98999 892.47498 9.2197031e-39
-942.45801 -1277.37 907.91199 9.2197031e-39
-1012.26 -1299.92 921.65302 9.2197031e-39
-1458.35 -1079.79 922.09003 9.2197031e-39
-108.278 -1824.28 939.54797 9.2197031e-39
-1463.0699 -1119.23 932.112 9.2197031e-39
-1468.11 -1159.4399 942.36102 9.2197031e-39
-1496 -1215.78 959.20502 9.2197031e-39
-1894.72 -1618.8101 1103.48 9.2197031e-39
-2033.3199 -1765.6001 1155.24 9.2197031e-39
-1981.1899 -2019.47 1209.92 9.2197031e-39
-1920.3101 -2019.9199 1202.76 9.2197031e-39
-2044.62 -2020 1217.62 9.2197031e-39
-2098.4199 -2011.8301 1222.08 9.2197031e-39
-2160.05 -2008.9199 1228.74 9.2197031e-39
-2228.1101 -2009.8701 1237.09 9.2197031e-39
-2287.1399 -2002.8799 1242.46 9.2197031e-39
-2500.26 -2001.8301 1267.64 9.2197031e-39
-2570.5901 -1998.54 1275.25 9.2197031e-39
