# .PCD v0.7 - Point Cloud Data file format
VERSION 0.7
FIELDS x y z rgb
SIZE 4 4 4 4
TYPE F F F F
COUNT 1 1 1 1
WIDTH 316
HEIGHT 1
VIEWPOINT 0 0 0 1 0 0 0
POINTS 316
DATA ascii
3311.6799 570.6524 137.60899 9.2197031e-39
3312.77 585.33313 134 9.2197031e-39
2023.645 1247.7109 139.68649 9.2197031e-39
2031.2734 1246.563 138.99767 9.2197031e-39
2022.47 1253.7119 138.416 9.2197031e-39
1763.48 1386.1914 139.69901 9.2197031e-39
1775.2875 1385.7006 138.32825 9.2197031e-39
1787.15 1387.605 136.383 9.2197031e-39
1772.85 1392.29 137.07651 9.2197031e-39
-1180.9 2978.0801 134.00101 9.2197031e-39
3308.3501 525.93231 148.606 9.2197031e-39
3313.3899 538.73932 144.942 9.2197031e-39
3308.6899 556.9104 141.23599 9.2197031e-39
2007.905 1217.6855 148.77051 9.2197031e-39
2017.265 1213.2216 148.64799 9.2197031e-39
1989.33 1225.9561 149.15401 9.2197031e-39
1995.72 1223.5242 148.92439 9.2197031e-39
2004.995 1221.103 148.32901 9.2197031e-39
2012.582 1224.9651 146.45999 9.2197031e-39
2035.34 1229.5281 142.51401 9.2197031e-39
2013.476 1235.6765 143.8136 9.2197031e-39
2025.4535 1235.3887 142.37334 9.2197031e-39
2030.6 1231.6489 142.61 9.2197031e-39
2004.5634 1243.5341 143.07733 9.2197031e-39
2017.48 1247.1179 140.603 9.2197031e-39
2024.13 1244.239 140.44749 9.2197031e-39
1755.11 1358.116 147.39301 9.2197031e-39
1769.55 1353.3979 146.69 9.2197031e-39
1773.79 1355.115 145.75 9.2197031e-39
1747.7833 1364.9133 146.70799 9.2197031e-39
1753.3301 1365.6403 145.83733 9.2197031e-39
1765.675 1366.4409 144.09351 9.2197031e-39
1759.42 1370.525 143.91499 9.2197031e-39
1765.975 1373.3745 142.41582 9.2197031e-39
1770.3199 1376.577 141.11099 9.2197031e-39
1753.3232 1385.7822 141.07466 9.2197031e-39
1764.4 1381.103 140.786 9.2197031e-39
-1152.97 2930.25 141.797 9.2197031e-39
3310.3999 476.76501 159.976 9.2197031e-39
3309.04 493.73499 156.134 9.2197031e-39
3308.3501 510.117 152.34599 9.2197031e-39
1997.9 1212.548 151.246 9.2197031e-39
-1694.34 3174.22 152.272 9.2197031e-39
3319.28 438.31 167.953 9.2197031e-39
3309.8601 460.77399 163.826 9.2197031e-39
-1622.38 3063.03 169.508 9.2197031e-39
-1638.14 3107.97 160.864 9.2197031e-39
3334.73 394.38699 176.395 9.2197031e-39
3333.4399 412.375 172.30299 9.2197031e-39
-1623.23 3026.6799 178.21001 9.2197031e-39
3330.8301 379.655 180.371 9.2197031e-39
-433.89999 1589.0759 368.44101 9.2197031e-39
-427.578 1568.2849 372.56299 9.2197031e-39
-640.18701 1677.59 373.487 9.2197031e-39
-686.95599 1661.46 383.19101 9.2197031e-39
-732.617 1644.4301 392.96799 9.2197031e-39
3316.0901 -622.19995 419.17599 9.2197031e-39
3319 -591.32996 411.509 9.2197031e-39
3116.22 -505.76001 416.80899 9.2197031e-39
3083.4399 -489.75 417.14801 9.2197031e-39
2966.6799 -439.47998 419.96399 9.2197031e-39
2985.76 -436.71997 416.90701 9.2197031e-39
-723.76599 1530.265 418.85501 9.2197031e-39
-724.55798 1552.905 413.60001 9.2197031e-39
3316.76 -658.82996 427.754 9.2197031e-39
3050.3501 -507.01001 425.39801 9.2197031e-39
3064.8101 -495.09998 420.76001 9.2197031e-39
3318.01 -697.21997 436.677 9.2197031e-39
2940.6499 -501.82996 437.98901 9.2197031e-39
2975.6499 -489.91003 430.76099 9.2197031e-39
2945.8401 -474.48999 430.86801 9.2197031e-39
3311.4199 -725.10999 444.103 9.2197031e-39
3259.73 -686.23999 441.42099 9.2197031e-39
2915.8701 -532.25 448.30301 9.2197031e-39
2932.1799 -524.01001 444.30099 9.2197031e-39
2897.1599 -535.96997 451.54001 9.2197031e-39
2899.3899 -579.89001 461.647 9.2197031e-39
709.33698 566.52759 466.311 9.2197031e-39
727.10901 563.02191 464.90201 9.2197031e-39
710.505 582.18799 462.45999 9.2197031e-39
685.86298 596.63562 462.147 9.2197031e-39
703.56201 592.65552 460.85901 9.2197031e-39
675.68701 605.32562 461.37299 9.2197031e-39
666.41101 614.61835 460.34299 9.2197031e-39
714.052 539.2688 472.164 9.2197031e-39
2975.5901 -771.16003 497.28699 9.2197031e-39
-879.276 1279.405 497.76999 9.2197031e-39
-873.409 1303.359 491.366 9.2197031e-39
2888.2 -776.57996 509.57599 9.2197031e-39
2954.8899 -775.27002 500.866 9.2197031e-39
2906.27 -767.75 505.20901 9.2197031e-39
2929 -768.53003 502.53101 9.2197031e-39
-876.48798 1231.661 508.711 9.2197031e-39
-881.95203 1255.4189 503.78 9.2197031e-39
2851.3799 -792.90002 518.07098 9.2197031e-39
2867.99 -780.78003 513.112 9.2197031e-39
-875.81897 1183.7891 519.94897 9.2197031e-39
-877.745 1207.666 514.54498 9.2197031e-39
2838.9299 -814.84998 524.83002 9.2197031e-39
-873.68103 1159.923 525.32397 9.2197031e-39
2831.9199 -850.34998 534.10901 9.2197031e-39
-876.66302 1111.604 537.12799 9.2197031e-39
-879.23199 1135.509 531.79797 9.2197031e-39
2822.47 -881.31995 542.62598 9.2197031e-39
-880.73602 1062.891 549.16199 9.2197031e-39
-880.78198 1087.106 543.44098 9.2197031e-39
2814 -915.93994 551.87903 9.2197031e-39
-857.39502 1016.958 557.086 9.2197031e-39
-877.52002 1038.957 554.41803 9.2197031e-39
2811.8201 -967.97998 564.46198 9.2197031e-39
2780.96 -947.45996 563.49597 9.2197031e-39
2707.6299 -931.20996 568.88702 9.2197031e-39
2732.9399 -939.65002 567.69501 9.2197031e-39
2746.05 -914.62 560.12299 9.2197031e-39
-839.17401 970.92004 565.67999 9.2197031e-39
-850.83502 993.578 561.78998 9.2197031e-39
-1498.3 1325.749 564.76599 9.2197031e-39
-1568.55 1355.35 566.61298 9.2197031e-39
-1673.6 1417.301 565.19 9.2197031e-39
2672.27 -957.43005 579.53998 9.2197031e-39
2691.8 -949.5 575.20697 9.2197031e-39
-783.87201 883.06897 579.49298 9.2197031e-39
-795.28003 905.164 575.70398 9.2197031e-39
-845.91199 945.80798 572.46802 9.2197031e-39
2659.6201 -986.68994 588.05402 9.2197031e-39
-772.15198 837.17999 588.87 9.2197031e-39
-771.31097 861.297 583.06 9.2197031e-39
2640.3101 -996.20996 592.73798 9.2197031e-39
-779.54303 811.68402 595.83099 9.2197031e-39
-921.74902 910.16296 590.44897 9.2197031e-39
2630.3301 -1036.58 603.54303 9.2197031e-39
-784.88202 762.00598 608.25299 9.2197031e-39
-783.78101 786.60101 602.297 9.2197031e-39
2625.8101 -1097.66 618.55902 9.2197031e-39
-775.16901 739.68103 612.31 9.2197031e-39
-2006.79 1391.598 613.22803 9.2197031e-39
-793.48102 686.18768 627.26801 9.2197031e-39
-790.22101 711.71582 620.81897 9.2197031e-39
2627.54 -1184.3 638.83197 9.2197031e-39
-793.52802 636.26221 639.08197 9.2197031e-39
-785.98297 663.15887 631.77002 9.2197031e-39
-2888.3701 1774.4 633.71301 9.2197031e-39
-785.98199 587.92542 649.56299 9.2197031e-39
-783.69 613.74719 643.16803 9.2197031e-39
2633.01 -1290.03 663.14801 9.2197031e-39
1743.66 -840.62 668.85797 9.2197031e-39
1725.91 -819.23999 666.03699 9.2197031e-39
1709.15 -790.95996 661.46002 9.2197031e-39
1671.47 -784.23999 664.61603 9.2197031e-39
1690.79 -782.84998 661.85498 9.2197031e-39
1760.49 -881.26001 676.35101 9.2197031e-39
1610.17 -809.47998 678.30499 9.2197031e-39
1629.95 -807.67004 675.38599 9.2197031e-39
1650.48 -798.94995 670.737 9.2197031e-39
1483.9 -748.79004 679.85101 9.2197031e-39
1467.29 -735.07996 678.70203 9.2197031e-39
-3035.72 1660.72 679.15802 9.2197031e-39
1566.8 -835.54004 689.93103 9.2197031e-39
1588.1899 -825.5 684.86102 9.2197031e-39
1532.26 -804.43005 686.922 9.2197031e-39
1515.26 -789.16003 685.45203 9.2197031e-39
1498.6801 -772.82996 683.67603 9.2197031e-39
1405.75 -746.91003 689.25 9.2197031e-39
1428.5699 -733.73999 683.26001 9.2197031e-39
1448.79 -730.71997 680 9.2197031e-39
-2931.1399 1570.918 687.22498 9.2197031e-39
-2960.8101 1614.0549 680.76001 9.2197031e-39
2642.48 -1417.78 692.17102 9.2197031e-39
1543.45 -855.90002 697.68701 9.2197031e-39
1385.48 -748.58997 692.19897 9.2197031e-39
-2931.8501 1529.536 697.10303 9.2197031e-39
1941.5699 -1110.75 707.823 9.2197031e-39
-2931.2 1488.1069 706.82001 9.2197031e-39
1350.26 -807.19995 710.49597 9.2197031e-39
2595.55 -1543.3101 727.76801 9.2197031e-39
2622.6101 -1544.6899 724.68799 9.2197031e-39
1988.37 -1215.1899 726.63202 9.2197031e-39
1875.63 -1163.42 728.58398 9.2197031e-39
1920.05 -1155.11 721.02399 9.2197031e-39
-947.87701 351.66299 725.83002 9.2197031e-39
-1133 463.25101 722.75201 9.2197031e-39
2457.74 -1514.5 738.31 9.2197031e-39
2483.71 -1514.23 734.97699 9.2197031e-39
1897.74 -1196.33 733.58398 9.2197031e-39
1853.15 -1174.09 733.94 9.2197031e-39
1831.17 -1161.24 733.66699 9.2197031e-39
1809.22 -1153.0601 734.49799 9.2197031e-39
1787.16 -1149.5601 736.448 9.2197031e-39
1766.87 -1115.8 731.01801 9.2197031e-39
2684.75 -1681.6799 749.26099 9.2197031e-39
2015.3 -1320.1801 748.07098 9.2197031e-39
-666.586 104.56201 748.84802 9.2197031e-39
-1014.15 300.17801 746.35303 9.2197031e-39
2446.5 -1594.4299 758.62903 9.2197031e-39
2414.48 -1563.5 755.34601 9.2197031e-39
2383.2 -1533.23 752.12701 9.2197031e-39
2607.2 -1709.8 765.67798 9.2197031e-39
2544.5601 -1678.5801 766.18298 9.2197031e-39
2570.1299 -1668.98 760.69299 9.2197031e-39
-783.51898 77.752014 769.914 9.2197031e-39
-1062.1801 253.828 763.36401 9.2197031e-39
-1181.6 301.42899 767.14502 9.2197031e-39
-1249.78 339.67001 766.68597 9.2197031e-39
-1310.04 382.12799 764.23401 9.2197031e-39
-1007.3 186.077 772.47601 9.2197031e-39
-1317.5601 349.211 772.966 9.2197031e-39
1970.76 -1437.1101 781.336 9.2197031e-39
1255.6899 -1081.1 787.18799 9.2197031e-39
1234.58 -1072.96 787.91998 9.2197031e-39
859.97998 -868.06995 786.63702 9.2197031e-39
2383.3999 -1699.73 791.48102 9.2197031e-39
1210.59 -1074.86 791.39099 9.2197031e-39
1003.37 -984.75 796.17499 9.2197031e-39
860.74298 -918.68005 798.51202 9.2197031e-39
-1353.03 275.759 794.80499 9.2197031e-39
1017.41 -1011.05 800.62903 9.2197031e-39
977.87299 -988 800.15399 9.2197031e-39
725.39398 -886.57996 807.96503 9.2197031e-39
2053.6299 -1617.6699 813.604 9.2197031e-39
733.00098 -921.17004 815.18597 9.2197031e-39
650.37 -880.66003 816.013 9.2197031e-39
674.66602 -884.30005 813.81403 9.2197031e-39
699.37903 -886.84998 811.30298 9.2197031e-39
625.54901 -877.62 818.41803 9.2197031e-39
-895.51801 -35.23999 810.74298 9.2197031e-39
-1173.36 89.344971 816.26703 9.2197031e-39
545.70502 -875.16003 827.89099 9.2197031e-39
571.25299 -878.18994 825.39203 9.2197031e-39
600.67401 -874.31006 820.76898 9.2197031e-39
479.82401 -847.45996 829.63599 9.2197031e-39
-882.367 -90.382019 822.12799 9.2197031e-39
-1332.76 123.186 828.33698 9.2197031e-39
716.57501 -1004 836.84497 9.2197031e-39
485.56 -882.09998 837.10797 9.2197031e-39
1134.12 -1251.67 842.83801 9.2197031e-39
865.28601 -1138.83 850.005 9.2197031e-39
-1418.97 57.622986 854.70001 9.2197031e-39
693.83801 -1158.96 876.35797 9.2197031e-39
680.00897 -1130.55 871.38098 9.2197031e-39
-975.55603 -268.95697 876.099 9.2197031e-39
2418.98 -2125.52 887.70502 9.2197031e-39
740.95599 -1236.9 888.85797 9.2197031e-39
2325.8999 -2127.1101 899.80298 9.2197031e-39
2356.5801 -2124.27 895.26599 9.2197031e-39
2388.4399 -2129.8701 892.57898 9.2197031e-39
-1098.99 -268.573 891.55298 9.2197031e-39
2263.74 -2125.21 907.18201 9.2197031e-39
2294.4299 -2122.8999 902.77002 9.2197031e-39
2232.1201 -2117.55 909.35101 9.2197031e-39
2167.0901 -2072.22 906.81897 9.2197031e-39
742.65002 -1296.02 902.62701 9.2197031e-39
-1253.14 -244.58197 905.29102 9.2197031e-39
-1556.78 -101.03101 909.57898 9.2197031e-39
2201.47 -2119.3301 913.63202 9.2197031e-39
889.84198 -1421.73 913.82202 9.2197031e-39
792.09698 -1380.64 916.414 9.2197031e-39
742.62598 -1361.54 918.12598 9.2197031e-39
-1172.15 -342.71301 918.30103 9.2197031e-39
-1543.01 -131.00098 914.93298 9.2197031e-39
2139.5901 -2114.3201 920.24103 9.2197031e-39
2108.3799 -2105.5801 922.10303 9.2197031e-39
211.17599 -1207.48 948.61798 9.2197031e-39
-321.146 -928.98999 949.79102 9.2197031e-39
-1356.3 -368.80103 947.66199 9.2197031e-39
-1566.87 -250.66803 946.24103 9.2197031e-39
140.556 -1212.49 958.69702 9.2197031e-39
171.341 -1216.98 955.88202 9.2197031e-39
-313.15701 -961.78003 956.53998 9.2197031e-39
-366.45499 -933.88 956.65302 9.2197031e-39
-1643.38 -247.92499 955.22699 9.2197031e-39
-1691.42 -231.50201 957.39301 9.2197031e-39
41.514702 -1205.6 969.53802 9.2197031e-39
80.483101 -1200.16 963.34601 9.2197031e-39
109.145 -1208.46 961.69897 9.2197031e-39
18.516899 -1188.88 968.48199 9.2197031e-39
-287.358 -1018.3101 966.66101 9.2197031e-39
-296.08701 -985.5 960 9.2197031e-39
-55.530201 -1191.52 978.43103 9.2197031e-39
-20.7582 -1193.5 974.52002 9.2197031e-39
-82.025497 -1178.53 978.69501 9.2197031e-39
-282.79501 -1056.16 975.03699 9.2197031e-39
-452.88101 -978.16003 978.008 9.2197031e-39
-255.48599 -1113.36 985.12598 9.2197031e-39
-269.957 -1085.49 980.35901 9.2197031e-39
-494.21301 -976.76001 982.883 9.2197031e-39
-1364.24 -523.12 985.16101 9.2197031e-39
-231.85201 -1176.29 997.03302 9.2197031e-39
-248.938 -1150.67 993.125 9.2197031e-39
-561.08197 -998.79004 996.51501 9.2197031e-39
-223.79401 -1212.9399 1004.69 9.2197031e-39
-624.29199 -1015.88 1008.52 9.2197031e-39
152.78101 -1455.71 1014.68 9.2197031e-39
-186.785 -1262.38 1011.72 9.2197031e-39
-214.63499 -1248.92 1012.04 9.2197031e-39
-690.17401 -1034.02 1021.1 9.2197031e-39
-784.05798 -1075.77 1042.8 9.2197031e-39
872.53003 -2015.8101 1056.51 9.2197031e-39
773.98999 -2011.1899 1067.83 9.2197031e-39
806.80701 -2013.3401 1064.2 9.2197031e-39
839.85303 -2014.27 1060.26 9.2197031e-39
-881.83899 -1118.63 1065.25 9.2197031e-39
-1356.01 -880.55005 1068.66 9.2197031e-39
708.17401 -2005.96 1074.88 9.2197031e-39
740.79303 -2009.6399 1071.64 9.2197031e-39
-1357.76 -924.45996 1079.27 9.2197031e-39
-1364.54 -972.51001 1091.48 9.2197031e-39
-1967.89 -1555.9399 1305.45 9.2197031e-39
-1737.75 -1813.6299 1337.42 9.2197031e-39
-1797.62 -1807.8601 1343.59 9.2197031e-39
-1928.49 -1802.5701 1358.8199 9.2197031e-39
-1867.39 -1809.3799 1352.74 9.2197031e-39
-1984.48 -1790.6899 1363.0601 9.2197031e-39
-2051.26 -1786.52 1370.49 9.2197031e-39
-2113.6799 -1777.8799 1376.3 9.2197031e-39
-2189.4199 -1778.3999 1385.97 9.2197031e-39
-2309.01 -1752.1201 1394.8101 9.2197031e-39
