# .PCD v0.7 - Point Cloud Data file format
VERSION 0.7
FIELDS x y z rgb
SIZE 4 4 4 4
TYPE F F F F
COUNT 1 1 1 1
WIDTH 314
HEIGHT 1
VIEWPOINT 0 0 0 1 0 0 0
POINTS 314
DATA ascii
3305.3799 565.70898 137.605 9.2197031e-39
3311.8101 577.52551 134 9.2197031e-39
2023.73 1248.8831 139.22301 9.2197031e-39
2034.61 1243.447 139.1235 9.2197031e-39
2016.625 1251.9104 139.41101 9.2197031e-39
2025.05 1252.426 138.21899 9.2197031e-39
1766.9501 1387.8522 139.05299 9.2197031e-39
1784.375 1386.5795 137.1395 9.2197031e-39
1767.1602 1393.7448 137.63567 9.2197031e-39
1775.4 1391.047 137.226 9.2197031e-39
1782.3101 1391.8259 136.16499 9.2197031e-39
-1095.95 2950.6299 134 9.2197031e-39
3304.46 519.53802 148.61501 9.2197031e-39
3307.8301 533.32172 144.935 9.2197031e-39
3313.6699 545.64099 141.286 9.2197031e-39
2005.85 1216.6257 149.104 9.2197031e-39
2014.0325 1217.1204 147.94775 9.2197031e-39
1996.3999 1223.854 148.5995 9.2197031e-39
2013.365 1224.5795 146.27301 9.2197031e-39
2034.61 1228.855 142.56599 9.2197031e-39
2004.9033 1236.0187 144.64934 9.2197031e-39
2014.2383 1236.0428 143.45767 9.2197031e-39
2025.9867 1234.2253 142.394 9.2197031e-39
2015.715 1242.8865 141.65601 9.2197031e-39
2024.675 1241.9375 140.7415 9.2197031e-39
1743.01 1358.381 149.04601 9.2197031e-39
1756.5649 1358.3296 147.33701 9.2197031e-39
1747.71 1366.0184 146.64801 9.2197031e-39
1754.084 1364.7279 146.1424 9.2197031e-39
1764.7401 1368.8973 143.80501 9.2197031e-39
1766.0468 1374.7201 142.26567 9.2197031e-39
1773.59 1373.989 141.48 9.2197031e-39
1756.264 1386.2009 140.79939 9.2197031e-39
-1199.15 2939.26 149.79201 9.2197031e-39
-1139.54 2941.1299 141.77901 9.2197031e-39
3305.8501 486.806 156.161 9.2197031e-39
3304.3899 503.716 152.35699 9.2197031e-39
2002.8199 1203.8931 152.494 9.2197031e-39
1998.2233 1214.447 150.58701 9.2197031e-39
3318.3301 429.673 168.05499 9.2197031e-39
3308.1899 452.74799 163.89799 9.2197031e-39
3307.1201 469.81598 160.008 9.2197031e-39
-1623.47 3083.8 169.589 9.2197031e-39
-1645.23 3132.04 160.972 9.2197031e-39
3328.54 388.92902 176.37 9.2197031e-39
3329.8401 405.27698 172.34801 9.2197031e-39
-1624.52 3047.3899 178.312 9.2197031e-39
3335.3401 366.93799 180.69501 9.2197031e-39
-442.862 1560.9761 378.90302 9.2197031e-39
-425.517 1579.3679 372.35999 9.2197031e-39
-460.41699 1603.4341 371.116 9.2197031e-39
-640.586 1689.99 373.57999 9.2197031e-39
-682.78497 1651.08 388.12 9.2197031e-39
-674.59802 1672.39 382.05301 9.2197031e-39
3317.8601 -609.31995 413.242 9.2197031e-39
3074.55 -495.43005 417.27802 9.2197031e-39
3099.1399 -499.12 415.02399 9.2197031e-39
3017.5 -473.69995 419.39899 9.2197031e-39
2969.9299 -430.07996 415.14899 9.2197031e-39
773.52197 737.02802 418.78799 9.2197031e-39
792.91302 734.59698 416.89801 9.2197031e-39
825.92798 739.97101 411.43701 9.2197031e-39
-727.82001 1543.234 419.285 9.2197031e-39
-717.60901 1564.953 412.86401 9.2197031e-39
3312.8201 -673.68994 429.069 9.2197031e-39
3312.3999 -637.01001 420.46899 9.2197031e-39
3059.05 -505.73999 421.67999 9.2197031e-39
2961.26 -485.68994 429.371 9.2197031e-39
2967.5701 -460.84998 422.70801 9.2197031e-39
808.65601 678.7406 428.077 9.2197031e-39
817.73401 697.1944 422.57001 9.2197031e-39
812.67902 707.19031 420.854 9.2197031e-39
801.763 713.87683 420.66299 9.2197031e-39
754.948 740.19299 420.39999 9.2197031e-39
-708.09302 1519.241 422.44 9.2197031e-39
3316.0701 -715.41003 438.5 9.2197031e-39
3213.77 -638.15002 433.26501 9.2197031e-39
2937.9099 -518.13 439.98901 9.2197031e-39
2942.8501 -489.89001 432.70099 9.2197031e-39
785.68201 651.4585 437.431 9.2197031e-39
3286.47 -709.62 440.892 9.2197031e-39
2908.1101 -539.81006 448.89001 9.2197031e-39
2923.0701 -529.03003 444.44501 9.2197031e-39
2897.1599 -558.35999 454.65701 9.2197031e-39
2919.76 -642.83997 471.71701 9.2197031e-39
2940.6699 -772.43005 499.63501 9.2197031e-39
2965.76 -777.27002 497.591 9.2197031e-39
-885.47498 1292.704 498.41699 9.2197031e-39
-930.08301 1316.3569 498.50299 9.2197031e-39
2896.4099 -773.56006 505.52399 9.2197031e-39
2919.1499 -774.43994 502.84299 9.2197031e-39
-878.94 1244.99 508.84399 9.2197031e-39
-877.35797 1268.944 502.992 9.2197031e-39
2840.1699 -795.77002 517.90802 9.2197031e-39
2855.21 -780.13 512.30701 9.2197031e-39
2879.51 -785.01001 510.37299 9.2197031e-39
-879.31702 1221.033 514.54498 9.2197031e-39
2832.28 -828.54004 526.64099 9.2197031e-39
-876.46198 1173.2151 525.46301 9.2197031e-39
-878.49103 1197.098 520.086 9.2197031e-39
2825.02 -864.04004 535.93903 9.2197031e-39
-880.651 1124.819 537.414 9.2197031e-39
-880.14801 1148.949 531.65698 9.2197031e-39
2813.1001 -889.53003 543.466 9.2197031e-39
-882.974 1076.2729 549.16199 9.2197031e-39
-883.89502 1100.406 543.58502 9.2197031e-39
2808.0701 -933.27002 554.42603 9.2197031e-39
-863.776 1029.802 557.68701 9.2197031e-39
-868.06201 1053.519 552.63599 9.2197031e-39
2801.6201 -975.23999 565.14801 9.2197031e-39
2769.4299 -950.91003 563.49597 9.2197031e-39
2719.45 -937.31995 566.63599 9.2197031e-39
2739.77 -931.76001 562.74597 9.2197031e-39
-854.57898 982.48901 567.68103 9.2197031e-39
-849.46698 1007.288 561.18103 9.2197031e-39
-1562.49 1371.819 565.74799 9.2197031e-39
2660.7 -960.37 579.53998 9.2197031e-39
2681.21 -955.33997 575.74597 9.2197031e-39
2700.71 -947.33997 571.38098 9.2197031e-39
-769.40503 898.85999 576.59302 9.2197031e-39
-771.90002 922.20599 571.40198 9.2197031e-39
-837.71002 936.34302 576.42603 9.2197031e-39
-840.85999 960.09698 571.22198 9.2197031e-39
-1575.71 1342.146 574.42798 9.2197031e-39
2646.4199 -984.90002 587.13898 9.2197031e-39
-781.25403 849.01404 589.85797 9.2197031e-39
-780.31299 873.177 584.03802 9.2197031e-39
-1813.14 1438.217 581.92102 9.2197031e-39
2631.1699 -1007.46 594.39899 9.2197031e-39
-776.15601 825.888 594.66699 9.2197031e-39
2623.1899 -1055.34 606.70801 9.2197031e-39
-779.82202 776.75201 606.72498 9.2197031e-39
-786.32501 799.73102 602.12903 9.2197031e-39
-777.74402 728.37097 617.875 9.2197031e-39
-773.11902 753.83203 611.28101 9.2197031e-39
2625.9199 -1142.84 627.00702 9.2197031e-39
-785.95203 701.87311 625.16901 9.2197031e-39
-781.51501 653.35419 636.05298 9.2197031e-39
-782.41199 677.97583 630.35797 9.2197031e-39
2630.0601 -1240.92 649.62097 9.2197031e-39
-792.30603 600.36029 649.92603 9.2197031e-39
-791.802 625.68811 643.88702 9.2197031e-39
1681.78 -764.88 657.76099 9.2197031e-39
-799.18799 573.09412 657.23297 9.2197031e-39
-2355.8301 1416.926 655.87799 9.2197031e-39
1732.64 -839.29004 668.85797 9.2197031e-39
1715.76 -809.13 663.88397 9.2197031e-39
1658.6899 -799.93994 668.96503 9.2197031e-39
1697.97 -793.33997 662.41998 9.2197031e-39
1750.9301 -856.75 670.65399 9.2197031e-39
1619.21 -804.85999 675.14301 9.2197031e-39
1638.5601 -805.85999 672.91901 9.2197031e-39
1490.8101 -756.12 679.95398 9.2197031e-39
-2942.6399 1635.89 678.755 9.2197031e-39
1576.65 -827.29004 685.83899 9.2197031e-39
1598.1801 -815.21997 680.25702 9.2197031e-39
1541.01 -803.02002 684.64099 9.2197031e-39
1522.26 -797.35999 685.68701 9.2197031e-39
1505.5601 -781.07996 683.96698 9.2197031e-39
1395.16 -744.04004 689.25 9.2197031e-39
1415.8101 -740.38 685.76599 9.2197031e-39
1454.49 -742.90002 681.44598 9.2197031e-39
1473.1 -747.21997 680.09998 9.2197031e-39
1436.34 -736.53003 682.25 9.2197031e-39
-2933 1593.8369 687.45203 9.2197031e-39
1550.22 -867.85999 698.76703 9.2197031e-39
1372.97 -753.12 694.21198 9.2197031e-39
-2928.9399 1552.218 696.75598 9.2197031e-39
-2929.48 1510.848 706.58398 9.2197031e-39
2633.53 -1541.0601 719.98999 9.2197031e-39
1929.53 -1134.67 713.53601 9.2197031e-39
2603.9299 -1529.3 720.97601 9.2197031e-39
1907.59 -1183.79 727.91101 9.2197031e-39
1885.28 -1171.39 727.81897 9.2197031e-39
2719.98 -1661.3 737.37701 9.2197031e-39
2527.3701 -1542.1499 733.73199 9.2197031e-39
2470.3301 -1520.1499 735.78802 9.2197031e-39
1840.0699 -1192.71 738.59198 9.2197031e-39
1862.66 -1188.96 734.83801 9.2197031e-39
1818.5 -1165.17 734.83502 9.2197031e-39
1753.1899 -1136.88 736.45697 9.2197031e-39
2395.03 -1535.3501 748.93903 9.2197031e-39
2420.6001 -1532.75 745.07703 9.2197031e-39
2445.4199 -1526.0701 740.34998 9.2197031e-39
1772.4399 -1191.13 746.81097 9.2197031e-39
1795.38 -1183.11 742.005 9.2197031e-39
2617.29 -1699.5801 759.45398 9.2197031e-39
2580.55 -1660.8 754.97198 9.2197031e-39
2519.55 -1632.01 755.92499 9.2197031e-39
2369.76 -1539.6699 753.16699 9.2197031e-39
2004.51 -1388.26 763.84003 9.2197031e-39
1290.27 -989.26001 760.42902 9.2197031e-39
-1296.53 402.97998 760.54199 9.2197031e-39
2742.28 -1853.45 779.87799 9.2197031e-39
1981.02 -1414.6 773.03699 9.2197031e-39
-1162.5601 264.461 776.20502 9.2197031e-39
-1336.25 360.65601 775.57202 9.2197031e-39
1957.0601 -1440.72 782.245 9.2197031e-39
1243.3 -1078.46 787.44098 9.2197031e-39
1210.51 -1030.25 780.23199 9.2197031e-39
866.22498 -877.45996 787.91498 9.2197031e-39
-1237.8 269.021 784.68597 9.2197031e-39
-1349.16 325.69699 785.46002 9.2197031e-39
1219.5699 -1079.52 790.70502 9.2197031e-39
1008.38 -999.17004 798.57397 9.2197031e-39
988.13501 -989 798.74597 9.2197031e-39
-1339.24 297.595 790.83002 9.2197031e-39
819.922 -922.73999 804.479 9.2197031e-39
-1107.28 133.09399 800.17603 9.2197031e-39
-1157.89 144.004 804.03101 9.2197031e-39
-1348.66 263.13 800.15698 9.2197031e-39
720.71399 -916.90002 815.703 9.2197031e-39
633.883 -883.52002 818.85901 9.2197031e-39
658.245 -887.31995 816.65997 9.2197031e-39
687.68597 -881.56006 811.56201 9.2197031e-39
710.04602 -888.22998 810.29401 9.2197031e-39
-859.39301 -61.580017 814.61798 9.2197031e-39
2041.08 -1663.53 824.13898 9.2197031e-39
727.37299 -954.16003 823.64697 9.2197031e-39
608.99298 -880.31006 821.263 9.2197031e-39
559.56299 -872.30005 825.65002 9.2197031e-39
584.547 -876.02002 823.35498 9.2197031e-39
470.379 -837.90002 828.86298 9.2197031e-39
500.10901 -835.26001 824.46399 9.2197031e-39
-1343.26 169.45401 821.573 9.2197031e-39
523.29498 -886.35999 833.57397 9.2197031e-39
-1360.48 130.86499 832.86401 9.2197031e-39
973.45898 -1156.7 840.17603 9.2197031e-39
711.99799 -1036.34 844.99103 9.2197031e-39
853.24799 -1195.64 864.63098 9.2197031e-39
443.646 -967.63 862.86603 9.2197031e-39
743.44202 -1197.6 879.04199 9.2197031e-39
-721.01801 -397.16998 876.21698 9.2197031e-39
2433.72 -2130.5601 884.45001 9.2197031e-39
806.60797 -1241.86 881.461 9.2197031e-39
674.95398 -1165.8 880.23798 9.2197031e-39
-1566.09 20.432007 885.03497 9.2197031e-39
2371.73 -2133.4399 893.00299 9.2197031e-39
2403.7 -2138.8999 890.23297 9.2197031e-39
2339.8799 -2127.6899 895.69299 9.2197031e-39
735.86499 -1275.98 898.49597 9.2197031e-39
-1488.22 -53.403015 892.56403 9.2197031e-39
2309.1699 -2130.3899 900.23199 9.2197031e-39
2215.3899 -2120.3999 909.78699 9.2197031e-39
2246.8899 -2127.24 907.39899 9.2197031e-39
2277.6001 -2125.0701 902.98602 9.2197031e-39
819.74402 -1343.99 903.88702 9.2197031e-39
2153.3899 -2114.6599 916.30902 9.2197031e-39
2183.8501 -2111.3501 911.65601 9.2197031e-39
734.24902 -1344.1 914.77197 9.2197031e-39
-1537.1899 -108.883 911.87402 9.2197031e-39
2122.76 -2115.78 920.46198 9.2197031e-39
2091.5801 -2106.8899 922.32599 9.2197031e-39
-1397.4399 -260.50403 929.89301 9.2197031e-39
-1535.9399 -144.09497 920.02197 9.2197031e-39
-1363.89 -280.06403 930.24701 9.2197031e-39
-1465.38 -256.76801 937.64203 9.2197031e-39
-1540.64 -255.26501 946.84802 9.2197031e-39
183.35201 -1221.53 955.83099 9.2197031e-39
153.125 -1216.38 958.45599 9.2197031e-39
-314.57101 -940.59998 952.79901 9.2197031e-39
-338.703 -924.34998 952.03101 9.2197031e-39
-1604.58 -247.37097 953.10602 9.2197031e-39
88.5783 -1210.62 965.29498 9.2197031e-39
116.742 -1219.61 963.84003 9.2197031e-39
-300.508 -1009.05 967.16199 9.2197031e-39
-314.45999 -981.78003 962.5 9.2197031e-39
-1691.05 -248.35303 964.32202 9.2197031e-39
53.028198 -1211.5 970.01801 9.2197031e-39
-9.8351603 -1200.4301 975.39301 9.2197031e-39
-40.4697 -1193.24 977.58698 9.2197031e-39
26.5229 -1199.54 970.56403 9.2197031e-39
-97.606697 -1172.58 979.96997 9.2197031e-39
-276.88199 -1069.17 978.34497 9.2197031e-39
-288.21899 -1038.4 972.526 9.2197031e-39
-423.36899 -967.78003 973.03101 9.2197031e-39
-78.897202 -1195.6 983.026 9.2197031e-39
-262.59299 -1097.05 983.10797 9.2197031e-39
-512.15503 -971.15002 985.104 9.2197031e-39
-476.33701 -978.18994 982.216 9.2197031e-39
-246.925 -1168.8 998.04602 9.2197031e-39
-254.994 -1132.89 990.59802 9.2197031e-39
-234.64 -1200.34 1003.93 9.2197031e-39
-594.039 -1006.73 1003.9 9.2197031e-39
-217.442 -1273.91 1019.1 9.2197031e-39
-238.017 -1251.24 1016.36 9.2197031e-39
-667.49902 -1032.53 1019.32 9.2197031e-39
-1347.47 -687.57996 1024.3101 9.2197031e-39
-751.71698 -1066.33 1037.99 9.2197031e-39
-1352.39 -731 1035.17 9.2197031e-39
-1302.8101 -739.81006 1030.96 9.2197031e-39
852.62701 -2021.53 1059.5601 9.2197031e-39
885.60797 -2022.03 1055.49 9.2197031e-39
-828.06403 -1091.12 1053.54 9.2197031e-39
787.02502 -2017.78 1067.01 9.2197031e-39
820.15698 -2018.8899 1063.0601 9.2197031e-39
729.23798 -1990.02 1067.8 9.2197031e-39
-1346.99 -851.40002 1062.89 9.2197031e-39
754.12799 -2015.45 1070.64 9.2197031e-39
688.15601 -2009.8501 1077.7 9.2197031e-39
-1362.72 -904.46997 1077.41 9.2197031e-39
-1369.76 -952.43005 1089.62 9.2197031e-39
-1423.74 -1034.52 1115.85 9.2197031e-39
-1706.74 -1813 1335.46 9.2197031e-39
-1757.64 -1800.05 1338.87 9.2197031e-39
-1830.15 -1804.5801 1349.15 9.2197031e-39
-1894.8199 -1801.3101 1356.59 9.2197031e-39
-1958.99 -1796.55 1363.62 9.2197031e-39
-2018.08 -1786.71 1368.8 9.2197031e-39
-2082.6699 -1780.27 1375.49 9.2197031e-39
-2159.04 -1781.8401 1385.5601 9.2197031e-39
-2225.6899 -1774.73 1392.35 9.2197031e-39
-2282.3799 -1759.22 1395.89 9.2197031e-39
-2353.3101 -1753.25 1403.49 9.2197031e-39
