# .PCD v0.7 - Point Cloud Data file format
VERSION 0.7
FIELDS x y z rgb
SIZE 4 4 4 4
TYPE F F F F
COUNT 1 1 1 1
WIDTH 317
HEIGHT 1
VIEWPOINT 0 0 0 1 0 0 0
POINTS 317
DATA ascii
3323.9299 25.880005 138.49001 9.2197031e-39
3327.72 44.984985 134 9.2197031e-39
1952.1 1247.037 139.853 9.2197031e-39
1946.65 1253.5546 139.5265 9.2197031e-39
1944.2666 1261.7841 138.30933 9.2197031e-39
1729.8 1448.283 139.403 9.2197031e-39
1737.6866 1446.819 138.28566 9.2197031e-39
1743.145 1445.5869 137.5565 9.2197031e-39
1756.83 1441.338 135.959 9.2197031e-39
1734.2051 1454.505 137.37399 9.2197031e-39
1740.48 1451.244 136.90401 9.2197031e-39
-360.48801 3346.45 134 9.2197031e-39
3320.79 -17.19397 147.65199 9.2197031e-39
3319.9299 6.7529907 143.02499 9.2197031e-39
1931.0699 1218.0601 149.397 9.2197031e-39
1922.7 1228.373 148.834 9.2197031e-39
1932.505 1222.7111 148.21249 9.2197031e-39
1914.6665 1234.3853 149.06967 9.2197031e-39
1925.1766 1232.9557 147.47667 9.2197031e-39
1932.515 1237.0034 145.3575 9.2197031e-39
1947.26 1239.511 142.22101 9.2197031e-39
1905.905 1244.3435 148.6465 9.2197031e-39
1928.0101 1241.2866 145.30634 9.2197031e-39
1933.045 1243.745 143.91576 9.2197031e-39
1944.1125 1243.7314 141.94099 9.2197031e-39
1931.525 1252.866 142.3665 9.2197031e-39
1944.28 1251.6489 140.33051 9.2197031e-39
1716.3199 1419.766 147.505 9.2197031e-39
1706.995 1428.6765 147.39301 9.2197031e-39
1714.85 1424.9756 146.72801 9.2197031e-39
1727.335 1428.9465 143.70351 9.2197031e-39
1730.35 1429.4089 143.07201 9.2197031e-39
1708.51 1430.974 146.6635 9.2197031e-39
1715.11 1432.2695 145.226 9.2197031e-39
1727.5668 1436.915 142.07167 9.2197031e-39
1731.6001 1430.7455 142.582 9.2197031e-39
1722.12 1444.4658 141.53775 9.2197031e-39
1714.65 1454.2936 140.91049 9.2197031e-39
1723.28 1451.098 140.006 9.2197031e-39
-406.422 3319.9399 147.502 9.2197031e-39
-374.10901 3325.0601 140.70399 9.2197031e-39
3318.72 -62.60199 157.08701 9.2197031e-39
3317.73 -37.784973 152.30901 9.2197031e-39
-572.091 3427.78 155.57899 9.2197031e-39
3314.79 -107.58801 166.771 9.2197031e-39
3319.3799 -87.526978 161.94501 9.2197031e-39
-1052.7 3794.6499 168.22501 9.2197031e-39
3310.4199 -153.53302 176.726 9.2197031e-39
3315.54 -133.39203 171.78799 9.2197031e-39
3308.9399 -204.10999 187.08701 9.2197031e-39
3313.96 -183.14001 182.00301 9.2197031e-39
3313.0901 -235.43701 192.599 9.2197031e-39
-2207.79 4702.7197 193.36099 9.2197031e-39
929.46503 1011.856 369.564 9.2197031e-39
935.25702 1023.402 366.224 9.2197031e-39
899.974 1038.998 369.41501 9.2197031e-39
894.77197 1056.136 366.92401 9.2197031e-39
912.59198 1052.61 364.44299 9.2197031e-39
879.72302 1060.816 368.67899 9.2197031e-39
924.716 1000.532 372.673 9.2197031e-39
884.77502 1024.168 375.09201 9.2197031e-39
910.05603 1023.578 370.69199 9.2197031e-39
907.41602 944.16797 387.01801 9.2197031e-39
903.48499 952.54401 386.048 9.2197031e-39
866.86603 967.70703 389.565 9.2197031e-39
876.06897 961.23901 389.21201 9.2197031e-39
899.62701 960.95001 385.05899 9.2197031e-39
891.08301 926.58099 393.448 9.2197031e-39
2746.54 -795.85999 405.73499 9.2197031e-39
2721.1499 -786.31006 408.366 9.2197031e-39
2704.3501 -797.75 413.65201 9.2197031e-39
2685.9399 -862.04004 429.77701 9.2197031e-39
2692.3799 -822.02002 420.638 9.2197031e-39
2699.8999 -959.88 446.81699 9.2197031e-39
2735.0701 -1122.58 473.013 9.2197031e-39
2693.76 -1141.67 484.207 9.2197031e-39
2669.26 -1139.65 488.18301 9.2197031e-39
2617.8899 -1126.37 494.71301 9.2197031e-39
2642.1499 -1128.89 490.879 9.2197031e-39
2591.74 -1116.99 497.51199 9.2197031e-39
-418.49701 1574.558 498.11899 9.2197031e-39
-448.69901 1597.438 498.948 9.2197031e-39
-451.18799 1617.821 495.32401 9.2197031e-39
2571.8301 -1128.27 503.323 9.2197031e-39
2522.28 -1115.95 509.71899 9.2197031e-39
2545.9199 -1118.42 505.98599 9.2197031e-39
-432.35901 1555.9189 504.31799 9.2197031e-39
2475.49 -1111.3199 517.15601 9.2197031e-39
2498.48 -1112.3101 513.24597 9.2197031e-39
2405.5701 -1101.3199 527.65399 9.2197031e-39
2427.6699 -1100.0601 523.453 9.2197031e-39
2451.3999 -1105.3199 520.263 9.2197031e-39
-474.927 1498.703 523.34802 9.2197031e-39
2361.8101 -1105.1899 536.24799 9.2197031e-39
2336.8601 -1091.33 537.93903 9.2197031e-39
2381.2 -1091.76 530.10101 9.2197031e-39
2311.28 -1072.39 538.72998 9.2197031e-39
2290.04 -1075.55 543.15503 9.2197031e-39
2267.1201 -1068.79 545.90198 9.2197031e-39
2224.3601 -1072.1899 554.224 9.2197031e-39
2247.1599 -1079.35 551.578 9.2197031e-39
2202.1201 -1067.76 557.31299 9.2197031e-39
2179.46 -1059.22 559.65997 9.2197031e-39
-723.59198 1557.896 555.96997 9.2197031e-39
2136.55 -1058.17 567.117 9.2197031e-39
2157.8101 -1057.33 563.14899 9.2197031e-39
-720.55103 1490.509 568.88 9.2197031e-39
-723.43201 1535.4609 560.41998 9.2197031e-39
2072.1299 -1052.73 577.54401 9.2197031e-39
2115.3899 -1059.8101 571.22601 9.2197031e-39
2092.95 -1048.53 572.98401 9.2197031e-39
-735.56 1468.745 575.90698 9.2197031e-39
2051.8799 -1064.59 583.53101 9.2197031e-39
2008.08 -1045.61 587.56897 9.2197031e-39
2029.36 -1047.84 584.211 9.2197031e-39
-747.26001 1424.016 586.92798 9.2197031e-39
-740.52399 1446.4041 581.255 9.2197031e-39
1966.22 -1053.34 596.59302 9.2197031e-39
1987.21 -1050.0601 592.18597 9.2197031e-39
1944.6899 -1043.6899 598.513 9.2197031e-39
1724.04 -841.82996 597.646 9.2197031e-39
1705.92 -821.40002 596.80603 9.2197031e-39
1687.62 -807.67004 597.33502 9.2197031e-39
1672.12 -763.59998 591.30603 9.2197031e-39
-746.34698 1378.792 595.79401 9.2197031e-39
-746.90198 1401.406 591.37799 9.2197031e-39
1881.4301 -1043.0601 609.69299 9.2197031e-39
1923.64 -1044.64 602.46698 9.2197031e-39
1902.4399 -1039.53 605.23297 9.2197031e-39
1740.4301 -903.18005 606.96503 9.2197031e-39
1628.8199 -816.18005 609.54303 9.2197031e-39
1649.2 -806.06006 603.88 9.2197031e-39
-760.38501 1333.3779 607.36902 9.2197031e-39
-755.43597 1356.147 601.93903 9.2197031e-39
1860.41 -1068.96 618.62201 9.2197031e-39
1607.58 -831.93005 616.48297 9.2197031e-39
-763.771 1287.713 617.091 9.2197031e-39
-758.245 1310.65 611.52399 9.2197031e-39
1817.6 -1078.02 628.08099 9.2197031e-39
1839.04 -1075.0601 623.65698 9.2197031e-39
1566.3199 -846.32996 626.72998 9.2197031e-39
1587.21 -837.77002 621.28998 9.2197031e-39
-764.38397 1241.958 626.336 9.2197031e-39
-769.09003 1264.662 622.64398 9.2197031e-39
1774.61 -1080.4399 636.24701 9.2197031e-39
1796.04 -1082.76 632.87799 9.2197031e-39
1541.36 -882.71997 638.45599 9.2197031e-39
1508.8 -831.25 634 9.2197031e-39
1492.98 -806.33997 631.85303 9.2197031e-39
1476.89 -785.18005 630.50299 9.2197031e-39
1459.73 -771.57996 630.85699 9.2197031e-39
1442.75 -757.85999 631.151 9.2197031e-39
1405.77 -747.19995 635.63202 9.2197031e-39
1425.79 -744.96997 631.60901 9.2197031e-39
-772.02899 1195.599 636.95697 9.2197031e-39
-768.31097 1218.824 631.65601 9.2197031e-39
1751.35 -1122.96 648.89203 9.2197031e-39
1364.1801 -756.79004 644.979 9.2197031e-39
1383.78 -757.80005 641.67902 9.2197031e-39
-772.96301 1149.3621 646.35498 9.2197031e-39
-769.66101 1172.713 641.10303 9.2197031e-39
-780.88397 1102.208 657.185 9.2197031e-39
-771.16699 1126.3669 650.625 9.2197031e-39
-1825.01 2027.9301 658.96399 9.2197031e-39
-783.06799 1055.228 666.95502 9.2197031e-39
-780.61902 1078.9041 661.78998 9.2197031e-39
-1800.3101 1991.09 661.90601 9.2197031e-39
1499.84 -1025.97 674.47498 9.2197031e-39
-773.59998 985.96997 679.09003 9.2197031e-39
-772.75098 1009.609 674.21899 9.2197031e-39
-776.54901 1032.577 670.31201 9.2197031e-39
-1864.15 1969.16 677.69397 9.2197031e-39
-1971.99 2088.45 673.14899 9.2197031e-39
1311.58 -892.81995 681.53699 9.2197031e-39
-758.224 941.18701 685.28302 9.2197031e-39
-773.26599 962.42297 683.73102 9.2197031e-39
-756.34302 870.42902 699.073 9.2197031e-39
-756.54199 894.16901 694.36902 9.2197031e-39
-764.242 916.54004 691.27899 9.2197031e-39
-756.88501 846.453 703.95697 9.2197031e-39
1238.5699 -1009.75 717.92902 9.2197031e-39
1261.95 -1006.28 713.06 9.2197031e-39
-755.26898 774.59497 718.01398 9.2197031e-39
-763.98798 796.87 715.125 9.2197031e-39
-766.77698 820.42902 710.91998 9.2197031e-39
-770.133 746.823 726.21503 9.2197031e-39
1203.97 -1054.3101 733.00897 9.2197031e-39
-772.46899 697.0517 736.56897 9.2197031e-39
-800.82202 714.7865 738.09601 9.2197031e-39
1174.78 -1075.9399 742.54401 9.2197031e-39
-780.83002 670.05292 743.45398 9.2197031e-39
988.42297 -993.21997 759.33398 9.2197031e-39
-800.20599 639.75909 752.96399 9.2197031e-39
1002.2 -1021.48 762.513 9.2197031e-39
831.23901 -903.96997 769.60498 9.2197031e-39
860.44501 -893.06006 762.20801 9.2197031e-39
-821.11499 608.52722 762.93597 9.2197031e-39
-4593.4302 3902.49 779.46503 9.2197031e-39
711.62799 -892.80005 788.75201 9.2197031e-39
715.909 -935.43994 796.5 9.2197031e-39
658.427 -896.04004 798.90601 9.2197031e-39
683.09198 -898.43005 794.97699 9.2197031e-39
-4591.1802 3838.51 791.83698 9.2197031e-39
907.25098 -1144.65 804.07202 9.2197031e-39
873.245 -1100.16 801.26801 9.2197031e-39
630.01898 -900.19995 804.81299 9.2197031e-39
605.64001 -896.41003 808.41302 9.2197031e-39
-4594.8398 3777.1699 804.737 9.2197031e-39
707.35498 -1006.09 812.13397 9.2197031e-39
580.745 -893.20996 812.224 9.2197031e-39
532.26703 -883.53003 818.95599 9.2197031e-39
556.76202 -888.07996 815.48499 9.2197031e-39
494.79599 -854.71997 819.901 9.2197031e-39
-4597.9102 3715.9199 817.51501 9.2197031e-39
1063.1 -1382.14 823.63501 9.2197031e-39
473.965 -843.79004 821.44098 9.2197031e-39
-4670.7202 3679.71 837.755 9.2197031e-39
667.67603 -1145.41 847.03998 9.2197031e-39
731.79102 -1248.73 856.20801 9.2197031e-39
678.29797 -1181.9 852.42499 9.2197031e-39
-4713.25 3632.01 854.87903 9.2197031e-39
800.53003 -1353.53 864.84698 9.2197031e-39
-634.65997 -77.718018 866.62097 9.2197031e-39
-4715.8198 3570.4099 867.63501 9.2197031e-39
874.79602 -1457.8201 872.396 9.2197031e-39
722.49103 -1336.97 875.487 9.2197031e-39
749.84998 -1339.4399 871.091 9.2197031e-39
-757.43298 -56.39801 884.30603 9.2197031e-39
-4715.9199 3508.3 880.05499 9.2197031e-39
-4721.1099 3448.1101 893 9.2197031e-39
-4724.7998 3387.6699 905.72601 9.2197031e-39
-1455.66 397.51099 918.466 9.2197031e-39
-4713.6499 3323.02 916.63898 9.2197031e-39
-4723.8198 3265.03 930.03497 9.2197031e-39
209.448 -1214.99 942.82098 9.2197031e-39
-739.31201 -364.81403 942.64203 9.2197031e-39
-772.16498 -352.79602 946.11298 9.2197031e-39
-4751.6401 3212.0601 945.58197 9.2197031e-39
132.509 -1231.16 959.79901 9.2197031e-39
161.11099 -1238.71 956.19501 9.2197031e-39
99.560997 -1229.71 965.39899 9.2197031e-39
-4772.3101 3156.8999 960.28802 9.2197031e-39
34.406502 -1224.12 975.92603 9.2197031e-39
66.488503 -1227.9 970.94702 9.2197031e-39
-31.728701 -1217.83 986.48901 9.2197031e-39
2.2360599 -1219.98 980.84998 9.2197031e-39
-334.362 -950.94995 987.29199 9.2197031e-39
-1061 -289.987 985.19202 9.2197031e-39
-4843.3999 3114.8 981.39801 9.2197031e-39
843.36603 -2031.03 992.453 9.2197031e-39
810.771 -2029.45 997.96198 9.2197031e-39
-62.355202 -1210.63 990.52502 9.2197031e-39
-93.016899 -1203.09 994.5 9.2197031e-39
-318.15601 -1018.61 997.90503 9.2197031e-39
-325.81299 -984.04004 992.37201 9.2197031e-39
-369.29599 -945.75 992.49701 9.2197031e-39
-4791.9199 2980.3201 999.04498 9.2197031e-39
-4848.77 3055.0601 994.28601 9.2197031e-39
777.81403 -2028.49 1003.66 9.2197031e-39
747.79303 -2017.98 1006.93 9.2197031e-39
153.39999 -1469.1299 1003.58 9.2197031e-39
-282.46399 -1110.99 1009.97 9.2197031e-39
-297.06799 -1082.86 1006.96 9.2197031e-39
-304.909 -1047.49 1001.3 9.2197031e-39
717.237 -2009.05 1010.6 9.2197031e-39
-262.177 -1178.97 1019.91 9.2197031e-39
-276.28201 -1149.38 1016.53 9.2197031e-39
-436.78 -973.22998 1010.04 9.2197031e-39
-4828.9399 2928.8201 1015.94 9.2197031e-39
-182.189 -1270.91 1023.98 9.2197031e-39
-263.00201 -1227.22 1029.7 9.2197031e-39
-505.634 -1000.38 1027.77 9.2197031e-39
-238.686 -1294.05 1038.6899 9.2197031e-39
-241.98801 -1249.33 1030.35 9.2197031e-39
-537.99701 -989.90002 1031.46 9.2197031e-39
-1403.04 -295.75897 1047.47 9.2197031e-39
-4984.5298 2903.54 1048.8 9.2197031e-39
-612.74701 -1019.99 1050.83 9.2197031e-39
-4758.9302 2674.9199 1054.12 9.2197031e-39
-4886.02 2760.3401 1059.78 9.2197031e-39
-1440.72 -352.31299 1065.5 9.2197031e-39
-1494.87 -304.96002 1065.72 9.2197031e-39
-4268.25 2198.5801 1061.53 9.2197031e-39
-709.26898 -1068.9 1077.84 9.2197031e-39
-1441.6801 -390.53998 1073.3 9.2197031e-39
-1563.6 -301.20203 1077.25 9.2197031e-39
-1605.39 -283.43402 1081.17 9.2197031e-39
-1690.29 -285.15002 1096.6899 9.2197031e-39
-4333.2202 2098.98 1093.03 9.2197031e-39
-4388.23 2160.1802 1090.64 9.2197031e-39
-5225.3501 2894.0901 1093.72 9.2197031e-39
-1347.87 -647.96997 1107.9301 9.2197031e-39
-1356.45 -613.33997 1102.55 9.2197031e-39
-1495.71 -497.16003 1104.24 9.2197031e-39
-822.43597 -1130.77 1110.42 9.2197031e-39
-1343.8199 -685.76001 1114.75 9.2197031e-39
-1424.39 -614.79004 1114.98 9.2197031e-39
-4717.7598 2317.5898 1118.1 9.2197031e-39
-4746.3301 2379.8501 1110.78 9.2197031e-39
-1325.16 -797 1133.62 9.2197031e-39
-1364.79 -866.56006 1154.59 9.2197031e-39
-1364.6899 -909.66003 1163.1801 9.2197031e-39
-1364.87 -953.52002 1171.97 9.2197031e-39
-1374.65 -1005.02 1184 9.2197031e-39
-1626.11 -1821.75 1391.99 9.2197031e-39
-1677.23 -1810.4199 1398.87 9.2197031e-39
-1727.71 -1797.8201 1405.38 9.2197031e-39
-1795.8 -1799.78 1417.9399 9.2197031e-39
-1883.37 -1817.0801 1437.04 9.2197031e-39
-1946.36 -1812.01 1447.28 9.2197031e-39
-1990.14 -1790.1399 1450.74 9.2197031e-39
-2600.9299 -1270.73 1456.2 9.2197031e-39
-2054.1799 -1784.1399 1460.99 9.2197031e-39
-2135.8899 -1791.0601 1476.97 9.2197031e-39
-2200.5 -1783.1599 1486.9399 9.2197031e-39
-2266.8401 -1775.54 1497.28 9.2197031e-39
-2330.3 -1764.7 1506.45 9.2197031e-39
