# .PCD v0.7 - Point Cloud Data file format
VERSION 0.7
FIELDS x y z rgb
SIZE 4 4 4 4
TYPE F F F F
COUNT 1 1 1 1
WIDTH 317
HEIGHT 1
VIEWPOINT 0 0 0 1 0 0 0
POINTS 317
DATA ascii
3268.8401 -617.30005 138.96201 9.2197031e-39
3273.5801 -598.10999 134 9.2197031e-39
1592.05 525.8172 139.709 9.2197031e-39
1577 537.49243 139.403 9.2197031e-39
1568.05 544.00238 139.31799 9.2197031e-39
1574.97 543.45013 138.39301 9.2197031e-39
1335.6174 706.69519 138.48375 9.2197031e-39
1343.4651 705.92419 137.46725 9.2197031e-39
1337.53 712.77698 136.84949 9.2197031e-39
-1897.26 2937.4399 134.00101 9.2197031e-39
3271.71 -665.05005 149.088 9.2197031e-39
3267.1499 -638.81006 143.974 9.2197031e-39
1557.8201 506.75949 149.1015 9.2197031e-39
1561.84 504.67099 148.95599 9.2197031e-39
1537.22 518.59802 149.599 9.2197031e-39
1546.465 513.10303 149.4165 9.2197031e-39
1556.5 513.7265 147.76025 9.2197031e-39
1560.9 515.00903 146.811 9.2197031e-39
1537.54 526.84869 147.726 9.2197031e-39
1542.3199 521.62262 148.158 9.2197031e-39
1556.4674 525.72571 145.1115 9.2197031e-39
1566.0801 528.87964 142.95999 9.2197031e-39
1575.6899 526.18262 142.103 9.2197031e-39
1581.105 524.51398 141.65302 9.2197031e-39
1555.9375 534.2749 143.30025 9.2197031e-39
1560.76 535.47717 142.30499 9.2197031e-39
1573.5665 534.38135 140.61067 9.2197031e-39
1303.79 679.8833 149.228 9.2197031e-39
1324.9501 676.96753 146.67265 9.2197031e-39
1315.535 684.43488 146.44501 9.2197031e-39
1324.8676 686.82532 144.50424 9.2197031e-39
1334.6801 688.22662 142.71101 9.2197031e-39
1335.488 692.36829 141.6722 9.2197031e-39
1316.415 708.94873 140.88901 9.2197031e-39
1324.87 703.78009 140.75368 9.2197031e-39
-1950.5601 2931.8601 143.295 9.2197031e-39
3045.98 -543.18994 156.27499 9.2197031e-39
3070.4199 -540.51001 151.98399 9.2197031e-39
2964.3 -501.94995 159.507 9.2197031e-39
1544.875 505.8165 151.26849 9.2197031e-39
1546.6899 510.30701 150.00101 9.2197031e-39
-2011.49 2930.48 152.814 9.2197031e-39
2879.5601 -475.63 166.498 9.2197031e-39
2892.9099 -466.77002 162.52 9.2197031e-39
2888.4399 -542.14001 179.868 9.2197031e-39
2884.47 -518.79004 175.30299 9.2197031e-39
2875.52 -491.83997 170.694 9.2197031e-39
-3042.21 3555.8 170.383 9.2197031e-39
2873.01 -549.52002 183.834 9.2197031e-39
-3044.6201 3503.71 182.271 9.2197031e-39
-3079.55 3472.3899 194.479 9.2197031e-39
-896.78003 1206.526 365.547 9.2197031e-39
-915.51398 1232.502 362.63501 9.2197031e-39
-899.31299 1164.724 375.177 9.2197031e-39
-902.02002 1186.519 370.76501 9.2197031e-39
-913.75403 1125.557 386.02399 9.2197031e-39
-916.83398 1147.373 381.664 9.2197031e-39
-906.24402 1061.1169 399.14099 9.2197031e-39
-911.87701 1083.08 395.13501 9.2197031e-39
-917.30402 1105.1589 391.07199 9.2197031e-39
-913.008 1020.548 409.138 9.2197031e-39
-910.20599 1040.9351 404.20401 9.2197031e-39
-909.22198 978.41901 417.883 9.2197031e-39
-906.79102 998.78796 413.01099 9.2197031e-39
2241.8301 -1230.75 429.97198 9.2197031e-39
2264.3 -1239.09 428.418 9.2197031e-39
-904.67798 936.49097 426.47 9.2197031e-39
-911.47198 958.02502 422.73499 9.2197031e-39
2203.29 -1228.08 435.20999 9.2197031e-39
2222.52 -1229.51 432.61801 9.2197031e-39
2158.78 -1208 437.49899 9.2197031e-39
2177.3701 -1208.9399 434.89499 9.2197031e-39
2136.52 -1196.6801 438.362 9.2197031e-39
2114.5 -1185.13 439.13599 9.2197031e-39
2086.27 -1154.6801 436.67099 9.2197031e-39
2066.1599 -1146.35 437.871 9.2197031e-39
1740.11 -897.46997 432.13199 9.2197031e-39
1669.25 -882.33997 439.50101 9.2197031e-39
1682.49 -879.97998 436.978 9.2197031e-39
-906.28601 895.52502 435.77499 9.2197031e-39
-897.68799 915.086 430.14801 9.2197031e-39
2013.34 -1140.91 444.655 9.2197031e-39
2048.6899 -1145.33 440.28699 9.2197031e-39
2029.78 -1139.4399 441.84299 9.2197031e-39
1975.54 -1126.35 447.151 9.2197031e-39
1992.1 -1126.16 444.60501 9.2197031e-39
1630.1801 -896.51001 448.54501 9.2197031e-39
1643.58 -894.48999 446.07199 9.2197031e-39
1657.0699 -893.32996 443.77499 9.2197031e-39
-908.32098 834.14197 449.66 9.2197031e-39
-884.45398 852.47601 441.995 9.2197031e-39
-913.72498 875.72803 441.27899 9.2197031e-39
2375.53 -1450.5 458.35599 9.2197031e-39
1943.78 -1131.02 452.98801 9.2197031e-39
1960.0601 -1130.1801 450.33801 9.2197031e-39
1908.85 -1122.72 456.43399 9.2197031e-39
1924.53 -1120.28 453.52399 9.2197031e-39
1743.52 -999.06006 454.086 9.2197031e-39
1591.29 -920.41003 459.71201 9.2197031e-39
1604.77 -916.78003 456.871 9.2197031e-39
1616.84 -899.39001 451.198 9.2197031e-39
-910.09003 793.28601 458.96399 9.2197031e-39
-909.29602 813.72101 454.32401 9.2197031e-39
1895.25 -1133.63 460.90399 9.2197031e-39
1827.87 -1121.29 468.36401 9.2197031e-39
1860.01 -1121.53 463.55701 9.2197031e-39
1876.11 -1121.4301 461.10001 9.2197031e-39
1810.51 -1114.2 469.423 9.2197031e-39
1842.9 -1116.67 465.07101 9.2197031e-39
1564.77 -937.07996 467.41 9.2197031e-39
1578.25 -930.75 463.97299 9.2197031e-39
-911.13397 752.38202 468.16901 9.2197031e-39
-910.70203 772.83899 463.57901 9.2197031e-39
1794.92 -1115.65 472.10101 9.2197031e-39
1744.99 -1099.78 476.14301 9.2197031e-39
1726.17 -1078.35 474.24899 9.2197031e-39
1524.04 -965.12 479.77301 9.2197031e-39
1538.2 -965.01001 477.60699 9.2197031e-39
1551.03 -940.35999 470.21399 9.2197031e-39
1440.42 -881.26001 473.871 9.2197031e-39
1453.86 -881.84998 471.96799 9.2197031e-39
1427.16 -873.72998 474.211 9.2197031e-39
1414.22 -860.23999 473.18399 9.2197031e-39
1401.51 -846.66003 472.10101 9.2197031e-39
1349.36 -837.01001 477.853 9.2197031e-39
1388.98 -833.93994 471.185 9.2197031e-39
1363.12 -828.65002 473.92401 9.2197031e-39
1376.12 -829.89001 472.233 9.2197031e-39
-919.36902 711.68848 478.41599 9.2197031e-39
-910.396 731.87799 472.59299 9.2197031e-39
2486.46 -1651.1799 485.96899 9.2197031e-39
1467.36 -937.97998 482.34201 9.2197031e-39
1321.83 -848.47998 484.55499 9.2197031e-39
1335.36 -846.19995 482.005 9.2197031e-39
-917.97498 670.5777 487.298 9.2197031e-39
-919.25702 691.14191 482.944 9.2197031e-39
-920.79901 629.47351 496.81699 9.2197031e-39
-925.41101 650.07312 492.95801 9.2197031e-39
3078.5901 -2164.26 509.90201 9.2197031e-39
1513.11 -1082.34 507.353 9.2197031e-39
-829.979 530.58368 504.95499 9.2197031e-39
-831.48901 550.41193 500.798 9.2197031e-39
-920.91498 588.27661 505.94699 9.2197031e-39
-920.948 608.88251 501.39401 9.2197031e-39
3005.2 -2145.75 516.90802 9.2197031e-39
3037.6201 -2147.8601 512.47198 9.2197031e-39
1498.28 -1101.73 513.88599 9.2197031e-39
1482.64 -1075.09 510.35699 9.2197031e-39
2943.5801 -2145.76 526.229 9.2197031e-39
2973.8701 -2145.04 521.48999 9.2197031e-39
-510.543 230.64499 522.987 9.2197031e-39
-532.93597 244.20801 523.37402 9.2197031e-39
-906.14301 506.44699 521.81299 9.2197031e-39
2887.3201 -2154.22 536.60999 9.2197031e-39
2852.8 -2145.1699 539.828 9.2197031e-39
2913.8401 -2147.05 531.01202 9.2197031e-39
-635.39801 243.05499 539.125 9.2197031e-39
2825.49 -2150 545.02698 9.2197031e-39
2788.8 -2134.8899 547.23499 9.2197031e-39
2712.3501 -2094.4399 549.849 9.2197031e-39
1269.4 -1072.1 541.948 9.2197031e-39
1284.27 -1077.12 540.80701 9.2197031e-39
1238.95 -1068.46 545.74597 9.2197031e-39
1254.23 -1069.86 543.74597 9.2197031e-39
1209.26 -1059.48 548.25 9.2197031e-39
1225.04 -1057.29 545.38098 9.2197031e-39
-485.32901 109.34601 546.00403 9.2197031e-39
-496.16901 124.85001 544.21399 9.2197031e-39
-522.099 136.655 545.52502 9.2197031e-39
-538.453 151.177 544.78601 9.2197031e-39
-555.664 165.71201 544.17401 9.2197031e-39
-586.18597 177.48999 546.185 9.2197031e-39
-605.15198 192.23099 545.79303 9.2197031e-39
-682.93701 253.50699 544.00299 9.2197031e-39
-730.47498 264.745 548.70697 9.2197031e-39
-755.66998 280.36099 549.06299 9.2197031e-39
-1134.96 561.34412 544.27502 9.2197031e-39
2757.0601 -2129.25 550.78699 9.2197031e-39
1160.01 -1073.78 558.86102 9.2197031e-39
1176.22 -1071.08 555.81403 9.2197031e-39
1191.58 -1073.04 553.92401 9.2197031e-39
1131.3101 -1058.71 559.86798 9.2197031e-39
1147.49 -1056.28 556.883 9.2197031e-39
-465.11899 41.218018 558.01703 9.2197031e-39
-474.617 56.934021 555.97699 9.2197031e-39
-482.10901 73.304016 553.48901 9.2197031e-39
-488.51999 90.015015 550.76202 9.2197031e-39
-822.58801 290.017 557.04797 9.2197031e-39
1114.46 -1063.84 563.55103 9.2197031e-39
1068.04 -1057.45 569.159 9.2197031e-39
1083.58 -1059.4 567.23999 9.2197031e-39
1055.48 -1043.11 567.88702 9.2197031e-39
1102.4 -1046.03 561.43701 9.2197031e-39
-467.12201 3.098999 566.75098 9.2197031e-39
-470.41101 20.859009 563.32001 9.2197031e-39
-883.69299 301.63101 563.71997 9.2197031e-39
1004.31 -1053.88 578.008 9.2197031e-39
1037.1801 -1052.2 572.664 9.2197031e-39
1022.13 -1047.96 574.00299 9.2197031e-39
-469.14899 -54.788025 579.86102 9.2197031e-39
-475.746 -37.882996 577.12 9.2197031e-39
-463.66901 -14.661011 570.15698 9.2197031e-39
-944.797 314.26599 570.16602 9.2197031e-39
987.66101 -1054.96 580.76501 9.2197031e-39
895.85999 -1030.55 589.25 9.2197031e-39
910.18597 -1037.71 588.66699 9.2197031e-39
829.63898 -982.23999 588.578 9.2197031e-39
821.30701 -960.97998 585.13702 9.2197031e-39
-479.82501 -78.051025 586.62201 9.2197031e-39
-1056.6899 321.55099 585.47699 9.2197031e-39
856.90198 -1045.02 598.341 9.2197031e-39
878.72101 -1031.5 592.05103 9.2197031e-39
-501.19199 -105.70801 595.97101 9.2197031e-39
-1302.01 460.45001 591.85602 9.2197031e-39
946.76202 -1138.66 605.46399 9.2197031e-39
918.01599 -1119.1899 605.505 9.2197031e-39
905.60797 -1103.77 603.96997 9.2197031e-39
823.43701 -1042.35 602.81299 9.2197031e-39
839.849 -1044.67 600.84399 9.2197031e-39
783.72302 -1011.23 601.935 9.2197031e-39
752.73798 -1001.83 604.54303 9.2197031e-39
767.46399 -1008.38 603.76398 9.2197031e-39
720.23602 -995.40002 608.03497 9.2197031e-39
736.88501 -997.81006 606.05103 9.2197031e-39
-1332.02 434.17798 602.20502 9.2197031e-39
927.00702 -1146.61 610.20898 9.2197031e-39
697.83502 -1005.09 613.56702 9.2197031e-39
667.61603 -992.41003 615.33197 9.2197031e-39
682.70398 -998.81995 614.46698 9.2197031e-39
633.612 -986.93994 619.26501 9.2197031e-39
652.573 -985.87 616.15997 9.2197031e-39
-1323.46 386.117 611.54199 9.2197031e-39
-1347.99 408.483 610.30499 9.2197031e-39
610.526 -995.51001 624.65198 9.2197031e-39
564.41602 -975.67004 627.237 9.2197031e-39
585.92499 -971.12 622.97699 9.2197031e-39
600.89001 -978.23999 622.28998 9.2197031e-39
507.83401 -972.85999 635.172 9.2197031e-39
543.22699 -979.13 631.20697 9.2197031e-39
491.854 -966.56006 636.19598 9.2197031e-39
530.16302 -968.15002 630.755 9.2197031e-39
480.48199 -952.71997 634.85498 9.2197031e-39
417.80701 -924.81006 638.15997 9.2197031e-39
-1421.35 352.00101 633.89301 9.2197031e-39
453.79199 -963.31995 641.23499 9.2197031e-39
437.81699 -956.51001 642.146 9.2197031e-39
365.43701 -940.48999 649.54797 9.2197031e-39
382.47101 -946.37 648.27301 9.2197031e-39
423.99899 -946.32996 641.98401 9.2197031e-39
-1479.61 320.38501 649.69702 9.2197031e-39
316.108 -949.32996 658.96399 9.2197031e-39
341.70099 -943.88 653.888 9.2197031e-39
282.289 -965.32996 667.61798 9.2197031e-39
254.62601 -942.23999 666.69501 9.2197031e-39
276.535 -943.04004 663.55701 9.2197031e-39
-756.138 -224.62201 660.83002 9.2197031e-39
-1544.34 286.92599 666.88599 9.2197031e-39
210.631 -969.37 679.34802 9.2197031e-39
156.75301 -977.34998 689.26099 9.2197031e-39
182.28 -975.42004 684.974 9.2197031e-39
132.311 -977.46997 692.98401 9.2197031e-39
116.459 -966.93005 693.05103 9.2197031e-39
52.679298 -953.25 699.67102 9.2197031e-39
72.916801 -959.27002 697.94098 9.2197031e-39
99.426003 -957.71997 693.59003 9.2197031e-39
-887.45099 -299.63202 697.28101 9.2197031e-39
-18.666599 -945.13 708.66602 9.2197031e-39
11.5202 -941.25 703.24298 9.2197031e-39
33.727798 -945.57996 700.84003 9.2197031e-39
-43.040001 -942.31995 711.729 9.2197031e-39
-95.413498 -939.21997 718.96503 9.2197031e-39
-67.4897 -939.19995 714.73798 9.2197031e-39
-767.90198 -515.69995 726.99298 9.2197031e-39
-778.5 -546.59998 735.42902 9.2197031e-39
-268.319 -1082.6 776.82898 9.2197031e-39
-434.68301 -1023.65 788.94897 9.2197031e-39
-443.22699 -1001.0601 785.24402 9.2197031e-39
-323.43799 -1105.58 790.24701 9.2197031e-39
-399.729 -1084.14 797.04303 9.2197031e-39
-420.42899 -1072.05 797.5 9.2197031e-39
-433.117 -1052.67 795.13098 9.2197031e-39
-384.01501 -1132.4 805.34003 9.2197031e-39
-388.84 -1105.28 800.07202 9.2197031e-39
-539.61298 -1052.72 811.25 9.2197031e-39
-562.51001 -1041.0699 812.13397 9.2197031e-39
-1384.77 -556.67004 829.34698 9.2197031e-39
-1400.54 -533.56006 826.62097 9.2197031e-39
-637.979 -1071.91 830.37097 9.2197031e-39
-1395.6899 -591.17004 838.63 9.2197031e-39
-711.15698 -1099.15 847.46198 9.2197031e-39
-1399.98 -623.20996 846.36401 9.2197031e-39
-1370.17 -701.29004 859.12701 9.2197031e-39
-1370.3101 -670.68994 852.38098 9.2197031e-39
-785.776 -1125.83 864.64899 9.2197031e-39
-1370.58 -732.42004 866.07501 9.2197031e-39
-1445.67 -674.26001 864.56799 9.2197031e-39
-1375.88 -766.27002 874.36499 9.2197031e-39
-882.57898 -1167.88 888.59003 9.2197031e-39
-1379.0699 -799.45996 882.18597 9.2197031e-39
-1382.09 -897.77002 904.388 9.2197031e-39
-1389.75 -934.89001 913.75897 9.2197031e-39
-1388.49 -967.53003 920.78601 9.2197031e-39
-1393.27 -1038.05 937.10699 9.2197031e-39
-1395.3 -1005.11 930.12903 9.2197031e-39
-1621.01 -1208.77 1009.31 9.2197031e-39
-1834.72 -1458.75 1096.9301 9.2197031e-39
-1959.34 -1581.1499 1142.85 9.2197031e-39
-1862.25 -1874.03 1192.9399 9.2197031e-39
-1913.3101 -1865.3101 1198.74 9.2197031e-39
-1973.13 -1862.1699 1207.09 9.2197031e-39
-2021.33 -1849.74 1211.63 9.2197031e-39
-2088.6799 -1850.03 1221.88 9.2197031e-39
-2147.53 -1843.3 1229.29 9.2197031e-39
-2221.8601 -1846.05 1241.14 9.2197031e-39
-2282.78 -1838.6001 1248.71 9.2197031e-39
-2483.0801 -1821.3701 1275.1899 9.2197031e-39
-2561.3401 -1820.45 1286.8199 9.2197031e-39
