# .PCD v0.7 - Point Cloud Data file format
VERSION 0.7
FIELDS x y z rgb
SIZE 4 4 4 4
TYPE F F F F
COUNT 1 1 1 1
WIDTH 318
HEIGHT 1
VIEWPOINT 0 0 0 1 0 0 0
POINTS 318
DATA ascii
2819.78 -781.01001 138.233 9.2197031e-39
2834.4199 -771.94995 134.944 9.2197031e-39
1138.49 -375.32501 139.58501 9.2197031e-39
1141.9299 -374.83701 139.24001 9.2197031e-39
1131.35 -368.98199 138.38901 9.2197031e-39
853.45551 -294.74051 136.742 9.2197031e-39
862.1665 -297.21698 136.832 9.2197031e-39
-936.763 136.00601 138.502 9.2197031e-39
-1867 386.319 132.522 9.2197031e-39
2787.6001 -805.02002 146.52699 9.2197031e-39
2806.23 -797.39001 143.35699 9.2197031e-39
1229.38 -433.14001 148.853 9.2197031e-39
1129.3199 -412.90002 149.94901 9.2197031e-39
1143.27 -413.17999 149.1355 9.2197031e-39
1115.8933 -405.84335 148.967 9.2197031e-39
1122.085 -405.15002 148.3925 9.2197031e-39
1134.7 -406.6925 147.9915 9.2197031e-39
1140.8 -408.85999 148.16901 9.2197031e-39
1128.4 -393.08499 144.85049 9.2197031e-39
1133.84 -397.54333 145.66432 9.2197031e-39
1125.1375 -385.77246 143.15475 9.2197031e-39
1135.9399 -387.83002 143.00301 9.2197031e-39
1147.65 -381.87 140.707 9.2197031e-39
1140.6801 -377.85999 140.106 9.2197031e-39
836.89252 -334.90799 148.25101 9.2197031e-39
843.61951 -332.14352 147.103 9.2197031e-39
852.50952 -335.66647 147.4545 9.2197031e-39
846.45325 -326.13849 145.35976 9.2197031e-39
855.31323 -323.31274 144.06052 9.2197031e-39
861.86835 -316.62677 141.90361 9.2197031e-39
748.95697 -304.87598 146.02699 9.2197031e-39
793.755 -309.06403 144.26801 9.2197031e-39
637.66602 -291.70099 149.677 9.2197031e-39
711.24103 -299.48798 147.024 9.2197031e-39
466.97601 -250.65302 149.851 9.2197031e-39
448.879 -242.46802 148.87199 9.2197031e-39
420.702 -234.58099 148.61099 9.2197031e-39
-974.43799 109.82401 147.713 9.2197031e-39
-951.40698 125.93701 142.054 9.2197031e-39
2726.74 -839.14001 159.28101 9.2197031e-39
2743.5701 -824.71997 154.457 9.2197031e-39
2765.1599 -818.45996 151.45399 9.2197031e-39
1473.12 -525.18994 157.30901 9.2197031e-39
1439.76 -514.10999 156.545 9.2197031e-39
1383.14 -493.75 154.84801 9.2197031e-39
1318.53 -466.84998 151.957 9.2197031e-39
1260.22 -445.17004 150.021 9.2197031e-39
1270.0699 -447.77002 150.073 9.2197031e-39
1119.74 -412.16003 150.36501 9.2197031e-39
1112.71 -409.70996 150.175 9.2197031e-39
588.18597 -283.45099 150.67799 9.2197031e-39
530.72302 -275.14801 152.172 9.2197031e-39
488.784 -262.31598 151.49899 9.2197031e-39
495.39801 -266.44501 152.153 9.2197031e-39
476.474 -255.41101 150.485 9.2197031e-39
-965.64801 73.265991 156.67 9.2197031e-39
-978.17401 97.036987 151.27901 9.2197031e-39
2703.3401 -863.53003 167.118 9.2197031e-39
2708.9199 -846.02002 162.20399 9.2197031e-39
-968.15002 60.327026 160.19701 9.2197031e-39
2665.3601 -894.65002 177.63499 9.2197031e-39
2681.48 -887.91003 174.855 9.2197031e-39
2695.8799 -873.42004 170.166 9.2197031e-39
2640.4099 -904.98999 181.912 9.2197031e-39
1338.52 -587.25 182.024 9.2197031e-39
150.77499 -516.97998 239.28799 9.2197031e-39
142.27699 -503.5 236.319 9.2197031e-39
160.162 -505.57996 235.72099 9.2197031e-39
165.22 -554.82501 248.21851 9.2197031e-39
159.78999 -545.56995 246.155 9.2197031e-39
156.42999 -534 243.35651 9.2197031e-39
152.26199 -522.62 240.659 9.2197031e-39
163.48001 -594.685 258.70502 9.2197031e-39
167.912 -580.5 254.731 9.2197031e-39
166.021 -574.96997 253.41 9.2197031e-39
162.17999 -566.53003 251.459 9.2197031e-39
-93.803497 -522.25 256.21701 9.2197031e-39
-47.441799 -525.07996 254.004 9.2197031e-39
0.88219798 -522.60999 250.286 9.2197031e-39
1635.39 -982.95996 266.138 9.2197031e-39
180.349 -640.25 269.48999 9.2197031e-39
176.192 -635.48999 268.51599 9.2197031e-39
165.95801 -626.14996 266.73602 9.2197031e-39
171.69501 -611.05005 262.44 9.2197031e-39
167.717 -606.17004 261.42401 9.2197031e-39
-219.647 -536.97998 268.056 9.2197031e-39
1607.6899 -1023.33 278.40601 9.2197031e-39
1618.38 -1026.11 278.45001 9.2197031e-39
1618.76 -1011.71 274.67801 9.2197031e-39
1628.8199 -1013.58 274.526 9.2197031e-39
1635.635 -1001.875 271.04498 9.2197031e-39
1347.76 -965.03003 279.767 9.2197031e-39
1354.375 -955.685 276.91501 9.2197031e-39
1361.76 -948 274.44501 9.2197031e-39
1362.66 -939.75 272.23999 9.2197031e-39
176.47301 -675.07996 278.80399 9.2197031e-39
181.202 -666.52002 276.276 9.2197031e-39
176.09149 -655.20496 273.65448 9.2197031e-39
-343.814 -544.48999 277.91 9.2197031e-39
-409.026 -530.67004 278.45901 9.2197031e-39
-405.69101 -520.63 275.63599 9.2197031e-39
1572.47 -1056.36 289.245 9.2197031e-39
1575.11 -1049.5699 287.30899 9.2197031e-39
1582.99 -1043.74 285.29001 9.2197031e-39
1591.72 -1044.5699 284.953 9.2197031e-39
1595.76 -1034.01 281.948 9.2197031e-39
1606.4 -1036.97 282.04001 9.2197031e-39
1311.89 -991.05005 288.823 9.2197031e-39
1313.63 -982.87 286.582 9.2197031e-39
1323.8199 -985.91003 286.72601 9.2197031e-39
1325.42 -977.69995 284.487 9.2197031e-39
1335.95 -975.56995 283.26202 9.2197031e-39
1344.65 -969.81995 281.21201 9.2197031e-39
183.039 -717.06995 289.315 9.2197031e-39
179.384 -701.35999 285.45901 9.2197031e-39
183.05099 -706.40002 286.53799 9.2197031e-39
182.78299 -685.98999 281.24249 9.2197031e-39
-407.38 -545.43994 282.20099 9.2197031e-39
1786.58 -1130.38 294.89301 9.2197031e-39
1533.02 -1084.4399 299.064 9.2197031e-39
1540.5699 -1084.24 298.53 9.2197031e-39
1547.11 -1076.37 296.06601 9.2197031e-39
1549.4301 -1068.87 293.96701 9.2197031e-39
1557.53 -1063.3101 292.004 9.2197031e-39
1564.45 -1062.08 291.24399 9.2197031e-39
1427.65 -1034.01 292.64099 9.2197031e-39
1299.45 -1028.67 299.40601 9.2197031e-39
1303.6 -1024.98 298.181 9.2197031e-39
1306.16 -1010.3199 294.20099 9.2197031e-39
1308.55 -1003.02 292.14999 9.2197031e-39
183.27701 -756.245 299.4975 9.2197031e-39
184.744 -740.89001 295.40601 9.2197031e-39
179.092 -736.77002 294.694 9.2197031e-39
185.039 -722.93994 290.716 9.2197031e-39
1524.6899 -1089.74 300.974 9.2197031e-39
1282.45 -1045.26 304.806 9.2197031e-39
1289.27 -1039.74 302.93301 9.2197031e-39
1293.54 -1036.1 301.716 9.2197031e-39
193.925 -791.08997 307.89099 9.2197031e-39
190.561 -785.69995 306.70099 9.2197031e-39
194.80701 -771.92004 302.84399 9.2197031e-39
190.714 -767.01001 301.82599 9.2197031e-39
2224.29 -1325.5601 317.85101 9.2197031e-39
2172.3501 -1316.8199 318.88101 9.2197031e-39
189.873 -824.56006 316.85901 9.2197031e-39
194.341 -829.43994 317.845 9.2197031e-39
192.64999 -810.94995 313.14099 9.2197031e-39
190.83501 -804.54004 311.58801 9.2197031e-39
2216.4199 -1340.51 322.24301 9.2197031e-39
2092.48 -1315.11 323.51599 9.2197031e-39
2105.9399 -1313.99 322.36899 9.2197031e-39
2130.01 -1314.52 320.97601 9.2197031e-39
2145.8101 -1315 320.095 9.2197031e-39
2023.78 -1305.4301 325.36801 9.2197031e-39
2040.86 -1301.12 323.159 9.2197031e-39
2061.3701 -1307.21 323.44 9.2197031e-39
1980.95 -1297.09 325.92001 9.2197031e-39
1997.13 -1292.63 323.73099 9.2197031e-39
1952.62 -1281.5699 323.68201 9.2197031e-39
1579.49 -1183.0699 321.78 9.2197031e-39
198.261 -863.19501 326.38348 9.2197031e-39
195.39401 -844.79999 321.77649 9.2197031e-39
-993.26202 -582.83997 329.202 9.2197031e-39
-1013.05 -571.85999 327.604 9.2197031e-39
-1021.98 -551.64001 322.90799 9.2197031e-39
1617.41 -1261.3 339.73199 9.2197031e-39
1563.2 -1247.36 339.552 9.2197031e-39
814.37799 -1064.14 339.49399 9.2197031e-39
205.66499 -917.31006 339.99701 9.2197031e-39
202.179 -906.62 337.436 9.2197031e-39
201.185 -898.96997 335.509 9.2197031e-39
207.558 -881.52002 330.55899 9.2197031e-39
198.729 -879.56006 330.61099 9.2197031e-39
1608.4 -1283.78 346.155 9.2197031e-39
1590.84 -1270.09 343.70901 9.2197031e-39
1609.27 -1262.75 340.62399 9.2197031e-39
997.32397 -1148.12 349.71399 9.2197031e-39
890.19 -1120.64 349.37701 9.2197031e-39
853.00897 -1112.33 349.58099 9.2197031e-39
783.54498 -1090.88 348.41501 9.2197031e-39
803.45502 -1072.29 342.31 9.2197031e-39
798.427 -1069.9399 342.01901 9.2197031e-39
212.82401 -956.54004 349.75101 9.2197031e-39
214.20399 -941.56995 345.767 9.2197031e-39
211.33299 -935.08997 344.263 9.2197031e-39
211.50999 -921.43005 340.698 9.2197031e-39
960.83301 -1164.96 356.42001 9.2197031e-39
967.29498 -1152.75 352.83099 9.2197031e-39
976.388 -1155.15 352.87701 9.2197031e-39
982.31 -1152.5 351.80899 9.2197031e-39
991.49902 -1149.9 350.54999 9.2197031e-39
858.69202 -1131.09 354.10199 9.2197031e-39
866.01801 -1122.59 351.42401 9.2197031e-39
874.86401 -1124.1 351.254 9.2197031e-39
880.65503 -1124.0601 350.875 9.2197031e-39
408.71399 -1038.98 358.74899 9.2197031e-39
398.87799 -1024.92 355.715 9.2197031e-39
212.836 -965.51001 352.086 9.2197031e-39
396.129 -1043.9 360.832 9.2197031e-39
178.05901 -1008.8101 365.569 9.2197031e-39
1380.88 -1321.05 370.32901 9.2197031e-39
149.405 -1042.7 376.21301 9.2197031e-39
301.92599 -1126.51 388.32501 9.2197031e-39
1007.13 -1330.22 396.48901 9.2197031e-39
870.89398 -1307.25 399.177 9.2197031e-39
921.67999 -1348.13 406.58701 9.2197031e-39
912.39398 -1371.53 413.26999 9.2197031e-39
-7.30479 -1194.0699 425.57999 9.2197031e-39
667.37201 -1467.5701 453.854 9.2197031e-39
387.12399 -1416.28 458.33099 9.2197031e-39
403.02899 -1415.99 457.242 9.2197031e-39
850.651 -1561.9399 466.759 9.2197031e-39
763.79901 -1535.8401 465.48999 9.2197031e-39
628.82001 -1518.5601 469.57901 9.2197031e-39
341.854 -1448.8301 469.68301 9.2197031e-39
398.383 -1443.04 464.57901 9.2197031e-39
410.858 -1449.4199 465.44601 9.2197031e-39
294.526 -1435.77 469.293 9.2197031e-39
322.98099 -1434.6699 467.198 9.2197031e-39
347.27899 -1421.86 462.31699 9.2197031e-39
370.26401 -1428.05 462.46701 9.2197031e-39
457.38901 -1513.1799 479.082 9.2197031e-39
482.565 -1514.5901 477.84799 9.2197031e-39
418.51099 -1505.97 479.67801 9.2197031e-39
443.806 -1508.1399 478.634 9.2197031e-39
414.49799 -1493.3101 476.63901 9.2197031e-39
440.45901 -1493.8301 475.12299 9.2197031e-39
406.86499 -1476.6399 472.785 9.2197031e-39
215.651 -1449.97 478.00601 9.2197031e-39
259.92999 -1445.1299 473.931 9.2197031e-39
279.819 -1441.54 471.73099 9.2197031e-39
306.94501 -1443.22 470.44299 9.2197031e-39
175.048 -1421.99 473.30801 9.2197031e-39
205.47501 -1422 471.37399 9.2197031e-39
616.69897 -1588.5901 488.57599 9.2197031e-39
559.375 -1579.22 489.78299 9.2197031e-39
514.10199 -1562.73 488.371 9.2197031e-39
538.01801 -1567.54 488.103 9.2197031e-39
588.00897 -1569.47 485.42499 9.2197031e-39
483.77399 -1535.01 483.086 9.2197031e-39
500.20401 -1533.3701 481.61499 9.2197031e-39
462.24899 -1524.8101 481.80099 9.2197031e-39
185.67 -1466.05 484.10001 9.2197031e-39
215.976 -1466.4399 482.27399 9.2197031e-39
234.15401 -1466.6599 481.17401 9.2197031e-39
85.921501 -1453.8601 487.27301 9.2197031e-39
133.237 -1451.6699 483.69299 9.2197031e-39
166.686 -1449.3799 480.96899 9.2197031e-39
588.758 -1597.1201 492.57501 9.2197031e-39
66.705704 -1494.1799 498.98901 9.2197031e-39
104.919 -1471.8301 490.741 9.2197031e-39
547.46503 -1642.53 507.022 9.2197031e-39
479.64099 -1608.4299 502.45901 9.2197031e-39
491.914 -1646.3101 511.53799 9.2197031e-39
827.80499 -1835.7 539.46698 9.2197031e-39
841.18103 -1869.3999 547.39001 9.2197031e-39
1581.04 -2095.26 559.11499 9.2197031e-39
1615.92 -2094.9299 556.81 9.2197031e-39
1565.41 -2088.6201 558.38 9.2197031e-39
1635.29 -2088.8 553.98199 9.2197031e-39
1648.9301 -2088.45 553.02399 9.2197031e-39
1528.37 -2079.6399 558.39801 9.2197031e-39
1596.99 -2079.3301 553.953 9.2197031e-39
1477.4 -2092.47 564.97998 9.2197031e-39
1546.33 -2094.96 561.245 9.2197031e-39
1376.1 -2086.95 569.98798 9.2197031e-39
1395.22 -2082.3401 567.573 9.2197031e-39
1409.6899 -2089.3899 568.487 9.2197031e-39
1428.8101 -2084.4399 565.98199 9.2197031e-39
1441.35 -2082.73 564.73999 9.2197031e-39
1462.58 -2085.9399 564.224 9.2197031e-39
1496.77 -2087.77 562.52399 9.2197031e-39
1509.09 -2084.6699 560.93402 9.2197031e-39
1361.8101 -2079.6499 568.99701 9.2197031e-39
1213.45 -2084.25 579.63 9.2197031e-39
1245.63 -2084.76 577.716 9.2197031e-39
1277.88 -2084.71 575.65399 9.2197031e-39
1297.05 -2081.1201 573.49799 9.2197031e-39
1342.52 -2082.96 571.08502 9.2197031e-39
1231.79 -2074.5801 575.94702 9.2197031e-39
1264.26 -2077.6499 574.68201 9.2197031e-39
1309.34 -2079.3301 572.25098 9.2197031e-39
1328.61 -2076.3601 570.25403 9.2197031e-39
900.039 -2005.9299 579.18298 9.2197031e-39
889.737 -1982.8501 573.82898 9.2197031e-39
841.922 -1974.5 574.69897 9.2197031e-39
1137.74 -2091.97 586.45801 9.2197031e-39
1150.05 -2090.27 585.23199 9.2197031e-39
1169.83 -2092.8101 584.63501 9.2197031e-39
1182.42 -2093.8 584.09003 9.2197031e-39
1105.54 -2087.6799 587.39001 9.2197031e-39
1117.78 -2085.23 585.97101 9.2197031e-39
1201.12 -2085.3999 580.71503 9.2197031e-39
1022.64 -2101.6699 596.30298 9.2197031e-39
1054.74 -2103.5 594.737 9.2197031e-39
1074.21 -2100.26 592.65698 9.2197031e-39
1042.13 -2097.8 594.05603 9.2197031e-39
1086.67 -2099.95 591.78302 9.2197031e-39
592.12201 -1988.3 594.17902 9.2197031e-39
609.24701 -2052.9199 609.91101 9.2197031e-39
629.39801 -2052.47 608.51099 9.2197031e-39
640.98901 -2057.9099 609.19202 9.2197031e-39
601.27197 -2032.23 605.03302 9.2197031e-39
-315.004 -1802.48 603.51801 9.2197031e-39
-363.31201 -1835.52 615.19 9.2197031e-39
-499.491 -1893.48 638.93799 9.2197031e-39
-470.55399 -1897.1001 638.039 9.2197031e-39
-452.056 -1899.0701 637.37598 9.2197031e-39
-637.11401 -1897.9099 648.84497 9.2197031e-39
-613.27899 -1896.6001 646.98798 9.2197031e-39
-576.94098 -1894.9099 644.23798 9.2197031e-39
-558.84601 -1898.53 644.02899 9.2197031e-39
-522.84198 -1895.96 641.07098 9.2197031e-39
-750.53198 -1891.3601 654.35498 9.2197031e-39
-727.01001 -1891.8899 652.99799 9.2197031e-39
-691.46198 -1893.3601 651.11902 9.2197031e-39
-673.82397 -1898.6399 651.37201 9.2197031e-39
-780.48602 -1883.8101 654.297 9.2197031e-39
