# .PCD v0.7 - Point Cloud Data file format
VERSION 0.7
FIELDS x y z rgb
SIZE 4 4 4 4
TYPE F F F F
COUNT 1 1 1 1
WIDTH 333
HEIGHT 1
VIEWPOINT 0 0 0 1 0 0 0
POINTS 333
DATA ascii
1981.79 -1210.14 139.827 9.2197031e-39
1967.25 -1209.84 135.94501 9.2197031e-39
1974.29 -1201.47 137.578 9.2197031e-39
1960.1 -1199.04 133.73 9.2197031e-39
2076.3701 -249.84601 137.377 9.2197031e-39
2085.8701 -213.60751 138.86301 9.2197031e-39
2088.7148 -204.51349 139.36 9.2197031e-39
2902.3201 7423.6299 136.48599 9.2197031e-39
1988.45 -1204.64 141.44299 9.2197031e-39
1997.36 -1194.21 143.517 9.2197031e-39
2005.79 -1154.64 144.62199 9.2197031e-39
2018.12 -1060.15 145.187 9.2197031e-39
2026.27 -987.43005 145.263 9.2197031e-39
2033.73 -944.66003 146.022 9.2197031e-39
2038.37 -930.76001 146.855 9.2197031e-39
2044.46 -894.84998 147.44501 9.2197031e-39
2048.5 -879.87 148.091 9.2197031e-39
2053.52 -853.85999 148.679 9.2197031e-39
2057.1101 -848.81006 149.489 9.2197031e-39
2061.26 -815.72998 149.64101 9.2197031e-39
2064.0901 -795.64001 149.81799 9.2197031e-39
2066.1699 -734.55005 148.614 9.2197031e-39
2065.6799 -658.55005 146.293 9.2197031e-39
2065.595 -584.98505 144.1535 9.2197031e-39
2067.1101 -562.33997 143.905 9.2197031e-39
2087.3401 -554.54004 149.069 9.2197031e-39
2065.48 -521.38 142.293 9.2197031e-39
2067.2651 -502.11499 142.2135 9.2197031e-39
2075.7834 -505.94995 144.59332 9.2197031e-39
2066.6948 -496.16003 141.8895 9.2197031e-39
2071.6099 -496.51001 143.2085 9.2197031e-39
2070.05 -489.68994 142.59801 9.2197031e-39
2116.49 -232.67902 147.569 9.2197031e-39
2121.96 -237.112 149.15401 9.2197031e-39
2098.8799 -220.18201 142.519 9.2197031e-39
2101.6533 -220.88332 143.27699 9.2197031e-39
2124.655 -223.04099 149.46701 9.2197031e-39
2094.3335 -213.77234 141.12267 9.2197031e-39
2105.675 -216.40402 144.22049 9.2197031e-39
2119.8301 -215.26099 147.959 9.2197031e-39
2124.3999 -217.75098 149.24649 9.2197031e-39
2096.1699 -204.28424 141.33876 9.2197031e-39
2102.27 -202.31598 142.907 9.2197031e-39
2115.1101 -204.53566 146.39166 9.2197031e-39
2126.5667 -203.83434 149.42366 9.2197031e-39
2102.1001 -199.091 142.76801 9.2197031e-39
2119.05 -197.18903 147.231 9.2197031e-39
2124.47 -197.17334 148.67334 9.2197031e-39
2103.02 -608.30005 154.79601 9.2197031e-39
2098.1899 -593.03003 153.06799 9.2197031e-39
2091.98 -571.92004 150.80701 9.2197031e-39
2126.6899 -231.89203 150.265 9.2197031e-39
2127.3049 -224.638 150.2205 9.2197031e-39
2960.02 7429.1699 151.69701 9.2197031e-39
2141.54 -766.09998 169.60001 9.2197031e-39
2126.78 -710.20996 164.058 9.2197031e-39
2158.6699 -823.43994 175.815 9.2197031e-39
3035.4099 7424.98 171.90401 9.2197031e-39
2188.5701 -936.06995 187.022 9.2197031e-39
3091.72 7417.5698 187.118 9.2197031e-39
2234.95 -1102 204.15601 9.2197031e-39
3166.51 7408.04 207.315 9.2197031e-39
2276.8201 -1210.21 218.423 9.2197031e-39
2258.3501 -1171.98 212.403 9.2197031e-39
2305.78 -1245.1599 227.146 9.2197031e-39
2290.55 -1236.27 222.83099 9.2197031e-39
3221.9399 7394.6699 222.466 9.2197031e-39
2330.75 -1261.14 234.257 9.2197031e-39
2320.73 -1251.88 231.321 9.2197031e-39
2338.5901 -1255.3199 236.179 9.2197031e-39
2344.22 -1250.1899 237.53 9.2197031e-39
2354.1201 -1250.84 240.188 9.2197031e-39
2364.2 -1258.76 243.099 9.2197031e-39
2370.5901 -1248.89 244.519 9.2197031e-39
3298.4099 7395.6499 242.81 9.2197031e-39
2390.6599 -1283.6801 250.867 9.2197031e-39
3171.77 5676.6602 258.56201 9.2197031e-39
3196.99 6071.6899 253.909 9.2197031e-39
3353.49 7380.2798 257.92499 9.2197031e-39
3057.8601 4363.1602 266.03299 9.2197031e-39
3120.55 4904.8999 267.138 9.2197031e-39
3149.4399 5255.1699 264.74799 9.2197031e-39
2459.8501 -1440.9399 273.82599 9.2197031e-39
2549.4099 -959.28003 283.81699 9.2197031e-39
2548.79 -949.33997 283.366 9.2197031e-39
2552.6299 -941.91003 284.17599 9.2197031e-39
2552.4299 -932.78003 283.85901 9.2197031e-39
2567.0901 -937.87 287.91199 9.2197031e-39
2566.1201 -927.97998 287.36801 9.2197031e-39
2574.3101 -925.52002 289.478 9.2197031e-39
2577.8101 -920.69995 290.271 9.2197031e-39
2585.97 -918.06995 292.371 9.2197031e-39
2586.01 -909.64001 292.14001 9.2197031e-39
2585.9099 -898.47998 291.789 9.2197031e-39
2594.5601 -893.57001 293.95502 9.2197031e-39
2606.01 -891.26001 296.93701 9.2197031e-39
2606.95 -881.44995 296.90601 9.2197031e-39
2615.0801 -881.12 299.06 9.2197031e-39
2629.52 -883.87 302.98801 9.2197031e-39
2635.5601 -876 304.37 9.2197031e-39
2650.3401 -875.78003 308.30099 9.2197031e-39
2652.4099 -1100.01 315.30899 9.2197031e-39
2659.0901 -872.73999 310.54501 9.2197031e-39
2665.1201 -869.88 312.06699 9.2197031e-39
2673.1101 -866 314.086 9.2197031e-39
2675.3301 -859.91003 314.50201 9.2197031e-39
2683.28 -855.85999 316.50201 9.2197031e-39
2696.1399 -858.15002 319.996 9.2197031e-39
2690.23 -1159.41 327.095 9.2197031e-39
2699.47 -850.27002 320.65601 9.2197031e-39
2706.98 -848.15002 322.595 9.2197031e-39
2711.76 -841.34998 323.673 9.2197031e-39
2716.1101 -836.77002 324.698 9.2197031e-39
2735.8401 -840.63 330.06601 9.2197031e-39
2740.1899 -835.84998 331.08701 9.2197031e-39
2745.6499 -829.26001 332.353 9.2197031e-39
2756.3799 -828.73999 335.19601 9.2197031e-39
2766.6599 -825.18994 337.83099 9.2197031e-39
2766.02 -816.95996 337.42499 9.2197031e-39
2782.8101 -817.38 341.91 9.2197031e-39
2793.6101 -816.31995 344.75699 9.2197031e-39
2803.0701 -811.67004 347.14099 9.2197031e-39
2814.74 -810.81006 350.22699 9.2197031e-39
2824.1899 -805.85999 352.60199 9.2197031e-39
2830.02 -801.29004 354.02301 9.2197031e-39
2854.6599 -804.66003 360.68301 9.2197031e-39
2860.5 -799.81006 362.10101 9.2197031e-39
2890.45 -805.26001 370.23401 9.2197031e-39
2912.6101 -808.71997 376.23901 9.2197031e-39
2803.0701 -2257.74 388.776 9.2197031e-39
2777.5601 -2246.98 381.668 9.2197031e-39
2935.1201 -809.16003 382.24701 9.2197031e-39
2951.4199 -808.84998 386.582 9.2197031e-39
2950.6201 -796.95996 386.02499 9.2197031e-39
2964.3301 -795.03003 389.62201 9.2197031e-39
2977.21 -636.30005 388.48499 9.2197031e-39
2985.77 -576.87 389.05301 9.2197031e-39
2816.8999 -2251.76 392.28799 9.2197031e-39
2838.6101 -2251.9099 398.07401 9.2197031e-39
2997.53 -799.25 398.58899 9.2197031e-39
3000.6799 -662.29004 395.48499 9.2197031e-39
2990.05 -650.81006 392.32101 9.2197031e-39
2989.49 -632.14001 391.63501 9.2197031e-39
2999.6299 -624.58997 394.12 9.2197031e-39
2991.3799 -614.37 391.62701 9.2197031e-39
2990.1799 -603.67004 391 9.2197031e-39
3007 -600.26001 395.38101 9.2197031e-39
3011.27 -590.85999 396.25 9.2197031e-39
2991.71 -568.09998 390.384 9.2197031e-39
3011.23 -564.75 395.48599 9.2197031e-39
3005.72 -553.26001 393.68799 9.2197031e-39
2993.9399 -543.17004 390.259 9.2197031e-39
3029 -539.81006 399.504 9.2197031e-39
3005.6799 -527.68994 392.94101 9.2197031e-39
3005.48 -517.53003 392.595 9.2197031e-39
3016.23 -511.68994 395.29001 9.2197031e-39
3008.23 -500.28003 392.83099 9.2197031e-39
3019.8401 -494.39001 395.754 9.2197031e-39
2856.25 -2254.78 402.858 9.2197031e-39
2877.73 -2253.55 408.54401 9.2197031e-39
3045.49 -696.81006 408.41501 9.2197031e-39
3040.6699 -686.59998 406.83801 9.2197031e-39
3037.49 -486.60999 400.233 9.2197031e-39
3051.8999 -480.68005 403.901 9.2197031e-39
2894.74 -2254.24 413.09601 9.2197031e-39
2917.5701 -2255.25 419.20599 9.2197031e-39
3058.8501 -818.75 415.48499 9.2197031e-39
3073.03 -727.05005 416.62299 9.2197031e-39
3061.1899 -713.89001 413.09 9.2197031e-39
2938.8799 -2264.5601 425.15201 9.2197031e-39
3098.9399 -758.04004 424.41599 9.2197031e-39
3091.04 -745.78003 421.95901 9.2197031e-39
2961.98 -2265.03 431.31799 9.2197031e-39
2979.3201 -2264.9399 435.935 9.2197031e-39
3137.54 -795.57996 435.78101 9.2197031e-39
3128.1899 -782.09998 432.901 9.2197031e-39
3002.5801 -2264.9099 442.13101 9.2197031e-39
3020.05 -2264.45 446.76999 9.2197031e-39
3173.3899 -833.87 446.43399 9.2197031e-39
3162.6201 -819.13 443.14001 9.2197031e-39
3064.74 -2270.05 458.83701 9.2197031e-39
3042.5601 -2262.1499 452.70099 9.2197031e-39
3204.73 -872 455.879 9.2197031e-39
3193.45 -856.37 452.42499 9.2197031e-39
3087.9099 -2268.0901 464.95401 9.2197031e-39
3519.99 1609.1909 468.42999 9.2197031e-39
3530.48 1653.9301 469.93799 9.2197031e-39
3525.1201 1688.1899 467.52499 9.2197031e-39
3530.46 1727.74 467.80801 9.2197031e-39
3528.6001 1768.76 466.13101 9.2197031e-39
3531.1899 1806.22 465.74399 9.2197031e-39
3533.1101 1854.98 464.85101 9.2197031e-39
3536.8201 1896.1 464.65601 9.2197031e-39
3537.8501 1946.13 463.487 9.2197031e-39
3539.8601 1986.79 462.854 9.2197031e-39
3542.5701 2042.3101 461.97601 9.2197031e-39
3110.3999 -2275.49 471.15799 9.2197031e-39
3121.1699 -2250.5801 473.30899 9.2197031e-39
3491.8201 957.46204 479.69 9.2197031e-39
3496.1899 1008.085 479.39801 9.2197031e-39
3493.6499 1053.735 477.40701 9.2197031e-39
3503.8101 1084.923 479.21399 9.2197031e-39
3496.9399 1106.7009 476.758 9.2197031e-39
3506.3701 1138.272 478.36099 9.2197031e-39
3504.3301 1165.9 477.022 9.2197031e-39
3505.54 1189.973 476.651 9.2197031e-39
3501.4399 1216.353 474.79999 9.2197031e-39
3510.04 1249.384 476.14001 9.2197031e-39
3511.76 1283.3679 475.61801 9.2197031e-39
3511.02 1307.1741 474.737 9.2197031e-39
3511.8501 1341.4651 473.97198 9.2197031e-39
3516.8799 1373.004 474.40302 9.2197031e-39
3516.1201 1406.884 473.22501 9.2197031e-39
3521.5801 1440.2881 473.71899 9.2197031e-39
3521.0901 1476.031 472.55899 9.2197031e-39
3522.6101 1505.907 472.103 9.2197031e-39
3525.3799 1547.428 471.646 9.2197031e-39
3527.27 1579.168 471.23499 9.2197031e-39
3156.5601 -2279.8401 483.58099 9.2197031e-39
3179.6201 -2275.9099 489.61099 9.2197031e-39
3446.1699 214.332 488.923 9.2197031e-39
3453.5701 246.61301 489.966 9.2197031e-39
3452.3101 275.73099 488.79199 9.2197031e-39
3454.8799 289.78601 489.07101 9.2197031e-39
3457.54 308.298 489.24899 9.2197031e-39
3461.5801 323.36301 489.88901 9.2197031e-39
3455.1001 337.78799 487.74899 9.2197031e-39
3458.8501 352.98901 488.31 9.2197031e-39
3459.8999 371.40198 488.05899 9.2197031e-39
3463.3301 386.793 488.53 9.2197031e-39
3456.24 401.228 486.22699 9.2197031e-39
3467.0901 420.96301 488.54901 9.2197031e-39
3465.6499 438.776 487.651 9.2197031e-39
3461.6399 450.64099 486.242 9.2197031e-39
3467.45 472.93701 487.14801 9.2197031e-39
3470.75 489.33701 487.55399 9.2197031e-39
3461 502.82001 484.57001 9.2197031e-39
3470.6499 523.4491 486.54599 9.2197031e-39
3469.6899 542.64911 485.73901 9.2197031e-39
3471.48 558.86108 485.746 9.2197031e-39
3470.1001 578.19843 484.823 9.2197031e-39
3470.72 594.01367 484.53299 9.2197031e-39
3468.9199 613.47046 483.49399 9.2197031e-39
3475.6499 633.87311 484.698 9.2197031e-39
3473.3799 653.5058 483.53 9.2197031e-39
3481.25 675.33002 484.99701 9.2197031e-39
3480.8701 696.88702 484.276 9.2197031e-39
3478.8 711.98999 483.29001 9.2197031e-39
3483.4199 737.85303 483.776 9.2197031e-39
3489.53 759.68298 484.77301 9.2197031e-39
3478.8501 774.34198 481.508 9.2197031e-39
3485.28 796.99799 482.56699 9.2197031e-39
3481.8501 817.83801 481.05301 9.2197031e-39
3487.76 840.77301 481.96701 9.2197031e-39
3483.8 861.76801 480.30899 9.2197031e-39
3489.9399 885.612 481.25699 9.2197031e-39
3491.3501 911.95496 480.87601 9.2197031e-39
3490.3 930.22101 480.069 9.2197031e-39
3496.8201 981.888 480.319 9.2197031e-39
3501.3201 1033.479 480.03201 9.2197031e-39
3197.1299 -2272.9399 494.19 9.2197031e-39
3216.6499 -2190.22 497.00699 9.2197031e-39
3398.52 -510.84998 497.10901 9.2197031e-39
3399.7 -500.40002 497.12299 9.2197031e-39
3400.1899 -486.41003 496.85001 9.2197031e-39
3410.8201 -476.81995 499.40399 9.2197031e-39
3402.4099 -462.05005 496.73999 9.2197031e-39
3411.9099 -452.19995 498.98599 9.2197031e-39
3404.22 -437.64001 496.51901 9.2197031e-39
3413.55 -427.63 498.716 9.2197031e-39
3414.3 -413.59998 498.51199 9.2197031e-39
3415.74 -403.07001 498.59299 9.2197031e-39
3415.29 -389 498.06799 9.2197031e-39
3416.55 -378.44397 498.10101 9.2197031e-39
3416.8301 -364.396 497.76999 9.2197031e-39
3424.6799 -353.815 499.556 9.2197031e-39
3416.02 -339.771 496.84601 9.2197031e-39
3424.6599 -329.04199 498.83801 9.2197031e-39
3424.46 -314.91602 498.379 9.2197031e-39
3422.29 -304.34497 497.496 9.2197031e-39
3423.79 -290.15802 497.48599 9.2197031e-39
3423.3701 -279.526 497.06799 9.2197031e-39
3422.7 -265.41901 496.483 9.2197031e-39
3422.1001 -254.797 496.017 9.2197031e-39
3431.79 -239.83698 498.168 9.2197031e-39
3431 -229.146 497.65201 9.2197031e-39
3428.8799 -215.06403 496.681 9.2197031e-39
3428.8799 -204.29401 496.371 9.2197031e-39
3427.48 -190.14099 495.591 9.2197031e-39
3426.3401 -179.48798 494.979 9.2197031e-39
3432.3701 -164.31403 496.14999 9.2197031e-39
3432 -153.48602 495.73901 9.2197031e-39
3430.1101 -139.30701 494.828 9.2197031e-39
3436.25 -127.39099 496.11899 9.2197031e-39
3433.1499 -113.336 494.89001 9.2197031e-39
3431.45 -102.646 494.13 9.2197031e-39
3429.0801 -88.478027 493.08899 9.2197031e-39
3436.7 -75.919006 494.75699 9.2197031e-39
3435.01 -61.500977 493.89301 9.2197031e-39
3441.46 -48.934021 495.24799 9.2197031e-39
3437.6201 -34.887024 493.82101 9.2197031e-39
3436.29 -23.94397 493.15302 9.2197031e-39
3440.6899 -7.8640137 493.86099 9.2197031e-39
3438.22 2.8759766 492.89499 9.2197031e-39
3435.77 17.351013 491.82501 9.2197031e-39
3440.6001 30.117004 492.745 9.2197031e-39
3436.95 44.362 491.362 9.2197031e-39
3442.49 57.544006 492.457 9.2197031e-39
3438.5701 71.80603 491.00299 9.2197031e-39
3444.79 85.440979 492.267 9.2197031e-39
3440.6001 99.721985 490.741 9.2197031e-39
3445.6499 113.229 491.69699 9.2197031e-39
3447.6299 129.741 491.74799 9.2197031e-39
3452.4099 143.448 492.62701 9.2197031e-39
3446.75 157.466 490.71701 9.2197031e-39
3452.2 171.65399 491.758 9.2197031e-39
3447.1799 186.00101 490.009 9.2197031e-39
3451.46 199.995 490.745 9.2197031e-39
3451.98 229.20901 490.043 9.2197031e-39
3458.1899 261.33301 490.772 9.2197031e-39
3225.3999 -2276.9299 501.83401 9.2197031e-39
3238.8601 -2266.8301 505.129 9.2197031e-39
3230.53 -2181.8701 500.466 9.2197031e-39
3279.05 -2216.45 514.38702 9.2197031e-39
3298.0701 -2214.97 519.41199 9.2197031e-39
3297.1201 -2174.26 517.98602 9.2197031e-39
3300.8101 -2150.7 518.28998 9.2197031e-39
3302.76 -2115.9399 517.80798 9.2197031e-39
3304.6399 -2090.9199 517.58899 9.2197031e-39
3305.6499 -2056.4099 516.86401 9.2197031e-39
3306.25 -2030.78 516.28802 9.2197031e-39
3308.1101 -1998.8999 515.86499 9.2197031e-39
3308.04 -1973.48 515.11298 9.2197031e-39
