# .PCD v0.7 - Point Cloud Data file format
VERSION 0.7
FIELDS x y z rgb
SIZE 4 4 4 4
TYPE F F F F
COUNT 1 1 1 1
WIDTH 319
HEIGHT 1
VIEWPOINT 0 0 0 1 0 0 0
POINTS 319
DATA ascii
2238.8799 -1233.84 136.18201 9.2197031e-39
2246.8999 -1232.38 138.364 9.2197031e-39
2229.54 -1227.3199 134 9.2197031e-39
2065.27 -150.65698 138.164 9.2197031e-39
2069.5801 -140.57098 139.74899 9.2197031e-39
2066.3149 -133.12552 139.215 9.2197031e-39
2068.1399 -129.591 139.853 9.2197031e-39
2060.1201 -78.848999 139.97701 9.2197031e-39
1278.8101 4458.7402 134.00101 9.2197031e-39
2256.79 -1240.6801 140.61301 9.2197031e-39
2265.26 -1241.03 142.834 9.2197031e-39
2266.3101 -1206.0699 144.657 9.2197031e-39
2256.28 -1123.3101 145.66299 9.2197031e-39
2233.5 -991.07996 145.487 9.2197031e-39
2223.99 -924.47998 145.916 9.2197031e-39
2213.8501 -860.05005 146.08299 9.2197031e-39
2214.5 -842.32996 147.03799 9.2197031e-39
2211.55 -812.07996 147.59399 9.2197031e-39
2208.0901 -781.92004 148.01401 9.2197031e-39
2207.6699 -764.37 148.679 9.2197031e-39
2206.97 -746.85999 149.26601 9.2197031e-39
2135.2151 -473.435 142.3855 9.2197031e-39
2129.29 -463.31006 141.269 9.2197031e-39
2132.2 -457.02002 142.315 9.2197031e-39
2122.74 -447.57996 140.23199 9.2197031e-39
2130.98 -448.95996 142.34801 9.2197031e-39
2125.51 -429.67004 141.75301 9.2197031e-39
2137.6167 -422.18997 145.28467 9.2197031e-39
2143.6851 -422.97498 146.8535 9.2197031e-39
2124.918 -417.43399 142.13919 9.2197031e-39
2131.5833 -416.24667 143.95332 9.2197031e-39
2143.2439 -416.26602 147.03439 9.2197031e-39
2123.8799 -405.52002 142.39 9.2197031e-39
2083.3647 -144.51477 143.218 9.2197031e-39
2104.8325 -143.94301 148.91701 9.2197031e-39
2073.9001 -133.67526 141.19551 9.2197031e-39
2084.8201 -136.08134 143.97501 9.2197031e-39
2096.02 -134.5665 147.0015 9.2197031e-39
2107.4102 -136.1185 149.9425 9.2197031e-39
2076.6726 -125.50099 142.289 9.2197031e-39
2094.832 -123.7074 147.1674 9.2197031e-39
2103.9199 -124.47198 149.535 9.2197031e-39
2098.53 -119.27899 148.342 9.2197031e-39
2102.01 -115.90399 149.409 9.2197031e-39
1320.84 4452.3999 144.828 9.2197031e-39
2220.6599 -778.20996 151.49899 9.2197031e-39
2110.8799 -142.81897 150.565 9.2197031e-39
2109.27 -139.21997 150.298 9.2197031e-39
1449 3870.1101 152.968 9.2197031e-39
1515.23 3654.3501 160.938 9.2197031e-39
1585.03 3636.22 178.58299 9.2197031e-39
1545.8101 3678.6599 170.095 9.2197031e-39
1700.27 3185.3 189.11301 9.2197031e-39
1617.63 3644.05 187.54601 9.2197031e-39
1729.8199 3185.1899 196.92 9.2197031e-39
1747.08 3321.23 207.49001 9.2197031e-39
2504.9399 -943.43994 219.328 9.2197031e-39
1762.05 3512.99 219.922 9.2197031e-39
2533.8301 -1000.78 224.42799 9.2197031e-39
2512.6699 -942.88 221.396 9.2197031e-39
2516.51 -936.46997 222.694 9.2197031e-39
2521.98 -932.5 224.313 9.2197031e-39
2526.8301 -927.67004 225.81 9.2197031e-39
2524.6899 -913.10999 225.886 9.2197031e-39
2532.8799 -913.06995 228.054 9.2197031e-39
2529.25 -897.01001 227.804 9.2197031e-39
2537.3799 -896.87 229.95799 9.2197031e-39
2545.53 -896.64001 232.12399 9.2197031e-39
2557.6001 -890.43994 235.58701 9.2197031e-39
2548.2 -889.28003 233.155 9.2197031e-39
2560.79 -883.79004 236.724 9.2197031e-39
2564.54 -877.88 237.97501 9.2197031e-39
1776.97 3749.5701 234.319 9.2197031e-39
2674.8201 -1274.71 249.586 9.2197031e-39
2579.0801 -884.83997 241.50999 9.2197031e-39
2589.25 -886.31995 244.134 9.2197031e-39
2594.9299 -882.43005 245.80701 9.2197031e-39
2605.55 -873.75 248.996 9.2197031e-39
2592.7 -869.59998 245.784 9.2197031e-39
2698.0901 -1333.01 253.158 9.2197031e-39
2680.5 -1265.1 251.51199 9.2197031e-39
2688.1899 -1258.8199 253.82001 9.2197031e-39
2611.1399 -869.69995 250.65199 9.2197031e-39
2624.905 -869.26001 254.31 9.2197031e-39
2636.6699 -866.43994 257.54401 9.2197031e-39
2639.45 -859.27002 258.59399 9.2197031e-39
1792.13 4043.96 251.334 9.2197031e-39
2651.23 -861.16003 261.62601 9.2197031e-39
2657.45 -857.35999 263.43799 9.2197031e-39
2662.9399 -852.79004 265.08899 9.2197031e-39
2674.1201 -853.60999 268.009 9.2197031e-39
2685.3601 -854.26001 270.95099 9.2197031e-39
2686.47 -845.43005 271.634 9.2197031e-39
2699.9399 -847.82996 275.08701 9.2197031e-39
2701.6699 -839.58997 275.91 9.2197031e-39
2719.6899 -845.57996 280.40601 9.2197031e-39
2725.1602 -835.57001 282.29449 9.2197031e-39
2726.7 -822.38 283.284 9.2197031e-39
2734.53 -814.46997 285.70349 9.2197031e-39
2742.29 -806.44995 288.108 9.2197031e-39
2745.0601 -799.23999 289.159 9.2197031e-39
2753.8149 -791.91003 291.79602 9.2197031e-39
2766.47 -787.34998 295.34299 9.2197031e-39
2769.04 -779.96997 296.34799 9.2197031e-39
2777.1699 -776.53003 298.64899 9.2197031e-39
2780.4399 -769.64001 299.81699 9.2197031e-39
2794.1851 -765.26001 303.64252 9.2197031e-39
2799.73 -755.25 305.552 9.2197031e-39
2807.6201 -746.72498 308.013 9.2197031e-39
2817.1001 -739.10999 310.854 9.2197031e-39
2820.8501 -732.41003 312.142 9.2197031e-39
2819.49 -722.69995 312.20999 9.2197031e-39
2829.04 -719.41003 314.88101 9.2197031e-39
2838.5901 -715.97998 317.55701 9.2197031e-39
2833.5901 -704.33997 316.74799 9.2197031e-39
2852.53 -705.89001 321.685 9.2197031e-39
2856.8601 -699.32996 323.121 9.2197031e-39
2861.1399 -692.72998 324.54401 9.2197031e-39
2865.3701 -686.06995 325.95499 9.2197031e-39
2875.6699 -682.42004 328.83899 9.2197031e-39
2887.73 -679.46997 332.155 9.2197031e-39
2894.5 -673.81006 334.194 9.2197031e-39
2897.6899 -666.41003 335.36499 9.2197031e-39
2907.04 -661.81006 338.04001 9.2197031e-39
3205.97 -2260.3401 346.40302 9.2197031e-39
3185.3201 -2186.6399 344.20401 9.2197031e-39
2918.1599 -657.85999 341.15302 9.2197031e-39
2925.6899 -652.18994 343.39401 9.2197031e-39
2943.0701 -650.57996 348.05899 9.2197031e-39
2948.77 -643.85999 349.86099 9.2197031e-39
2939.9399 -631.23999 348.086 9.2197031e-39
2949.1201 -625.92004 350.74701 9.2197031e-39
2949.1699 -616.98999 351.155 9.2197031e-39
2950.96 -608.75 351.99301 9.2197031e-39
2948.1001 -598.85999 351.67401 9.2197031e-39
2958.9199 -593.87 354.754 9.2197031e-39
2959.5901 -585.26001 355.311 9.2197031e-39
2969.4199 -579.71997 358.15201 9.2197031e-39
2944.03 -537.18994 353.323 9.2197031e-39
2959.1599 -533.04004 357.504 9.2197031e-39
2959.29 -507.57996 358.664 9.2197031e-39
2980.1399 -574.31995 361.22501 9.2197031e-39
2990.8401 -568.73999 364.29901 9.2197031e-39
2975.4399 -555.14001 360.832 9.2197031e-39
2968.6499 -527.08997 360.276 9.2197031e-39
2987.51 -523.46997 365.41901 9.2197031e-39
2971.45 -502.12 362.11801 9.2197031e-39
2963.73 -491.80005 360.534 9.2197031e-39
2965.3799 -483.77002 361.32401 9.2197031e-39
2975.49 -477.56006 364.272 9.2197031e-39
2985.5701 -471.18994 367.216 9.2197031e-39
3014.6299 -468.40002 375.021 9.2197031e-39
3312.49 -515.59998 451.65302 9.2197031e-39
3363.9199 -513.29004 465.34799 9.2197031e-39
3365.7 -501.65002 466.33099 9.2197031e-39
3367.3701 -489.98999 467.289 9.2197031e-39
3367.99 -478.17004 467.97501 9.2197031e-39
3369.47 -466.48999 468.88101 9.2197031e-39
3373.72 -455.18005 470.50601 9.2197031e-39
3373.0801 -443.20996 470.86499 9.2197031e-39
3374.26 -431.48999 471.69601 9.2197031e-39
3374.3799 -419.65002 472.25 9.2197031e-39
3365.73 -406.97998 470.522 9.2197031e-39
3366.6001 -395.31 471.26901 9.2197031e-39
3377.03 -384.40002 474.50601 9.2197031e-39
3368.0601 -371.96301 472.685 9.2197031e-39
3379.26 -360.914 476.134 9.2197031e-39
3370.0801 -348.633 474.25101 9.2197031e-39
3370.46 -336.927 474.86899 9.2197031e-39
3372.6799 -325.28101 475.97 9.2197031e-39
3380.6001 -313.73499 478.573 9.2197031e-39
3380.6799 -301.93201 479.117 9.2197031e-39
3380.6699 -290.12701 479.63501 9.2197031e-39
3379.5901 -278.32501 479.871 9.2197031e-39
3379.3799 -266.52899 480.336 9.2197031e-39
3380.03 -254.71399 481.03 9.2197031e-39
3378.6499 -242.94202 481.186 9.2197031e-39
3379.1001 -231.11401 481.82901 9.2197031e-39
3380.4199 -219.22699 482.702 9.2197031e-39
3377.78 -207.53003 482.521 9.2197031e-39
3376.97 -195.74597 482.828 9.2197031e-39
3376.0601 -183.96899 483.10699 9.2197031e-39
3383.71 -171.466 485.68301 9.2197031e-39
3382.6001 -159.62598 485.91101 9.2197031e-39
3384.26 -147.5 486.88699 9.2197031e-39
3380.0601 -135.97601 486.28699 9.2197031e-39
3380.5701 -123.935 486.952 9.2197031e-39
3380.01 -111.99597 487.33099 9.2197031e-39
3377.4299 -100.31897 487.16699 9.2197031e-39
3385.27 -87.112 489.82199 9.2197031e-39
3383.4399 -75.252991 489.86301 9.2197031e-39
3389.1299 -62.13501 491.94699 9.2197031e-39
3388.04 -50.072021 492.19199 9.2197031e-39
3393.5 -36.773987 494.22101 9.2197031e-39
3391.24 -24.838013 494.15302 9.2197031e-39
3388.8899 -12.921997 494.05701 9.2197031e-39
3394.9299 0.79400635 496.26001 9.2197031e-39
3393.3 12.955994 496.367 9.2197031e-39
3399.1001 26.866028 498.51199 9.2197031e-39
3395.3601 38.627991 498.04599 9.2197031e-39
3397.8899 64.719971 499.867 9.2197031e-39
3400.8999 52.711975 500.13199 9.2197031e-39
3402.24 78.726013 501.634 9.2197031e-39
3400.8701 91.270996 501.82599 9.2197031e-39
3404.02 105.17102 503.27499 9.2197031e-39
3409.8201 119.99301 505.46301 9.2197031e-39
3404.3999 131.513 504.53699 9.2197031e-39
3402.5601 144.147 504.60999 9.2197031e-39
3406.1201 158.603 506.189 9.2197031e-39
3410.45 173.46899 507.98999 9.2197031e-39
3408.24 186.20999 507.97 9.2197031e-39
3412.28 201.246 509.703 9.2197031e-39
3408.02 213.366 509.11099 9.2197031e-39
3412.6799 228.89401 511.03101 9.2197031e-39
3415.3899 243.841 512.40601 9.2197031e-39
3419.74 259.60001 514.25098 9.2197031e-39
3415.8701 272.159 513.784 9.2197031e-39
3416.3501 286.578 514.54797 9.2197031e-39
3413.1299 299.51001 514.27002 9.2197031e-39
3414.23 314.396 515.21698 9.2197031e-39
3418.6899 330.953 517.12903 9.2197031e-39
3422.1101 347.23001 518.75 9.2197031e-39
3422.72 362.367 519.58099 9.2197031e-39
3417.0901 374.59 518.63397 9.2197031e-39
3420.02 391.09198 520.138 9.2197031e-39
3421.9199 407.26001 521.35303 9.2197031e-39
3415.9099 419.479 520.30499 9.2197031e-39
3418.3501 436.20801 521.68903 9.2197031e-39
3419.76 452.57202 522.784 9.2197031e-39
3421.8301 469.492 524.08099 9.2197031e-39
3423.73 486.508 525.33301 9.2197031e-39
3424.6001 503.13202 526.29797 9.2197031e-39
3426.1299 520.32703 527.46198 9.2197031e-39
3426.6399 537.11047 528.33698 9.2197031e-39
3427.79 554.47693 529.40997 9.2197031e-39
3428.75 571.92963 530.435 9.2197031e-39
3427.8899 588.41718 530.935 9.2197031e-39
3428.47 606.02118 531.86798 9.2197031e-39
3425.6299 621.54773 531.80298 9.2197031e-39
3425.04 638.73352 532.40601 9.2197031e-39
3431.45 660.96613 535.08197 9.2197031e-39
3432.03 679.45978 536.052 9.2197031e-39
3430.8201 696.90198 536.50299 9.2197031e-39
3430.2 714.9743 537.13898 9.2197031e-39
3435.6101 737.77399 539.57703 9.2197031e-39
3433.78 755.44397 539.87299 9.2197031e-39
3430.21 771.96802 539.659 9.2197031e-39
3435.6299 795.755 542.14301 9.2197031e-39
3440.75 819.72198 544.55499 9.2197031e-39
3444.8101 843.25098 546.66901 9.2197031e-39
3442.6001 861.94598 546.90997 9.2197031e-39
3446.8501 886.37 549.11401 9.2197031e-39
3450.0601 910.32501 551.021 9.2197031e-39
3447.8501 929.91797 551.302 9.2197031e-39
3450.49 954.12299 553.07001 9.2197031e-39
3447.0701 973.211 553.008 9.2197031e-39
3451.29 999.64099 555.29102 9.2197031e-39
3454.46 1025.5759 557.27502 9.2197031e-39
3449.55 1044.2209 556.802 9.2197031e-39
3451.4099 1069.7161 558.42102 9.2197031e-39
3453.6399 1096.04 560.172 9.2197031e-39
3454.8401 1121.8149 561.62799 9.2197031e-39
3455.71 1147.72 563.00299 9.2197031e-39
3456.24 1173.752 564.29401 9.2197031e-39
3461.78 1205.625 567.16699 9.2197031e-39
3461.6001 1231.947 568.28101 9.2197031e-39
3461.0701 1258.3831 569.31 9.2197031e-39
3460.2 1284.929 570.25403 9.2197031e-39
3464.1299 1317.49 572.73199 9.2197031e-39
3468.26 1350.99 575.30103 9.2197031e-39
3464.98 1376.439 575.56097 9.2197031e-39
3468.25 1410.2739 577.91998 9.2197031e-39
3469.2 1442.0129 579.57202 9.2197031e-39
3470.9299 1475.438 581.508 9.2197031e-39
3471.6101 1508.2581 583.13702 9.2197031e-39
3471.8301 1541.229 584.65302 9.2197031e-39
3476.3301 1580.615 587.58197 9.2197031e-39
3475.01 1613.125 588.66998 9.2197031e-39
3477.29 1651.3199 590.961 9.2197031e-39
3479.6001 1690.5 593.30298 9.2197031e-39
3480.23 1728.27 595.138 9.2197031e-39
3483.1101 1770.26 597.75403 9.2197031e-39
3481.53 1806.75 598.95001 9.2197031e-39
3483.8 1849.9399 601.45599 9.2197031e-39
3485.97 1894.16 603.98401 9.2197031e-39
3488.5601 1940.24 606.70502 9.2197031e-39
3486.3 1979.87 607.85901 9.2197031e-39
3489.1399 2028.86 610.77502 9.2197031e-39
3488.72 2073.8701 612.65302 9.2197031e-39
3494.6599 2130.9302 616.74298 9.2197031e-39
3494.3 2178.8999 618.77002 9.2197031e-39
3381.47 2863.3601 619.19501 9.2197031e-39
3321.29 3216.5601 618.89801 9.2197031e-39
3498.1101 2235.6401 622.28302 9.2197031e-39
3503.46 2296.95 626.40601 9.2197031e-39
3503.1599 2349.8901 628.66699 9.2197031e-39
3416.27 2870.24 628.69598 9.2197031e-39
3354.3301 3214.1201 627.52197 9.2197031e-39
3504.3999 2407.3799 631.534 9.2197031e-39
3510.71 2476.48 636.255 9.2197031e-39
3509.6699 2533.6001 638.50403 9.2197031e-39
3448.52 2870.3701 637.22601 9.2197031e-39
3388.1299 3213.21 636.414 9.2197031e-39
3351.47 3400.4299 635.00098 9.2197031e-39
3344.97 3485.51 637.04102 9.2197031e-39
3338.6799 3575.47 639.35303 9.2197031e-39
3516.1599 2607.71 643.495 9.2197031e-39
3518.04 2675.05 646.966 9.2197031e-39
3421.3 3210.1001 645.04401 9.2197031e-39
3349.6599 3724.25 648.83002 9.2197031e-39
3327.3899 3773.95 645.14203 9.2197031e-39
3520.1599 2745.3301 650.63397 9.2197031e-39
3528.3301 2831.1101 656.58301 9.2197031e-39
3462.0901 3139.5801 652.70599 9.2197031e-39
3451.97 3200.21 652.71399 9.2197031e-39
3348.0801 3969.0901 659.23102 9.2197031e-39
3315.8799 3994.21 651.83301 9.2197031e-39
3530.22 2906.49 660.41302 9.2197031e-39
3536.1899 2993.8899 665.85303 9.2197031e-39
