# .PCD v0.7 - Point Cloud Data file format
VERSION 0.7
FIELDS x y z rgb
SIZE 4 4 4 4
TYPE F F F F
COUNT 1 1 1 1
WIDTH 330
HEIGHT 1
VIEWPOINT 0 0 0 1 0 0 0
POINTS 330
DATA ascii
2991.1299 -444.45996 133.866 9.2197031e-39
2991.77 -436.18994 135.80901 9.2197031e-39
2989.25 -427.16003 137.45399 9.2197031e-39
3004.1001 -427.96997 139.468 9.2197031e-39
2207.77 96.951012 139.02666 9.2197031e-39
2211.1299 97.223999 139.58501 9.2197031e-39
2167.1699 127.41199 139.83099 9.2197031e-39
-445.92801 1832.77 134.554 9.2197031e-39
3128.52 -487.07996 144.657 9.2197031e-39
3038.0701 -441.46997 141.474 9.2197031e-39
3034.2 -422.66003 145.105 9.2197031e-39
2863.25 -314.84198 143.923 9.2197031e-39
2871.9299 -307.56 146.834 9.2197031e-39
2861.1399 -296.026 147.81599 9.2197031e-39
2796.1699 -270.99402 143.80299 9.2197031e-39
2824.1101 -269.854 148.19 9.2197031e-39
2810.25 -257.521 148.896 9.2197031e-39
2796.53 -244.82599 149.70399 9.2197031e-39
2662.8401 -158.43298 149.242 9.2197031e-39
2614.1499 -132.68298 147.798 9.2197031e-39
2539.3201 -96.825012 144.74699 9.2197031e-39
2519.0701 -85.718994 144.235 9.2197031e-39
2498.5601 -75.215027 143.549 9.2197031e-39
2523.5701 -64.101013 149.731 9.2197031e-39
2452.52 -52.447006 141.82976 9.2197031e-39
2453.2126 -47.579254 143.0195 9.2197031e-39
2462.1401 -46.754486 144.524 9.2197031e-39
2207.8025 104.63124 140.74802 9.2197031e-39
2216.5649 107.66299 142.72049 9.2197031e-39
2224.0398 104.3598 143.088 9.2197031e-39
2204.0801 113.689 142.222 9.2197031e-39
2210.3401 112.11499 142.795 9.2197031e-39
2222.5701 112.33899 144.65401 9.2197031e-39
2250.98 111.68201 148.70799 9.2197031e-39
2216.594 125.45959 146.70219 9.2197031e-39
2227.3149 127.205 148.677 9.2197031e-39
2234.6675 124.075 149.065 9.2197031e-39
2241.3101 121.526 149.47751 9.2197031e-39
2217.96 131.545 148.26401 9.2197031e-39
2221.6951 133.6265 149.28101 9.2197031e-39
-506.16599 1904.6 141.698 9.2197031e-39
2789.48 -236.57898 150.504 9.2197031e-39
2782.6001 -227.87799 151.43201 9.2197031e-39
2760.04 -212.49799 151.533 9.2197031e-39
2729.3799 -193.12201 151.33 9.2197031e-39
2591.46 -80.502991 156.103 9.2197031e-39
2544.0601 -68.640015 151.745 9.2197031e-39
2238.4299 129.655 150.868 9.2197031e-39
2245.3301 123.32501 150.47301 9.2197031e-39
-2015.1899 2978.8601 158.63699 9.2197031e-39
2723.26 -112.26501 168.492 9.2197031e-39
2658.1201 -97.432983 162.177 9.2197031e-39
-1993.39 3013.72 169.651 9.2197031e-39
2765.4199 -120.258 172.94099 9.2197031e-39
2836.79 -134.51099 180.308 9.2197031e-39
-1994.36 3072.8899 182.729 9.2197031e-39
2949.78 -158.67798 191.614 9.2197031e-39
-1992.8199 3122.8401 194.117 9.2197031e-39
3102.05 -189.51501 207.237 9.2197031e-39
-1987.58 3178.8701 207.41499 9.2197031e-39
-1979.29 3224.9099 218.929 9.2197031e-39
3329.27 -236.229 230.39301 9.2197031e-39
3371.96 -236.11798 236.731 9.2197031e-39
3379.4299 -229.04199 239.416 9.2197031e-39
-1971.1899 3279.97 232.429 9.2197031e-39
3393.9099 -221.922 243.14799 9.2197031e-39
3395.4199 -213.40503 245.27499 9.2197031e-39
3398.0601 -203.698 247.834 9.2197031e-39
3398.4399 -194.96698 249.841 9.2197031e-39
-1953.17 3319.3799 243.901 9.2197031e-39
3399.9199 -185.04303 252.278 9.2197031e-39
3401.1299 -176.46997 254.37199 9.2197031e-39
3403.4199 -166.66699 256.901 9.2197031e-39
3403.49 -157.91803 258.866 9.2197031e-39
-1950.9399 3380.1001 257.79901 9.2197031e-39
3404.6201 -147.93799 261.26401 9.2197031e-39
3394.6799 -137.927 262.03201 9.2197031e-39
3404.8701 -124.76901 266.47852 9.2197031e-39
3407.99 -110.65198 270.095 9.2197031e-39
3406.6101 -101.81299 271.86499 9.2197031e-39
3407.2 -91.789001 274.19299 9.2197031e-39
3407.6399 -83.137024 276.19199 9.2197031e-39
3408.0601 -73.098999 278.49701 9.2197031e-39
3408.3401 -64.435974 280.47501 9.2197031e-39
3408.5801 -54.385986 282.75601 9.2197031e-39
3408.71 -45.715027 284.71301 9.2197031e-39
3406.8 -35.59198 286.69199 9.2197031e-39
3406.78 -26.929993 288.62399 9.2197031e-39
3406.6599 -16.885986 290.85101 9.2197031e-39
3406.48 -8.2210083 292.76099 9.2197031e-39
3408.1699 1.8289795 295.25601 9.2197031e-39
3407.8401 10.508972 297.147 9.2197031e-39
3405.3899 20.536011 299.026 9.2197031e-39
-2748.4299 4076 295.39301 9.2197031e-39
3404.9099 29.198975 300.89099 9.2197031e-39
3413.1499 39.560974 304.42401 9.2197031e-39
3412.51 48.289978 306.28 9.2197031e-39
3411.6799 58.406982 308.418 9.2197031e-39
-2667.6799 4086.01 309.56799 9.2197031e-39
3410.8799 67.129028 310.24899 9.2197031e-39
3411.8401 77.374023 312.681 9.2197031e-39
3418.76 86.721008 315.79199 9.2197031e-39
3419.52 97.078979 318.22 9.2197031e-39
3416.45 105.68298 319.68799 9.2197031e-39
3417.03 116.05801 322.09201 9.2197031e-39
3413.8 124.612 323.52701 9.2197031e-39
3414.2 135.00201 325.90701 9.2197031e-39
3418.6299 144.53101 328.69199 9.2197031e-39
3397.3899 151.98099 327.215 9.2197031e-39
3395.8301 160.60901 328.91299 9.2197031e-39
3408.51 172.914 333.53799 9.2197031e-39
3413.5701 182.771 336.48901 9.2197031e-39
3422.1101 194.81299 340.44299 9.2197031e-39
3413.4299 202.397 340.854 9.2197031e-39
3424.6399 215.19101 345.37 9.2197031e-39
3413.8899 222.29099 345.36801 9.2197031e-39
3415.25 233.28299 348.02399 9.2197031e-39
3418.77 243.34601 350.79401 9.2197031e-39
3419.9099 254.45499 353.44501 9.2197031e-39
3415.6001 262.82901 354.67801 9.2197031e-39
3422.24 275.40601 358.47101 9.2197031e-39
3426.3101 285.978 361.436 9.2197031e-39
3423.22 296.28299 363.28101 9.2197031e-39
3419.52 304.888 364.65799 9.2197031e-39
3426.6101 318.112 368.66101 9.2197031e-39
3422.74 326.733 370.01501 9.2197031e-39
3428.6299 339.88501 373.82401 9.2197031e-39
3424.5801 348.51099 375.15399 9.2197031e-39
3420.8999 358.81601 376.91101 9.2197031e-39
3425.99 370.474 380.26901 9.2197031e-39
3430.4099 383.672 383.87201 9.2197031e-39
3426.9399 392.616 385.358 9.2197031e-39
3431.1001 405.97302 388.957 9.2197031e-39
3425.6201 414.242 389.995 9.2197031e-39
3430.4199 428.08701 393.79901 9.2197031e-39
3426.5901 437.04102 395.233 9.2197031e-39
3429.3 450.32501 398.60199 9.2197031e-39
3435.2 463.39502 402.396 9.2197031e-39
3430.4099 473.827 404.01901 9.2197031e-39
3434.26 486.30298 407.37601 9.2197031e-39
3435.0601 504.82849 411.63348 9.2197031e-39
3434.6799 523.0799 415.65701 9.2197031e-39
3437.98 535.88019 419.005 9.2197031e-39
3435.54 559.2829 423.87399 9.2197031e-39
3441.25 550.65088 422.789 9.2197031e-39
3439.3799 574.63422 427.871 9.2197031e-39
3441.24 587.30621 430.979 9.2197031e-39
3436.1399 598.28607 432.677 9.2197031e-39
3438.5901 611.5246 435.99899 9.2197031e-39
3440.8899 626.77344 439.746 9.2197031e-39
3434.5901 635.37457 440.73599 9.2197031e-39
3436.5701 650.7406 444.46301 9.2197031e-39
3438.4299 664.26123 447.76001 9.2197031e-39
3439.22 679.31268 451.23901 9.2197031e-39
3441.5901 693.50317 454.76099 9.2197031e-39
3442.01 708.72198 458.224 9.2197031e-39
3437.51 718.88281 459.82901 9.2197031e-39
3444.8999 738.99701 465.41699 9.2197031e-39
3444.1699 751.91498 468.19501 9.2197031e-39
3445.45 768.52399 472.09698 9.2197031e-39
3444.4099 781.55103 474.853 9.2197031e-39
3444.51 797.763 478.491 9.2197031e-39
3450.23 815.99701 483.41101 9.2197031e-39
3449.1101 831.83502 486.78601 9.2197031e-39
3448.95 846.263 489.98599 9.2197031e-39
3452.8501 866.34198 495.048 9.2197031e-39
3453.8301 882.12 498.72 9.2197031e-39
3449.6201 896.44604 501.298 9.2197031e-39
3455.51 916.61304 506.67599 9.2197031e-39
3454.6399 934.12097 510.45999 9.2197031e-39
3454.0801 949.60101 513.836 9.2197031e-39
3458.6599 972.27899 519.58099 9.2197031e-39
3455.48 986.02502 522.18298 9.2197031e-39
3458.77 1008.33 527.65302 9.2197031e-39
3457.3701 1024.118 530.974 9.2197031e-39
3456.52 1043.407 535.15802 9.2197031e-39
3458.95 1063.2729 539.95801 9.2197031e-39
3458.97 1084.084 544.61102 9.2197031e-39
500.547 3053.1499 547.20398 9.2197031e-39
3462.97 1106.196 550.14301 9.2197031e-39
3463.77 1128.599 555.26801 9.2197031e-39
3461.02 1144.827 558.487 9.2197031e-39
525.59302 3074.9399 555.77502 9.2197031e-39
3461.24 1167.428 563.57098 9.2197031e-39
3462.73 1188.645 568.53302 9.2197031e-39
551.37903 3086.6299 562.20203 9.2197031e-39
3464.98 1214.29 574.59497 9.2197031e-39
563.75 3131.3701 574.02802 9.2197031e-39
3467.8401 1237.874 580.289 9.2197031e-39
3466.74 1260.964 585.28601 9.2197031e-39
565.57001 3187.0701 586.74298 9.2197031e-39
3468.3201 1284.085 590.685 9.2197031e-39
3473.5601 1315.379 598.45502 9.2197031e-39
3472.55 1336.588 603.04303 9.2197031e-39
3477.55 1368.988 611.02301 9.2197031e-39
3472.1699 1385.9609 614.02002 9.2197031e-39
3469.5901 1410.452 619.112 9.2197031e-39
3471.5901 1437.282 625.40399 9.2197031e-39
3473.0601 1468.054 632.49701 9.2197031e-39
3473.0901 1493.6421 638.21899 9.2197031e-39
3475.3999 1527.0291 646.02197 9.2197031e-39
3479.27 1559.0701 653.75403 9.2197031e-39
3480.55 1592.8311 661.48798 9.2197031e-39
3480.1001 1620.51 667.60602 9.2197031e-39
3487.04 1664.08 678.36798 9.2197031e-39
3488.95 1696.83 685.96997 9.2197031e-39
3492.96 1738.5 695.875 9.2197031e-39
3491.1699 1767.58 702.10699 9.2197031e-39
3493.4299 1808.84 711.66199 9.2197031e-39
3489.1599 1835.72 717.03699 9.2197031e-39
3493.29 1882.25 728.04498 9.2197031e-39
373.20801 3931.97 724.75897 9.2197031e-39
3493.6499 1918.4 736.177 9.2197031e-39
457.70801 3929.6001 736.72302 9.2197031e-39
408.02499 3940.1201 731.72803 9.2197031e-39
3491.3899 1957.1 744.48999 9.2197031e-39
1676.77 3171.9199 747.65399 9.2197031e-39
541.62 3925.53 748.22101 9.2197031e-39
491.58099 3938.8201 743.79303 9.2197031e-39
234.80099 4115.7002 745.35199 9.2197031e-39
3497.02 2004.37 755.88599 9.2197031e-39
1701.49 3181.9099 753.54401 9.2197031e-39
582.62299 3917.77 752.54797 9.2197031e-39
3496.3301 2048.4399 765.63202 9.2197031e-39
3500.54 2096.1602 776.91803 9.2197031e-39
1720.87 3244.48 770.39001 9.2197031e-39
-80.618599 4457.3398 775.05798 9.2197031e-39
3499.3201 2142.3198 787.05103 9.2197031e-39
1602.08 3377.3101 782.51001 9.2197031e-39
562.06799 4065.0801 782.42902 9.2197031e-39
21.8792 4447.96 788.11798 9.2197031e-39
-32.577 4452.3896 781.05701 9.2197031e-39
3501.1399 2188.77 797.70203 9.2197031e-39
1726.88 3364.3201 798.05798 9.2197031e-39
3505.1699 2248.1201 811.56 9.2197031e-39
1486.85 3608.73 817.185 9.2197031e-39
3501.9299 2288.1299 820.02002 9.2197031e-39
1517.74 3629.6001 826.41699 9.2197031e-39
632.849 4188.2002 820.40601 9.2197031e-39
511.358 4275.6201 821.979 9.2197031e-39
557.18103 4277.1699 829.09998 9.2197031e-39
3507.1899 2354 835.51898 9.2197031e-39
1735.3101 3509.01 831.63702 9.2197031e-39
765.91998 4174.0898 836.92798 9.2197031e-39
3512.8 2415.1299 850.008 9.2197031e-39
1748.9 3607.6101 855.68103 9.2197031e-39
3513.3601 2476.3999 863.784 9.2197031e-39
588.51001 4415.8398 864.71899 9.2197031e-39
631.02802 4410.8398 869.888 9.2197031e-39
3517.04 2538.0601 878.10699 9.2197031e-39
721.89801 4399.6797 880.83002 9.2197031e-39
768.22699 4398.9902 887.52502 9.2197031e-39
3519.1699 2607.74 893.99298 9.2197031e-39
1755.2 3798.8799 899.35303 9.2197031e-39
854.19501 4396.3896 899.65601 9.2197031e-39
806.50098 4402.6201 893.99701 9.2197031e-39
3518.8601 2665.51 906.85602 9.2197031e-39
895.68402 4388.98 904.13501 9.2197031e-39
981.14001 4383.0703 915.448 9.2197031e-39
939.39502 4393.1299 911.52399 9.2197031e-39
3521.45 2741.9299 924.31403 9.2197031e-39
1065.23 4378.3999 926.83801 9.2197031e-39
1024.6801 4386.3896 922.62799 9.2197031e-39
3447.6201 2848.55 937.224 9.2197031e-39
1761.9399 3975.1001 939.72998 9.2197031e-39
1108.88 4379.96 933.64099 9.2197031e-39
1146.04 4382.6396 939.73499 9.2197031e-39
3527.5601 2819.6799 942.59302 9.2197031e-39
3502.95 2837.8201 943.008 9.2197031e-39
3480.8101 2851.48 942.78601 9.2197031e-39
1285.05 4323.25 947.01703 9.2197031e-39
1190.34 4380.5601 945.81897 9.2197031e-39
1211.9399 4444.6299 963.33099 9.2197031e-39
3499.5801 3054.02 990.82098 9.2197031e-39
3324.01 3189.77 995.198 9.2197031e-39
1768.1801 4218.9502 995.14203 9.2197031e-39
3461.3101 3121.01 1000.13 9.2197031e-39
3493.26 3127.3101 1006.26 9.2197031e-39
3357.8701 3189.52 1000.15 9.2197031e-39
3387.01 3188.5801 1004.25 9.2197031e-39
3420.75 3186.76 1008.83 9.2197031e-39
3314.8401 3255 1008.42 9.2197031e-39
3450.6699 3187.0901 1013.33 9.2197031e-39
1788.5699 4336.8896 1024.51 9.2197031e-39
1824.04 4389.96 1041.62 9.2197031e-39
1858.99 4401.3999 1049.34 9.2197031e-39
1901.53 4395.3896 1054.29 9.2197031e-39
2018.05 4358.96 1063.37 9.2197031e-39
2059.45 4359.2803 1069.5699 9.2197031e-39
1979.76 4391.6797 1065.02 9.2197031e-39
1937.21 4400.3701 1060.6801 9.2197031e-39
2086.5601 4526.0601 1110.84 9.2197031e-39
2129.6001 4524.71 1116.91 9.2197031e-39
3352.5601 3870.5901 1151.5601 9.2197031e-39
3321.9299 3906.48 1155.05 9.2197031e-39
2161.54 4675.29 1155.28 9.2197031e-39
3395.8501 3902.3301 1165.05 9.2197031e-39
3310.3601 3999.1101 1174.04 9.2197031e-39
3281.8799 4050.8101 1181.38 9.2197031e-39
3490.3101 3965.5801 1193.15 9.2197031e-39
3461.99 3991.6399 1194.79 9.2197031e-39
2984.05 4298.1899 1192.62 9.2197031e-39
3019.5801 4292.6001 1196.63 9.2197031e-39
3066.01 4316.2402 1208.77 9.2197031e-39
3101.5601 4309.0303 1212.42 9.2197031e-39
3144.1699 4307.9502 1218.48 9.2197031e-39
3221.74 4295.4502 1227.15 9.2197031e-39
3181.75 4310.6001 1224.63 9.2197031e-39
3259.02 4295.54 1232.6899 9.2197031e-39
3302.02 4293.8896 1238.6801 9.2197031e-39
2194.73 5134.0601 1262.7 9.2197031e-39
2196.03 7645.5898 1824.13 9.2197031e-39
2268.6599 7644.1201 1834.54 9.2197031e-39
2331.3 7642.3101 1843.4 9.2197031e-39
2853.54 7352.4102 1855.83 9.2197031e-39
2793.6201 7366.1001 1850.03 9.2197031e-39
2726.3401 7424.8901 1853.22 9.2197031e-39
2403.9299 7639.5801 1853.53 9.2197031e-39
2466.3999 7627.9199 1860.15 9.2197031e-39
2601.47 7619.9902 1878.35 9.2197031e-39
2539.1799 7632.7202 1871.99 9.2197031e-39
3114.8799 7329.1001 1889.26 9.2197031e-39
3057.8701 7370.0098 1889.97 9.2197031e-39
2990.1201 7406.8301 1888.1801 9.2197031e-39
2929.53 7417.7202 1881.66 9.2197031e-39
2673.95 7614.77 1887.9 9.2197031e-39
3183.8201 7311.5098 1895.52 9.2197031e-39
3244.55 7307.3198 1903.5699 9.2197031e-39
3314.6201 7299.1499 1912.1 9.2197031e-39
3375.9299 7297.75 1920.85 9.2197031e-39
