# .PCD v0.7 - Point Cloud Data file format
VERSION 0.7
FIELDS x y z rgb
SIZE 4 4 4 4
TYPE F F F F
COUNT 1 1 1 1
WIDTH 314
HEIGHT 1
VIEWPOINT 0 0 0 1 0 0 0
POINTS 314
DATA ascii
3328.23 278.15302 132.30299 9.2197031e-39
3326.76 293.41 136.37399 9.2197031e-39
3330.8301 295.84299 137.065 9.2197031e-39
2112.02 346.979 138.864 9.2197031e-39
2152.8501 342.798 138.14301 9.2197031e-39
2109.51 350.228 139.709 9.2197031e-39
2122.73 350.34 139.868 9.2197031e-39
-1253.64 472.746 139.69501 9.2197031e-39
3334.6001 312.315 141.51251 9.2197031e-39
3321.0901 328.81 145.798 9.2197031e-39
2927.8899 339.12601 144.72301 9.2197031e-39
3012.8999 339.47198 145.645 9.2197031e-39
3188.0801 330.25 144.88499 9.2197031e-39
2416.7427 347.79276 142.05525 9.2197031e-39
2422.1499 346.03299 141.63699 9.2197031e-39
2457.1001 348.90799 142.748 9.2197031e-39
2851.55 346.93201 146.06799 9.2197031e-39
2899.5601 347.436 146.67101 9.2197031e-39
2119.4302 354.0665 140.834 9.2197031e-39
2126.8149 355.0755 141.17599 9.2197031e-39
2135.188 355.69421 141.4234 9.2197031e-39
2140.3201 359.599 142.519 9.2197031e-39
2417.97 351.73999 143.12399 9.2197031e-39
2424.4434 356.19998 144.38133 9.2197031e-39
2481.8899 351.97299 143.811 9.2197031e-39
2506.1201 352.01599 144.058 9.2197031e-39
2524.04 353.68201 144.679 9.2197031e-39
2574.1599 355.54999 145.66901 9.2197031e-39
2749.6101 358.69199 148.222 9.2197031e-39
2780.6101 359.815 148.825 9.2197031e-39
2815.0701 354.517 147.743 9.2197031e-39
2835.1201 354.34201 147.892 9.2197031e-39
2117.3201 362.54501 143.084 9.2197031e-39
2134.0698 366.33649 144.26199 9.2197031e-39
2141.9175 363.91602 143.69049 9.2197031e-39
2651.74 363.14999 148.461 9.2197031e-39
2695.1299 361.68701 148.492 9.2197031e-39
2731.0701 363.91101 149.439 9.2197031e-39
2126.2852 378.59399 147.468 9.2197031e-39
2133.0601 374.63696 146.47501 9.2197031e-39
2482.3999 373.78998 149.657 9.2197031e-39
2127.3999 382.564 148.54251 9.2197031e-39
2135.3899 384.56482 149.15617 9.2197031e-39
2146.4751 386.81799 149.86749 9.2197031e-39
2153.4399 381.918 148.62399 9.2197031e-39
-1241.27 480.72601 141.953 9.2197031e-39
2500.6499 378.87799 151.198 9.2197031e-39
2144.9299 389.202 150.491 9.2197031e-39
2519.98 387.48199 153.69099 9.2197031e-39
2532.3301 391.423 154.866 9.2197031e-39
-1633.86 554.98578 158.006 9.2197031e-39
2602.1899 415.228 161.922 9.2197031e-39
2654.6499 431.08899 166.681 9.2197031e-39
-757.828 554.36188 166.388 9.2197031e-39
-749.26398 561.05493 168.26401 9.2197031e-39
2714.9099 455.26099 173.742 9.2197031e-39
2818.4399 487.95099 183.506 9.2197031e-39
-831.966 612.8053 181.314 9.2197031e-39
-850.13702 622.11505 183.63 9.2197031e-39
-4521.7002 742.914 180.146 9.2197031e-39
-844.27899 667.12317 195.739 9.2197031e-39
-841.41199 674.42767 197.72301 9.2197031e-39
2992.2 552.30463 202.43401 9.2197031e-39
-840.69598 720.04401 209.944 9.2197031e-39
-838.68701 727.43402 211.94299 9.2197031e-39
-850.98999 775.08899 224.584 9.2197031e-39
3315.6699 658.76288 234.097 9.2197031e-39
3337.6499 683.03131 240.81 9.2197031e-39
3346.1299 688.81622 242.44099 9.2197031e-39
3358.1001 710.62482 248.39799 9.2197031e-39
3366.45 716.61761 250.084 9.2197031e-39
3371.74 738.23254 255.92349 9.2197031e-39
3365.51 755.71002 260.543 9.2197031e-39
3371.76 761.29602 262.099 9.2197031e-39
3376.135 783.39746 268.06 9.2197031e-39
3378.23 804.94897 273.85199 9.2197031e-39
3385.1599 811.21399 275.59698 9.2197031e-39
3383.99 831.84351 281.1095 9.2197031e-39
3386.6499 856.26501 287.67499 9.2197031e-39
3385.9399 877.815 293.43799 9.2197031e-39
3392.47 884.50696 295.29401 9.2197031e-39
3389.0049 905.146 300.7865 9.2197031e-39
3392.615 931.67096 307.9245 9.2197031e-39
3397.29 957.63098 314.92099 9.2197031e-39
3403.3899 964.74902 316.88699 9.2197031e-39
3402.22 988.12305 323.13452 9.2197031e-39
3412.3799 1018.866 331.466 9.2197031e-39
3410.5701 1021.611 332.18301 9.2197031e-39
3411.9849 1047.813 339.21301 9.2197031e-39
3419.4099 1078.605 347.53101 9.2197031e-39
3418.27 1081.913 348.40601 9.2197031e-39
3425.27 1113.4375 356.91501 9.2197031e-39
3429.3701 1148.165 366.254 9.2197031e-39
3431.51 1145.373 365.52802 9.2197031e-39
3436.26 1179.4099 374.68799 9.2197031e-39
3445.1201 1190.442 377.728 9.2197031e-39
3463.605 1234.165 389.61652 9.2197031e-39
3459.9399 1266.865 398.33701 9.2197031e-39
3462.3899 1263.999 397.59299 9.2197031e-39
3465.9351 1303.4675 408.1965 9.2197031e-39
3467.6201 1342.754 418.733 9.2197031e-39
3472.51 1341.783 418.51999 9.2197031e-39
3473.03 1378.7571 428.42599 9.2197031e-39
3471.76 1382.954 429.53799 9.2197031e-39
3474.76 1418.047 438.96399 9.2197031e-39
3471.9199 1420.944 439.71201 9.2197031e-39
3469.6399 1457.905 449.58701 9.2197031e-39
3473.29 1455.689 449.02899 9.2197031e-39
3477 1502.624 461.633 9.2197031e-39
3483.1699 1547.869 473.80801 9.2197031e-39
3479.3 1550.0859 474.36401 9.2197031e-39
3482.1299 1593.6975 486.06952 9.2197031e-39
3485.79 1639.88 498.47299 9.2197031e-39
3481.71 1642.0801 499.022 9.2197031e-39
3486.4399 1687.98 511.358 9.2197031e-39
3488.0801 1696.78 513.72998 9.2197031e-39
3488.97 1743.915 526.35999 9.2197031e-39
3493.5701 1797.46 540.74402 9.2197031e-39
3494.71 1806.45 543.16302 9.2197031e-39
3494.7 1853.01 555.62799 9.2197031e-39
3496.2 1862.85 558.27802 9.2197031e-39
3493.5901 1908.25 570.41101 9.2197031e-39
3497.1899 1921.29 573.93701 9.2197031e-39
3500.1499 1976.48 588.74402 9.2197031e-39
3499.9099 1984.9399 591.008 9.2197031e-39
3505.1599 2046.2 607.46198 9.2197031e-39
3505.21 2055.54 609.96301 9.2197031e-39
3503.6001 2110.1499 624.57001 9.2197031e-39
3504.47 2121.1699 627.53003 9.2197031e-39
3508.1599 2186.76 645.13 9.2197031e-39
3507.6101 2196.26 647.66699 9.2197031e-39
3513.53 2274.6101 668.70447 9.2197031e-39
3515.1101 2350.3 688.98901 9.2197031e-39
3516.4299 2364.1201 692.70099 9.2197031e-39
3519.1299 2440.6401 713.21802 9.2197031e-39
3521.97 2457.9399 717.87799 9.2197031e-39
3526.45 2542.74 740.62799 9.2197031e-39
3525.9199 2555.1001 743.93298 9.2197031e-39
3526.29 2638.01 766.138 9.2197031e-39
3527.1899 2653.8901 770.39801 9.2197031e-39
-890.79498 2841.1101 777.41602 9.2197031e-39
-899.71997 2861.0601 782.67102 9.2197031e-39
-1172.67 2875.98 784.00201 9.2197031e-39
-1180.35 2894.8999 788.99402 9.2197031e-39
3531.0901 2749.48 796.03302 9.2197031e-39
3532.8 2768.0801 801.02899 9.2197031e-39
3465.01 2846.395 821.33899 9.2197031e-39
3411.9199 2858.6899 824.11499 9.2197031e-39
3422.48 2864.78 825.84601 9.2197031e-39
3540.4199 2878.3401 830.63 9.2197031e-39
3541.0801 2896.22 835.42401 9.2197031e-39
355.073 3014.96 836.12598 9.2197031e-39
365.427 3014.78 836.17999 9.2197031e-39
192.933 3035 839.90997 9.2197031e-39
204.103 3034.55 839.90002 9.2197031e-39
276.53601 3037.4399 841.37903 9.2197031e-39
260.21399 3045.2 843.29901 9.2197031e-39
403.36401 3047.6201 845.34399 9.2197031e-39
413.164 3048.0801 845.56299 9.2197031e-39
465.733 3059.1101 849.02802 9.2197031e-39
94.8927 3061.6699 846.09601 9.2197031e-39
107.446 3060 845.77002 9.2197031e-39
-964.75299 3088.27 842.87598 9.2197031e-39
-944.133 3084.51 842.07001 9.2197031e-39
471.73099 3065.0801 850.68597 9.2197031e-39
527.21399 3085.8899 856.79999 9.2197031e-39
509.59601 3098.1499 859.91101 9.2197031e-39
-901.88202 3131.27 855.00299 9.2197031e-39
-906.42102 3149.3799 859.81097 9.2197031e-39
-34.296299 3136.03 864.74597 9.2197031e-39
3474.75 3122.8398 895.4585 9.2197031e-39
1667.96 3179.79 893.07501 9.2197031e-39
1674.95 3183.1201 894.03699 9.2197031e-39
-436.26501 3292.79 902.79797 9.2197031e-39
-474.47699 3319.54 909.58801 9.2197031e-39
3446.8301 3188.48 912.763 9.2197031e-39
3384.8101 3192.9849 913.36401 9.2197031e-39
3439.05 3190.4199 913.20599 9.2197031e-39
3325.6799 3203.55 915.61499 9.2197031e-39
3333.1399 3200.99 915.00201 9.2197031e-39
1708.39 3247.4199 911.58002 9.2197031e-39
1713.77 3260.1699 915.04602 9.2197031e-39
-394.646 3336.6699 914.95502 9.2197031e-39
-393.35101 3350.45 918.65802 9.2197031e-39
-3014.5601 3452.1499 920.30902 9.2197031e-39
-3019.27 3472.49 925.711 9.2197031e-39
-366.694 3412.4199 935.51099 9.2197031e-39
-364.43301 3425.49 939.034 9.2197031e-39
-316.20801 3463.1799 949.59497 9.2197031e-39
-3003.0601 3568.77 951.65002 9.2197031e-39
-3011.54 3591.9099 957.763 9.2197031e-39
1730.85 3429.8301 960.64203 9.2197031e-39
3353.02 3426.24 975.513 9.2197031e-39
3347.5 3436.1799 978.12 9.2197031e-39
1732.96 3465.4299 970.19501 9.2197031e-39
-2999.79 3692.8799 984.91302 9.2197031e-39
-2999.4299 3710.9299 989.75201 9.2197031e-39
1507.38 3639.8501 1014.7 9.2197031e-39
1517.6899 3634.1299 1013.27 9.2197031e-39
1756 3636.1799 1016.14 9.2197031e-39
-961.46002 3745.8301 1018.99 9.2197031e-39
-2991.1599 3816.2 1018.02 9.2197031e-39
1756.89 3687.1001 1029.79 9.2197031e-39
-2990.3799 3834.3701 1022.89 9.2197031e-39
-4581.6299 3938.9099 1035.36 9.2197031e-39
-1088.11 3861.99 1048.85 9.2197031e-39
-2988.6299 3946.3999 1052.91 9.2197031e-39
-2963.8101 3948.3799 1053.6801 9.2197031e-39
-2847.72 3980.99 1063.55 9.2197031e-39
-2846.3101 3999.0901 1068.41 9.2197031e-39
-4571.3301 4062.6599 1068.59 9.2197031e-39
-4570.3799 4083.9299 1074.3 9.2197031e-39
-4566 4213.1797 1108.95 9.2197031e-39
1767.34 3994.8301 1112.29 9.2197031e-39
-4555.96 4229.6602 1113.46 9.2197031e-39
1771.89 4032.4299 1122.4 9.2197031e-39
-1604.87 4149.6001 1120.8199 9.2197031e-39
-1769.42 4156.1797 1120.98 9.2197031e-39
-1745.26 4152.3301 1120.1899 9.2197031e-39
-1628.78 4154.0303 1121.78 9.2197031e-39
-2851.6499 4257.6602 1137.59 9.2197031e-39
463.98999 4146.1299 1140.08 9.2197031e-39
558.362 4146.3896 1141.08 9.2197031e-39
213.37199 4158.4297 1140.9301 9.2197031e-39
291.27499 4152.21 1140.03 9.2197031e-39
301.17401 4156.96 1141.4 9.2197031e-39
375.37799 4155.27 1141.67 9.2197031e-39
388.72699 4152.8398 1141.15 9.2197031e-39
473.87299 4150.46 1141.34 9.2197031e-39
543.67999 4152.8896 1142.67 9.2197031e-39
626.52802 4150.1104 1142.74 9.2197031e-39
636.422 4154.0601 1143.89 9.2197031e-39
199.297 4161.1797 1141.53 9.2197031e-39
-2852.4399 4278.4502 1143.15 9.2197031e-39
3367.8401 4118.6201 1161.0601 9.2197031e-39
3515.24 4112.3101 1160.8 9.2197031e-39
3508.4099 4124.52 1164.01 9.2197031e-39
3363.05 4138.9502 1166.45 9.2197031e-39
3436.6599 4135.6201 1166.28 9.2197031e-39
3446.53 4132.7803 1165.62 9.2197031e-39
-1710.24 4372.6104 1179.51 9.2197031e-39
3027.3401 4285.1602 1202.33 9.2197031e-39
3037.5901 4283.3101 1201.9301 9.2197031e-39
3339.8999 4288.9399 1206.39 9.2197031e-39
3265.47 4296.1201 1207.59 9.2197031e-39
3331.3701 4298.0703 1208.75 9.2197031e-39
3106.73 4309.5801 1209.64 9.2197031e-39
3117.04 4307.5303 1209.1899 9.2197031e-39
3180.5901 4303.2803 1208.6801 9.2197031e-39
3190.6699 4300.1201 1207.9301 9.2197031e-39
3255.6399 4300.3999 1208.64 9.2197031e-39
1794.38 4329.98 1202.3 9.2197031e-39
1802.04 4354.1499 1208.84 9.2197031e-39
865.42499 4369.46 1203.8 9.2197031e-39
946.55902 4368.4902 1204.34 9.2197031e-39
1027.23 4366.0303 1204.46 9.2197031e-39
1037.6899 4369.0098 1205.36 9.2197031e-39
1106.88 4363.9502 1204.6899 9.2197031e-39
1116.53 4369.5303 1206.27 9.2197031e-39
1185.5699 4362.2998 1205.01 9.2197031e-39
1196.51 4363.02 1205.3101 9.2197031e-39
696.96503 4379.5098 1204.85 9.2197031e-39
780.16602 4378.9297 1205.51 9.2197031e-39
875.88702 4372.8301 1204.8101 9.2197031e-39
956.71802 4372.5898 1205.53 9.2197031e-39
610.349 4385.71 1205.66 9.2197031e-39
624.14801 4381.5898 1204.7 9.2197031e-39
706.75201 4385.1001 1206.4399 9.2197031e-39
790.98602 4381.5898 1206.33 9.2197031e-39
-132.196 4419.6299 1207.5 9.2197031e-39
-117.67 4418.6602 1207.38 9.2197031e-39
-20.9995 4418.2598 1208.22 9.2197031e-39
-235.284 4426.8604 1208.4301 9.2197031e-39
-219.604 4424.5498 1207.97 9.2197031e-39
-36.361599 4421.2197 1208.86 9.2197031e-39
2010.05 4379.1699 1217.5699 9.2197031e-39
2020.79 4375.9199 1216.8101 9.2197031e-39
2083.8201 4373.21 1216.7 9.2197031e-39
1861.83 4386.3604 1218.05 9.2197031e-39
1872.34 4387.3203 1218.41 9.2197031e-39
1936.01 4383.8799 1218.11 9.2197031e-39
1946.59 4383.7002 1218.17 9.2197031e-39
-2856.1299 4550.7998 1216.04 9.2197031e-39
2093.52 4391.0098 1221.5601 9.2197031e-39
1259.83 4419.9102 1221.16 9.2197031e-39
1247.12 4425.9199 1222.65 9.2197031e-39
-1863.55 4549.3999 1225.35 9.2197031e-39
-2854.3401 4570.7002 1221.39 9.2197031e-39
-2382.1699 4606.9697 1235.71 9.2197031e-39
-2416.47 4617.02 1238.0699 9.2197031e-39
2152.8501 4517.6104 1256.04 9.2197031e-39
2162.6599 4556.5 1266.55 9.2197031e-39
3009.53 4547.1201 1272.3 9.2197031e-39
2221.3601 5162.1802 1429.3 9.2197031e-39
2232.8799 5276.25 1459.96 9.2197031e-39
3463.71 7269.7402 2005.77 9.2197031e-39
3335.9299 7275.6299 2006.1 9.2197031e-39
3354.21 7274.9199 2006.09 9.2197031e-39
3227.0901 7282.77 2006.95 9.2197031e-39
3210.49 7295.6201 2010.23 9.2197031e-39
2849.22 7329.9302 2015.89 9.2197031e-39
3104 7322.0298 2016.26 9.2197031e-39
2831.0901 7331.3301 2016.09 9.2197031e-39
3090 7359.5601 2026.1801 9.2197031e-39
2981.8101 7379.4502 2030.45 9.2197031e-39
2964.02 7385.98 2032.02 9.2197031e-39
2718.8999 7578.0801 2081.0701 9.2197031e-39
2737.6599 7576.9399 2080.95 9.2197031e-39
2587.73 7584.75 2081.5701 9.2197031e-39
2606.52 7583.9302 2081.54 9.2197031e-39
2344.04 7599.98 2083.27 9.2197031e-39
2456.72 7598.8799 2084.0801 9.2197031e-39
2475.54 7598.3701 2084.1299 9.2197031e-39
2325.23 7601.1299 2083.3999 9.2197031e-39
