# .PCD v0.7 - Point Cloud Data file format
VERSION 0.7
FIELDS x y z rgb
SIZE 4 4 4 4
TYPE F F F F
COUNT 1 1 1 1
WIDTH 334
HEIGHT 1
VIEWPOINT 0 0 0 1 0 0 0
POINTS 334
DATA ascii
-910.88202 -217.87299 134 9.2197031e-39
-361.379 -97.5 139.911 9.2197031e-39
2068.635 330.6795 138.57901 9.2197031e-39
2075.3232 334.13168 139.175 9.2197031e-39
3291.8501 531.40027 134 9.2197031e-39
3290.2 540.43823 136.46201 9.2197031e-39
3296.3101 550.9975 138.96001 9.2197031e-39
-372.85501 -77.002991 145.858 9.2197031e-39
2065.4351 337.60352 140.55551 9.2197031e-39
2076.9199 337.79401 140.06599 9.2197031e-39
2058.0066 342.4733 142.19 9.2197031e-39
2074.1001 345.06177 142.11549 9.2197031e-39
2084.8201 348.67151 142.56351 9.2197031e-39
2067.4849 355.63199 145.215 9.2197031e-39
2074.5559 354.93121 144.69778 9.2197031e-39
2057.9399 368.41901 149.03751 9.2197031e-39
2065.0698 363.16449 147.31573 9.2197031e-39
2077.21 368.14398 148.05901 9.2197031e-39
2092.6101 368.457 147.41701 9.2197031e-39
2064.03 370.7265 149.3595 9.2197031e-39
2079.71 370.11798 148.461 9.2197031e-39
2087.6799 373.10999 148.87601 9.2197031e-39
2099.8301 372.21802 148.069 9.2197031e-39
2346.0876 394.556 142.38049 9.2197031e-39
2352.5701 395.34052 142.2825 9.2197031e-39
2362.1299 395.771 141.946 9.2197031e-39
2347.05 400.19098 143.82201 9.2197031e-39
2351.1001 402.10449 144.1355 9.2197031e-39
2398.1101 408.00598 143.48199 9.2197031e-39
2419.3101 414.104 144.09399 9.2197031e-39
2436.8701 418.49899 144.427 9.2197031e-39
2363.71 423.655 149.228 9.2197031e-39
2465.8301 426.56299 145.192 9.2197031e-39
2411.3601 434.33701 149.804 9.2197031e-39
2494.01 433.823 145.782 9.2197031e-39
2585.8799 461.66199 148.80499 9.2197031e-39
2617.3701 468.366 149.093 9.2197031e-39
2646.1299 473.65302 149.13499 9.2197031e-39
2658.75 473.53302 148.509 9.2197031e-39
2694.4099 479.978 148.532 9.2197031e-39
2716.76 481.996 148.01401 9.2197031e-39
2738.2 483.38098 147.371 9.2197031e-39
2769.3601 486.992 146.858 9.2197031e-39
2800.6201 490.08801 146.20399 9.2197031e-39
2849.4299 497.01199 145.735 9.2197031e-39
2913.96 506.85602 145.297 9.2197031e-39
3044.9399 530.92468 145.487 9.2197031e-39
3291.54 559.46918 141.41901 9.2197031e-39
3292.5701 569.12628 143.918 9.2197031e-39
3283.74 576.64722 146.317 9.2197031e-39
-372.29099 -54.534973 151.758 9.2197031e-39
-391.31601 -34.947998 157.819 9.2197031e-39
2067.395 376.15698 150.63351 9.2197031e-39
2070.6899 378.737 151.159 9.2197031e-39
2436.3899 448.88098 152.464 9.2197031e-39
2456.74 461.58398 154.858 9.2197031e-39
2474.22 473.25299 157.114 9.2197031e-39
-385.40601 -11.718018 163.66901 9.2197031e-39
-397.13501 9.1279907 169.72 9.2197031e-39
2502.0701 490.84198 160.444 9.2197031e-39
2567.28 529.35547 167.537 9.2197031e-39
-437.479 26.754028 176.267 9.2197031e-39
2625.72 565.59113 174.347 9.2197031e-39
-624.79102 28.94397 185.65401 9.2197031e-39
2714.76 620.46448 184.634 9.2197031e-39
-544.62701 61.276001 190.412 9.2197031e-39
-910.10699 51.033997 204.899 9.2197031e-39
-907.28497 77.86499 211.84399 9.2197031e-39
-908.20697 104.33099 218.869 9.2197031e-39
3362.9299 1012.775 257.63901 9.2197031e-39
3366.3301 1027.975 261.48901 9.2197031e-39
3370.3999 1043.798 265.47198 9.2197031e-39
3372.5801 1058.687 269.297 9.2197031e-39
3372.05 1072.064 272.85001 9.2197031e-39
3384.74 1094.125 278.073 9.2197031e-39
3385.49 1108.792 281.90601 9.2197031e-39
3386.0701 1123.525 285.76501 9.2197031e-39
3392.21 1142.25 290.41599 9.2197031e-39
3389.1399 1154.887 293.89401 9.2197031e-39
3391.6001 1171.554 298.17499 9.2197031e-39
3392.23 1187.157 302.26099 9.2197031e-39
3402.28 1209.887 307.785 9.2197031e-39
3397.6899 1222.14 311.23199 9.2197031e-39
3404.8201 1243.4 316.505 9.2197031e-39
3410.0901 1263.627 321.59299 9.2197031e-39
3402.6201 1274.1741 324.72699 9.2197031e-39
3408.2 1295.22 330.01599 9.2197031e-39
3407.3501 1311.406 334.32599 9.2197031e-39
3413.1499 1333.3521 339.84201 9.2197031e-39
3417.8899 1354.824 345.28299 9.2197031e-39
3421.5901 1375.8 350.64301 9.2197031e-39
3420.53 1392.994 355.228 9.2197031e-39
3424.4199 1414.8569 360.81201 9.2197031e-39
3428.74 1437.526 366.58899 9.2197031e-39
3432.02 1459.673 372.27701 9.2197031e-39
3434.99 1481.954 378.01401 9.2197031e-39
3439.8 1506.4141 384.241 9.2197031e-39
3454.8999 1541.374 392.75299 9.2197031e-39
3470.1599 1577.364 401.52899 9.2197031e-39
3475.8101 1604.5811 408.44299 9.2197031e-39
3472.78 1623.5 413.57599 9.2197031e-39
3480.45 1653.86 421.224 9.2197031e-39
3475.47 1671.51 426.11499 9.2197031e-39
3475.6299 1694.97 432.29401 9.2197031e-39
3477.47 1720.71 438.99799 9.2197031e-39
3476.95 1744.37 445.26401 9.2197031e-39
3484.5801 1777.75 453.70999 9.2197031e-39
3484.6101 1803.15 460.409 9.2197031e-39
3483.6299 1827.91 466.98499 9.2197031e-39
3482.3101 1852.75 473.60101 9.2197031e-39
3486.8799 1885.29 481.97101 9.2197031e-39
-741.22198 1166.896 491.30899 9.2197031e-39
-748.612 1196.3611 499.42899 9.2197031e-39
3490.96 1918.02 490.41199 9.2197031e-39
3493.9299 1950.15 498.74899 9.2197031e-39
-743.323 1222.3369 506.03299 9.2197031e-39
3491.5901 1976.23 505.73901 9.2197031e-39
-744.435 1250.333 513.46997 9.2197031e-39
3494.25 2009.4301 514.37 9.2197031e-39
-744.32001 1278.1221 520.79498 9.2197031e-39
-729.78101 1301.371 526.24402 9.2197031e-39
3493.45 2038.85 522.16803 9.2197031e-39
-736.67999 1331.707 534.57098 9.2197031e-39
3497.47 2075.5 531.64801 9.2197031e-39
-729.19299 1357.387 540.99298 9.2197031e-39
-713.06 1380.0391 546.21002 9.2197031e-39
3501.5 2113.1401 541.38599 9.2197031e-39
-703.26599 1404.875 552.30103 9.2197031e-39
-696.961 1431.02 558.901 9.2197031e-39
3503.25 2148.5601 550.64801 9.2197031e-39
3498.8301 2176.0801 558.11499 9.2197031e-39
-696.88202 1459.63 566.44397 9.2197031e-39
3501.22 2214.1899 568.05603 9.2197031e-39
-694.66498 1487.6011 573.71802 9.2197031e-39
3504.6599 2254.9199 578.638 9.2197031e-39
-690.33002 1514.885 580.71198 9.2197031e-39
3506.3899 2294.2 588.91803 9.2197031e-39
-704.01501 1549.7581 590.55402 9.2197031e-39
3505.9099 2331.1699 598.69299 9.2197031e-39
3510.6299 2377.3799 610.66199 9.2197031e-39
3509.96 2416.3198 620.966 9.2197031e-39
3510.72 2458.74 632.12 9.2197031e-39
3514.3401 2507.21 644.73499 9.2197031e-39
3517.1799 2555.8901 657.44299 9.2197031e-39
3514.8501 2597.1201 668.42902 9.2197031e-39
3522.9199 2658.1099 684.13599 9.2197031e-39
3522.8999 2706.52 696.90802 9.2197031e-39
3522.5601 2755.96 709.96399 9.2197031e-39
3526.01 2814.2 725.16803 9.2197031e-39
3441.24 2865.5 742.68701 9.2197031e-39
3531.2 2877.8899 741.724 9.2197031e-39
3394.95 2883.47 749.60303 9.2197031e-39
3421.8899 2882.53 748.08899 9.2197031e-39
3531.8 2934.8601 756.72302 9.2197031e-39
3537.55 3004.28 774.76501 9.2197031e-39
3433.2 3028.3 786.00897 9.2197031e-39
3457.51 3148.03 816.44897 9.2197031e-39
3337.8601 3215.27 839.81403 9.2197031e-39
3366.8799 3214.1599 838.15601 9.2197031e-39
3396.7 3214.5801 836.86401 9.2197031e-39
3425.0901 3211.1201 834.61499 9.2197031e-39
3455.05 3210.97 833.16901 9.2197031e-39
3308.9099 3216.1101 841.39801 9.2197031e-39
3328.5 3432.4399 897.53998 9.2197031e-39
3362.97 3441.55 898.323 9.2197031e-39
1686.1899 3178.6899 907.83899 9.2197031e-39
1658.33 3185.1499 910.85602 9.2197031e-39
1730.17 3231.6599 919.74402 9.2197031e-39
3324.76 3510.3301 918.263 9.2197031e-39
1703.55 3229.97 920.55103 9.2197031e-39
347.40799 3027.0901 930.81299 9.2197031e-39
308.995 3030.71 933.57397 9.2197031e-39
369.16 3047.0901 935.065 9.2197031e-39
398.69601 3055.6399 935.92999 9.2197031e-39
425.039 3068.76 938.15198 9.2197031e-39
253.27699 3057.52 943.26501 9.2197031e-39
451.99899 3080.8301 940.06897 9.2197031e-39
480.073 3091.01 941.435 9.2197031e-39
200.95799 3078.1001 951.15399 9.2197031e-39
146.35699 3100.3301 959.586 9.2197031e-39
487.23401 3134.75 952.63702 9.2197031e-39
104.786 3104.0601 962.526 9.2197031e-39
1726.14 3424.8401 970.89301 9.2197031e-39
1737.0699 3541.9199 1001.26 9.2197031e-39
1753.3101 3636.1101 1025.35 9.2197031e-39
-437.64999 3291.1101 1037.38 9.2197031e-39
-399.68799 3301.3301 1038.29 9.2197031e-39
1541.65 3620.8501 1031.28 9.2197031e-39
-135.554 3362.1499 1041.91 9.2197031e-39
1503.88 3652.4399 1041.38 9.2197031e-39
-397.54001 3352.3401 1051.64 9.2197031e-39
-373.80301 3379.0901 1057.58 9.2197031e-39
-379.814 3441.51 1074.33 9.2197031e-39
1758.6899 3825.0901 1074.95 9.2197031e-39
3511.24 4153.5703 1079.17 9.2197031e-39
-380.56299 3499.01 1089.54 9.2197031e-39
3362.6101 4156.9902 1087.0601 9.2197031e-39
3400.02 4157.7998 1085.52 9.2197031e-39
3436.9299 4156.4199 1083.42 9.2197031e-39
3474.21 4155.6299 1081.46 9.2197031e-39
-370.67999 3544.6599 1101.11 9.2197031e-39
-368.03799 3600.29 1115.66 9.2197031e-39
1768.03 4009.47 1123.14 9.2197031e-39
3330.8501 4306.9102 1128.11 9.2197031e-39
3368.8899 4306.1797 1126.13 9.2197031e-39
3293.1299 4308.23 1130.23 9.2197031e-39
3182.5801 4319.6396 1138.4399 9.2197031e-39
3219.51 4316.4697 1135.87 9.2197031e-39
3257.6699 4317.6797 1134.39 9.2197031e-39
3030.1599 4305.3301 1141.83 9.2197031e-39
3071.8799 4327.21 1145.64 9.2197031e-39
3108.77 4325.0098 1143.33 9.2197031e-39
3146.77 4327.21 1142.12 9.2197031e-39
3000.97 4344.9502 1153.65 9.2197031e-39
1775.86 4236.21 1182.59 9.2197031e-39
-3038.1201 3425.26 1195.0601 9.2197031e-39
2054.3401 4351.6299 1199.9399 9.2197031e-39
-3017.1599 3474.4199 1207.05 9.2197031e-39
2016.52 4382.4902 1209.85 9.2197031e-39
593.83698 4161.6899 1218.52 9.2197031e-39
1799.2 4353.5898 1212.45 9.2197031e-39
1832.6 4387.2197 1219.75 9.2197031e-39
1942.9 4388.21 1214.83 9.2197031e-39
1869.14 4390.75 1218.97 9.2197031e-39
1905.5601 4395.8999 1218.61 9.2197031e-39
1979.3199 4392.7402 1214.3101 9.2197031e-39
2088.8601 4405.4502 1212.51 9.2197031e-39
-3010.8401 3532.72 1222.13 9.2197031e-39
425.14801 4169.5 1228.51 9.2197031e-39
469.19 4164.6602 1225.16 9.2197031e-39
511.42001 4162.9102 1222.71 9.2197031e-39
553.47498 4160.73 1220.16 9.2197031e-39
629.26501 4173.8896 1220.0699 9.2197031e-39
-3005.54 3592.1899 1237.5699 9.2197031e-39
213.299 4164.48 1237.15 9.2197031e-39
256.466 4165.2998 1235.34 9.2197031e-39
299.48499 4165.6899 1233.42 9.2197031e-39
343.63199 4163.0303 1230.64 9.2197031e-39
382.55099 4170.3896 1230.75 9.2197031e-39
2123.0901 4513.1299 1239.3 9.2197031e-39
1157.67 4365.6797 1245.8101 9.2197031e-39
1195.77 4368.3604 1244.73 9.2197031e-39
1117.23 4371.0601 1249.13 9.2197031e-39
-3006.22 3656.05 1254.4399 9.2197031e-39
1078.4399 4369.54 1250.5601 9.2197031e-39
956.53003 4379.5098 1258.92 9.2197031e-39
996.487 4379.3398 1257 9.2197031e-39
1037.97 4373.25 1253.4399 9.2197031e-39
1219.63 4428.8799 1259.5699 9.2197031e-39
1259.28 4426.3101 1257.03 9.2197031e-39
1297.53 4429.0303 1255.95 9.2197031e-39
2159.8999 4574.1499 1253.67 9.2197031e-39
-2999.53 3715.9099 1269.92 9.2197031e-39
876.00201 4379.6602 1262.75 9.2197031e-39
751.62701 4384.79 1269.95 9.2197031e-39
793.76703 4381.9502 1267.22 9.2197031e-39
832.91602 4386.9399 1266.6899 9.2197031e-39
915.28302 4382.9902 1261.78 9.2197031e-39
624.57001 4389.9502 1277.29 9.2197031e-39
667.539 4387.4399 1274.6 9.2197031e-39
709.65698 4386.3101 1272.3199 9.2197031e-39
581.78998 4391.1602 1279.62 9.2197031e-39
-2998.73 3780.24 1286.85 9.2197031e-39
-4621.2202 3522.6599 1295.21 9.2197031e-39
-5161 3469.0701 1306.46 9.2197031e-39
-2997.1599 3844.8401 1303.8199 9.2197031e-39
-4833.96 3547.9199 1311.88 9.2197031e-39
-4612.0801 3590.4199 1312.65 9.2197031e-39
-2881.3101 3897.75 1312.33 9.2197031e-39
-2987.52 3904.6799 1319.15 9.2197031e-39
-111.246 4420.3301 1319.9 9.2197031e-39
-64.664597 4423.3604 1318.51 9.2197031e-39
-15.4234 4420.8203 1315.53 9.2197031e-39
29.9252 4424.5898 1314.39 9.2197031e-39
-5023.2998 3558.98 1323.7 9.2197031e-39
-264.32999 4429.0898 1329.42 9.2197031e-39
-212.23 4425.3301 1325.97 9.2197031e-39
-160.88699 4421.8501 1322.64 9.2197031e-39
-5207.96 3564.71 1333.89 9.2197031e-39
-4607.5601 3660.8701 1331.02 9.2197031e-39
-2884.54 3966.6699 1330.66 9.2197031e-39
2196.53 4892.0601 1335.8101 9.2197031e-39
-4602.29 3731.51 1349.41 9.2197031e-39
-2888.5 4037.0801 1349.42 9.2197031e-39
-4593.6201 3800.99 1367.33 9.2197031e-39
-2884.46 4102.6104 1366.52 9.2197031e-39
-4592.1099 3874.6799 1386.7 9.2197031e-39
-2895.3301 4180.1499 1387.48 9.2197031e-39
-4590.6499 3949.0801 1406.26 9.2197031e-39
-2889.5901 4246.25 1404.65 9.2197031e-39
-4579.7002 4019.05 1424.2 9.2197031e-39
-2896.21 4322.7998 1425.15 9.2197031e-39
-1639.98 4551.1104 1426.3 9.2197031e-39
-1715.47 4557.8701 1431.63 9.2197031e-39
-1790.71 4562.9502 1436.51 9.2197031e-39
-4575.77 4093.4199 1443.63 9.2197031e-39
-2882.6201 4384.5498 1440.8 9.2197031e-39
-1928.02 4555.6396 1441.04 9.2197031e-39
-1866.36 4567.0898 1441.16 9.2197031e-39
-2018.14 4571.77 1449.53 9.2197031e-39
-2101.2 4579.1699 1455.39 9.2197031e-39
-2179.8101 4580.73 1459.5 9.2197031e-39
-4571.02 4168.0098 1463.08 9.2197031e-39
-2889.6599 4463.6201 1461.99 9.2197031e-39
-2272.27 4594.0601 1467.36 9.2197031e-39
-2350.29 4592.1499 1470.53 9.2197031e-39
-2442.3501 4601.79 1477.4 9.2197031e-39
-4562.8701 4241.3501 1482.05 9.2197031e-39
-2885.8201 4535.0498 1480.65 9.2197031e-39
-2623.6599 4613.46 1489.01 9.2197031e-39
-2535.6699 4610.8398 1484.1801 9.2197031e-39
-2874.3201 4601.0801 1497.53 9.2197031e-39
-2712.8101 4615.5498 1493.75 9.2197031e-39
-2809.0901 4622.1699 1500.02 9.2197031e-39
3446.8999 7287.54 1908.91 9.2197031e-39
3382.1001 7283.5298 1910.9 9.2197031e-39
3321.7 7305.77 1919.61 9.2197031e-39
3256.97 7300.6802 1921.3101 9.2197031e-39
3194.95 7313.25 1927.54 9.2197031e-39
3132.78 7325.3101 1933.64 9.2197031e-39
2880.75 7349.0098 1951.75 9.2197031e-39
2817.9299 7357.46 1956.9301 9.2197031e-39
2945.9399 7364.1099 1952.67 9.2197031e-39
3013.71 7398.8599 1958.65 9.2197031e-39
3077.71 7396.46 1955 9.2197031e-39
2641.6399 7599.8901 2029.17 9.2197031e-39
2772.3101 7592.1899 2021 9.2197031e-39
2707.6101 7605.4902 2027.55 9.2197031e-39
2511.1499 7614.0801 2039.05 9.2197031e-39
2576.6899 7612.0898 2035.45 9.2197031e-39
2380.2 7625.0898 2048.1201 9.2197031e-39
2445.8601 7624.21 2044.8 9.2197031e-39
2314.55 7626.3799 2051.54 9.2197031e-39
2248.8899 7633.8901 2056.6101 9.2197031e-39
