# .PCD v0.7 - Point Cloud Data file format
VERSION 0.7
FIELDS x y z rgb
SIZE 4 4 4 4
TYPE F F F F
COUNT 1 1 1 1
WIDTH 325
HEIGHT 1
VIEWPOINT 0 0 0 1 0 0 0
POINTS 325
DATA ascii
-1423.91 -752.31006 134.424 9.2197031e-39
1828.05 856.60101 139.274 9.2197031e-39
1856.4 869.45502 139.034 9.2197031e-39
1856.7649 871.58801 139.5045 9.2197031e-39
1864.33 870.95801 138.463 9.2197031e-39
2114.5552 985.39746 136.58249 9.2197031e-39
2133.1399 997.50665 137.31201 9.2197031e-39
3314.8501 1560.406 133.83701 9.2197031e-39
3323.4299 1579.175 137.347 9.2197031e-39
-970.48199 -469.56995 149.162 9.2197031e-39
1847.175 876.01251 141.69699 9.2197031e-39
1853.0449 876.38928 141.09799 9.2197031e-39
1861.6 876.284 140.06599 9.2197031e-39
1859.79 883.24097 141.955 9.2197031e-39
1876.01 888.41199 141.291 9.2197031e-39
1837.1 898.75299 148.35699 9.2197031e-39
1848.12 898.68604 147.04601 9.2197031e-39
1855.23 897.77649 145.98999 9.2197031e-39
1865.385 896.87952 144.57901 9.2197031e-39
1875.85 894.48505 142.77232 9.2197031e-39
1884.818 894.26721 141.66519 9.2197031e-39
1836.98 900.05103 148.68401 9.2197031e-39
1843.155 904.71252 149.08 9.2197031e-39
1853.9551 907.45599 148.47101 9.2197031e-39
1851.37 910.42499 149.49001 9.2197031e-39
1863.26 914.98096 149.1875 9.2197031e-39
2092.9817 995.98901 141.67017 9.2197031e-39
2100.8701 995.80634 140.69833 9.2197031e-39
2097.105 1004.173 143.1555 9.2197031e-39
2093.72 1016.823 146.599 9.2197031e-39
2102.5801 1012.9515 144.6255 9.2197031e-39
2106.9834 1026.6683 147.40965 9.2197031e-39
2111.6931 1025.7531 146.63499 9.2197031e-39
2249.72 1102.0229 148.763 9.2197031e-39
2452.6899 1205.4619 149.79201 9.2197031e-39
2474.79 1213.5591 149.142 9.2197031e-39
3316.29 1588.869 140.521 9.2197031e-39
3319.1499 1605.114 144.095 9.2197031e-39
3330.3601 1624.5801 147.463 9.2197031e-39
-982.37598 -446.14001 156.202 9.2197031e-39
1846.37 912.08051 150.47549 9.2197031e-39
2298.4299 1133.594 150.633 9.2197031e-39
2330.3899 1152.509 151.429 9.2197031e-39
2353.02 1163.797 151.48399 9.2197031e-39
2393.8401 1187.3889 152.36301 9.2197031e-39
2414.53 1196.103 152.02699 9.2197031e-39
2434.3301 1204.286 151.668 9.2197031e-39
2444.45 1205.298 150.722 9.2197031e-39
3324.8999 1636.8 151.047 9.2197031e-39
3324.3101 1650.3 154.367 9.2197031e-39
-967.78802 -407.87 163.69901 9.2197031e-39
-963.59198 -377.62097 170.48801 9.2197031e-39
-977.60303 -352.52002 178.179 9.2197031e-39
-965.448 -319.34802 184.73599 9.2197031e-39
-964.11499 -288.13898 192.093 9.2197031e-39
-958.69897 -258.396 198.616 9.2197031e-39
-956.71802 -227.44 205.836 9.2197031e-39
-957.23798 -200.474 212.39 9.2197031e-39
-945.25897 -166.26898 219.215 9.2197031e-39
3466.5701 2457.97 332.08301 9.2197031e-39
3470.1599 2489.5801 339.272 9.2197031e-39
3470.6001 2515.77 345.52499 9.2197031e-39
3478.6599 2553.6001 353.68399 9.2197031e-39
917.48602 1364.254 368.595 9.2197031e-39
3478.3101 2580.0601 360.09698 9.2197031e-39
3481.3999 2613.8198 367.85999 9.2197031e-39
861.659 1376.3049 378.06201 9.2197031e-39
903.93903 1381.6909 374.38599 9.2197031e-39
911.75598 1389.103 375.25101 9.2197031e-39
918.276 1398.1379 376.659 9.2197031e-39
916.396 1409.8401 379.698 9.2197031e-39
941.72302 1410.113 376.784 9.2197031e-39
3300.98 2571.23 378.827 9.2197031e-39
3478.97 2639 374.20801 9.2197031e-39
924.97498 1428.897 383.27701 9.2197031e-39
935.34998 1436.043 383.77701 9.2197031e-39
3242.45 2553.75 381.504 9.2197031e-39
3203.6899 2560.3999 387.66501 9.2197031e-39
3227.03 2561.0601 385.07599 9.2197031e-39
3275.6499 2566.48 380.66199 9.2197031e-39
3395.0701 2658.28 388.71799 9.2197031e-39
3488.2 2681.3999 383.32901 9.2197031e-39
3483.0701 2704.51 389.49899 9.2197031e-39
3204.51 2589.8901 394.66699 9.2197031e-39
3184.52 2593.75 397.94601 9.2197031e-39
3488.6499 2744.26 398.41 9.2197031e-39
3102.8201 2597.76 408.522 9.2197031e-39
3146.6299 2600.7 404.077 9.2197031e-39
3180.74 2617.6001 404.13501 9.2197031e-39
3140.3101 2621.1201 409.737 9.2197031e-39
3101.6899 2626.27 415.51901 9.2197031e-39
3091.97 2676.8501 428.84 9.2197031e-39
3134.6899 2712.6299 432.42999 9.2197031e-39
-783.84198 901.745 457.35699 9.2197031e-39
3158.6899 2822.21 455.98801 9.2197031e-39
-795.09198 926.71899 464.69299 9.2197031e-39
-800.23999 949.47803 470.77701 9.2197031e-39
-799.12201 974.56897 476.68701 9.2197031e-39
-783.02802 996.87701 480.164 9.2197031e-39
-781.47101 1021.824 485.987 9.2197031e-39
-780.85101 1044.468 491.366 9.2197031e-39
-785.78003 1069.785 498.04099 9.2197031e-39
-771.88898 1091.681 501.67801 9.2197031e-39
-772.414 1116.761 507.77802 9.2197031e-39
3293.1699 3082.46 502.82599 9.2197031e-39
-774.93799 1139.7 513.59802 9.2197031e-39
-772.04797 1164.604 519.25403 9.2197031e-39
-773.17102 1187.5391 524.90698 9.2197031e-39
-780.66199 1213.5911 532.06097 9.2197031e-39
-767.59198 1235.0911 535.69897 9.2197031e-39
-754.974 1258.8521 539.93597 9.2197031e-39
-745.47601 1280.5029 544.03101 9.2197031e-39
-718.75598 1301.9829 546.06 9.2197031e-39
3402.77 3314.46 545.78998 9.2197031e-39
-738.25098 1327.645 554.53101 9.2197031e-39
3328.27 3325.79 557.28003 9.2197031e-39
3351.74 3321.47 553.479 9.2197031e-39
3380.74 3321.8301 550.15399 9.2197031e-39
-753.13397 1355.3679 562.95599 9.2197031e-39
-759.42102 1379.598 569.52899 9.2197031e-39
3274.1799 3325.2 563.5 9.2197031e-39
3300.8401 3327.46 560.90698 9.2197031e-39
-757.20801 1404.929 575.367 9.2197031e-39
-751.38397 1427.224 580.04999 9.2197031e-39
-742.90302 1451.411 584.875 9.2197031e-39
-741.52802 1474.5659 590.28802 9.2197031e-39
-735.51398 1499.24 595.521 9.2197031e-39
-728.90399 1521.344 600.065 9.2197031e-39
-725.33801 1546.5811 605.72198 9.2197031e-39
-788.31097 1585.374 622.46802 9.2197031e-39
3542.48 3896.0901 669.38599 9.2197031e-39
3503.03 3947.1299 686.315 9.2197031e-39
3546.6001 3965.0701 685.508 9.2197031e-39
3363.28 3922.96 696.93201 9.2197031e-39
3402.6499 3936.3701 695.52899 9.2197031e-39
3432.96 3936.22 691.92798 9.2197031e-39
3475.8999 3955.03 691.40601 9.2197031e-39
3332.45 3920.6599 700.005 9.2197031e-39
3310.51 3945.3101 708.521 9.2197031e-39
3329.3 4059.47 733.79498 9.2197031e-39
1622.15 3289.3799 749.19 9.2197031e-39
1645.59 3285.5701 745.51599 9.2197031e-39
1664.83 3295.6101 745.66998 9.2197031e-39
3320.8501 4120.54 749.492 9.2197031e-39
3249.3999 4103.6001 753.81598 9.2197031e-39
3287.3201 4114.0303 751.86798 9.2197031e-39
1676.78 3378.8601 764.30603 9.2197031e-39
1698.4399 3376.1599 761.10999 9.2197031e-39
3267.71 4230.5098 782.21698 9.2197031e-39
1699.4 3576.8899 809.32202 9.2197031e-39
3274.2 4429.3799 829.33197 9.2197031e-39
3310.1699 4437.1899 826.98102 9.2197031e-39
1712.55 3671.46 830.54401 9.2197031e-39
3208.78 4439.7002 839.51099 9.2197031e-39
3241.6101 4439.7998 835.67499 9.2197031e-39
3140.6001 4440.4399 847.70898 9.2197031e-39
3172.97 4440.21 843.84802 9.2197031e-39
436.42001 3160.5601 857.64398 9.2197031e-39
459.49799 3172.6299 857.83502 9.2197031e-39
1534.98 3686.96 855.16101 9.2197031e-39
2995.6499 4405.1699 856.26801 9.2197031e-39
3072.4099 4438.9902 855.38098 9.2197031e-39
3104.9299 4440.2998 851.87 9.2197031e-39
281.866 3118.52 865.703 9.2197031e-39
313.535 3120.53 862.461 9.2197031e-39
329.75101 3138.51 864.88098 9.2197031e-39
358.47299 3143.8 862.77698 9.2197031e-39
381.74399 3152.0601 862.02802 9.2197031e-39
407.03799 3161.49 861.32397 9.2197031e-39
471.49399 3196.8 862.24402 9.2197031e-39
1500.37 3730.6299 869.74701 9.2197031e-39
1724.71 3820.4099 864.97601 9.2197031e-39
2966.8799 4426.3301 864.74597 9.2197031e-39
3039.6799 4447.6001 861.30298 9.2197031e-39
233.414 3141.1499 876.84802 9.2197031e-39
469.948 3246.52 874.39502 9.2197031e-39
1473.95 3739.1899 874.914 9.2197031e-39
1445.22 3745.0701 879.711 9.2197031e-39
2949.46 4478.7402 879.41302 9.2197031e-39
138.08 3133.5601 886.23499 9.2197031e-39
167.354 3140.98 884.578 9.2197031e-39
193.98599 3147.25 882.95502 9.2197031e-39
74.439003 3127.4099 892.23999 9.2197031e-39
93.165497 3148.0601 895.008 9.2197031e-39
1735.45 3986.55 903.711 9.2197031e-39
-119.877 3309.1299 958.84497 9.2197031e-39
1356.65 4055.6599 964.90302 9.2197031e-39
1745.96 4230.4697 961.19897 9.2197031e-39
2012.3199 4453.7598 983.62598 9.2197031e-39
2045.59 4467.98 983.13599 9.2197031e-39
3033.1399 4939.8198 980.57501 9.2197031e-39
1982.16 4495.73 997.27802 9.2197031e-39
1761.4 4421.9902 1005.49 9.2197031e-39
1884.86 4491.46 1007.69 9.2197031e-39
1948.67 4494.5498 1000.93 9.2197031e-39
1918.14 4501.96 1006.31 9.2197031e-39
2077.78 4563.5801 1002.37 9.2197031e-39
-430.323 3378.8501 1012.14 9.2197031e-39
1791 4481.0498 1016.23 9.2197031e-39
1854.1899 4498.3501 1012.96 9.2197031e-39
1820.22 4504.75 1018.5 9.2197031e-39
2113.5601 4617.1104 1011.05 9.2197031e-39
-427.70599 3418.53 1021.39 9.2197031e-39
-436.98801 3475.8899 1036.29 9.2197031e-39
-394.80701 3474.9399 1031.1 9.2197031e-39
-406.19901 3536.1599 1047.1801 9.2197031e-39
3069.6599 5230.4702 1046.26 9.2197031e-39
-580.99103 3482.8501 1054.91 9.2197031e-39
-408.66599 3584.24 1059.05 9.2197031e-39
1167.71 4479.4102 1089.15 9.2197031e-39
565.81403 4217.6602 1096.92 9.2197031e-39
601.62402 4220.5098 1093.4 9.2197031e-39
1100.84 4475.1797 1095.99 9.2197031e-39
1134.16 4484.8999 1094.41 9.2197031e-39
1223.66 4532.6001 1095.37 9.2197031e-39
531.28497 4219.29 1101.38 9.2197031e-39
491.27701 4224.52 1107.34 9.2197031e-39
617.10303 4263.7402 1101.99 9.2197031e-39
997.755 4481.48 1109.63 9.2197031e-39
1030.51 4481.8799 1105.88 9.2197031e-39
1066.1 4483.8101 1102.16 9.2197031e-39
1190.54 4535.7598 1100.03 9.2197031e-39
419.32101 4222.8501 1115.4 9.2197031e-39
454.38101 4229.8101 1112.96 9.2197031e-39
925.80798 4489 1119.91 9.2197031e-39
961.49902 4480.75 1113.72 9.2197031e-39
340.42401 4232.6797 1127.05 9.2197031e-39
379.129 4233.4697 1122.6899 9.2197031e-39
890.16101 4484.8101 1123.09 9.2197031e-39
853.81201 4493.2998 1129.41 9.2197031e-39
2164.52 5108.98 1123.47 9.2197031e-39
263.75699 4234.7998 1136.58 9.2197031e-39
303.64899 4234.6899 1131.86 9.2197031e-39
817.69 4489.3398 1132.71 9.2197031e-39
781.27002 4496.21 1138.64 9.2197031e-39
226.201 4236.8896 1141.5 9.2197031e-39
711.48199 4488.6201 1145.03 9.2197031e-39
745.29303 4490.6396 1141.53 9.2197031e-39
176.724 4253.1104 1151.22 9.2197031e-39
599.10999 4489.04 1158.34 9.2197031e-39
636.37402 4493.29 1154.98 9.2197031e-39
671.41602 4493.2598 1150.86 9.2197031e-39
563.159 4490.2002 1162.85 9.2197031e-39
-6.5655599 4515.1001 1235.86 9.2197031e-39
-93.704002 4517.0098 1246.5699 9.2197031e-39
-50.6852 4513.71 1240.71 9.2197031e-39
-185.10001 4522.8101 1258.71 9.2197031e-39
-141.63 4520.4697 1253.04 9.2197031e-39
-234.026 4526.02 1265.24 9.2197031e-39
-280.51001 4531.4697 1272.02 9.2197031e-39
-339.905 4549 1283.23 9.2197031e-39
-3034.99 3485.6699 1344.23 9.2197031e-39
-3031.8401 3537.4399 1356.3199 9.2197031e-39
-3022.24 3591.8101 1368.28 9.2197031e-39
-3021.4299 3645.71 1381.16 9.2197031e-39
-3019.1899 3705.04 1395.1801 9.2197031e-39
-3010.3899 3755.48 1406.29 9.2197031e-39
-3005.1799 3814.1799 1419.8101 9.2197031e-39
-5264.7202 2728.8 1424.27 9.2197031e-39
-5239.8398 2786.1799 1435.16 9.2197031e-39
-3002 3868.78 1432.58 9.2197031e-39
-3004.6699 3933.3701 1448.4399 9.2197031e-39
-5244.02 2857.8401 1452.9 9.2197031e-39
-2976.96 3974.0801 1454.99 9.2197031e-39
-2916.3401 4000.1499 1454.13 9.2197031e-39
-5232.3101 2918.8899 1466.22 9.2197031e-39
-2919.3101 4060.0901 1468.91 9.2197031e-39
-5246.48 2994.1599 1486.01 9.2197031e-39
-2918.6699 4124.5303 1484.35 9.2197031e-39
-1816.91 4648.3896 1480.88 9.2197031e-39
-5231.7002 3054.8201 1498.88 9.2197031e-39
-2912.9099 4180.1899 1497.08 9.2197031e-39
-1962.99 4654.75 1499.6 9.2197031e-39
-1891.79 4650.71 1490.25 9.2197031e-39
-2040.0699 4656.3799 1509.05 9.2197031e-39
3541.8501 7383.8101 1509.14 9.2197031e-39
-5240.6299 3129.5701 1517.9301 9.2197031e-39
-2922.0701 4252.77 1515.63 9.2197031e-39
-2113.45 4659.8301 1518.52 9.2197031e-39
3487.3201 7394.6699 1518.17 9.2197031e-39
-5219.98 3188.8101 1529.76 9.2197031e-39
3424.9199 7396.5698 1525.97 9.2197031e-39
-2921.3501 4313.3101 1530.12 9.2197031e-39
-2199.27 4666.4902 1530.21 9.2197031e-39
3370.25 7406.48 1534.78 9.2197031e-39
-5220.9302 3261.8899 1547.46 9.2197031e-39
-2924.75 4383.8999 1547.51 9.2197031e-39
-2280.01 4673.6899 1541.4399 9.2197031e-39
3308.47 7410.1802 1542.9399 9.2197031e-39
-5201.0298 3321.6101 1559.5 9.2197031e-39
-2364.5901 4676.0703 1551.97 9.2197031e-39
3253.6699 7419.1401 1551.54 9.2197031e-39
-2924.1299 4446.1104 1562.42 9.2197031e-39
-2451.3999 4685.4697 1564.4399 9.2197031e-39
3194.3301 7435.23 1562.39 9.2197031e-39
-5190.3599 3391.46 1575.0601 9.2197031e-39
-2914.8101 4509.3604 1576.55 9.2197031e-39
-2535.3999 4684.21 1574.02 9.2197031e-39
3138.8 7440.3701 1570.16 9.2197031e-39
-5162.8799 3448.7 1585.61 9.2197031e-39
-2622.3999 4690.6499 1585.8 9.2197031e-39
3083.8999 7484.3599 1587.21 9.2197031e-39
-5138.9502 3514.1001 1598.54 9.2197031e-39
-4880.6499 3623.1799 1594.42 9.2197031e-39
-2911.9399 4571.4502 1591.16 9.2197031e-39
-2721.6101 4698.5703 1599.38 9.2197031e-39
3028.8899 7494.3599 1596.09 9.2197031e-39
-2907.3101 4639.75 1607.0601 9.2197031e-39
-2804.99 4698.9297 1609.27 9.2197031e-39
2906.02 7465.3101 1603.55 9.2197031e-39
2966.1399 7492.0298 1602.91 9.2197031e-39
-5053.3301 3623.55 1614.8199 9.2197031e-39
-2894.47 4695.77 1619.03 9.2197031e-39
2844.5701 7468.6401 1611.58 9.2197031e-39
-5187.7202 3599.7 1624.89 9.2197031e-39
2790 7480.5898 1620.87 9.2197031e-39
2753.26 7705.8198 1679.42 9.2197031e-39
2696.6399 7717.9502 1689 9.2197031e-39
-4583.96 4199.8301 1698.35 9.2197031e-39
2632.4299 7714.46 1695.71 9.2197031e-39
2575.5901 7725.6201 1705.08 9.2197031e-39
2512 7728.8101 1713.33 9.2197031e-39
2390.6899 7733.3198 1728.6801 9.2197031e-39
2454.3501 7731.21 1720.6899 9.2197031e-39
2333.3601 7742.5098 1737.64 9.2197031e-39
