# .PCD v0.7 - Point Cloud Data file format
VERSION 0.7
FIELDS x y z rgb
SIZE 4 4 4 4
TYPE F F F F
COUNT 1 1 1 1
WIDTH 320
HEIGHT 1
VIEWPOINT 0 0 0 1 0 0 0
POINTS 320
DATA ascii
-935.034 1262.0701 134 9.2197031e-39
-938.737 1283.056 139.38499 9.2197031e-39
999.98901 2377.4102 139.371 9.2197031e-39
1007.87 2379.25 138.763 9.2197031e-39
1006.17 2382.6799 139.78633 9.2197031e-39
1016.62 2381.6099 138.16 9.2197031e-39
1255.51 2507.3701 136.03799 9.2197031e-39
1262.4719 2516.3381 137.21359 9.2197031e-39
1266.45 2524.8433 138.67366 9.2197031e-39
1272.9399 2531.21 139.304 9.2197031e-39
3467.8799 3747.52 134 9.2197031e-39
-940.46698 1304.979 144.728 9.2197031e-39
995.43799 2387.21 142.256 9.2197031e-39
1003.7925 2386.6001 141.0135 9.2197031e-39
1005.49 2391.8599 142.01801 9.2197031e-39
1019.42 2397.53 141.507 9.2197031e-39
1022.93 2399.78 141.569 9.2197031e-39
1004.44 2408.9751 146.14951 9.2197031e-39
1016.48 2409.6299 144.717 9.2197031e-39
1025.89 2408.4099 143.19267 9.2197031e-39
1033.426 2406.0801 141.65581 9.2197031e-39
988.18164 2411.9866 148.99367 9.2197031e-39
995.17651 2413.74 148.48151 9.2197031e-39
1004.67 2414.095 147.314 9.2197031e-39
1026.4301 2410.6802 143.651 9.2197031e-39
1005.7975 2421.5776 148.9115 9.2197031e-39
1049.0699 2429.3701 145.03101 9.2197031e-39
1238.92 2516.03 140.244 9.2197031e-39
1240.5 2518.76 140.673 9.2197031e-39
1239.3433 2522.4568 141.68733 9.2197031e-39
1242.5701 2523.8252 141.5815 9.2197031e-39
1250.26 2522.76 140.32001 9.2197031e-39
1243.1466 2533.26 143.70799 9.2197031e-39
1265.745 2533.0498 140.6825 9.2197031e-39
1272.48 2535.05 140.261 9.2197031e-39
1238.6801 2543.9102 146.78 9.2197031e-39
1246.8167 2543.8867 145.70433 9.2197031e-39
1254.8875 2555.9448 147.45551 9.2197031e-39
3466.28 3772.52 140.04401 9.2197031e-39
3469.5901 3800.6201 146.16499 9.2197031e-39
-947.263 1324.0391 150.071 9.2197031e-39
-948.55499 1345.9099 155.34399 9.2197031e-39
986.67902 2424.2349 152.05 9.2197031e-39
3472.5701 3828.8601 152.36099 9.2197031e-39
3476.9399 3858.28 158.64999 9.2197031e-39
-941.60101 1371.8201 160.474 9.2197031e-39
-944.19098 1392.625 165.67 9.2197031e-39
3190.6599 3731.46 166.767 9.2197031e-39
3250.8101 3744.8301 161.964 9.2197031e-39
-954.65198 1409.449 170.974 9.2197031e-39
-955.04797 1431.131 176.08501 9.2197031e-39
-955.21899 1452.752 181.15199 9.2197031e-39
-949.71301 1476.8091 186.041 9.2197031e-39
-1019.67 1466.786 192.916 9.2197031e-39
-1052.37 1474.327 198.98399 9.2197031e-39
1605.72 3399.1499 297.996 9.2197031e-39
1596.02 3400.1201 299.49799 9.2197031e-39
1618.46 3404.3201 297.52301 9.2197031e-39
1569.76 3408.77 304.97699 9.2197031e-39
1577.0601 3402.6599 302.58801 9.2197031e-39
1587.15 3402.78 301.28799 9.2197031e-39
1568.55 3429.3701 309.94199 9.2197031e-39
1565.12 3445.45 314.14499 9.2197031e-39
1568.46 3478.9099 321.513 9.2197031e-39
1566.9 3501.47 326.98401 9.2197031e-39
1569.92 3536.96 334.867 9.2197031e-39
1569.22 3564.25 341.32599 9.2197031e-39
1572.47 3603.6299 350.08801 9.2197031e-39
1570.76 3631.0701 356.71399 9.2197031e-39
1579.52 3690.1899 369.35599 9.2197031e-39
1583.2 3737.3799 379.884 9.2197031e-39
1588.5 3792.1899 391.97501 9.2197031e-39
2925.1699 4540.6499 390.55301 9.2197031e-39
2929.77 4582.8398 399.79099 9.2197031e-39
462.36899 3230.1001 409.151 9.2197031e-39
1588.72 3834.03 401.70901 9.2197031e-39
2911.73 4598.2598 405.76599 9.2197031e-39
427.245 3226.6101 412.96301 9.2197031e-39
421.56299 3247.3701 418.55499 9.2197031e-39
432.172 3250.1399 417.80399 9.2197031e-39
457.10599 3250.8999 414.69699 9.2197031e-39
468.254 3252.54 413.61099 9.2197031e-39
1594.86 3897.5801 415.728 9.2197031e-39
2927.1699 4655.4399 417.073 9.2197031e-39
461.01199 3276.5 420.15701 9.2197031e-39
458.384 3295.3899 424.91 9.2197031e-39
482.37601 3296.8101 422.08099 9.2197031e-39
464.41901 3303.76 426.069 9.2197031e-39
485.53601 3308.8601 424.47699 9.2197031e-39
490.591 3318.6001 426.08401 9.2197031e-39
498.61801 3324.4199 426.38501 9.2197031e-39
509.51001 3326.26 425.37799 9.2197031e-39
513.151 3338.24 427.69501 9.2197031e-39
1417.53 3824.28 421.983 9.2197031e-39
1463.78 3861.01 424.45999 9.2197031e-39
1479.4399 3871.99 424.95999 9.2197031e-39
1506.86 3875.3899 422.14001 9.2197031e-39
1519.78 3873.5701 420.01501 9.2197031e-39
1495.08 3881.8601 425.203 9.2197031e-39
1598.5 3956.5801 429.01599 9.2197031e-39
515.30701 3352.6201 430.767 9.2197031e-39
514.96198 3371.04 435.11099 9.2197031e-39
1398.6 3859.8101 432.767 9.2197031e-39
1413.14 3868.5701 432.89401 9.2197031e-39
1440.75 3876.05 431.004 9.2197031e-39
1554.88 3954.1599 434.19699 9.2197031e-39
509.55301 3397.6001 442.01901 9.2197031e-39
1392.49 3900.1699 442.98801 9.2197031e-39
1467.15 3938.1001 442.004 9.2197031e-39
1605.2 4029.8999 445.23999 9.2197031e-39
228.70399 3278.3601 451.189 9.2197031e-39
202.289 3287.0801 456.70499 9.2197031e-39
240.754 3297.75 454.12701 9.2197031e-39
219.442 3302.27 457.98999 9.2197031e-39
265.39001 3320.75 456.25 9.2197031e-39
482.43301 3458.3301 459.76199 9.2197031e-39
566.87299 3465.3401 450.27701 9.2197031e-39
561.69702 3496.75 458.28799 9.2197031e-39
575.88202 3493.51 455.66299 9.2197031e-39
1051.83 3739.1899 450.297 9.2197031e-39
1026.63 3758.9299 458.224 9.2197031e-39
1061.62 3768.4299 455.82999 9.2197031e-39
1037.45 3771.8799 459.81799 9.2197031e-39
1386.76 3947.27 454.733 9.2197031e-39
3110.54 4927.0498 456.297 9.2197031e-39
23.807301 3217.76 464.04001 9.2197031e-39
33.4562 3225.8799 464.66299 9.2197031e-39
40.006901 3236.1799 466.202 9.2197031e-39
53.696602 3241.24 465.582 9.2197031e-39
64.275101 3248.47 465.87399 9.2197031e-39
76.436996 3254.3999 465.65601 9.2197031e-39
88.615196 3260.1899 465.40201 9.2197031e-39
97.764297 3268.24 466.077 9.2197031e-39
118.302 3267.0701 463.09799 9.2197031e-39
229.16901 3324.5601 461.909 9.2197031e-39
236.636 3333.3101 462.966 9.2197031e-39
250.46001 3352.01 465.51099 9.2197031e-39
279.79901 3371.22 466.12799 9.2197031e-39
574.16199 3544.01 467.673 9.2197031e-39
582.422 3552.6201 468.59299 9.2197031e-39
953.50598 3767.1101 469.76401 9.2197031e-39
965.64502 3767.1399 468.172 9.2197031e-39
978.62097 3760.3301 464.87299 9.2197031e-39
1002.14 3764.6699 462.78699 9.2197031e-39
1013.89 3767.1699 461.82401 9.2197031e-39
989.17401 3772.6699 466.362 9.2197031e-39
1608.53 4095.8201 460.185 9.2197031e-39
-34.799198 3242.9399 477.63501 9.2197031e-39
107.238 3291.47 470.24799 9.2197031e-39
113.649 3301.8201 471.819 9.2197031e-39
138.57899 3328.1399 474.67599 9.2197031e-39
256.67801 3378.98 470.983 9.2197031e-39
236.02699 3383.6101 474.785 9.2197031e-39
880.492 3763.72 478.58899 9.2197031e-39
904.24597 3768.77 476.64001 9.2197031e-39
916.48199 3769.24 475.13699 9.2197031e-39
941.052 3768.8899 471.819 9.2197031e-39
891.26501 3772.01 479.104 9.2197031e-39
928.07397 3773.4299 474.58701 9.2197031e-39
3175.97 5055.5698 477.66901 9.2197031e-39
98.752098 3330.3701 480.44199 9.2197031e-39
98.210197 3347.1799 484.436 9.2197031e-39
841.98602 3768.5901 484.798 9.2197031e-39
867.24902 3767.6699 481.25601 9.2197031e-39
828.289 3773.1101 487.65701 9.2197031e-39
853.70001 3772.45 484.155 9.2197031e-39
1396.42 4102.7197 489.73401 9.2197031e-39
3111.1101 5063.1401 487.97601 9.2197031e-39
3149.53 5067.4502 483.922 9.2197031e-39
749.33002 3778.78 499.38101 9.2197031e-39
776.79901 3773.97 494.64001 9.2197031e-39
788.78802 3777.4399 493.871 9.2197031e-39
803.22198 3771.4399 490.56799 9.2197031e-39
814.01398 3779.3799 491 9.2197031e-39
761.63702 3781.5601 498.40799 9.2197031e-39
3040.1499 5060.4102 496.68701 9.2197031e-39
3079.3799 5067.1802 493.10001 9.2197031e-39
494.61099 3670.24 507.60699 9.2197031e-39
696.242 3778.52 506.31201 9.2197031e-39
722.716 3779.3601 503.022 9.2197031e-39
735.90302 3779.6001 501.34 9.2197031e-39
680.74298 3784.3 509.703 9.2197031e-39
707.69598 3784.52 506.203 9.2197031e-39
1062.6899 3964.5901 501.46301 9.2197031e-39
3009.79 5065.3301 501.83401 9.2197031e-39
2980.6001 5071.5498 507.13101 9.2197031e-39
-181.286 3325.54 516.203 9.2197031e-39
437.487 3668.4299 514.70801 9.2197031e-39
668.99298 3778.99 510.01199 9.2197031e-39
351.888 3683.29 529.45001 9.2197031e-39
2991.77 5136.5 520.815 9.2197031e-39
-256.99399 3358.1599 533.78601 9.2197031e-39
482.77802 3779.3301 534.62 9.2197031e-39
2993.6399 5189.4399 532.922 9.2197031e-39
479.754 3816.6299 543.72101 9.2197031e-39
496.75299 3813.05 540.64697 9.2197031e-39
508.362 3820.6899 540.89899 9.2197031e-39
518.06702 3832.6399 542.409 9.2197031e-39
1066.92 4167.73 548.30499 9.2197031e-39
3000.1599 5250.8799 546.39899 9.2197031e-39
311.87201 3827.6599 568.40802 9.2197031e-39
330.35699 3825.1399 565.38501 9.2197031e-39
3005.73 5312.6099 560.06702 9.2197031e-39
277.63199 3827.1499 572.79797 9.2197031e-39
295.797 3825.8501 570.10303 9.2197031e-39
480.06 3953.3101 575.573 9.2197031e-39
497.54401 3950.49 572.612 9.2197031e-39
1078.36 4274.7598 571.77301 9.2197031e-39
3006.1001 5367.8999 572.922 9.2197031e-39
486.55399 4015.22 589.16498 9.2197031e-39
501.138 4020.3401 588.43799 9.2197031e-39
3014.53 5437.71 588.099 9.2197031e-39
-1079.54 3142.3301 591.76898 9.2197031e-39
-1088.46 3166.75 598.64398 9.2197031e-39
511.828 4035.21 590.5 9.2197031e-39
523.07703 4049.1299 592.26501 9.2197031e-39
537.58698 4054.8401 591.685 9.2197031e-39
552.14398 4060.4199 591.07098 9.2197031e-39
-1226.6899 3098.54 600.93597 9.2197031e-39
-535.57001 3519.52 608.133 9.2197031e-39
1089.88 4445 609.97803 9.2197031e-39
1456.23 4634.1797 605.86499 9.2197031e-39
3016.7 5499.3799 602.20398 9.2197031e-39
-1199.84 3157.8799 611.24402 9.2197031e-39
1107.38 4464.4199 612.20502 9.2197031e-39
1417.29 4638.0098 611.88702 9.2197031e-39
1378.17 4640.1899 617.54999 9.2197031e-39
1398.79 4648.4102 616.75201 9.2197031e-39
1437.92 4644.8999 610.77899 9.2197031e-39
3028.0901 5578.2798 619.11499 9.2197031e-39
1300.04 4645.4697 629.07202 9.2197031e-39
1339.1899 4643.6499 623.492 9.2197031e-39
1320.3 4653.3999 628.25403 9.2197031e-39
1359.48 4650.27 622.36298 9.2197031e-39
-1052.41 3352.8501 637.31897 9.2197031e-39
-1013.93 3359.25 633.74402 9.2197031e-39
-990.75897 3371.72 633.60199 9.2197031e-39
1124.4301 4556.7197 631.49597 9.2197031e-39
1221.62 4647.0801 639.77802 9.2197031e-39
1260.85 4646.6104 634.50098 9.2197031e-39
1280.45 4646.1201 631.80499 9.2197031e-39
1241.5699 4654.7197 638.93298 9.2197031e-39
3029.2 5642.1899 633.88098 9.2197031e-39
-1459.92 3139.03 641.104 9.2197031e-39
-1010.37 3403.04 643.49298 9.2197031e-39
1143.12 4642.1001 648.95697 9.2197031e-39
1162.8 4655.29 649.44 9.2197031e-39
1182.51 4655.6396 646.927 9.2197031e-39
1202.1899 4654.8501 644.151 9.2197031e-39
3033.76 5714.0498 650.04797 9.2197031e-39
-1520.26 3205.47 664.55499 9.2197031e-39
-1025.36 3479.6599 663.34601 9.2197031e-39
-1009.32 3495.51 664.93103 9.2197031e-39
-749.73401 3633.52 662.94098 9.2197031e-39
3042.0601 5794.8198 667.79999 9.2197031e-39
-1017.6 3523.4299 672.53497 9.2197031e-39
-880.78802 3666.29 687.85199 9.2197031e-39
-841.93701 3667.0601 682.914 9.2197031e-39
3047.6299 5873.3301 685.38599 9.2197031e-39
-911.42102 3659.98 690.41302 9.2197031e-39
-980.00403 3675.28 703.01801 9.2197031e-39
3052.4199 5953.0098 703.349 9.2197031e-39
-1325.4301 3570.3401 724.03003 9.2197031e-39
3053.1499 6027.75 720.69202 9.2197031e-39
-2193.9199 3151.72 740.74902 9.2197031e-39
-2163.52 3175.3899 742.26801 9.2197031e-39
-2161.73 3205.28 749.00598 9.2197031e-39
-1232.14 3711.24 744.62 9.2197031e-39
-1181.52 3737.78 744.14398 9.2197031e-39
3066.3899 6129.0698 742.58899 9.2197031e-39
-2168.27 3237.29 757.33502 9.2197031e-39
-1279.42 3709.03 750.33099 9.2197031e-39
3054.6499 6184.98 757.18298 9.2197031e-39
-2172.5801 3269 765.302 9.2197031e-39
-1293.6899 3772.1599 766.94098 9.2197031e-39
-2167.05 3298.3899 771.43298 9.2197031e-39
3057.9199 6272.8101 777.245 9.2197031e-39
-4373.4702 2124.9302 788.24799 9.2197031e-39
-2152.6399 3418.8601 797.64502 9.2197031e-39
-4317.1001 2268.6099 814.349 9.2197031e-39
-4651.29 2158.9102 832.771 9.2197031e-39
-1659.4399 3876.6499 839.49902 9.2197031e-39
-4723.4502 2205.75 853.20697 9.2197031e-39
-4571.8799 2309.74 857.50598 9.2197031e-39
-4803.3901 2355.5601 898.69202 9.2197031e-39
-4803.3398 2406.5698 910.58698 9.2197031e-39
-2125.78 3972.1499 923.20801 9.2197031e-39
-4845.77 2663.6699 976.16803 9.2197031e-39
-5279.6699 2459.2 985.61102 9.2197031e-39
-5216.1201 2513.5898 989.92999 9.2197031e-39
-4804.3999 2713.3701 982.315 9.2197031e-39
-5280.9102 2569.5601 1011.52 9.2197031e-39
-4954.3398 2772.9399 1015.97 9.2197031e-39
-3047.5901 3846.6399 1015.34 9.2197031e-39
-3054.2 3889.97 1026.33 9.2197031e-39
-5335.2598 2626.3799 1031.9399 9.2197031e-39
-3048.3501 3929.27 1034.73 9.2197031e-39
-3042.1299 3968.6101 1043.08 9.2197031e-39
-3041.95 4010.3799 1052.8101 9.2197031e-39
-3034.03 4049.47 1060.89 9.2197031e-39
-2983.53 4114.04 1069.3 9.2197031e-39
-3043.04 4095.4099 1072.79 9.2197031e-39
-5322.8101 2849.0901 1082.27 9.2197031e-39
-5308.3501 2904.02 1093.1801 9.2197031e-39
-5312.1401 2960.28 1106.8101 9.2197031e-39
-5191.3501 3005.55 1101.46 9.2197031e-39
-5052.23 3101.1101 1105.4301 9.2197031e-39
-5306.3901 3072.02 1132.13 9.2197031e-39
-5300.5898 3184.0701 1157.51 9.2197031e-39
-5287.1401 3238.9199 1168.53 9.2197031e-39
-5291.8101 3296.1001 1182.49 9.2197031e-39
-5282.2598 3351.51 1194.16 9.2197031e-39
-5272.23 3406.8401 1205.75 9.2197031e-39
-2881.1599 4734 1200.48 9.2197031e-39
-5260.73 3461.95 1217.1 9.2197031e-39
-5241.9399 3515.8101 1227.1899 9.2197031e-39
-5228.52 3570.49 1238.1801 9.2197031e-39
-5224.2998 3626.8701 1250.78 9.2197031e-39
-5218.6001 3683.0901 1263.15 9.2197031e-39
-5239.4102 3744.8701 1280.3 9.2197031e-39
