# .PCD v0.7 - Point Cloud Data file format
VERSION 0.7
FIELDS x y z rgb
SIZE 4 4 4 4
TYPE F F F F
COUNT 1 1 1 1
WIDTH 317
HEIGHT 1
VIEWPOINT 0 0 0 1 0 0 0
POINTS 317
DATA ascii
-1338.88 250.677 134.175 9.2197031e-39
1124.84 1911.38 139.069 9.2197031e-39
1139.4399 1924.78 139.89101 9.2197031e-39
1144.5649 1924.475 139.0645 9.2197031e-39
1153.09 1928.65 138.73 9.2197031e-39
1385.4498 2076.2866 137.18733 9.2197031e-39
1391.845 2077.0649 136.41101 9.2197031e-39
1387.3101 2081.8901 138.16 9.2197031e-39
1393.835 2086.5349 138.2285 9.2197031e-39
1393.26 2091.04 139.31799 9.2197031e-39
2779.04 2988.52 133.89999 9.2197031e-39
2915.25 3099.5801 138.466 9.2197031e-39
-978.83502 544.32947 146.259 9.2197031e-39
1134.6575 1926.9551 141.08774 9.2197031e-39
1129.85 1932.16 142.963 9.2197031e-39
1133.8866 1932.8033 142.50667 9.2197031e-39
1143.125 1935.38 141.71051 9.2197031e-39
1118.5 1948.73 148.342 9.2197031e-39
1124.9399 1947.62 147.14 9.2197031e-39
1137.932 1946.3821 144.936 9.2197031e-39
1143.4551 1944.6976 143.741 9.2197031e-39
1125.1025 1954.605 148.67375 9.2197031e-39
1130.75 1953.3 147.5455 9.2197031e-39
1136.408 1963.6019 149.00362 9.2197031e-39
1164.42 1974 147.16701 9.2197031e-39
1375.5 2088.6401 141.418 9.2197031e-39
1377.7284 2094.9685 142.5 9.2197031e-39
1385.455 2094.24 141.19101 9.2197031e-39
1393.8234 2097.0732 140.58165 9.2197031e-39
1366.465 2106.595 146.76599 9.2197031e-39
1376.7426 2106.8174 145.28951 9.2197031e-39
1380.99 2105.24 144.308 9.2197031e-39
1398.86 2100.47 140.591 9.2197031e-39
1376.905 2113.7002 146.80099 9.2197031e-39
1383.895 2119.0049 146.948 9.2197031e-39
2913.48 3139.0601 147.537 9.2197031e-39
2938.1699 3135.1299 142.995 9.2197031e-39
-1029.21 566.35022 158.64799 9.2197031e-39
-990.62402 562.95563 152.164 9.2197031e-39
1131.33 1966.55 150.41499 9.2197031e-39
1388.65 2139.7 150.85899 9.2197031e-39
3065.8501 3268.1399 153.72301 9.2197031e-39
3059.5601 3287.04 158.871 9.2197031e-39
-1435.03 346.504 169.82201 9.2197031e-39
3067.28 3315.29 164.02901 9.2197031e-39
-1055.36 603.99799 170.927 9.2197031e-39
-1060.5601 626.80707 176.78799 9.2197031e-39
-1065.22 651.08698 182.897 9.2197031e-39
-1060.36 679.26648 188.463 9.2197031e-39
-1060.1 705.84692 194.354 9.2197031e-39
-1056.39 732.78101 199.813 9.2197031e-39
-1059.08 757.28003 205.677 9.2197031e-39
2978.3799 4327.3604 403.017 9.2197031e-39
2987.1299 4382.9199 414.11401 9.2197031e-39
1345 3345.05 426.25299 9.2197031e-39
1369.24 3349.3301 423.60999 9.2197031e-39
1333.5601 3351.05 429.28799 9.2197031e-39
1357.6 3350.6499 425.633 9.2197031e-39
3061.8 4531.77 436.24301 9.2197031e-39
1322.97 3405.78 443.07101 9.2197031e-39
3011.4199 4551.6299 448.14899 9.2197031e-39
3042.02 4550.7803 443.41901 9.2197031e-39
2953.77 4559.6797 458.5 9.2197031e-39
2985.3301 4561.1201 454.13901 9.2197031e-39
2894.1899 4563.1499 468.117 9.2197031e-39
2926.0701 4566.0898 464.04099 9.2197031e-39
2834.4099 4564.5 477.289 9.2197031e-39
2861.8799 4561.3398 472.508 9.2197031e-39
2771.03 4557.7197 485.181 9.2197031e-39
2802.3401 4562.0098 481.49301 9.2197031e-39
2641.0801 4530.3999 498.37201 9.2197031e-39
2685.4399 4561.3301 498.689 9.2197031e-39
2717.01 4565.1396 494.85501 9.2197031e-39
2743.21 4561.4297 490.138 9.2197031e-39
-1842.33 1556.9451 500.31699 9.2197031e-39
1411.38 3742.03 504.97 9.2197031e-39
2620.6899 4545.9902 504.87601 9.2197031e-39
2611.21 4580.29 513.93402 9.2197031e-39
2611.6899 4638.1299 526.76801 9.2197031e-39
1319.73 3798.25 531.11298 9.2197031e-39
143.909 3065.3201 542.08502 9.2197031e-39
159.591 3070.22 540.85199 9.2197031e-39
151.306 3097.5 548.16699 9.2197031e-39
158.972 3110.46 549.91998 9.2197031e-39
171.692 3117.3701 549.57397 9.2197031e-39
1161.24 3770.45 548.43103 9.2197031e-39
1223.8 3795.8601 544.815 9.2197031e-39
1239.37 3797.72 542.91901 9.2197031e-39
1255.66 3807.29 542.63702 9.2197031e-39
179.58099 3130.2 551.26599 9.2197031e-39
189.089 3140.3999 552.13098 9.2197031e-39
195.916 3154.55 554.27399 9.2197031e-39
207.59801 3162.49 554.31299 9.2197031e-39
214.052 3177.27 556.65198 9.2197031e-39
221.425 3190.1201 558.42401 9.2197031e-39
232.011 3200.47 559.164 9.2197031e-39
1142.96 3797 557.065 9.2197031e-39
1174.74 3804.9299 554.11798 9.2197031e-39
1191.3199 3804.3401 551.52802 9.2197031e-39
1206.84 3809.3999 550.35199 9.2197031e-39
62.818901 3122.04 566.77197 9.2197031e-39
239.019 3213.97 561.13501 9.2197031e-39
243.64 3231.6101 564.38397 9.2197031e-39
332.853 3307.3201 568.03699 9.2197031e-39
1270.85 3933.79 568.60699 9.2197031e-39
-24.159401 3097.48 574.20099 9.2197031e-39
-6.3804302 3102.9199 572.77502 9.2197031e-39
10.8782 3107.5701 571.25299 9.2197031e-39
19.255301 3120.98 573 9.2197031e-39
30.1126 3131.1699 573.664 9.2197031e-39
241.81 3256.29 570.16302 9.2197031e-39
240.304 3282.3201 576.19397 9.2197031e-39
284.87201 3297.26 572.91302 9.2197031e-39
303.97299 3297.0601 570.034 9.2197031e-39
314.97699 3306.3401 570.47101 9.2197031e-39
323.35699 3345.5801 577.98102 9.2197031e-39
338.14899 3351.1599 577.03198 9.2197031e-39
336.082 3380.1699 583.81 9.2197031e-39
730.26202 3666.6299 589.224 9.2197031e-39
747.53198 3663.3201 585.92297 9.2197031e-39
779.16602 3667.5801 582.17798 9.2197031e-39
761.72998 3672.1201 585.78003 9.2197031e-39
792.65503 3678.9099 582.70599 9.2197031e-39
-91.275497 3133.98 592.30402 9.2197031e-39
679.93103 3664.9299 596.31403 9.2197031e-39
697.20898 3665.1399 593.79602 9.2197031e-39
712.76703 3667.6599 592.05103 9.2197031e-39
2796.9399 5069.8398 595.59198 9.2197031e-39
-2064.6599 1872.7 603.75598 9.2197031e-39
-287.211 3054.1899 603.57898 9.2197031e-39
-266.69 3061.0901 602.073 9.2197031e-39
-257.76801 3074.8799 603.82599 9.2197031e-39
-251.37601 3091.54 606.59399 9.2197031e-39
-232.017 3097.78 605.11298 9.2197031e-39
-227.703 3116.02 608.54401 9.2197031e-39
-209.812 3123.0801 607.46198 9.2197031e-39
-186.806 3126.99 604.92102 9.2197031e-39
-168.181 3132.96 603.48999 9.2197031e-39
-164.90401 3152.0901 607.27002 9.2197031e-39
-146.94099 3158.3501 606.00201 9.2197031e-39
340.056 3459.1299 600.83698 9.2197031e-39
351.992 3469 601.26703 9.2197031e-39
627.51398 3668.3799 604.862 9.2197031e-39
645.27301 3666.1001 601.71802 9.2197031e-39
661.66901 3669.3701 600.01599 9.2197031e-39
608.92102 3670.1699 608.02197 9.2197031e-39
2730.8101 5067.8398 604.95898 9.2197031e-39
2761.6499 5066.1802 600.01202 9.2197031e-39
-2081.46 1901.73 612.72803 9.2197031e-39
346.996 3508 610.70898 9.2197031e-39
495.33701 3644.55 619.16199 9.2197031e-39
512.28802 3646.26 617.02698 9.2197031e-39
530.33197 3647.26 614.573 9.2197031e-39
543.68903 3656.5901 614.672 9.2197031e-39
557.88501 3666.1499 614.69897 9.2197031e-39
574.43903 3668.1399 612.68597 9.2197031e-39
590.974 3672.0901 611.112 9.2197031e-39
788.44897 3816.21 613.96198 9.2197031e-39
1105.73 4053.3601 619.78601 9.2197031e-39
1472.05 4280.6201 616.12598 9.2197031e-39
2667.5801 5069.9199 614.80701 9.2197031e-39
2699.1201 5070.6602 610.29199 9.2197031e-39
475.51199 3646.6699 622.57501 9.2197031e-39
453.733 3654.1299 627.47198 9.2197031e-39
789.039 3879.8799 628.07898 9.2197031e-39
2660.3601 5127.3701 628.69598 9.2197031e-39
-2856.02 1487.891 635.34198 9.2197031e-39
-2187.0801 1928.03 634.26703 9.2197031e-39
381.10901 3647.49 636.76703 9.2197031e-39
400.211 3646.8799 633.797 9.2197031e-39
415.51199 3655.04 633.34698 9.2197031e-39
434.51401 3654.0701 630.31 9.2197031e-39
797.64801 3919.48 635.63501 9.2197031e-39
1290.01 4232.0703 632.30902 9.2197031e-39
1698.7 4537.29 639.75598 9.2197031e-39
322.802 3645.5601 644.98901 9.2197031e-39
338.591 3653.5601 644.43103 9.2197031e-39
357.444 3654.24 641.78601 9.2197031e-39
808.55798 3948.49 640.48901 9.2197031e-39
1674.8 4534.3501 642.64697 9.2197031e-39
2658.27 5195.27 644.15503 9.2197031e-39
-489.82001 3169.3799 659.34601 9.2197031e-39
74.574402 3515.8201 652.88 9.2197031e-39
281.67401 3646.95 651.40399 9.2197031e-39
298.48499 3653.6599 650.40601 9.2197031e-39
813.17902 4010.78 653.70001 9.2197031e-39
1610.9301 4563.8999 658.71802 9.2197031e-39
1633.17 4562.6797 655.146 9.2197031e-39
1658.37 4573.77 653.88 9.2197031e-39
721.89301 3990.54 662.73102 9.2197031e-39
1541.4399 4561.7002 668.53998 9.2197031e-39
1565.53 4567.7998 666.32501 9.2197031e-39
1587.6801 4566 662.63501 9.2197031e-39
1748.62 4695.8701 667.72699 9.2197031e-39
1777.0601 4714.6001 667.68597 9.2197031e-39
2664.04 5288.48 664.09399 9.2197031e-39
-3109.76 1496.012 674.80798 9.2197031e-39
-2389.3501 1956.71 670.68402 9.2197031e-39
180.875 3673.6699 672.323 9.2197031e-39
810.646 4106.1001 675.34302 9.2197031e-39
1519.04 4560.1899 671.52802 9.2197031e-39
2660.3 5358.5801 680.28601 9.2197031e-39
-1233.75 2851.6899 698.86499 9.2197031e-39
-1207.6 2867.8899 698.60101 9.2197031e-39
-0.53355402 3642.1499 692.21198 9.2197031e-39
-3321.9199 1510.9409 709.62299 9.2197031e-39
-3157.1899 1604.797 706.117 9.2197031e-39
-1208.46 2892.3201 704.177 9.2197031e-39
-1195.8101 2913.1299 706.94299 9.2197031e-39
104.591 3756.4299 702.10797 9.2197031e-39
1313.79 4554.6899 700.758 9.2197031e-39
2666.8301 5461.4702 702.27301 9.2197031e-39
2659.8401 5530.0698 718.61499 9.2197031e-39
788.80603 4305.3701 723.04102 9.2197031e-39
-3440.3201 1540.4 733.76599 9.2197031e-39
-1472.49 2853.6799 734.73999 9.2197031e-39
-1480.03 2882.1201 742.20203 9.2197031e-39
-1477.55 2908.8501 747.79797 9.2197031e-39
993.61499 4558.8501 749.19897 9.2197031e-39
1039.98 4557.04 741.91498 9.2197031e-39
1016.99 4561.9902 746.43201 9.2197031e-39
2664.96 5638.0898 741.95398 9.2197031e-39
-832.59198 3370.0801 754.98798 9.2197031e-39
924.54199 4558.1797 759.29999 9.2197031e-39
947.05798 4559.8301 756.32703 9.2197031e-39
970.22699 4565.3203 754.11298 9.2197031e-39
-1205.29 3176.29 767.06097 9.2197031e-39
772.72998 4488.8701 766.36603 9.2197031e-39
791.49799 4514.9199 769.39301 9.2197031e-39
814.31097 4514.8301 765.98798 9.2197031e-39
835.177 4531.9902 766.71899 9.2197031e-39
877.61499 4558.8999 766.42401 9.2197031e-39
900.18701 4560.9502 763.53198 9.2197031e-39
2666.76 5737.5298 763.87402 9.2197031e-39
-1289.39 3160.96 776.12 9.2197031e-39
-1268.78 3178.28 776.92603 9.2197031e-39
852.80603 4563.1499 771.05402 9.2197031e-39
-1262.59 3230.76 787.71802 9.2197031e-39
-1378.16 3172.3899 791.84497 9.2197031e-39
-1250.52 3253.5 790.99902 9.2197031e-39
-1261.39 3286.55 799.987 9.2197031e-39
2673.99 5861.8999 790.54901 9.2197031e-39
-1267.8101 3319.2 808.22198 9.2197031e-39
2670.3301 5956.27 812.14502 9.2197031e-39
2676.46 6089.6299 840.98901 9.2197031e-39
2672.48 6193.7598 864.81201 9.2197031e-39
-1346.48 3639.6599 891.39203 9.2197031e-39
2696.3601 6396.2402 906.44 9.2197031e-39
-4657.9199 1526.678 911.39301 9.2197031e-39
-1414.89 3717.21 918.84802 9.2197031e-39
-1504.45 3705.26 929.46997 9.2197031e-39
-5008.1899 1552.161 969.06 9.2197031e-39
-5009.1299 1607.604 981.56799 9.2197031e-39
-4992.6899 1661.28 991.104 9.2197031e-39
-5004.52 1716.08 1005.09 9.2197031e-39
-4994.0601 1985.1801 1063.5699 9.2197031e-39
-5208.6299 2042.27 1108.15 9.2197031e-39
-3323.1101 3345.78 1119.15 9.2197031e-39
3015.5 7548.4302 1116.14 9.2197031e-39
-3376.1001 3315.99 1120.37 9.2197031e-39
-3321.24 3388.1799 1128.34 9.2197031e-39
2963.54 7555.3501 1125.39 9.2197031e-39
2915.9099 7567.79 1135.24 9.2197031e-39
2860.6299 7562.4199 1142.24 9.2197031e-39
2758.3799 7569.5498 1159 9.2197031e-39
2810.8301 7566.3999 1150.52 9.2197031e-39
-5521.52 2101.9399 1167.89 9.2197031e-39
2708.6299 7572.6299 1167.08 9.2197031e-39
2656.02 7573.8799 1175.16 9.2197031e-39
-5528.1699 2162.24 1182.33 9.2197031e-39
2606.1101 7575.1299 1182.85 9.2197031e-39
-5525.5801 2219.51 1194.73 9.2197031e-39
-3191.8701 3792.3601 1199.3101 9.2197031e-39
2555.5801 7584.0698 1192.34 9.2197031e-39
-5521.29 2279.6201 1207.5 9.2197031e-39
-3304.95 3744.4399 1205.4 9.2197031e-39
2505.9299 7585.3901 1200 9.2197031e-39
2455.1001 7592.48 1209.13 9.2197031e-39
-3313.01 3795.3301 1217.95 9.2197031e-39
-3199.3401 3842.71 1211.66 9.2197031e-39
2405.8701 7594.8599 1216.96 9.2197031e-39
-5526.5698 2337.3301 1221.16 9.2197031e-39
-3197.25 3887.25 1221.28 9.2197031e-39
-2577.4099 4317.8999 1225.38 9.2197031e-39
2352.3701 7587.5498 1223.27 9.2197031e-39
-5522.1899 2397.54 1233.9399 9.2197031e-39
-3199.1799 3936.1599 1232.48 9.2197031e-39
-5524.46 2455.3198 1247.17 9.2197031e-39
-5521.9702 2515.78 1260.29 9.2197031e-39
-5517.2998 2573.22 1272.41 9.2197031e-39
-5517.6602 2634.0898 1286.04 9.2197031e-39
-5464.9102 2686.6899 1289.95 9.2197031e-39
-5486.7598 2749.79 1307.27 9.2197031e-39
-5524.0898 2812.3701 1326.77 9.2197031e-39
-5516.3799 2872.8701 1339.13 9.2197031e-39
-3213.1699 4383.8999 1334.45 9.2197031e-39
-3017.55 4532.79 1338.64 9.2197031e-39
-3214.79 4437.6299 1346.6801 9.2197031e-39
-5517.3999 2931.6599 1352.39 9.2197031e-39
-4911.23 3350.6201 1355.91 9.2197031e-39
-3220.3501 4491.5601 1359.53 9.2197031e-39
-3111.48 4534.5 1352.96 9.2197031e-39
-5514.4502 2993.02 1365.65 9.2197031e-39
-4907.1602 3405.1399 1367.47 9.2197031e-39
-3199.5901 4533.8101 1365.88 9.2197031e-39
-5501.7598 3050.04 1376.48 9.2197031e-39
-5478.2998 3108.22 1385.98 9.2197031e-39
-4909.5 3464.1799 1380.99 9.2197031e-39
-5472.3799 3166.27 1398.0601 9.2197031e-39
-5194.2202 3352.1499 1398.25 9.2197031e-39
-4894.8799 3516.52 1390.5 9.2197031e-39
-5459.52 3226.1499 1409.51 9.2197031e-39
-4897.0801 3576.02 1404.1 9.2197031e-39
-4899.5 3633.0701 1417.1899 9.2197031e-39
-5460.2998 3285.6499 1422.9 9.2197031e-39
-5463.7002 3348.95 1437.52 9.2197031e-39
-4899.6001 3692.6899 1430.5 9.2197031e-39
