# .PCD v0.7 - Point Cloud Data file format
VERSION 0.7
FIELDS x y z rgb
SIZE 4 4 4 4
TYPE F F F F
COUNT 1 1 1 1
WIDTH 325
HEIGHT 1
VIEWPOINT 0 0 0 1 0 0 0
POINTS 325
DATA ascii
-1096.59 836.62299 133.71001 9.2197031e-39
-1098.72 862.98303 139.866 9.2197031e-39
917.21204 2234.24 139.04001 9.2197031e-39
920.487 2238.8501 139.56599 9.2197031e-39
924.37799 2242.29 139.73801 9.2197031e-39
934.06201 2242.99 138.43201 9.2197031e-39
1167.475 2394.2402 136.6725 9.2197031e-39
1172.21 2397.9502 136.778 9.2197031e-39
1174.4075 2406.6074 138.36325 9.2197031e-39
1177.525 2413.2749 139.3685 9.2197031e-39
3160.9199 3743.1001 134.283 9.2197031e-39
3164.95 3770.74 139.791 9.2197031e-39
-1100.1899 886.93103 145.39 9.2197031e-39
913.35797 2239.9102 140.87801 9.2197031e-39
915.67725 2244.6326 141.57126 9.2197031e-39
923.23303 2247.22 141.0045 9.2197031e-39
918.98999 2252.3301 142.77499 9.2197031e-39
924.28766 2256.25 142.84367 9.2197031e-39
933.40503 2259.3701 142.157 9.2197031e-39
905.42505 2266.52 147.965 9.2197031e-39
915.87231 2264.075 145.84601 9.2197031e-39
927.07465 2262.3967 143.78333 9.2197031e-39
931.56097 2264.7 143.617 9.2197031e-39
906.03998 2271.5601 148.987 9.2197031e-39
914.03467 2275.6067 148.67633 9.2197031e-39
922.77802 2279.1602 148.144 9.2197031e-39
915.31799 2281.46 149.778 9.2197031e-39
927.242 2282.45 148.198 9.2197031e-39
938.46802 2287.8901 147.705 9.2197031e-39
1155.5867 2407.8635 141.483 9.2197031e-39
1138.04 2415.74 145.87601 9.2197031e-39
1154.3368 2413.4932 142.91866 9.2197031e-39
1164.5549 2417.22 142.19901 9.2197031e-39
1172.8201 2416.085 140.701 9.2197031e-39
1157.2849 2427.48 145.5685 9.2197031e-39
1161.63 2426.5151 144.7 9.2197031e-39
1177.8633 2420.9568 141.017 9.2197031e-39
1148.8199 2432.5 147.959 9.2197031e-39
1156.5267 2434.7434 147.29134 9.2197031e-39
1162.01 2430.0801 145.43201 9.2197031e-39
1163.99 2442.425 147.8645 9.2197031e-39
3160.8999 3795.6499 145.918 9.2197031e-39
-1078.2 928.33899 151.23599 9.2197031e-39
-1107.74 933.75201 156.89301 9.2197031e-39
898.02002 2271.01 150.077 9.2197031e-39
905.95801 2283.6899 151.68401 9.2197031e-39
912.20099 2282.1099 150.392 9.2197031e-39
3169.98 3827.6101 151.62199 9.2197031e-39
3162.8701 3850.9299 157.856 9.2197031e-39
-1101.9301 964.09399 162.73199 9.2197031e-39
-1106.6 985.14197 168.097 9.2197031e-39
3166.4299 3879.6599 163.681 9.2197031e-39
-1111.28 1008.506 173.976 9.2197031e-39
-1104.3101 1036.1279 179.03799 9.2197031e-39
3168.3101 3910.29 170.177 9.2197031e-39
-1111.92 1057.371 184.88901 9.2197031e-39
-1117.4301 1077.334 190.14 9.2197031e-39
-1121.12 1100.585 195.843 9.2197031e-39
-1113.04 1127.72 200.631 9.2197031e-39
1318.42 3414.71 339.77399 9.2197031e-39
1328.5699 3416.6599 338.67401 9.2197031e-39
1287.53 3414.4099 344.37201 9.2197031e-39
1297.3 3410.7 342.07599 9.2197031e-39
1309.08 3420.52 342.47 9.2197031e-39
1281.33 3431.3701 349.06201 9.2197031e-39
1278.61 3473.55 358.811 9.2197031e-39
1279.8199 3535.8999 372.431 9.2197031e-39
1398.15 3649.3201 379.672 9.2197031e-39
1279.04 3599.4399 386.612 9.2197031e-39
1275.61 3646.3899 397.52399 9.2197031e-39
2602.9099 4606 409.54501 9.2197031e-39
2652.6599 4639.0703 409.35501 9.2197031e-39
2678.8701 4632.6001 403.965 9.2197031e-39
2709.4299 4636.1104 400.12601 9.2197031e-39
2573.22 4605.8999 414.005 9.2197031e-39
1282.33 3773.04 424.54599 9.2197031e-39
2574.8 4649.3398 423.384 9.2197031e-39
2562 4675.7002 431.151 9.2197031e-39
1285.72 3883.1899 448.41501 9.2197031e-39
155.91 3158.26 458.52499 9.2197031e-39
1227.5 3863.9199 452.939 9.2197031e-39
1213.88 3872.71 456.94199 9.2197031e-39
2612.9299 4800.3501 451.05399 9.2197031e-39
125.46 3155.74 462.565 9.2197031e-39
160.61099 3169.99 460.41299 9.2197031e-39
125.116 3172.29 466.27899 9.2197031e-39
161.897 3183.6399 463.23901 9.2197031e-39
163.465 3198.79 466.35699 9.2197031e-39
163.746 3213.9099 469.66101 9.2197031e-39
182.40401 3227.6201 469.87799 9.2197031e-39
201.254 3240.97 469.98901 9.2197031e-39
215.377 3243.23 468.35599 9.2197031e-39
1143.71 3843.45 461.06 9.2197031e-39
1173.36 3877.76 464.17899 9.2197031e-39
1186.12 3872.3101 461.04501 9.2197031e-39
1201.21 3878.3899 460.112 9.2197031e-39
172.451 3222.24 470.19 9.2197031e-39
189.909 3237.1899 470.86401 9.2197031e-39
214.515 3260.49 472.306 9.2197031e-39
216.658 3276.3899 475.50201 9.2197031e-39
215.633 3294.53 479.67401 9.2197031e-39
1089.79 3860.3101 472.93301 9.2197031e-39
1102.89 3862.3799 471.41299 9.2197031e-39
1117.91 3878.98 472.819 9.2197031e-39
1131.28 3882.77 471.64001 9.2197031e-39
1160.5601 3905.6101 472.27399 9.2197031e-39
1287.12 4003.28 474.78799 9.2197031e-39
223.205 3304.6299 480.76599 9.2197031e-39
215.85699 3331.1001 487.73499 9.2197031e-39
1260.76 4036.1799 486.04999 9.2197031e-39
-34.283501 3215.3501 499.87799 9.2197031e-39
202.55 3367.54 497.81 9.2197031e-39
737.52301 3740.71 499.64401 9.2197031e-39
750.31 3746.8301 499.06799 9.2197031e-39
761.32501 3755.3999 499.302 9.2197031e-39
-64.391899 3206.74 502.51901 9.2197031e-39
-48.235199 3209.4299 500.67499 9.2197031e-39
-26.3265 3224.52 500.70801 9.2197031e-39
-19.660299 3236.47 502.345 9.2197031e-39
-20.997499 3253.8101 506.38699 9.2197031e-39
-8.2495298 3260.6001 505.965 9.2197031e-39
256.896 3438.6499 505.34601 9.2197031e-39
271.51501 3440.6399 503.57901 9.2197031e-39
276.91599 3453.74 505.664 9.2197031e-39
672.651 3731.1399 507.32101 9.2197031e-39
682.02399 3744.96 508.96399 9.2197031e-39
697.61603 3740.27 505.57199 9.2197031e-39
709.07703 3746.3899 505.19699 9.2197031e-39
724.52197 3741.4199 501.76401 9.2197031e-39
2724.29 5140.5098 509.539 9.2197031e-39
2760.74 5144.0601 504.82101 9.2197031e-39
2792.3601 5144.3398 500.10901 9.2197031e-39
-287.04501 3114.79 515.78198 9.2197031e-39
-263.36499 3117.54 512.815 9.2197031e-39
-256.16101 3128.5701 514.16803 9.2197031e-39
-249.744 3141.72 516.10999 9.2197031e-39
-244.784 3154.22 518.13 9.2197031e-39
-231.64 3163.02 518.091 9.2197031e-39
-103.505 3220.2 511.40302 9.2197031e-39
164.242 3434.5701 518.43103 9.2197031e-39
304.53101 3529.3799 518.23901 9.2197031e-39
597.67603 3704.97 512.84698 9.2197031e-39
609.854 3708.1599 511.71399 9.2197031e-39
567.66498 3710.6399 518.633 9.2197031e-39
578.66699 3717.74 518.54401 9.2197031e-39
614.37701 3740.3301 518.15302 9.2197031e-39
626.552 3744.3101 517.19501 9.2197031e-39
642.18597 3741.1399 514.13397 9.2197031e-39
654.62201 3743.96 512.88 9.2197031e-39
1077.4399 4053.4399 517.54901 9.2197031e-39
1295.62 4184.6001 513.64203 9.2197031e-39
2692.4299 5138.6802 513.94397 9.2197031e-39
2662.1799 5144.7202 519.84698 9.2197031e-39
-2090.3899 1942.59 528.57599 9.2197031e-39
-322.62799 3120.26 522.36499 9.2197031e-39
-236.93401 3182.48 523.19897 9.2197031e-39
-215.737 3219.8 528.26099 9.2197031e-39
-195.59 3239.8501 529.65601 9.2197031e-39
282.70001 3538.49 523.54999 9.2197031e-39
539.97101 3708.4199 522.323 9.2197031e-39
510.06 3711.0801 527.42902 9.2197031e-39
520.64099 3719.53 527.70001 9.2197031e-39
550.58502 3716.6399 522.54102 9.2197031e-39
2629.5601 5140.5 523.84003 9.2197031e-39
-2102.3701 1967.26 535.84497 9.2197031e-39
-253.95799 3212.03 532.31 9.2197031e-39
-238.814 3217.99 531.34302 9.2197031e-39
-212.39 3233.8899 530.87402 9.2197031e-39
-205.162 3263.79 536.401 9.2197031e-39
-177.44901 3261.27 531.659 9.2197031e-39
225.511 3554.24 535.672 9.2197031e-39
490.40701 3721.8 532.76801 9.2197031e-39
469.91199 3737.28 539.28998 9.2197031e-39
742.367 3924.26 539.54303 9.2197031e-39
2616 5176.4302 533.84198 9.2197031e-39
408.659 3737.3701 548.55798 9.2197031e-39
440.936 3734.0901 542.95697 9.2197031e-39
453.48801 3738.6001 542.06 9.2197031e-39
420.478 3743.9199 548.22302 9.2197031e-39
747.83197 3971.1399 549.09698 9.2197031e-39
2622.0901 5244.3901 547.96503 9.2197031e-39
-2168.6299 1989.4399 550.75702 9.2197031e-39
379.37201 3732.99 552.00897 9.2197031e-39
391.965 3738.01 551.22101 9.2197031e-39
1667.88 4634.8999 557.11603 9.2197031e-39
-2258.23 2007.86 568.36298 9.2197031e-39
351.552 3755.8899 561.27802 9.2197031e-39
300.90701 3760.1899 569.87799 9.2197031e-39
329.285 3769.54 567.66199 9.2197031e-39
750.63599 4046.1201 565.27002 9.2197031e-39
2621.3701 5307.6899 562.086 9.2197031e-39
206.883 3714.3 573.91602 9.2197031e-39
248.203 3762.1299 578.26501 9.2197031e-39
265.66699 3763.05 575.83099 9.2197031e-39
278.59299 3769.04 575.20502 9.2197031e-39
311.58301 3770.1899 570.479 9.2197031e-39
1726.17 4765.9502 577.32397 9.2197031e-39
2625.8301 5377.0098 576.75702 9.2197031e-39
194.09599 3766.4099 587.38 9.2197031e-39
212.931 3762.98 583.77802 9.2197031e-39
231.013 3763.4399 581.151 9.2197031e-39
749.17798 4144.8604 587.34802 9.2197031e-39
122.229 3764.9299 597.90302 9.2197031e-39
2625.6699 5446.04 592.06201 9.2197031e-39
-2447.6201 2022.5 600.19897 9.2197031e-39
19.788 3746.48 609.28699 9.2197031e-39
100.525 3768.0701 601.87701 9.2197031e-39
752.12299 4237.3896 607.38599 9.2197031e-39
2627.96 5515.8198 607.16101 9.2197031e-39
-1223.08 2949.8201 620.59003 9.2197031e-39
-1230.47 2974.74 627.21899 9.2197031e-39
-78.512901 3768.3601 628.97198 9.2197031e-39
-60.022202 3770.3501 626.62201 9.2197031e-39
-39.701698 3772.3501 623.995 9.2197031e-39
-20.756001 3773.1399 621.31097 9.2197031e-39
2625.96 5586.1499 623.03302 9.2197031e-39
-3167.3601 1670.42 630.92999 9.2197031e-39
-745.935 3346.46 636.34802 9.2197031e-39
752.24402 4348.02 631.85602 9.2197031e-39
2629.8501 5664.4102 639.77002 9.2197031e-39
-3194.05 1701.6899 641.883 9.2197031e-39
1064.02 4630.1396 647.23297 9.2197031e-39
-1489.9399 2929.23 656.32098 9.2197031e-39
758.526 4441.8203 651.67102 9.2197031e-39
772.60303 4474.6699 656.81799 9.2197031e-39
1022.96 4628.5601 653.08301 9.2197031e-39
1001.23 4635.25 657.84601 9.2197031e-39
1042.48 4630.3701 650.539 9.2197031e-39
2629.99 5745.0498 657.599 9.2197031e-39
-3347.8301 1720.05 669.16302 9.2197031e-39
-1533 2916.8999 660.09302 9.2197031e-39
-1505.1801 2957.98 664.987 9.2197031e-39
918.797 4631.1699 669.388 9.2197031e-39
940.39502 4633.0303 666.53802 9.2197031e-39
959.97601 4634.54 663.91699 9.2197031e-39
981.59198 4636.0303 660.98297 9.2197031e-39
-1524.54 2985.8701 674.08197 9.2197031e-39
857.45001 4632.6602 678.98102 9.2197031e-39
877.20398 4632.9102 676.05402 9.2197031e-39
898.83301 4635.1499 673.28302 9.2197031e-39
2635.4299 5832.8301 676.20801 9.2197031e-39
775.85797 4615.8799 687.586 9.2197031e-39
793.57898 4634.21 688.96802 9.2197031e-39
815.14697 4638.1699 686.58801 9.2197031e-39
834.90198 4639.7402 683.953 9.2197031e-39
-1344.92 3196.03 693.48499 9.2197031e-39
-1323.9399 3211.1001 693.65302 9.2197031e-39
-1289.28 3222.96 691.04602 9.2197031e-39
-1284.51 3243.8701 694.95398 9.2197031e-39
-1275.9399 3265.6699 698.487 9.2197031e-39
2630.0601 5907.6001 693.57001 9.2197031e-39
-1268.08 3285.4099 701.67102 9.2197031e-39
-1296.75 3323.3101 714.38702 9.2197031e-39
2634.74 6000.3999 713.40698 9.2197031e-39
-1279.78 3365.55 721.17499 9.2197031e-39
-1351.74 3371.1799 733.28699 9.2197031e-39
-1309.99 3403.3701 734.10797 9.2197031e-39
2628.6399 6080.1001 731.96997 9.2197031e-39
2640.8799 6199.04 756.45001 9.2197031e-39
2620.48 6250.6499 770.95502 9.2197031e-39
-1307.27 3642.79 786.69598 9.2197031e-39
2625.8501 6360.9199 794.55499 9.2197031e-39
-4697.8198 1587.475 843.64203 9.2197031e-39
-5040.6499 1861.29 956.01703 9.2197031e-39
-4969.5698 1921.05 958.513 9.2197031e-39
-5035.29 1966.78 978.55701 9.2197031e-39
-5027.5 2022.24 989.65698 9.2197031e-39
-5029.0498 2072.02 1000.91 9.2197031e-39
3057.8101 7620.6802 1008.2 9.2197031e-39
3007.48 7618.7598 1015.37 9.2197031e-39
2955.0601 7624.3599 1024.53 9.2197031e-39
2908.8601 7632.7002 1033.35 9.2197031e-39
2853.6299 7628.9302 1040.85 9.2197031e-39
2806.8501 7634.5298 1049.15 9.2197031e-39
-5232.6602 2172.5 1053.9 9.2197031e-39
2755.1899 7640.0801 1058.1801 9.2197031e-39
-5233.77 2229.3501 1066.65 9.2197031e-39
-3361.03 3511.2 1067.65 9.2197031e-39
2705.22 7634.4702 1064.48 9.2197031e-39
2656.51 7648.5 1074.95 9.2197031e-39
-5517.8999 2112.49 1083.6801 9.2197031e-39
2609.51 7651.46 1082.7 9.2197031e-39
-3351.6899 3632.3999 1093.0699 9.2197031e-39
2557.6799 7654.2002 1091.13 9.2197031e-39
-3354.74 3677.8601 1103.59 9.2197031e-39
-3350.28 3717.04 1111.59 9.2197031e-39
-5560.8501 2279.49 1127.13 9.2197031e-39
-3350.5901 3762.1799 1121.63 9.2197031e-39
-3356.48 3805.26 1132.05 9.2197031e-39
-5561.8501 2339.3799 1140.54 9.2197031e-39
-3347.5601 3847.8301 1140.13 9.2197031e-39
-3349.8401 3890.26 1149.87 9.2197031e-39
-5567.4902 2393.76 1153.4301 9.2197031e-39
-5567.4302 2453.79 1166.71 9.2197031e-39
-5563.21 2508.1099 1178.09 9.2197031e-39
-5560.1099 2568.1001 1190.91 9.2197031e-39
-5565.7798 2622.8901 1203.89 9.2197031e-39
-5496.5801 2679.27 1205.92 9.2197031e-39
-5358.4302 2783.0601 1208.04 9.2197031e-39
-5558.4302 2737.4399 1228.14 9.2197031e-39
-3222.96 4336.3604 1229.46 9.2197031e-39
-5533.3301 2850.6599 1249.41 9.2197031e-39
-3225.6599 4382.1104 1240 9.2197031e-39
-3227.6599 4432.6396 1251.48 9.2197031e-39
-5560.4302 2913.5701 1267.4301 9.2197031e-39
-3235.4299 4481.8999 1263.5601 9.2197031e-39
-5562.1602 2968.8501 1279.9301 9.2197031e-39
-3221.5901 4525.3301 1271.09 9.2197031e-39
-3110.23 4608.54 1272.6899 9.2197031e-39
-4975.6602 3395.1299 1285.74 9.2197031e-39
-3231.77 4576.8501 1284.03 9.2197031e-39
-3187.8799 4604.6699 1283.5601 9.2197031e-39
-5553.7998 3028.9099 1291.96 9.2197031e-39
-4940.5601 3440.3 1290.4399 9.2197031e-39
-5544.7598 3083.1699 1302.61 9.2197031e-39
-4936.7002 3496.5701 1302.3101 9.2197031e-39
-5533.3901 3142.8601 1314.1 9.2197031e-39
-4936.4399 3548.3799 1313.74 9.2197031e-39
-5515.6001 3195.8999 1323.16 9.2197031e-39
-4938.2598 3606.25 1326.8199 9.2197031e-39
-5508.0698 3256.02 1335.33 9.2197031e-39
-4935.1099 3657.8701 1337.77 9.2197031e-39
-5502.98 3310.8201 1346.6899 9.2197031e-39
-5502.1401 3372.1599 1360.14 9.2197031e-39
-5482.4902 3424.7 1368.8 9.2197031e-39
