# .PCD v0.7 - Point Cloud Data file format
VERSION 0.7
FIELDS x y z rgb
SIZE 4 4 4 4
TYPE F F F F
COUNT 1 1 1 1
WIDTH 349
HEIGHT 1
VIEWPOINT 0 0 0 1 0 0 0
POINTS 349
DATA ascii
1482.5 2834.1299 -290.21201 1.8403113e-38
1403.48 2840.5 -290.27499 1.8403113e-38
1165.83 2859.53 -290.422 1.8403113e-38
1182.64 2857.45 -290.14499 1.8403113e-38
1198.8101 2855.98 -290.07101 1.8403113e-38
1229.84 2854.1201 -290.27802 1.8403113e-38
1260.5601 2851.6001 -290.237 1.8403113e-38
1289.98 2850.0701 -290.51801 1.8403113e-38
1081.55 2865.5601 -290.21399 1.8403113e-38
1097.64 2865.96 -290.81601 1.8403113e-38
1113.67 2866.1799 -291.353 1.8403113e-38
1130.21 2865.46 -291.56 1.8403113e-38
930.90698 2878.3899 -290.58401 1.8403113e-38
971.224 2874.1201 -290.181 1.8403113e-38
987.76202 2875.6899 -291.22 1.8403113e-38
1026.8199 2870.79 -290.556 1.8403113e-38
803.93103 2888.78 -290.74301 1.8403113e-38
826.505 2886.53 -290.57001 1.8403113e-38
848.95001 2884 -290.29099 1.8403113e-38
890.80103 2880.97 -290.38199 1.8403113e-38
756.315 2894.47 -291.45401 1.8403113e-38
779.84698 2892.1201 -291.26901 1.8403113e-38
653.68799 2907.47 -293.25299 1.8403113e-38
677.78198 2906.3701 -293.539 1.8403113e-38
702.46698 2904.3 -293.48901 1.8403113e-38
727.01703 2901.9199 -293.323 1.8403113e-38
544.25702 2918.9299 -294.29999 1.8403113e-38
568.883 2919.1599 -295.08099 1.8403113e-38
593.40503 2919.0701 -295.74701 1.8403113e-38
622.92102 2914.1201 -294.79099 1.8403113e-38
487.89401 2923.1299 -294.22101 1.8403113e-38
512.76501 2924.03 -295.25601 1.8403113e-38
359.466 2937.77 -295.88 1.8403113e-38
386.42099 2938.97 -297.082 1.8403113e-38
420.198 2934.3501 -296.367 1.8403113e-38
450.71899 2931.74 -296.285 1.8403113e-38
254.17 2949.3401 -297.08499 1.8403113e-38
294.20599 2942.47 -295.73099 1.8403113e-38
320.63501 2945.05 -297.41699 1.8403113e-38
148.02699 2956 -296.48199 1.8403113e-38
179.814 2956.8899 -297.70999 1.8403113e-38
220.297 2951.1001 -296.758 1.8403113e-38
25.547199 2967.9099 -297.32001 1.8403113e-38
66.8582 2964.3301 -297.19699 1.8403113e-38
106.324 2961.27 -297.20999 1.8403113e-38
-59.3503 2974.3601 -297.246 1.8403113e-38
-19.2934 2973.02 -297.89999 1.8403113e-38
-328.89301 2984.9299 -293.41699 1.8403113e-38
-110.51 2981.8401 -298.505 1.8403113e-38
-434.11801 2990.77 -292.543 1.8403113e-38
-586.01202 3017.0601 -297.76401 1.8403113e-38
-530.896 3015.52 -298.771 1.8403113e-38
-719.97198 3029.1201 -298.32901 1.8403113e-38
-650.18597 3022.25 -297.82199 1.8403113e-38
-859.56897 3039.28 -298.047 1.8403113e-38
-784.71198 3032.3501 -297.66101 1.8403113e-38
-928.44299 3042.1699 -297.13699 1.8403113e-38
-1167.54 3058.04 -296.09399 1.8403113e-38
-1086.01 3053.29 -296.68799 1.8403113e-38
-1011.14 3050.1599 -297.68399 1.8403113e-38
-1342.5 3068.3799 -294.87 1.8403113e-38
-1251.2 3062.3301 -295.272 1.8403113e-38
-1446.14 3077.8601 -295.36301 1.8403113e-38
-1545.55 3083.9199 -294.73599 1.8403113e-38
-1663.89 3095.5801 -295.60199 1.8403113e-38
-1785.48 3106.45 -296.08801 1.8403113e-38
-1910.33 3116.46 -296.16699 1.8403113e-38
-2023.42 3120.1799 -294.30301 1.8403113e-38
-2288.3601 3135.0901 -292.17899 1.8403113e-38
-2161.3201 3130.6201 -294.17001 1.8403113e-38
-2616.6399 3161.3799 -292.383 1.8403113e-38
-2800.1499 3176.3899 -292.61099 1.8403113e-38
-2982.3301 3187.9299 -291.616 1.8403113e-38
2992.4299 2688.74 -280.396 1.8403113e-38
3008.6201 2687.1201 -280.26901 1.8403113e-38
3028.3401 2688.6499 -281.384 1.8403113e-38
2945.53 2693.8601 -280.92001 1.8403113e-38
2960.22 2691.4099 -280.45001 1.8403113e-38
2976.98 2690.8501 -280.724 1.8403113e-38
2742.8201 2709.6399 -280.88101 1.8403113e-38
2799.4299 2707.8999 -281.85901 1.8403113e-38
2810.0801 2702.6101 -280.245 1.8403113e-38
2826.2 2703.8799 -281.16101 1.8403113e-38
2843.03 2705.6799 -282.29599 1.8403113e-38
2907.45 2706.6201 -284.46701 1.8403113e-38
2614.49 2718.02 -280.27399 1.8403113e-38
2666.5 2718.01 -281.74799 1.8403113e-38
2679.23 2717.0701 -281.76999 1.8403113e-38
2691.46 2715.22 -281.444 1.8403113e-38
2704.8 2714.8 -281.67401 1.8403113e-38
2718.1899 2714.25 -281.853 1.8403113e-38
2757.47 2710.2 -281.5 1.8403113e-38
2786.97 2710.8201 -282.56699 1.8403113e-38
2543.3 2723.6599 -280.29401 1.8403113e-38
2568.46 2725 -281.49799 1.8403113e-38
2580.8899 2725.0701 -281.87601 1.8403113e-38
2590.48 2720.0901 -280.34201 1.8403113e-38
2603.45 2720.75 -280.94901 1.8403113e-38
2629.05 2720.8501 -281.71301 1.8403113e-38
2642.6899 2721.8999 -282.483 1.8403113e-38
2655.3701 2721.21 -282.59399 1.8403113e-38
2411.1299 2738.4399 -281.89899 1.8403113e-38
2430.8899 2732.0601 -280.14499 1.8403113e-38
2442.05 2731.78 -280.36099 1.8403113e-38
2464.8601 2731.76 -281.004 1.8403113e-38
2478.54 2736.3101 -283.04099 1.8403113e-38
2491.9199 2739.8501 -284.707 1.8403113e-38
2501.23 2734.75 -283.121 1.8403113e-38
2511.76 2732.1201 -282.466 1.8403113e-38
2523.5801 2731.9199 -282.73099 1.8403113e-38
2535.01 2730.77 -282.638 1.8403113e-38
2560.1899 2732.3 -283.909 1.8403113e-38
2222.6599 2748.75 -280.28 1.8403113e-38
2263.1599 2745.5701 -280.27802 1.8403113e-38
2284.45 2747.0901 -281.436 1.8403113e-38
2295.02 2747.26 -281.797 1.8403113e-38
2304 2741.9199 -280.11401 1.8403113e-38
2314.29 2741.01 -280.077 1.8403113e-38
2326.8999 2747.1899 -282.67999 1.8403113e-38
2337.28 2746.0901 -282.57401 1.8403113e-38
2357.74 2742.72 -281.93201 1.8403113e-38
2369.73 2745.78 -283.384 1.8403113e-38
2379.8401 2743.4199 -282.814 1.8403113e-38
2389.5901 2740.0801 -281.883 1.8403113e-38
2402.0801 2743.71 -283.552 1.8403113e-38
2423.3799 2740.97 -283.16299 1.8403113e-38
2123.1399 2759.1299 -281.215 1.8403113e-38
2153.2 2757.99 -281.659 1.8403113e-38
2163.23 2757.45 -281.74701 1.8403113e-38
2183.47 2757.04 -282.172 1.8403113e-38
2192.99 2753.47 -281.14801 1.8403113e-38
2213.8201 2755.3101 -282.41 1.8403113e-38
2233.73 2752.21 -281.85001 1.8403113e-38
2244.22 2752.8201 -282.371 1.8403113e-38
2254.97 2754.26 -283.19601 1.8403113e-38
2275.1299 2751.3799 -282.72601 1.8403113e-38
1983.97 2768.6799 -280.724 1.8403113e-38
2003.92 2769.3701 -281.54099 1.8403113e-38
2033.85 2768.3799 -282.03299 1.8403113e-38
2053.78 2767.3101 -282.211 1.8403113e-38
2063.75 2766.6499 -282.25601 1.8403113e-38
2073.55 2764.04 -281.58701 1.8403113e-38
2083.6499 2765.0901 -282.25601 1.8403113e-38
2093.4099 2762.3201 -281.52701 1.8403113e-38
1913.4301 2778.25 -282.189 1.8403113e-38
1953.6801 2779.72 -283.86899 1.8403113e-38
1963.96 2771.4299 -281.14999 1.8403113e-38
1973.87 2777.1399 -283.508 1.8403113e-38
2014.0699 2776.6399 -284.46701 1.8403113e-38
2023.9301 2770.6699 -282.582 1.8403113e-38
2044.1 2773.52 -284.18799 1.8403113e-38
1768.73 2786.76 -281.16199 1.8403113e-38
1778.86 2788.4399 -282.06 1.8403113e-38
1810.1 2788.3201 -282.90701 1.8403113e-38
1830.95 2787.1899 -283.08801 1.8403113e-38
1841.59 2784.6201 -282.45999 1.8403113e-38
1851.9399 2783.8401 -282.46799 1.8403113e-38
1862.37 2782.03 -282.10901 1.8403113e-38
1872.46 2782.9399 -282.72601 1.8403113e-38
1882.75 2781.8899 -282.63901 1.8403113e-38
1892.84 2782.6399 -283.19601 1.8403113e-38
1903.08 2781.4199 -283.047 1.8403113e-38
1923.26 2782.5 -284.01001 1.8403113e-38
1933.35 2782.9099 -284.44601 1.8403113e-38
1943.45 2783.24 -284.853 1.8403113e-38
1702.62 2796.8999 -282.96301 1.8403113e-38
1712.84 2799.1201 -284.05899 1.8403113e-38
1736.3199 2790.4299 -281.57101 1.8403113e-38
1745.26 2797.8999 -284.539 1.8403113e-38
1755.88 2797.9299 -284.849 1.8403113e-38
1788.16 2794.6699 -284.58701 1.8403113e-38
1799.17 2791.55 -283.76501 1.8403113e-38
1819.39 2795.25 -285.685 1.8403113e-38
1589.2 2804.9299 -282.64999 1.8403113e-38
1599.8 2807.1799 -283.76999 1.8403113e-38
1623.13 2805.1201 -283.685 1.8403113e-38
1644.86 2807.1599 -285.04401 1.8403113e-38
1655.72 2808.04 -285.67099 1.8403113e-38
1667.09 2807.01 -285.62 1.8403113e-38
1677.4 2809.52 -286.82501 1.8403113e-38
1690.21 2802.8201 -284.75601 1.8403113e-38
1722.86 2802.1799 -285.453 1.8403113e-38
1525.89 2817.8 -285.521 1.8403113e-38
1537.36 2818.8301 -286.21899 1.8403113e-38
1561.27 2817.8999 -286.56299 1.8403113e-38
1573.33 2816.8301 -286.51599 1.8403113e-38
1610.11 2810.25 -285.17499 1.8403113e-38
1632.26 2811.6101 -286.297 1.8403113e-38
1435.64 2827.46 -286.45999 1.8403113e-38
1460.7 2827.55 -287.20499 1.8403113e-38
1474.35 2824.8201 -286.60199 1.8403113e-38
1499.12 2824.1799 -287.07501 1.8403113e-38
1511.8101 2822.8101 -286.93799 1.8403113e-38
1548.12 2821.52 -287.50101 1.8403113e-38
1323.9399 2839.6399 -287.703 1.8403113e-38
1338.3199 2838.3101 -287.62799 1.8403113e-38
1353.11 2835.99 -287.20801 1.8403113e-38
1366.42 2836.04 -287.603 1.8403113e-38
1377.89 2839.3301 -289.12299 1.8403113e-38
1395.5699 2830.6599 -286.48001 1.8403113e-38
1418.36 2836.6299 -289.29501 1.8403113e-38
1446.54 2831.01 -288.05701 1.8403113e-38
1248.36 2848.0901 -288.61801 1.8403113e-38
1278.33 2846.01 -288.715 1.8403113e-38
1308.5 2842.48 -288.29199 1.8403113e-38
1151.1801 2858.29 -289.55701 1.8403113e-38
1214.9 2854.3301 -289.931 1.8403113e-38
1049.2 2864.24 -288.81299 1.8403113e-38
1065.41 2864.99 -289.54599 1.8403113e-38
872.59497 2879.79 -289.43399 1.8403113e-38
913.51801 2876.9299 -289.56 1.8403113e-38
954.00201 2873.1001 -289.32001 1.8403113e-38
1009.83 2870.3799 -289.923 1.8403113e-38
-236.23599 2957.9399 -286.25699 1.8403113e-38
-349.26901 2970.7 -287.67401 1.8403113e-38
-3046.3201 3161.98 -280.38101 1.8403113e-38
2830.5801 2673.0801 -270.112 1.8403113e-38
2850.45 2678.3501 -272.58701 1.8403113e-38
3049.6499 2673.8999 -276.64001 1.8403113e-38
3038.3201 2680.6599 -278.771 1.8403113e-38
2911.02 2692.6101 -279.483 1.8403113e-38
2927.5701 2692.6299 -279.965 1.8403113e-38
2727.6899 2708.1399 -279.90799 1.8403113e-38
2767.52 2704.53 -279.73001 1.8403113e-38
2451.7 2727.9399 -279.242 1.8403113e-38
2345.23 2737.75 -279.77399 1.8403113e-38
2171.98 2749.4099 -279.078 1.8403113e-38
2202.0801 2747.98 -279.41599 1.8403113e-38
2102.73 2755.73 -279.40201 1.8403113e-38
2112.5901 2754.6699 -279.298 1.8403113e-38
2132.52 2754.1799 -279.685 1.8403113e-38
2142.3701 2752.8701 -279.49301 1.8403113e-38
1993.92 2763.8999 -279.271 1.8403113e-38
-2276.5901 3091.99 -276.87201 1.8403113e-38
-4641.3198 3276.1299 -276.439 1.8403113e-38
-5023.0498 3306.3501 -276.54901 1.8403113e-38
-5364.7998 3321.3601 -272.27802 1.8403113e-38
3039.7 2631.0801 -260.81799 1.8403113e-38
3062.27 2634.47 -262.689 1.8403113e-38
3038.04 2646.24 -266.271 1.8403113e-38
2843.6499 2653.23 -263.27899 1.8403113e-38
0.43593201 2890.8899 -268.65799 1.8403113e-38
-3061.24 3121.26 -265.181 1.8403113e-38
3052.71 2609.75 -253.44901 1.8403113e-38
-18.5693 2856.77 -255.739 1.8403113e-38
16.787399 2858.5601 -257.392 1.8403113e-38
-3079.6399 3081.46 -250.214 1.8403113e-38
-5548.02 3297.02 -258.23499 1.8403113e-38
3051.0901 2576.52 -241.345 1.8403113e-38
3054.6001 2595.29 -248.25301 1.8403113e-38
-3530.1499 3107.45 -246.83299 1.8403113e-38
3050.8301 2545.46 -230.06599 1.8403113e-38
3043.55 2554.8201 -233.256 1.8403113e-38
-3100.5701 3042.22 -235.381 1.8403113e-38
-3595.8799 3075.3899 -233.332 1.8403113e-38
-5483.6602 3219.26 -231.847 1.8403113e-38
3047.3401 2527.6299 -223.49899 1.8403113e-38
3043.48 2495.3 -211.657 1.8403113e-38
3041.3 2508.1499 -216.257 1.8403113e-38
3042.3899 2480.1499 -206.13 1.8403113e-38
-5321.3799 3123.6799 -201.78 1.8403113e-38
3038.8301 2449.54 -194.92101 1.8403113e-38
3045.8899 2440.8401 -191.964 1.8403113e-38
3038.75 2463.3601 -199.935 1.8403113e-38
3040.0601 2423.1899 -185.394 1.8403113e-38
3058.6201 2382.74 -171.243 1.8403113e-38
3063.52 2399.04 -177.298 1.8403113e-38
3038.01 2408.4399 -179.98399 1.8403113e-38
3053.6001 2405.72 -179.438 1.8403113e-38
-5203.1099 3039.3101 -174.53101 1.8403113e-38
3062.28 2359.3 -162.84399 1.8403113e-38
3055.97 2368.1399 -165.87 1.8403113e-38
3053.6299 2328.95 -151.584 1.8403113e-38
3055.1299 2342.29 -156.466 1.8403113e-38
-5190.1099 2975.95 -151.911 1.8403113e-38
3063.51 2298.0601 -140.655 1.8403113e-38
3057.78 2306.8999 -143.7 1.8403113e-38
3059.5701 2320.1399 -148.55701 1.8403113e-38
3060.9299 2272.78 -131.409 1.8403113e-38
3053.71 2280.6499 -134.06 1.8403113e-38
-5200.1401 2916.9199 -130.205 1.8403113e-38
3055.99 2246.8799 -121.87 1.8403113e-38
3058.54 2259.78 -126.626 1.8403113e-38
3058.3501 2225.26 -114.094 1.8403113e-38
3061.1699 2238.0601 -118.817 1.8403113e-38
3051.6201 2188.6599 -100.623 1.8403113e-38
3054.01 2200.78 -105.089 1.8403113e-38
3056.25 2212.98 -109.579 1.8403113e-38
-5204.6899 2857.01 -108.339 1.8403113e-38
3054.51 2168.27 -93.305 1.8403113e-38
3056.25 2179.8899 -97.570198 1.8403113e-38
3052.1201 2135.3401 -81.288803 1.8403113e-38
3055.1599 2147.1699 -85.666496 1.8403113e-38
3049.02 2155.1499 -88.386902 1.8403113e-38
-5206.6899 2796.8101 -86.437599 1.8403113e-38
-5209.1099 2736.8 -64.592903 1.8403113e-38
-5213.9399 2677.23 -42.839401 1.8403113e-38
2774.53 2012.35 -28.768 1.8403113e-38
-5216.23 2617.3899 -21.0623 1.8403113e-38
2581.03 1928.13 7.2947602 1.8403113e-38
2546.53 1903.73 17.129601 1.8403113e-38
2554.6599 1912.23 13.8171 1.8403113e-38
2525.0901 1875.42 28.0131 1.8403113e-38
2526.1499 1880.8 26.0317 1.8403113e-38
2530.8701 1887.54 23.4515 1.8403113e-38
2529.9399 1892.33 21.7397 1.8403113e-38
2516.0801 1848.2 38.1479 1.8403113e-38
2522.3101 1845.21 39.054199 1.8403113e-38
2525.98 1855.96 35.049702 1.8403113e-38
2518.0801 1863.25 32.626999 1.8403113e-38
2523.04 1869.77 30.1234 1.8403113e-38
2530.0901 1862.13 32.692699 1.8403113e-38
2503.8999 1817.15 49.761299 1.8403113e-38
2510.26 1825.545 46.531952 1.8403113e-38
2518.675 1837.0701 42.112152 1.8403113e-38
-4631.8701 2377.4099 49.398399 1.8403113e-38
2499.54 1789.59 59.8834 1.8403113e-38
2498.5801 1798.16 56.801498 1.8403113e-38
2503.47 1794.74 57.9048 1.8403113e-38
2499.49 1802.76 55.107899 1.8403113e-38
2505.22 1808.45 52.878502 1.8403113e-38
2504.1001 1812.6899 51.373402 1.8403113e-38
-1907.99 2161.0901 50.428398 1.8403113e-38
2507.6399 1769.12 67.082298 1.8403113e-38
2512.3101 1765.4 68.299797 1.8403113e-38
2508.4451 1775.8101 64.631149 1.8403113e-38
2507.3101 1786.62 60.740299 1.8403113e-38
2512.1201 1783.03 61.906601 1.8403113e-38
-1904.89 2128.3501 62.220798 1.8403113e-38
-4652.3301 2324.52 69.173103 1.8403113e-38
2506.0901 1736.5701 78.936295 1.8403113e-38
2504.6401 1745.005 75.915955 1.8403113e-38
2507.5 1753.905 72.607651 1.8403113e-38
2507.0601 1760.34 70.283997 1.8403113e-38
2517.1001 1709.1899 88.5569 1.8403113e-38
2514.2749 1715.575 86.321854 1.8403113e-38
2513.21 1724.1699 83.23455 1.8403113e-38
2510.6899 1730.47 81.017502 1.8403113e-38
-4511.9102 2257.4299 89.520897 1.8403113e-38
2512.3999 1679.02 99.638199 1.8403113e-38
2512.52 1687.6 96.522102 1.8403113e-38
2521.47 1683.13 97.8918 1.8403113e-38
2512.47 1696.1801 93.409798 1.8403113e-38
2520.51 1691.86 94.750702 1.8403113e-38
2516.3198 1702.675 90.943253 1.8403113e-38
2524.23 1654.49 108.203 1.8403113e-38
2524.7949 1663.27 105.004 1.8403113e-38
2521.2002 1672.22 101.85651 1.8403113e-38
-4620.02 2212.23 108.999 1.8403113e-38
