# .PCD v0.7 - Point Cloud Data file format
VERSION 0.7
FIELDS x y z rgb
SIZE 4 4 4 4
TYPE F F F F
COUNT 1 1 1 1
WIDTH 345
HEIGHT 1
VIEWPOINT 0 0 0 1 0 0 0
POINTS 345
DATA ascii
1351.15 2849.1399 -290.39801 1.8403113e-38
1391.66 2848.1001 -291.19501 1.8403113e-38
1406.21 2845.22 -290.57101 1.8403113e-38
1231.97 2859.8601 -290.832 1.8403113e-38
1247.91 2857.8601 -290.56699 1.8403113e-38
1292.66 2854.9299 -290.802 1.8403113e-38
1307.76 2853.0901 -290.573 1.8403113e-38
1322.3 2851.9199 -290.57101 1.8403113e-38
1152.6801 2864.8999 -290.35999 1.8403113e-38
1169.58 2862.97 -290.15201 1.8403113e-38
1180.36 2869.5701 -292.85901 1.8403113e-38
1201.46 2860.95 -290.34399 1.8403113e-38
1216.48 2860.8899 -290.75601 1.8403113e-38
973.80798 2879.3799 -290.42899 1.8403113e-38
1029.42 2875.99 -290.81 1.8403113e-38
1046.36 2876.1899 -291.375 1.8403113e-38
1063.23 2876.2 -291.86899 1.8403113e-38
1080.03 2876.03 -292.29401 1.8403113e-38
1100.26 2871.0601 -291.078 1.8403113e-38
1115.72 2872.04 -291.88101 1.8403113e-38
852.18201 2888.72 -290.29099 1.8403113e-38
892.052 2887.77 -291.10101 1.8403113e-38
910.21899 2888.73 -291.979 1.8403113e-38
933.48499 2883.7 -290.828 1.8403113e-38
990.35602 2880.9299 -291.47 1.8403113e-38
828.38501 2892.6799 -291.03601 1.8403113e-38
705.021 2909.9099 -293.711 1.8403113e-38
734.49597 2902.77 -291.97699 1.8403113e-38
758.86603 2900.01 -291.681 1.8403113e-38
776.185 2903.8 -293.55801 1.8403113e-38
800.32599 2900.48 -293.05399 1.8403113e-38
626.927 2918.53 -294.57501 1.8403113e-38
651.18298 2917.74 -294.99301 1.8403113e-38
674.60901 2917.3201 -295.517 1.8403113e-38
516.05798 2929.27 -295.25601 1.8403113e-38
548.28802 2923.48 -294.09201 1.8403113e-38
572.16901 2924.3 -295.08099 1.8403113e-38
595.95801 2924.8201 -295.95999 1.8403113e-38
424.276 2939.1201 -296.16901 1.8403113e-38
452.49899 2938.29 -296.68701 1.8403113e-38
484.375 2933.99 -296.052 1.8403113e-38
296.73801 2948.6201 -295.91901 1.8403113e-38
330.237 2945.8601 -295.88699 1.8403113e-38
356.548 2948.01 -297.42999 1.8403113e-38
391.285 2943.1899 -296.689 1.8403113e-38
223.633 2956.78 -296.758 1.8403113e-38
255.912 2956.1299 -297.45801 1.8403113e-38
148.938 2963.46 -297.01801 1.8403113e-38
183.964 2962.0701 -297.52802 1.8403113e-38
-15.0933 2978.54 -297.73099 1.8403113e-38
28.908701 2973.8899 -297.32001 1.8403113e-38
62.826 2975.1399 -298.759 1.8403113e-38
104.78 2970.4299 -298.267 1.8403113e-38
-107.968 2988.54 -298.66901 1.8403113e-38
-63.498699 2985.1799 -298.73801 1.8403113e-38
-332.41 2995.3101 -294.616 1.8403113e-38
-580.81403 3023.0701 -297.48599 1.8403113e-38
-523.95697 3020.51 -298.20401 1.8403113e-38
-719.18103 3037.5601 -298.73001 1.8403113e-38
-655.58398 3033.74 -299.186 1.8403113e-38
-855.20001 3046.2 -297.91901 1.8403113e-38
-788.38898 3043.03 -298.70801 1.8403113e-38
-1009.46 3058.55 -297.92999 1.8403113e-38
-925.867 3050.03 -297.26199 1.8403113e-38
-1164.95 3066.24 -296.211 1.8403113e-38
-1086.15 3062.5801 -297.16699 1.8403113e-38
-1256.83 3074.1399 -296.41299 1.8403113e-38
-1350.92 3081.3999 -296.31799 1.8403113e-38
-1546.63 3094.1399 -295.26501 1.8403113e-38
-1452.74 3090.2 -296.55701 1.8403113e-38
-1668.6801 3107.3701 -296.52802 1.8403113e-38
-1792.15 3119.0601 -297.18799 1.8403113e-38
-1915.14 3128.49 -297.04099 1.8403113e-38
-2174.6399 3145.8401 -295.815 1.8403113e-38
-2311.1599 3153.5701 -294.65799 1.8403113e-38
-2975.76 3197.6599 -291.38501 1.8403113e-38
-2807.8799 3190.26 -293.569 1.8403113e-38
3027.78 2686.6899 -280.07401 1.8403113e-38
3046.8701 2687.3101 -280.85101 1.8403113e-38
2951.1299 2698.1399 -282.005 1.8403113e-38
2964.5 2694.27 -280.98901 1.8403113e-38
2980.5901 2692.99 -280.992 1.8403113e-38
2996.74 2691.52 -280.92801 1.8403113e-38
3017.0801 2693.8999 -282.38 1.8403113e-38
2786.3799 2708.0601 -280.82599 1.8403113e-38
2845.3701 2706.6101 -282.01199 1.8403113e-38
2861.6699 2707.47 -282.79599 1.8403113e-38
2924.3999 2705.45 -283.88199 1.8403113e-38
2705.5701 2713.55 -280.47699 1.8403113e-38
2723.3799 2719.2 -283.043 1.8403113e-38
2732.3401 2712.29 -280.797 1.8403113e-38
2750.9199 2718.3501 -283.53299 1.8403113e-38
2760.4299 2711.99 -281.5 1.8403113e-38
2779.8301 2718.4199 -284.39499 1.8403113e-38
2805.98 2714.1101 -283.59 1.8403113e-38
2584.8201 2728.78 -282.50101 1.8403113e-38
2607.3999 2724.4099 -281.569 1.8403113e-38
2622.4299 2728.1399 -283.36099 1.8403113e-38
2632.53 2723.6399 -282.01999 1.8403113e-38
2647.72 2727.0801 -283.70801 1.8403113e-38
2660.4199 2726.3501 -283.81299 1.8403113e-38
2674.22 2727.0801 -284.478 1.8403113e-38
2683.27 2720.5601 -282.37399 1.8403113e-38
2697.6799 2721.8201 -283.24799 1.8403113e-38
2435.74 2738.7 -281.776 1.8403113e-38
2492.46 2736.9299 -282.77899 1.8403113e-38
2527.8899 2736.5901 -283.685 1.8403113e-38
2538 2732.8999 -282.638 1.8403113e-38
2551.6899 2735.8 -284.086 1.8403113e-38
2560.8999 2730.23 -282.33499 1.8403113e-38
2573.78 2731.22 -283.06601 1.8403113e-38
2599.24 2731.97 -284.077 1.8403113e-38
2298.04 2749.76 -281.797 1.8403113e-38
2329.3401 2747.8501 -282.01199 1.8403113e-38
2351.29 2749.0901 -283.10001 1.8403113e-38
2373.3999 2749.9399 -284.04599 1.8403113e-38
2382.1899 2744.02 -282.15302 1.8403113e-38
2392.9399 2743.3201 -282.21301 1.8403113e-38
2403.71 2742.53 -282.237 1.8403113e-38
2415.2 2743.3899 -282.883 1.8403113e-38
2425.6599 2741.52 -282.509 1.8403113e-38
2449.6001 2744.45 -284.26401 1.8403113e-38
2461.6699 2745.73 -285.07999 1.8403113e-38
2471.4199 2741.74 -283.914 1.8403113e-38
2482.75 2741.0901 -284.008 1.8403113e-38
2505.9099 2740.3301 -284.40302 1.8403113e-38
2518.1699 2741.05 -285.01999 1.8403113e-38
2165.96 2758.3 -281.065 1.8403113e-38
2176.3 2759.51 -281.80399 1.8403113e-38
2186 2756.9299 -281.14999 1.8403113e-38
2216.6499 2757.02 -282.07001 1.8403113e-38
2226.5 2755.03 -281.63599 1.8403113e-38
2236.75 2754.8 -281.85001 1.8403113e-38
2247.9099 2758.1399 -283.38501 1.8403113e-38
2258 2756.8201 -283.19601 1.8403113e-38
2268.0801 2755.3999 -282.97699 1.8403113e-38
2279.1499 2757.54 -284.07401 1.8403113e-38
2287.73 2750.51 -281.772 1.8403113e-38
2310.55 2756.1299 -284.47101 1.8403113e-38
2320.1101 2752.47 -283.423 1.8403113e-38
2341.78 2753 -284.23999 1.8403113e-38
2363.5801 2753.1201 -284.91901 1.8403113e-38
2086.7 2767.9099 -282.25601 1.8403113e-38
2096.46 2765.1299 -281.52701 1.8403113e-38
2106.6699 2766.9299 -282.479 1.8403113e-38
2126.1699 2761.8899 -281.215 1.8403113e-38
2136.7 2765.3101 -282.759 1.8403113e-38
2146.75 2764.9099 -282.90701 1.8403113e-38
2156.52 2762.5701 -282.341 1.8403113e-38
2196.9099 2760.74 -282.849 1.8403113e-38
2207.3501 2761.6799 -283.49399 1.8403113e-38
1987 2776.3601 -282.42899 1.8403113e-38
1997 2774.3799 -282 1.8403113e-38
2007.08 2779.8301 -284.272 1.8403113e-38
2017 2773.9299 -282.418 1.8403113e-38
2046.92 2771.71 -282.479 1.8403113e-38
2056.8899 2771.1101 -282.55301 1.8403113e-38
2066.99 2772.3201 -283.28201 1.8403113e-38
2077.27 2775.3101 -284.66501 1.8403113e-38
2117.48 2773.3201 -285.10901 1.8403113e-38
1834.3 2788.53 -282.41901 1.8403113e-38
1865.23 2787.0601 -282.78101 1.8403113e-38
1875.14 2789.8301 -284.07401 1.8403113e-38
1895.99 2784.8201 -282.85901 1.8403113e-38
1905.86 2788.28 -284.39999 1.8403113e-38
1916.1801 2786.02 -283.88199 1.8403113e-38
1926.5 2782.75 -282.99301 1.8403113e-38
1936.29 2788.78 -285.465 1.8403113e-38
1946.72 2781.5801 -283.15399 1.8403113e-38
1956.75 2782.74 -283.86899 1.8403113e-38
1966.8101 2783.8301 -284.55499 1.8403113e-38
1976.83 2788.6001 -286.57401 1.8403113e-38
2027.21 2780.1599 -284.974 1.8403113e-38
2037.34 2781.6101 -285.79199 1.8403113e-38
1770.33 2797.47 -283.80499 1.8403113e-38
1802.42 2793.8799 -283.43301 1.8403113e-38
1811.83 2799.9399 -285.90601 1.8403113e-38
1822.48 2798.48 -285.685 1.8403113e-38
1844.04 2792.49 -284.13599 1.8403113e-38
1854.4301 2791.6899 -284.147 1.8403113e-38
1885.28 2790.6499 -284.66299 1.8403113e-38
1659.37 2809.71 -285.02899 1.8403113e-38
1692.8199 2808.0701 -285.40399 1.8403113e-38
1726.1899 2804.6299 -285.12601 1.8403113e-38
1737.72 2801.1499 -284.19501 1.8403113e-38
1748.16 2802.1699 -284.867 1.8403113e-38
1759.17 2800.3301 -284.51999 1.8403113e-38
1778.9301 2807.48 -287.689 1.8403113e-38
1789.73 2806.3 -287.573 1.8403113e-38
1565.41 2818.8601 -285.625 1.8403113e-38
1576.78 2819.54 -286.203 1.8403113e-38
1599.79 2819.71 -286.92999 1.8403113e-38
1612.9301 2814.6899 -285.492 1.8403113e-38
1623.87 2815.8601 -286.23099 1.8403113e-38
1636.24 2812.4099 -285.33899 1.8403113e-38
1647.41 2812.47 -285.68399 1.8403113e-38
1669.6801 2812.29 -286.26501 1.8403113e-38
1681.03 2811.1399 -286.17801 1.8403113e-38
1702.64 2812.21 -287.19199 1.8403113e-38
1713.66 2811.6899 -287.32101 1.8403113e-38
1540.84 2821.6101 -285.909 1.8403113e-38
1550.91 2826.05 -287.81201 1.8403113e-38
1584.9399 2829.0601 -289.89099 1.8403113e-38
1424.0699 2835.3501 -287.509 1.8403113e-38
1435.03 2839 -289.15201 1.8403113e-38
1448.46 2837.3899 -288.95901 1.8403113e-38
1463.4399 2832.2 -287.50699 1.8403113e-38
1474.74 2834.6499 -288.72501 1.8403113e-38
1487.58 2833.52 -288.68799 1.8403113e-38
1500.37 2832.27 -288.60501 1.8403113e-38
1511.99 2833.53 -289.39801 1.8403113e-38
1525.04 2831.1599 -288.91699 1.8403113e-38
1341.01 2843.1101 -287.91699 1.8403113e-38
1366.38 2845.8401 -289.64499 1.8403113e-38
1380.6 2844.0801 -289.41599 1.8403113e-38
1266.8101 2850.8 -288.556 1.8403113e-38
1281.5 2850.0701 -288.715 1.8403113e-38
1137.97 2863.52 -289.43399 1.8403113e-38
956.578 2878.3799 -289.56601 1.8403113e-38
1013.04 2874.8501 -289.923 1.8403113e-38
875.15503 2885.1799 -289.67099 1.8403113e-38
-97.720299 2958.1201 -287.92599 1.8403113e-38
-327.685 2967.28 -284.582 1.8403113e-38
-2577.8601 3160.1699 -289.32101 1.8403113e-38
-3045.53 3173.52 -280.603 1.8403113e-38
3061.6799 2666.4099 -273.70001 1.8403113e-38
3057.53 2679.8301 -278.44699 1.8403113e-38
2896.1799 2692.54 -278.38 1.8403113e-38
2929.8501 2693.46 -279.69199 1.8403113e-38
2810 2700.6101 -278.811 1.8403113e-38
2826.0901 2701.8701 -279.73499 1.8403113e-38
-354.87601 2956.73 -279.96799 1.8403113e-38
-2259.79 3097.1299 -275.673 1.8403113e-38
-5016.2402 3319.3999 -276.38901 1.8403113e-38
-5349.1899 3333 -271.67099 1.8403113e-38
3068.03 2638.3401 -263.698 1.8403113e-38
3067.8401 2654.9299 -269.71399 1.8403113e-38
2860.6001 2670.6399 -269.405 1.8403113e-38
-2.9587801 2878.1399 -261.65601 1.8403113e-38
-1701.05 3015.48 -262.25 1.8403113e-38
-3049.01 3129.53 -264.54099 1.8403113e-38
3061.3899 2616.1399 -255.451 1.8403113e-38
-13.6699 2861.8301 -255.42799 1.8403113e-38
-5540.2402 3310.71 -258.04501 1.8403113e-38
3063.54 2585.8999 -244.543 1.8403113e-38
3061.8301 2600.3701 -249.742 1.8403113e-38
2802.0801 2621.54 -249.89301 1.8403113e-38
-13.9242 2839.5601 -247.341 1.8403113e-38
-3066.48 3089.55 -249.532 1.8403113e-38
-4034.6201 3144.46 -241.384 1.8403113e-38
3062.6299 2554.0701 -232.968 1.8403113e-38
3057.55 2565.3501 -236.91499 1.8403113e-38
-3090.3501 3051.2 -234.924 1.8403113e-38
-3360.3301 3076.05 -236.112 1.8403113e-38
-3592.3501 3086.9299 -233.332 1.8403113e-38
-5510.2402 3239.9199 -233.231 1.8403113e-38
3058.5601 2520.78 -220.771 1.8403113e-38
3053.0701 2531.3799 -224.45799 1.8403113e-38
3059.8301 2492.54 -210.562 1.8403113e-38
3061.6101 2508.3899 -216.366 1.8403113e-38
3055.48 2475.0601 -204.09399 1.8403113e-38
-5340.3198 3142.3 -202.739 1.8403113e-38
3053.21 2445.55 -193.32401 1.8403113e-38
3055.6299 2461.1201 -199.03999 1.8403113e-38
3060.97 2410.3 -180.757 1.8403113e-38
3059.0601 2422.3999 -185.093 1.8403113e-38
3053 2431.75 -188.311 1.8403113e-38
3061.0801 2384.0601 -171.243 1.8403113e-38
3066.01 2400.3601 -177.298 1.8403113e-38
-5219.27 3057.01 -175.306 1.8403113e-38
3059.71 2357.54 -161.58099 1.8403113e-38
3059.24 2369.99 -166.08299 1.8403113e-38
3063.5801 2334.79 -153.437 1.8403113e-38
3059.2 2344.6299 -156.882 1.8403113e-38
-5208.3701 2993.8301 -152.69701 1.8403113e-38
3061.8201 2309.2 -144.10201 1.8403113e-38
3063.6201 2322.45 -148.964 1.8403113e-38
3065.47 2287.1799 -136.218 1.8403113e-38
3059.8601 2296.02 -139.265 1.8403113e-38
-5204.73 2932.27 -130.468 1.8403113e-38
3059.1201 2248.6599 -122.059 1.8403113e-38
3060.8101 2261.1101 -126.626 1.8403113e-38
3056.3101 2270.3799 -129.86 1.8403113e-38
3061.1001 2215.6001 -110.123 1.8403113e-38
3061.4399 2227.02 -114.277 1.8403113e-38
3056.3899 2235.8301 -117.327 1.8403113e-38
3061.8201 2193.73 -102.208 1.8403113e-38
3057.0801 2202.54 -105.267 1.8403113e-38
-5200.5 2870.8601 -108.309 1.8403113e-38
3055.74 2169.2 -93.134003 1.8403113e-38
3059.3 2181.6201 -97.743797 1.8403113e-38
3056.9399 2137.8101 -81.778397 1.8403113e-38
3056.3501 2148.1201 -85.500702 1.8403113e-38
3052.03 2156.8799 -88.555298 1.8403113e-38
-5205.5601 2811.1201 -86.491203 1.8403113e-38
3056.8701 2116.9199 -74.195801 1.8403113e-38
3059.25 2128.27 -78.383797 1.8403113e-38
3050.6699 2104.22 -69.409798 1.8403113e-38
-5214.0098 2751.97 -64.783798 1.8403113e-38
-5210.0298 2691.1101 -42.818501 1.8403113e-38
-5215.3799 2631.6699 -21.098101 1.8403113e-38
2664.8701 1949.53 -2.0991399 1.8403113e-38
2569.72 1908.37 15.5925 1.8403113e-38
2536 1875.61 28.454 1.8403113e-38
2543.2251 1885.6951 24.5868 1.8403113e-38
2552.1399 1896.64 20.3594 1.8403113e-38
2515.8201 1849.8 38.404202 1.8403113e-38
2524.8999 1847.63 38.928902 1.8403113e-38
2535.8899 1845.84 39.258202 1.8403113e-38
2527.6299 1858.1 35.049702 1.8403113e-38
2527.02 1862.8101 33.360901 1.8403113e-38
2533.9099 1869.92 30.581301 1.8403113e-38
2519.73 1827.35 46.435501 1.8403113e-38
2521.9299 1823.23 47.868301 1.8403113e-38
2518.46 1831.7 44.896099 1.8403113e-38
2522.8999 1837.55 42.642899 1.8403113e-38
-4623.4399 2389.9099 49.452099 1.8403113e-38
2504.5249 1794.615 58.75415 1.8403113e-38
2505.96 1803.7649 55.393299 1.8403113e-38
2505.8301 1810.42 52.9842 1.8403113e-38
2514.4099 1816.86 50.396702 1.8403113e-38
-1890.98 2168.23 50.652199 1.8403113e-38
2512.6802 1765.21 69.185249 1.8403113e-38
2503.1399 1774.7334 66.0075 1.8403113e-38
2507.3252 1786.3301 61.678947 1.8403113e-38
-1898.84 2136.8401 62.2686 1.8403113e-38
-4673.8398 2339.98 69.0298 1.8403113e-38
2504.79 1736.39 79.871902 1.8403113e-38
2506.3701 1749.33 75.1297 1.8403113e-38
2513.5801 1743.5549 77.017456 1.8403113e-38
2508.21 1758.14 71.880501 1.8403113e-38
2514.75 1754.54 72.996696 1.8403113e-38
2514.6536 1715.5499 87.146332 1.8403113e-38
2496.5601 1727.41 83.369102 1.8403113e-38
2511.8301 1724.03 84.152702 1.8403113e-38
2502.1899 1731.96 81.552498 1.8403113e-38
-4510.6299 2270.46 89.517998 1.8403113e-38
2517.5166 1685.41 97.998497 1.8403113e-38
2516.395 1696.1951 94.119049 1.8403113e-38
2513.7451 1704.78 91.080299 1.8403113e-38
2518.4299 1655.02 109 1.8403113e-38
2520.75 1659.2 107.415 1.8403113e-38
2518.665 1665.865 105.056 1.8403113e-38
2513.575 1674.75 101.9815 1.8403113e-38
-4652.71 2228.1201 108.999 1.8403113e-38
