# .PCD v0.7 - Point Cloud Data file format
VERSION 0.7
FIELDS x y z rgb
SIZE 4 4 4 4
TYPE F F F F
COUNT 1 1 1 1
WIDTH 358
HEIGHT 1
VIEWPOINT 0 0 0 1 0 0 0
POINTS 358
DATA ascii
-1146.17 2220.71 -291.00299 1.8403113e-38
-2260.04 1556.53 -281.953 1.8403113e-38
-2153.54 1618.62 -282.37299 1.8403113e-38
-2053.1101 1677.24 -282.789 1.8403113e-38
-1953.96 1733.6899 -282.746 1.8403113e-38
-1857.08 1787.77 -282.371 1.8403113e-38
-1779.04 1835.98 -283.534 1.8403113e-38
-1697.5601 1883.46 -283.84601 1.8403113e-38
-1624.35 1927.79 -284.65399 1.8403113e-38
-1551.64 1970.6801 -285.09799 1.8403113e-38
-1492.17 2009.83 -286.74701 1.8403113e-38
-1422.52 2049.6599 -286.776 1.8403113e-38
-1370.09 2085.3899 -288.61301 1.8403113e-38
-1301.63 2122.6799 -288.05301 1.8403113e-38
-1248.49 2156.48 -289.15399 1.8403113e-38
-1185.22 2190.75 -288.573 1.8403113e-38
-1079.33 2253.3999 -289.27802 1.8403113e-38
-1031.85 2282.7 -289.978 1.8403113e-38
-974.26703 2312.24 -288.92999 1.8403113e-38
-930.20099 2339.47 -289.58801 1.8403113e-38
-870.138 2367.3601 -287.57001 1.8403113e-38
-837.41803 2392.01 -289.461 1.8403113e-38
-792.66199 2416.96 -289.27802 1.8403113e-38
-748.68103 2441.1101 -288.97699 1.8403113e-38
-702.53198 2464.6201 -288.08701 1.8403113e-38
-666.04901 2486.9099 -288.54999 1.8403113e-38
-628.401 2508.6201 -288.62399 1.8403113e-38
-593.53802 2529.6201 -288.974 1.8403113e-38
-548.66101 2550.25 -287.401 1.8403113e-38
-520.375 2569.9199 -288.517 1.8403113e-38
-486.03 2589.1499 -288.40201 1.8403113e-38
-449.578 2607.8101 -287.72501 1.8403113e-38
-412.01099 2625.8601 -286.65399 1.8403113e-38
-392.995 2643.6799 -288.85599 1.8403113e-38
-354.19901 2660.6101 -287.21201 1.8403113e-38
-326.09299 2677.3201 -287.42499 1.8403113e-38
-297.87299 2693.5701 -287.47198 1.8403113e-38
-268.565 2709.3201 -287.16199 1.8403113e-38
-241.11501 2724.71 -287.077 1.8403113e-38
-213.56799 2739.6599 -286.83401 1.8403113e-38
-184.952 2754.0901 -286.23401 1.8403113e-38
-158.20399 2768.23 -285.88 1.8403113e-38
-137.217 2782.52 -286.61099 1.8403113e-38
-109.33 2795.75 -285.76401 1.8403113e-38
-89.143799 2809.4299 -286.448 1.8403113e-38
-68.871399 2822.8 -287.017 1.8403113e-38
-40.7724 2834.8301 -285.75101 1.8403113e-38
-11.6556 2846.27 -284.116 1.8403113e-38
6.8914599 2858.8401 -284.745 1.8403113e-38
21.662201 2871.74 -286.159 1.8403113e-38
49.012901 2882.3301 -284.57199 1.8403113e-38
70.642097 2893.5 -284.202 1.8403113e-38
82.752098 2906.1101 -286.00601 1.8403113e-38
104.501 2916.7 -285.42899 1.8403113e-38
126.293 2926.95 -284.73801 1.8403113e-38
148.12399 2936.8601 -283.935 1.8403113e-38
160.507 2948.55 -285.39499 1.8403113e-38
181.481 2958.0901 -284.629 1.8403113e-38
193.995 2969.3601 -285.93201 1.8403113e-38
213.168 2978.8 -285.461 1.8403113e-38
235.19 2987.23 -284.15399 1.8403113e-38
246.93401 2998.0901 -285.46701 1.8403113e-38
264.34601 3007.23 -285.21701 1.8403113e-38
279.00201 3016.9199 -285.63599 1.8403113e-38
297.41501 3025.3 -284.96399 1.8403113e-38
312.15201 3034.54 -285.22699 1.8403113e-38
326.93301 3043.5801 -285.41599 1.8403113e-38
348.181 3050.3101 -283.71201 1.8403113e-38
362.10199 3059.1699 -284.004 1.8403113e-38
374.23999 3068.48 -284.755 1.8403113e-38
387.33701 3077.3 -285.181 1.8403113e-38
398.66699 3086.6001 -286.078 1.8403113e-38
419.97 3092.03 -283.95401 1.8403113e-38
433.164 3100.27 -284.17599 1.8403113e-38
429.396 3115.04 -289.52499 1.8403113e-38
449.85599 3120.1699 -287.457 1.8403113e-38
475.61301 3122.78 -283.63699 1.8403113e-38
488.04001 3130.6599 -283.884 1.8403113e-38
499.62201 3138.75 -284.354 1.8403113e-38
511.24399 3146.6899 -284.76901 1.8403113e-38
531.62097 3150.5 -282.29599 1.8403113e-38
537.20203 3160.9199 -284.58401 1.8403113e-38
551.51099 3167.1499 -283.974 1.8403113e-38
564.96698 3173.6201 -283.59 1.8403113e-38
578.43701 3179.8999 -283.147 1.8403113e-38
584.26001 3189.9399 -285.26999 1.8403113e-38
598.63501 3195.49 -284.43201 1.8403113e-38
610.48297 3202.2 -284.41699 1.8403113e-38
628.21698 3205.5601 -282.27802 1.8403113e-38
639.24402 3212.3899 -282.448 1.8403113e-38
647.815 3220.5 -283.46799 1.8403113e-38
659.73401 3226.6101 -283.24799 1.8403113e-38
667.57501 3235 -284.487 1.8403113e-38
684.73499 3244.2002 -284.29901 1.8403113e-38
704.336 3251.5801 -283.09601 1.8403113e-38
715.53802 3257.48 -282.94199 1.8403113e-38
722.78497 3265.8701 -284.28699 1.8403113e-38
736.41302 3269.95 -283.11899 1.8403113e-38
751.591 3272.78 -281.276 1.8403113e-38
762.05798 3278.6799 -281.25101 1.8403113e-38
767.13202 3288.3101 -283.38 1.8403113e-38
776.909 3294.5601 -283.59399 1.8403113e-38
792.05499 3296.76 -281.55801 1.8403113e-38
801.85199 3302.76 -281.686 1.8403113e-38
810.17297 3309.8 -282.41199 1.8403113e-38
824.51099 3312.0901 -280.54999 1.8403113e-38
828.44 3322.47 -283.121 1.8403113e-38
844.23798 3323.28 -280.52899 1.8403113e-38
845.38898 3335.97 -284.33099 1.8403113e-38
864.05402 3334.05 -280.35699 1.8403113e-38
870.40503 3342.3501 -281.83701 1.8403113e-38
893.21503 3350.01 -280.14499 1.8403113e-38
896.21698 3361.28 -283.16299 1.8403113e-38
907.67499 3364.8501 -282.22699 1.8403113e-38
919.12201 3368.29 -281.25101 1.8403113e-38
920.34302 3381.4199 -285.17899 1.8403113e-38
931.85901 3384.6899 -284.13599 1.8403113e-38
944.69702 3386.49 -282.39099 1.8403113e-38
949.54999 3396.21 -284.58701 1.8403113e-38
965.00299 3395.0601 -281.43701 1.8403113e-38
971.27301 3403.29 -282.90701 1.8403113e-38
977.62598 3411.48 -284.349 1.8403113e-38
996.25 3421.4299 -284.13599 1.8403113e-38
1005.91 3425.9099 -283.811 1.8403113e-38
1016.2 3429.5901 -283.117 1.8403113e-38
1026.49 3433.1599 -282.38901 1.8403113e-38
1035.58 3438.0701 -282.302 1.8403113e-38
1044.09 3443.6201 -282.521 1.8403113e-38
1049.7 3452.76 -284.39999 1.8403113e-38
1066.4299 3456.05 -282.42151 1.8403113e-38
1080.24 3462.8201 -282.07001 1.8403113e-38
1084.4399 3474.01 -284.853 1.8403113e-38
1098.1899 3472.3 -281.828 1.8403113e-38
1103.11 3482.6499 -284.21399 1.8403113e-38
1113.5601 3485.3 -283.16699 1.8403113e-38
1121.33 3491.71 -283.79199 1.8403113e-38
1131.27 3494.95 -283.02399 1.8403113e-38
1138.1 3502.8 -284.272 1.8403113e-38
1150.64 3501.9199 -281.73499 1.8403113e-38
1157.0601 3510.4299 -283.26501 1.8403113e-38
1168.55 3510.9199 -281.349 1.8403113e-38
1174.62 3520.1201 -283.16299 1.8403113e-38
1185.61 3521.22 -281.52701 1.8403113e-38
1194.6801 3525.46 -281.23001 1.8403113e-38
1205.795 3536.1548 -282.6055 1.8403113e-38
1219.78 3541.8 -281.86899 1.8403113e-38
1229.87 3544.0801 -280.76901 1.8403113e-38
1235.61 3554.5901 -283.05801 1.8403113e-38
1244.48 3559.23 -282.92401 1.8403113e-38
1254.64 3561.27 -281.73499 1.8403113e-38
1263.5601 3565.75 -281.54099 1.8403113e-38
1281.11 3575.3301 -281.40601 1.8403113e-38
1314.9 3597.99 -282.474 1.8403113e-38
1322.7 3605.46 -283.42801 1.8403113e-38
1333.37 3605.8799 -281.63599 1.8403113e-38
1340.28 3615.8501 -283.543 1.8403113e-38
1351.3101 3615.22 -281.35599 1.8403113e-38
1360.67 3618.9099 -280.832 1.8403113e-38
1369.74 3623.3999 -280.61499 1.8403113e-38
1378.54 3628.71 -280.70499 1.8403113e-38
1387.71 3633.0601 -280.427 1.8403113e-38
1405.04 3645.1299 -281.11899 1.8403113e-38
1432.62 3659.1499 -280.57401 1.8403113e-38
1441.84 3663.98 -280.439 1.8403113e-38
1459.73 3676.1699 -281.06601 1.8403113e-38
1469.58 3678.96 -280.17099 1.8403113e-38
1525.78 3711.6299 -280.36099 1.8403113e-38
1545.13 3721.6399 -280.034 1.8403113e-38
1554.01 3732.1399 -281.75201 1.8403113e-38
1593.95 3750.98 -280.50299 1.8403113e-38
1603.66 3759.26 -281.36899 1.8403113e-38
1675.91 3801.8999 -281.81699 1.8403113e-38
1909.76 3930.4199 -280.26501 1.8403113e-38
-2305.23 1508.96 -275.06699 1.8403113e-38
886.08099 3342.51 -279.06 1.8403113e-38
995.51398 3407.1101 -279.74301 1.8403113e-38
1275.35 3564.21 -278.92899 1.8403113e-38
1291.7 3576.1699 -279.76001 1.8403113e-38
1301.12 3579.48 -279.108 1.8403113e-38
1309.4301 3585.3 -279.44699 1.8403113e-38
1398.09 3633.75 -278.77499 1.8403113e-38
1416.01 3643.8701 -278.73901 1.8403113e-38
1424.26 3651.54 -279.67401 1.8403113e-38
1453.76 3658.71 -276.62201 1.8403113e-38
1479.24 3682.5901 -279.57599 1.8403113e-38
1489.14 3685.22 -278.621 1.8403113e-38
1497.86 3693.3 -279.604 1.8403113e-38
1507.08 3699.48 -279.89301 1.8403113e-38
1516.5699 3704.6599 -279.819 1.8403113e-38
1536.09 3712.95 -278.91699 1.8403113e-38
1564.74 3731.3401 -279.565 1.8403113e-38
1574.65 3736.0801 -279.27701 1.8403113e-38
1584.73 3739.8101 -278.634 1.8403113e-38
1614.98 3753.3201 -277.45001 1.8403113e-38
1624.8199 3761.4399 -278.242 1.8403113e-38
1634.63 3771.3799 -279.616 1.8403113e-38
1644.97 3776.52 -279.37601 1.8403113e-38
1655.25 3783.48 -279.72 1.8403113e-38
1665.98 3784.6599 -278.159 1.8403113e-38
1686.9399 3799.1101 -278.94601 1.8403113e-38
1697.85 3798.1299 -276.668 1.8403113e-38
1708.54 3805.6201 -277.108 1.8403113e-38
1719.3199 3814.9299 -278.10699 1.8403113e-38
1730.3 3816.54 -276.63599 1.8403113e-38
1741.3199 3824.73 -277.23599 1.8403113e-38
1752.48 3832.8301 -277.785 1.8403113e-38
1763.64 3835.1201 -276.49399 1.8403113e-38
1775.02 3843.04 -276.94601 1.8403113e-38
1786.54 3850.8701 -277.34399 1.8403113e-38
1798.14 3857.6599 -277.396 1.8403113e-38
1809.63 3860.52 -276.23001 1.8403113e-38
1822.15 3877.6201 -279.37601 1.8403113e-38
1834.15 3884.1101 -279.263 1.8403113e-38
1845.85 3885.73 -277.66299 1.8403113e-38
1858.04 3892.02 -277.45401 1.8403113e-38
1870.4399 3899.1599 -277.47501 1.8403113e-38
1882.96 3906.1899 -277.44101 1.8403113e-38
1895.96 3915.98 -278.19 1.8403113e-38
1921.8101 3930.46 -278.103 1.8403113e-38
1935.4301 3940.8501 -278.93399 1.8403113e-38
1948.79 3948.28 -278.87201 1.8403113e-38
1962.12 3954.6399 -278.47699 1.8403113e-38
1975.24 3958.99 -277.48499 1.8403113e-38
1989.5 3968.8999 -278.048 1.8403113e-38
2002.28 3970.1699 -276.14401 1.8403113e-38
2017.98 3985.51 -278.15799 1.8403113e-38
2030.95 3986.53 -276.14401 1.8403113e-38
2046.88 4000.6399 -277.73001 1.8403113e-38
2060.02 4001.4199 -275.608 1.8403113e-38
2076.3601 4015.25 -277.03 1.8403113e-38
2091.0801 4021.3999 -276.32199 1.8403113e-38
2107.8601 4034.9199 -277.56699 1.8403113e-38
2121.3799 4035.1799 -275.211 1.8403113e-38
2138.8201 4049.3201 -276.53601 1.8403113e-38
2154.3799 4055.8401 -275.789 1.8403113e-38
2172 4068.71 -276.67899 1.8403113e-38
2187.8899 4074.9099 -275.77499 1.8403113e-38
2204.49 4082.8201 -275.27899 1.8403113e-38
2220.3401 4087.79 -273.98999 1.8403113e-38
2239.0901 4100.8999 -274.75299 1.8403113e-38
2257.47 4111.98 -274.94101 1.8403113e-38
2278.01 4128.3701 -276.41699 1.8403113e-38
2294.8701 4133.5698 -275.021 1.8403113e-38
2311.5 4137.6899 -273.32401 1.8403113e-38
2334.54 4158.0298 -275.59698 1.8403113e-38
2354.3799 4169.0298 -275.49701 1.8403113e-38
2372.25 4174.4102 -273.97198 1.8403113e-38
2388.76 4176 -271.49799 1.8403113e-38
2407.6201 4182.8198 -270.25299 1.8403113e-38
-2190.6201 1505 -253.14101 1.8403113e-38
2316.6899 3936.8 -208.87801 1.8403113e-38
2312.95 3897.6201 -197.16701 1.8403113e-38
2766.49 4143.8198 -193.19 1.8403113e-38
2319.6201 3854.25 -182.254 1.8403113e-38
2315.8601 3874.5901 -189.36301 1.8403113e-38
2772.6799 4125.1299 -186.166 1.8403113e-38
2328.96 3846.3 -178.056 1.8403113e-38
2341.2 3844.4399 -175.263 1.8403113e-38
2354.3101 3844.23 -172.83099 1.8403113e-38
2776.3 4076.4399 -170.121 1.8403113e-38
2763.98 4085.3301 -175.151 1.8403113e-38
2372.48 3827.75 -164.342 1.8403113e-38
2362.1101 3833.3999 -167.99899 1.8403113e-38
2798.3201 4081.1101 -167.62399 1.8403113e-38
2821.0701 4086.3201 -165.16701 1.8403113e-38
2849.28 4098.3999 -163.899 1.8403113e-38
2883.74 4118.0298 -163.888 1.8403113e-38
2908.9399 4124.6499 -161.43401 1.8403113e-38
2975.8601 4183.9902 -168.125 1.8403113e-38
-1431.16 1631.5601 -156.159 1.8403113e-38
-1233.5601 1745.28 -156.46899 1.8403113e-38
2380.02 3816.8 -159.522 1.8403113e-38
2394.4099 3818.77 -157.548 1.8403113e-38
2404.6101 3812.8501 -153.838 1.8403113e-38
2944.45 4117.5801 -152.797 1.8403113e-38
2996.8601 4156.5098 -155.651 1.8403113e-38
-1405.72 1610.9301 -145.049 1.8403113e-38
-1208.98 1725.97 -145.929 1.8403113e-38
2417.4399 3787.96 -143.653 1.8403113e-38
2435.78 3796.27 -142.974 1.8403113e-38
2450.26 3797.6101 -140.786 1.8403113e-38
2411.3601 3800.8501 -148.826 1.8403113e-38
3001.8999 4110.5098 -140.198 1.8403113e-38
2998.28 4131.96 -147.631 1.8403113e-38
-1406.6899 1582.0699 -136.103 1.8403113e-38
2460.1899 3791.23 -136.97501 1.8403113e-38
2474.73 3792.29 -134.689 1.8403113e-38
2489.3301 3793.2 -132.34399 1.8403113e-38
2505.5901 3796.45 -130.436 1.8403113e-38
2533.8601 3817.6599 -132.043 1.8403113e-38
2999.4399 4082.3101 -131.726 1.8403113e-38
-1492.75 1495.11 -124.135 1.8403113e-38
-1417.8 1549.6899 -127.868 1.8403113e-38
2999.1699 4057.24 -123.849 1.8403113e-38
3000.51 4034.49 -116.416 1.8403113e-38
-1405.1 1496.12 -108.644 1.8403113e-38
2996.23 3982.6101 -100.785 1.8403113e-38
3001.54 4011.8201 -109.062 1.8403113e-38
-1354.25 1485.33 -96.060303 1.8403113e-38
3001.3201 3965.23 -94.375298 1.8403113e-38
-1350.21 1458.01 -86.694397 1.8403113e-38
3000.49 3919.72 -80.136597 1.8403113e-38
2995.9399 3937 -86.421097 1.8403113e-38
-1349.64 1429.28 -77.510002 1.8403113e-38
-1345.0699 1401.95 -68.044403 1.8403113e-38
-1343.02 1373.52 -58.687401 1.8403113e-38
-1346.23 1342.8 -49.556099 1.8403113e-38
2791.6201 3683.6799 -43.195599 1.8403113e-38
-1333.46 1318.51 -39.571098 1.8403113e-38
2760.24 3634.2 -33.211601 1.8403113e-38
-1292.9 1306.12 -28.341999 1.8403113e-38
2786.3401 3625.99 -25.9079 1.8403113e-38
2773.29 3630.1599 -29.5823 1.8403113e-38
2808.72 3630.6299 -23.3396 1.8403113e-38
2824 3628.1399 -19.7952 1.8403113e-38
2840.03 3626.1399 -16.271799 1.8403113e-38
-1291.13 1217.79 -0.096311197 1.8403113e-38
-980.36298 1413.15 -5.7986898 1.8403113e-38
2792.0801 3565.45 -5.7346001 1.8403113e-38
-1329.79 1169.63 8.1555204 1.8403113e-38
-938.89398 1405.02 4.2495599 1.8403113e-38
2771.75 3515.9299 6.2507401 1.8403113e-38
2765.4099 3525.5801 2.0562899 1.8403113e-38
-1334.46 1136.66 17.735001 1.8403113e-38
2781.75 3509.51 10.0858 1.8403113e-38
2793.98 3504.9199 13.7414 1.8403113e-38
2867.3 3551.5701 12.2184 1.8403113e-38
2889.1599 3553.8401 15.4451 1.8403113e-38
-1314.49 1115.35 28.072701 1.8403113e-38
2850.54 3491.3999 28.2204 1.8403113e-38
2888.6699 3537.55 20.506901 1.8403113e-38
-1321.22 1080.9399 37.7365 1.8403113e-38
2831.4399 3446.9299 38.8311 1.8403113e-38
2837.6101 3466.28 33.827 1.8403113e-38
-1312.41 1054.03 47.8353 1.8403113e-38
2813.0901 3418.6699 44.454201 1.8403113e-38
-1316.65 1020.28 57.738701 1.8403113e-38
2684.1499 3296.3799 59.856998 1.8403113e-38
2689.48 3312.4399 55.741199 1.8403113e-38
-1306.38 993.84003 67.950302 1.8403113e-38
2698.96 3283.1599 66.706596 1.8403113e-38
2694.8201 3292.1499 63.119202 1.8403113e-38
-1306.41 961.79199 78.0756 1.8403113e-38
2713.55 3269.6299 73.616501 1.8403113e-38
2724.8999 3265.54 76.959297 1.8403113e-38
2698.8999 3271.29 70.449097 1.8403113e-38
-1309.6 927.72699 88.268799 1.8403113e-38
2726.24 3254.6799 80.6325 1.8403113e-38
2745.0701 3255.28 83.8396 1.8403113e-38
2927.8301 3346.4199 87.994202 1.8403113e-38
2920.76 3355.6001 83.814499 1.8403113e-38
-1313.28 893.02698 98.573997 1.8403113e-38
2967.4099 3343.3401 96.107399 1.8403113e-38
2974.8601 3361.78 91.620399 1.8403113e-38
-1315.71 858.66699 108.999 1.8403113e-38
3008.8401 3326.2 109 1.8403113e-38
3011.48 3341.6399 104.591 1.8403113e-38
3005.3301 3352.0801 100.183 1.8403113e-38
