# .PCD v0.7 - Point Cloud Data file format
VERSION 0.7
FIELDS x y z rgb
SIZE 4 4 4 4
TYPE F F F F
COUNT 1 1 1 1
WIDTH 354
HEIGHT 1
VIEWPOINT 0 0 0 1 0 0 0
POINTS 354
DATA ascii
-1057.41 1453.34 -290.19299 1.8403113e-38
-847.62299 1656.62 -290.47198 1.8403113e-38
-805.50702 1698.33 -290.76501 1.8403113e-38
-768.771 1731.1 -290.07199 1.8403113e-38
-729.47803 1769.99 -290.33801 1.8403113e-38
-1185.02 1313.3101 -285.73001 1.8403113e-38
-1144.46 1362.66 -288.42001 1.8403113e-38
-1093.66 1407.9399 -287.452 1.8403113e-38
-1004.68 1497.37 -288.41199 1.8403113e-38
-962.72601 1542.9399 -289.75601 1.8403113e-38
-921.97601 1580.36 -289.26901 1.8403113e-38
-878.039 1624.63 -289.77301 1.8403113e-38
-696.73401 1799.97 -289.92499 1.8403113e-38
-658.47998 1836.8199 -289.91699 1.8403113e-38
-627.92902 1864.79 -289.52899 1.8403113e-38
-589.836 1899.95 -289.12201 1.8403113e-38
-560.59198 1926.29 -288.63699 1.8403113e-38
-518.914 1960.85 -287.168 1.8403113e-38
-492.923 1985.09 -286.95499 1.8403113e-38
-456.258 2016.76 -285.991 1.8403113e-38
-431.681 2039.5601 -285.76001 1.8403113e-38
-402.03299 2068.1101 -285.75201 1.8403113e-38
-383.70901 2088.5 -286.46701 1.8403113e-38
-354.46701 2115.8201 -286.23901 1.8403113e-38
-329.983 2136.74 -285.53699 1.8403113e-38
-307.905 2161.4199 -286.42801 1.8403113e-38
-283.99399 2181.3601 -285.612 1.8403113e-38
-263.37299 2204.8201 -286.55301 1.8403113e-38
-245.851 2222.79 -286.83401 1.8403113e-38
-224.797 2245.5 -287.46701 1.8403113e-38
-206.948 2262.8501 -287.50699 1.8403113e-38
-182.58099 2285.24 -287.21799 1.8403113e-38
-164.42 2301.96 -287.013 1.8403113e-38
-144.50101 2322.8501 -287.45599 1.8403113e-38
-127.018 2338.8401 -287.23001 1.8403113e-38
-110.614 2358.5601 -288.255 1.8403113e-38
-91.888603 2374.1001 -287.59698 1.8403113e-38
-77.085098 2393 -288.81 1.8403113e-38
-50.334099 2408.6699 -286.159 1.8403113e-38
-42.006199 2426.3601 -288.69101 1.8403113e-38
-15.0095 2441.3 -285.78799 1.8403113e-38
0.42052901 2458.9399 -286.513 1.8403113e-38
17.931 2472.5601 -285.66 1.8403113e-38
28.7911 2489.3999 -287.32901 1.8403113e-38
43.601002 2502.3999 -286.995 1.8403113e-38
57.6483 2518.8999 -287.76999 1.8403113e-38
75.5718 2531.51 -286.54599 1.8403113e-38
85.996101 2547.4199 -288.08401 1.8403113e-38
103.137 2559.52 -286.92401 1.8403113e-38
118.657 2574.98 -287.056 1.8403113e-38
132.09801 2586.6101 -286.70801 1.8403113e-38
158.495 2601.3 -283.89001 1.8403113e-38
162.425 2612.71 -285.888 1.8403113e-38
171.62601 2627.3899 -287.41 1.8403113e-38
189.259 2638.01 -285.73901 1.8403113e-38
206.394 2651.8501 -285.03799 1.8403113e-38
218.381 2662.3101 -284.75201 1.8403113e-38
232.815 2675.8301 -284.64801 1.8403113e-38
247.82899 2685.6799 -283.436 1.8403113e-38
252.847 2699.6001 -285.81601 1.8403113e-38
269.91299 2708.8701 -283.936 1.8403113e-38
278.965 2722.1101 -285.11801 1.8403113e-38
283.71899 2732.4099 -286.61801 1.8403113e-38
303.46799 2744.05 -284.67801 1.8403113e-38
314.08099 2753.3401 -284.43201 1.8403113e-38
324.452 2765.79 -285.07501 1.8403113e-38
336.13699 2774.6299 -284.44101 1.8403113e-38
345.729 2786.8999 -285.233 1.8403113e-38
363.198 2794.4399 -282.79599 1.8403113e-38
368.22501 2807.2 -284.871 1.8403113e-38
378.24399 2815.76 -284.58401 1.8403113e-38
394.73001 2826.0701 -283.121 1.8403113e-38
400.159 2835.3 -284.16699 1.8403113e-38
404.616 2847.8601 -286.33301 1.8403113e-38
417.64899 2855.25 -284.979 1.8403113e-38
427.86499 2866.3 -285.29199 1.8403113e-38
438.19101 2874.04 -284.71201 1.8403113e-38
452.242 2883.8101 -283.72501 1.8403113e-38
454.349 2893.47 -285.72198 1.8403113e-38
475.875 2900.8601 -282.22299 1.8403113e-38
485.43799 2908.26 -281.745 1.8403113e-38
488.715 2920.5 -284.125 1.8403113e-38
496.55899 2928.25 -284.17499 1.8403113e-38
504.57001 2938.96 -284.95901 1.8403113e-38
514.32599 2945.9299 -284.32001 1.8403113e-38
528.78601 2954.28 -282.85599 1.8403113e-38
535.00702 2962.2 -283.36099 1.8403113e-38
546.85901 2971.1399 -282.70999 1.8403113e-38
550.505 2979.8701 -284.077 1.8403113e-38
563.35602 2988.21 -283.01501 1.8403113e-38
571.54797 2995.1001 -282.75299 1.8403113e-38
573.01898 3007.6799 -285.677 1.8403113e-38
583.07501 3013.71 -284.71799 1.8403113e-38
594.36401 3022.2 -284.09 1.8403113e-38
604.46802 3027.96 -283.04901 1.8403113e-38
610.63397 3038.4399 -284.237 1.8403113e-38
616.48499 3045.9399 -284.72299 1.8403113e-38
630.53998 3052.6899 -282.944 1.8403113e-38
632.198 3062.05 -284.97601 1.8403113e-38
639.51898 3071.8201 -285.68799 1.8403113e-38
644.72998 3079.47 -286.37701 1.8403113e-38
649.672 3090.3999 -287.991 1.8403113e-38
655.01001 3097.96 -288.62601 1.8403113e-38
679.31 3098.5701 -282.64801 1.8403113e-38
683.02802 3106.8101 -283.867 1.8403113e-38
690.70697 3116.02 -284.34 1.8403113e-38
702.76898 3119.53 -282.21301 1.8403113e-38
716.25299 3125.1899 -280.29199 1.8403113e-38
712.05701 3138 -284.70901 1.8403113e-38
731.28796 3145.22 -281.742 1.8403113e-38
745.70001 3155.05 -280.67801 1.8403113e-38
749.05902 3163.3799 -282.01199 1.8403113e-38
761.11499 3169.26 -280.50699 1.8403113e-38
761.46301 3179.6001 -283.13 1.8403113e-38
772.82501 3185.8 -281.88501 1.8403113e-38
774.12701 3195.6101 -284.12601 1.8403113e-38
791.71002 3197.23 -280.11099 1.8403113e-38
793.14099 3206.98 -282.302 1.8403113e-38
806.54852 3216.7151 -281.4675 1.8403113e-38
817.79199 3227.96 -281.57501 1.8403113e-38
820.29102 3237.0801 -283.332 1.8403113e-38
833.97949 3246.3301 -282.29999 1.8403113e-38
846.27899 3256.5701 -281.87601 1.8403113e-38
854.81702 3260.73 -280.81 1.8403113e-38
856.56799 3274.1699 -283.888 1.8403113e-38
863.77502 3279.45 -283.452 1.8403113e-38
875.59802 3284.1201 -281.69 1.8403113e-38
879.37402 3292.3999 -282.90701 1.8403113e-38
885.73901 3301.98 -283.80801 1.8403113e-38
893.77899 3306.3501 -282.92401 1.8403113e-38
907.047 3315.3198 -281.92151 1.8403113e-38
917.72302 3326.74 -282.21899 1.8403113e-38
926.51898 3330.1399 -280.888 1.8403113e-38
933.953 3338.6699 -281.245 1.8403113e-38
938.90698 3346 -281.914 1.8403113e-38
948.41901 3352.3601 -281.177 1.8403113e-38
954.12799 3358.9099 -281.453 1.8403113e-38
962.47998 3366.5 -281.33301 1.8403113e-38
967.68298 3373.6799 -281.89899 1.8403113e-38
974.94702 3382.5701 -282.39401 1.8403113e-38
985.14801 3383.9399 -280.17599 1.8403113e-38
994.94 3396.54 -281.005 1.8403113e-38
1004.35 3409.8101 -282.10501 1.8403113e-38
1013.42 3412.3101 -280.47 1.8403113e-38
1024.255 3423.895 -280.76752 1.8403113e-38
1033.01 3438.3799 -282.354 1.8403113e-38
1035.54 3449.73 -284.68799 1.8403113e-38
1045.83 3455.04 -283.479 1.8403113e-38
1052.91 3460.21 -283.047 1.8403113e-38
1061.67 3467.6599 -282.78699 1.8403113e-38
1065.6801 3477.3999 -284.32599 1.8403113e-38
1073.59 3486.3201 -284.66699 1.8403113e-38
1085.48 3484.1699 -281.10001 1.8403113e-38
1094.99 3490.54 -280.366 1.8403113e-38
1098.34 3501.76 -282.45999 1.8403113e-38
1108.02 3508.01 -281.65302 1.8403113e-38
1116.42 3511.1101 -280.34201 1.8403113e-38
1120.98 3526.1599 -283.13501 1.8403113e-38
1128.5601 3530.79 -282.435 1.8403113e-38
1138.5 3536.76 -281.487 1.8403113e-38
1141.64 3549.55 -284.04599 1.8403113e-38
1152.2 3554.5601 -282.69199 1.8403113e-38
1157.8 3563.1599 -283.53101 1.8403113e-38
1168.47 3568.01 -282.10699 1.8403113e-38
1174.24 3576.53 -282.883 1.8403113e-38
1185.4301 3580.3701 -281.06299 1.8403113e-38
1190.14 3591.3701 -282.755 1.8403113e-38
1201.4399 3595.05 -280.86401 1.8403113e-38
1208.72 3600.8301 -280.539 1.8403113e-38
1217.02 3611.24 -281.17099 1.8403113e-38
1224.0699 3617.79 -281.10699 1.8403113e-38
1232.99 3627.23 -281.32901 1.8403113e-38
1240.5601 3632.8101 -280.879 1.8403113e-38
1256.37 3650.26 -281.45801 1.8403113e-38
1265.08 3661.25 -282.13699 1.8403113e-38
1272.95 3666.6299 -281.55801 1.8403113e-38
1280.02 3682.8701 -284.03101 1.8403113e-38
1290.5699 3680.99 -280.871 1.8403113e-38
1305.88 3703.23 -282.832 1.8403113e-38
1314.84 3715.7 -283.836 1.8403113e-38
1324.04 3718.04 -282.12601 1.8403113e-38
1335.17 3724 -280.87701 1.8403113e-38
1343.62 3728.9299 -280.035 1.8403113e-38
1352.86 3742.0701 -281.14401 1.8403113e-38
1360.49 3750.5701 -281.444 1.8403113e-38
1370.8 3760.8301 -281.52899 1.8403113e-38
1377.74 3772.9299 -282.94699 1.8403113e-38
1397.5601 3786.73 -281.55499 1.8403113e-38
1417.54 3801.1599 -280.29099 1.8403113e-38
1436.45 3822.8101 -281.18799 1.8403113e-38
1447.5601 3834.3799 -281.414 1.8403113e-38
1476.05 3866.3201 -282.58701 1.8403113e-38
1497.54 3882.45 -281.38699 1.8403113e-38
1553.53 3935.95 -281.263 1.8403113e-38
1562.74 3952.8401 -283.362 1.8403113e-38
1576.45 3956.6799 -280.905 1.8403113e-38
1586.39 3968.6299 -281.52701 1.8403113e-38
1599.95 3978.02 -280.56201 1.8403113e-38
1610.23 3989.8301 -281.061 1.8403113e-38
1659.8199 4036.9099 -280.87201 1.8403113e-38
1252.14 3635.97 -278.78101 1.8403113e-38
1301.6 3686.3401 -279.48801 1.8403113e-38
1391.6801 3769.1499 -278.43301 1.8403113e-38
1409.87 3790.1799 -279.35199 1.8403113e-38
1429.6 3806.3 -278.59201 1.8403113e-38
1457.15 3837.6201 -279.84 1.8403113e-38
1469 3846.1799 -279.09201 1.8403113e-38
1489.23 3868.1001 -279.72299 1.8403113e-38
1510.25 3888.78 -279.83499 1.8403113e-38
1519.48 3898.26 -279.98599 1.8403113e-38
1531.99 3908.21 -279.436 1.8403113e-38
1541.4 3918.51 -279.758 1.8403113e-38
1624.1899 3997.0801 -279.43399 1.8403113e-38
1634.84 4006.8 -279.29099 1.8403113e-38
1649 4016.73 -278.314 1.8403113e-38
1674.4399 4036.95 -277.19 1.8403113e-38
1685.73 4056.97 -279.58401 1.8403113e-38
1700.63 4064.51 -277.79501 1.8403113e-38
1712.12 4069.8301 -276.28799 1.8403113e-38
1727.51 4084.8701 -276.341 1.8403113e-38
1739.78 4103.5698 -278.142 1.8403113e-38
1755.01 4103.8198 -274.36301 1.8403113e-38
1767.84 4124.27 -276.478 1.8403113e-38
1784.24 4138.79 -276.14099 1.8403113e-38
1797.39 4155.1499 -277.10699 1.8403113e-38
1814.58 4172.2998 -277.26001 1.8403113e-38
1828.26 4188.4399 -278.035 1.8403113e-38
1844.5601 4190.77 -274.526 1.8403113e-38
1859.1899 4211.52 -276.26999 1.8403113e-38
1877.5 4228.0698 -275.98001 1.8403113e-38
1892.27 4244.6899 -276.608 1.8403113e-38
1910.52 4256.0801 -274.98001 1.8403113e-38
1925.51 4270.52 -274.979 1.8403113e-38
1944.22 4281.5698 -273.14999 1.8403113e-38
1960.59 4301.52 -274.24301 1.8403113e-38
1981.8 4323.79 -274.71799 1.8403113e-38
1998.15 4339.5801 -274.729 1.8403113e-38
2019.03 4355.6802 -273.672 1.8403113e-38
2036.47 4374.0498 -274.07999 1.8403113e-38
2057.5901 4387.8198 -272.35599 1.8403113e-38
2074.98 4402.9902 -271.93799 1.8403113e-38
2097.9399 4422.1001 -271.14499 1.8403113e-38
2118.1101 4446.48 -272.439 1.8403113e-38
2142.55 4467.98 -271.89899 1.8403113e-38
2160.8601 4481.48 -270.81201 1.8403113e-38
2188.05 4510.0898 -271.444 1.8403113e-38
2256.7 4571.5698 -270.21201 1.8403113e-38
-1098.8199 1327.0601 -267.56201 1.8403113e-38
2206.4199 4521.3198 -269.74399 1.8403113e-38
2232.6699 4542.7598 -268.73401 1.8403113e-38
2283.01 4589.6099 -268.29599 1.8403113e-38
2308.5 4619.8101 -269.76999 1.8403113e-38
2337.73 4643.8398 -268.686 1.8403113e-38
2362.3601 4667.8799 -268.763 1.8403113e-38
2369.55 4623.04 -255.19501 1.8403113e-38
-1107.05 1235.36 -245.608 1.8403113e-38
-1008.6 1313.3199 -241.172 1.8403113e-38
2378.0901 4599.1201 -246.772 1.8403113e-38
-1313.78 985.21997 -232.278 1.8403113e-38
2390.8701 4573.8198 -236.91299 1.8403113e-38
-1347.0601 931.15997 -226.51801 1.8403113e-38
-971.28601 1276.72 -222.15401 1.8403113e-38
-1346.4399 903.34003 -219.07201 1.8403113e-38
-942.19501 1260.27 -210.49699 1.8403113e-38
-746.84998 1456.61 -212.604 1.8403113e-38
-1343.48 839.30298 -201.54201 1.8403113e-38
-1340.33 869.68799 -208.71001 1.8403113e-38
-1025.04 1162.5601 -205.81599 1.8403113e-38
-943.185 1236.16 -204.427 1.8403113e-38
-1412.87 731.255 -190.754 1.8403113e-38
-1342.67 802.06097 -191.57899 1.8403113e-38
2305.98 4244.98 -172.18201 1.8403113e-38
-1296.6801 762.41498 -169.573 1.8403113e-38
2311.3601 4222.5098 -164.933 1.8403113e-38
-1325.25 676.65002 -154.313 1.8403113e-38
-1264.77 752.84698 -159.004 1.8403113e-38
2328.9099 4186.3701 -151.032 1.8403113e-38
2319.05 4196.02 -156.048 1.8403113e-38
-1347.51 632.315 -148.319 1.8403113e-38
2346.0701 4184.5098 -146.207 1.8403113e-38
-1365.52 549.41803 -131.146 1.8403113e-38
-1373.48 575.36298 -139.95399 1.8403113e-38
2349.5801 4160.1001 -138.925 1.8403113e-38
2372.04 4170.71 -136.033 1.8403113e-38
-1835.0601 68.084198 -123.611 1.8403113e-38
-1377 500.565 -121.241 1.8403113e-38
-1847.8199 9.2381296 -111.415 1.8403113e-38
-1347.01 489.22601 -110.696 1.8403113e-38
-1488.39 348.452 -109.517 1.8403113e-38
2279.8301 3930.55 -96.388702 1.8403113e-38
-1739.2 1.28479 -81.892403 1.8403113e-38
-1550.84 189.336 -83.5933 1.8403113e-38
2273.76 3882.9399 -85.445801 1.8403113e-38
2285.0701 3850.45 -74.073997 1.8403113e-38
2275.1599 3861 -79.344299 1.8403113e-38
-1661.61 22.1301 -67.757103 1.8403113e-38
2295.4099 3817.8999 -62.934399 1.8403113e-38
2289.3601 3835.6899 -69.123596 1.8403113e-38
2316.1399 3807.3999 -54.947498 1.8403113e-38
2326.1799 3804.8701 -51.749599 1.8403113e-38
2305.0701 3814.6599 -59.647499 1.8403113e-38
2336.1699 3795.6599 -46.810902 1.8403113e-38
2345.1799 3791.21 -43.368698 1.8403113e-38
-1182.1 345.10901 -31.275101 1.8403113e-38
2363.8701 3777.24 -34.986599 1.8403113e-38
2375.4399 3771.1399 -30.465599 1.8403113e-38
2354 3780.1001 -38.2281 1.8403113e-38
2973.5901 4365.7998 -35.210098 1.8403113e-38
-1131.96 351.80399 -20.362499 1.8403113e-38
2398.78 3765.2 -23.013399 1.8403113e-38
2387.28 3771.54 -27.5776 1.8403113e-38
2974.8401 4340.6802 -28.309401 1.8403113e-38
2405.98 3757.72 -19.2356 1.8403113e-38
2422.6001 3759.6399 -15.5402 1.8403113e-38
2432.3701 3756.21 -12.1737 1.8403113e-38
2704.96 4021.29 -12.7837 1.8403113e-38
2977.23 4283.8599 -12.8186 1.8403113e-38
2975.49 4307.25 -19.3867 1.8403113e-38
-1117.02 321.13501 -8.5538998 1.8403113e-38
2445.3101 3751.9299 -7.7835498 1.8403113e-38
2476.8201 3757.02 -1.15827 1.8403113e-38
2465.45 3764.1299 -5.89429 1.8403113e-38
2976.95 4250.6401 -4.1830802 1.8403113e-38
-1040.77 350.37601 3.04533 1.8403113e-38
2485.3201 3727.8 8.6445398 1.8403113e-38
2477.6101 3739.96 3.51175 1.8403113e-38
2973.1001 4221.1099 2.58394 1.8403113e-38
-1011.09 332.65601 15.1857 1.8403113e-38
2973.47 4166.6602 16.946699 1.8403113e-38
2977.46 4195.1899 10.4771 1.8403113e-38
-1053.4 264.46899 22.366899 1.8403113e-38
2971.97 4134.7202 24.936001 1.8403113e-38
-991.90198 273.54001 35.5233 1.8403113e-38
2978.3999 4090.79 38.0737 1.8403113e-38
2974.27 4114.8901 30.712299 1.8403113e-38
-959.07501 268.94101 45.020199 1.8403113e-38
2972.99 4062.72 44.0602 1.8403113e-38
-921.31702 259.022 57.156898 1.8403113e-38
2968.96 4009.48 56.994202 1.8403113e-38
2969.8 4031.28 51.4944 1.8403113e-38
-904.93402 240.51401 66.145203 1.8403113e-38
2968.8999 3962.6001 69.265404 1.8403113e-38
2970.98 3984.97 63.9272 1.8403113e-38
-920.89099 182.06599 77.430901 1.8403113e-38
2970.9399 3938.98 75.968803 1.8403113e-38
-867.32202 197.66499 86.874397 1.8403113e-38
2963.4099 3886.8799 87.719002 1.8403113e-38
2969.6699 3918.23 81.0868 1.8403113e-38
-833.64502 185.104 98.672501 1.8403113e-38
2790.8201 3693.47 94.809097 1.8403113e-38
-839.724 145.114 107.616 1.8403113e-38
2751.71 3599.3701 109.59 1.8403113e-38
2736.3501 3603.7 104.573 1.8403113e-38
2731.76 3614.02 100.713 1.8403113e-38
