# .PCD v0.7 - Point Cloud Data file format
VERSION 0.7
FIELDS x y z rgb
SIZE 4 4 4 4
TYPE F F F F
COUNT 1 1 1 1
WIDTH 357
HEIGHT 1
VIEWPOINT 0 0 0 1 0 0 0
POINTS 357
DATA ascii
-866.78998 1637.1801 -290.76599 1.8403113e-38
-1172.52 1299.2 -282.47101 1.8403113e-38
-1152.35 1336.58 -286.89999 1.8403113e-38
-1109.99 1383.13 -287.97601 1.8403113e-38
-1060.6899 1431.62 -287.771 1.8403113e-38
-1021.78 1474.62 -288.82101 1.8403113e-38
-973.211 1520.64 -288.16501 1.8403113e-38
-936.95898 1560.63 -289.12701 1.8403113e-38
-901.17102 1599.59 -289.94199 1.8403113e-38
-818.08301 1679.29 -289.069 1.8403113e-38
-786.54401 1714.14 -289.91901 1.8403113e-38
-747.16699 1751.02 -289.27802 1.8403113e-38
-714.84802 1784.63 -289.60901 1.8403113e-38
-678.41699 1818.89 -289.04999 1.8403113e-38
-649.11603 1850.0601 -289.52899 1.8403113e-38
-620.422 1880.39 -289.95001 1.8403113e-38
-589.521 1910.77 -289.81601 1.8403113e-38
-549.79602 1943.11 -287.914 1.8403113e-38
-516.34698 1972.83 -286.95499 1.8403113e-38
-487.327 2000.63 -286.64099 1.8403113e-38
-458.01901 2027.91 -286.117 1.8403113e-38
-440.80301 2051.4299 -287.741 1.8403113e-38
-410.96201 2077.76 -286.83499 1.8403113e-38
-387.539 2101.9199 -287.026 1.8403113e-38
-357.18301 2127.23 -285.72601 1.8403113e-38
-342.85599 2148.3401 -287.47198 1.8403113e-38
-318.73901 2171.26 -287.16199 1.8403113e-38
-296.32101 2193.3401 -287.077 1.8403113e-38
-274.65302 2214.8401 -287.03299 1.8403113e-38
-258.55899 2234.8601 -288.043 1.8403113e-38
-244.207 2254.25 -289.33801 1.8403113e-38
-214.243 2276.01 -287.228 1.8403113e-38
-195.664 2295.3799 -287.42899 1.8403113e-38
-181.74001 2313.6699 -288.55399 1.8403113e-38
-157.01601 2333.25 -287.23001 1.8403113e-38
-142.761 2350.96 -288.11801 1.8403113e-38
-124.478 2368.9099 -288.03201 1.8403113e-38
-107.975 2386.3101 -288.26199 1.8403113e-38
-90.352997 2403.53 -288.15799 1.8403113e-38
-65.796501 2421.1201 -286.367 1.8403113e-38
-57.5807 2436.78 -288.28101 1.8403113e-38
-34.679501 2453.51 -286.69199 1.8403113e-38
-23.2847 2468.97 -287.73901 1.8403113e-38
-4.9683299 2484.6899 -287.07101 1.8403113e-38
3.7717099 2499.54 -288.64301 1.8403113e-38
24.2785 2514.8101 -287.29501 1.8403113e-38
41.023399 2529.5801 -286.78601 1.8403113e-38
50.125099 2543.8201 -288.10901 1.8403113e-38
68.069199 2558.1101 -287.168 1.8403113e-38
86.121101 2572.1001 -286.12201 1.8403113e-38
104.277 2585.78 -284.97101 1.8403113e-38
108.977 2599.21 -287.21799 1.8403113e-38
126.369 2612.4199 -286.14001 1.8403113e-38
134.185 2625.54 -287.50601 1.8403113e-38
146.938 2638.3999 -287.53201 1.8403113e-38
165.578 2650.8201 -285.93301 1.8403113e-38
173.69 2663.4399 -287.09299 1.8403113e-38
192.5 2675.3401 -285.314 1.8403113e-38
197.909 2687.8101 -287.13101 1.8403113e-38
213.995 2699.4199 -285.978 1.8403113e-38
224.395 2711.25 -286.345 1.8403113e-38
234.88 2722.9099 -286.64899 1.8403113e-38
246.407 2734.3201 -286.61801 1.8403113e-38
258.013 2745.55 -286.51999 1.8403113e-38
264.922 2757.1599 -287.73099 1.8403113e-38
286.21899 2766.8501 -284.74399 1.8403113e-38
296.13599 2777.76 -284.99799 1.8403113e-38
304.23001 2788.79 -285.755 1.8403113e-38
317.146 2798.97 -285.05099 1.8403113e-38
321.60699 2810.3601 -286.832 1.8403113e-38
339.38199 2819.3999 -284.58401 1.8403113e-38
343.05801 2830.73 -286.55499 1.8403113e-38
358.11301 2839.8701 -285.03201 1.8403113e-38
367.582 2849.8999 -285.177 1.8403113e-38
373.37399 2860.5901 -286.43701 1.8403113e-38
382.05099 2870.5901 -286.77701 1.8403113e-38
397.315 2878.98 -285.00601 1.8403113e-38
400.53601 2890.01 -287.017 1.8403113e-38
415.896 2898.03 -285.12701 1.8403113e-38
425.741 2907.24 -284.96399 1.8403113e-38
439.327 2915.3201 -283.548 1.8403113e-38
441.004 2926.52 -285.99701 1.8403113e-38
449.19501 2935.8799 -286.298 1.8403113e-38
462.01401 2943.77 -285.03201 1.8403113e-38
469.40399 2953.1599 -285.54401 1.8403113e-38
479.582 2961.5901 -285.09399 1.8403113e-38
489.80701 2969.8701 -284.595 1.8403113e-38
494.67001 2979.8401 -285.909 1.8403113e-38
504.103 2988.2 -285.633 1.8403113e-38
509.112 2998.04 -286.875 1.8403113e-38
524.896 3003.8999 -284.32101 1.8403113e-38
525.58301 3015.22 -287.05801 1.8403113e-38
544.95697 3019.3601 -283.138 1.8403113e-38
546.677 3030.23 -285.492 1.8403113e-38
565.172 3034.29 -281.776 1.8403113e-38
553.052 3050.8999 -289.17099 1.8403113e-38
563.776 3058.04 -288.24701 1.8403113e-38
577.99402 3063.5 -285.99301 1.8403113e-38
583.586 3072.6499 -286.91 1.8403113e-38
584.95801 3083.75 -289.41199 1.8403113e-38
597.55103 3089.5901 -287.67499 1.8403113e-38
613.55298 3093.6001 -284.58899 1.8403113e-38
625.29498 3099.49 -283.08099 1.8403113e-38
628.62701 3109.49 -284.79901 1.8403113e-38
640.43298 3115.1299 -283.211 1.8403113e-38
648.078 3122.8201 -283.224 1.8403113e-38
649.96802 3133.5901 -285.508 1.8403113e-38
656.09302 3142.0901 -286.11801 1.8403113e-38
669.66803 3146.3301 -283.715 1.8403113e-38
670.17297 3157.95 -286.578 1.8403113e-38
686.21997 3160.49 -283.10001 1.8403113e-38
690.92798 3169.6299 -284.23999 1.8403113e-38
694.91602 3179.23 -285.685 1.8403113e-38
707.76202 3183.28 -283.423 1.8403113e-38
711.08698 3193.29 -285.14099 1.8403113e-38
722.38397 3198.1101 -283.47601 1.8403113e-38
726.64203 3207.51 -284.79901 1.8403113e-38
731.76599 3216.3601 -285.758 1.8403113e-38
745.46399 3219.26 -282.97699 1.8403113e-38
751.45697 3227.4199 -283.534 1.8403113e-38
755.99597 3236.6299 -284.73801 1.8403113e-38
761.37903 3245.27 -285.57599 1.8403113e-38
775.21753 3253.875 -284.228 1.8403113e-38
784.65601 3265.74 -284.853 1.8403113e-38
795.44202 3270.0601 -283.189 1.8403113e-38
801.84998 3277.8101 -283.534 1.8403113e-38
809.047 3284.9099 -283.508 1.8403113e-38
813.42401 3294.3601 -284.815 1.8403113e-38
823.59601 3298.8999 -283.36499 1.8403113e-38
827.41498 3308.8999 -284.95499 1.8403113e-38
843.82251 3314.4399 -282.15851 1.8403113e-38
849.16602 3329.9199 -284.767 1.8403113e-38
864.64148 3335.9902 -282.345 1.8403113e-38
873.40198 3348.3899 -283.28201 1.8403113e-38
879.78601 3356.1599 -283.63901 1.8403113e-38
886.89899 3363.21 -283.62399 1.8403113e-38
896.677 3367.5 -282.211 1.8403113e-38
905.16998 3373.05 -281.453 1.8403113e-38
908.58002 3384.03 -283.39999 1.8403113e-38
913.38702 3393.6201 -284.63199 1.8403113e-38
919.55499 3401.8 -285.14999 1.8403113e-38
932.00403 3402.8799 -282.224 1.8403113e-38
935.20001 3414.49 -284.388 1.8403113e-38
946.43201 3416.78 -282.08801 1.8403113e-38
951.63501 3426.1799 -283.16699 1.8403113e-38
959.91199 3431.9099 -282.51199 1.8403113e-38
965.29303 3441.24 -283.52899 1.8403113e-38
974.14502 3454.4551 -284.64951 1.8403113e-38
987.16602 3462.3501 -283.332 1.8403113e-38
988.98901 3476.8401 -286.59201 1.8403113e-38
999.30402 3479.96 -284.73801 1.8403113e-38
1006.34 3487.5601 -284.88599 1.8403113e-38
1012.37 3496.6699 -285.67499 1.8403113e-38
1021.7 3501.0801 -284.41 1.8403113e-38
1027.9 3510.0901 -285.13501 1.8403113e-38
1035.75 3516.72 -284.819 1.8403113e-38
1043.16 3524.0801 -284.806 1.8403113e-38
1052.65 3528.1899 -283.423 1.8403113e-38
1058.6899 3537.8301 -284.349 1.8403113e-38
1063.38 3549.8701 -286.23901 1.8403113e-38
1072.08 3555.4099 -285.42801 1.8403113e-38
1081.77 3559.26 -283.923 1.8403113e-38
1097.0601 3574.0901 -283.80499 1.8403113e-38
1104.6 3581.8401 -283.85999 1.8403113e-38
1107.34 3598.72 -287.49799 1.8403113e-38
1119.0601 3598.8799 -284.52301 1.8403113e-38
1129.87 3600.6001 -282.18201 1.8403113e-38
1136.45 3610.6599 -283.08099 1.8403113e-38
1143.15 3620.71 -283.939 1.8403113e-38
1151.21 3628.1599 -283.78299 1.8403113e-38
1157.36 3639.8401 -285.20801 1.8403113e-38
1164.84 3648.9299 -285.62 1.8403113e-38
1174.73 3652.77 -284.065 1.8403113e-38
1183.14 3660.01 -283.76199 1.8403113e-38
1192 3666.3101 -283.104 1.8403113e-38
1199.48 3676.0601 -283.685 1.8403113e-38
1208.15 3683.1201 -283.272 1.8403113e-38
1215.53 3693.6599 -284.086 1.8403113e-38
1225.0699 3698.8401 -282.965 1.8403113e-38
1233.99 3705.72 -282.439 1.8403113e-38
1239.48 3722.3799 -285.31299 1.8403113e-38
1249.9 3725.5801 -283.45499 1.8403113e-38
1259.12 3732.29 -282.80899 1.8403113e-38
1266.9301 3743.45 -283.66901 1.8403113e-38
1277.5 3746.4099 -281.71301 1.8403113e-38
1285 3759.28 -283.09601 1.8403113e-38
1294.3199 3766.6499 -282.59399 1.8403113e-38
1301.88 3780.3601 -284.17499 1.8403113e-38
1310.17 3792.21 -285.091 1.8403113e-38
1319.12 3802.1699 -285.35199 1.8403113e-38
1329.87 3805.6101 -283.46799 1.8403113e-38
1338.35 3818.22 -284.53201 1.8403113e-38
1347.46 3828.9299 -284.94299 1.8403113e-38
1358.01 3834 -283.53299 1.8403113e-38
1367.79 3842.72 -283.259 1.8403113e-38
1376.71 3856.05 -284.39499 1.8403113e-38
1386.39 3866.52 -284.59698 1.8403113e-38
1397.49 3870.3401 -282.724 1.8403113e-38
1406.22 3887.26 -284.83401 1.8403113e-38
1416.03 3899.4299 -285.439 1.8403113e-38
1425.09 3917.21 -287.68301 1.8403113e-38
1437.8199 3913.1399 -283.35999 1.8403113e-38
1448.09 3925.1001 -283.793 1.8403113e-38
1457.89 3941.75 -285.55499 1.8403113e-38
1469.3 3947.8501 -284.19101 1.8403113e-38
1479.2 3967.24 -286.63199 1.8403113e-38
1492.05 3962.6699 -282.14999 1.8403113e-38
1502.5601 3980 -283.90399 1.8403113e-38
1514.0601 3989.5901 -283.41501 1.8403113e-38
1525.46 4001.99 -283.66901 1.8403113e-38
1536.92 4016.22 -284.383 1.8403113e-38
1548.79 4027.49 -284.228 1.8403113e-38
1561.27 4030.96 -281.90799 1.8403113e-38
1573.52 4040.1101 -281.11099 1.8403113e-38
1585.38 4062.6899 -283.86801 1.8403113e-38
1598.03 4071.6599 -282.922 1.8403113e-38
1610.77 4082.46 -282.423 1.8403113e-38
1623.73 4090.27 -281.09698 1.8403113e-38
1636.77 4106.6802 -281.965 1.8403113e-38
1663.55 4131.46 -281.448 1.8403113e-38
1677.25 4143.6802 -281.07001 1.8403113e-38
1705.3199 4169.75 -280.55301 1.8403113e-38
1102.2 3544.1399 -274.77499 1.8403113e-38
1650.02 4111.3701 -279.76099 1.8403113e-38
1690.99 4150.9502 -279.40302 1.8403113e-38
1719.63 4181.6401 -279.92999 1.8403113e-38
1734.02 4191.4702 -278.755 1.8403113e-38
1748.84 4205.0601 -278.44 1.8403113e-38
1764.3199 4224.3501 -279.42099 1.8403113e-38
1779.15 4231.8701 -277.53799 1.8403113e-38
1794.92 4247.9902 -277.63 1.8403113e-38
1810.37 4258.1602 -276.26999 1.8403113e-38
1826.63 4274.0098 -276.164 1.8403113e-38
1843.4 4291.6602 -276.39099 1.8403113e-38
1860.22 4307.2202 -276.06601 1.8403113e-38
1877.5699 4324.5698 -276.065 1.8403113e-38
1895.79 4345.6401 -276.798 1.8403113e-38
1912.89 4356.8701 -275.28799 1.8403113e-38
1932.37 4381.46 -276.60199 1.8403113e-38
1950.8 4397.2002 -275.90701 1.8403113e-38
1969.17 4410.8301 -274.69 1.8403113e-38
1989.22 4432 -274.97601 1.8403113e-38
2009.46 4452.0098 -274.91699 1.8403113e-38
2030.85 4475.6699 -275.50201 1.8403113e-38
2051 4491.4502 -274.37701 1.8403113e-38
2072.3 4510.8701 -273.89301 1.8403113e-38
2093.71 4529.1201 -273.078 1.8403113e-38
2116.3899 4550.98 -272.86899 1.8403113e-38
2137.29 4564.04 -270.84698 1.8403113e-38
2165.1299 4602.5801 -273.604 1.8403113e-38
2189.3 4624.6802 -273.07101 1.8403113e-38
2213.8601 4646.5298 -272.37201 1.8403113e-38
2238.28 4666.2402 -271.159 1.8403113e-38
2265.8601 4695.1401 -271.49799 1.8403113e-38
2293.1001 4720.9199 -271.121 1.8403113e-38
2317.8401 4737 -268.892 1.8403113e-38
2361.6699 4748.73 -260.629 1.8403113e-38
2345.6299 4761.27 -267.987 1.8403113e-38
-1033.28 1336.11 -256.134 1.8403113e-38
2371.45 4718.3101 -250.285 1.8403113e-38
-1060.16 1268.14 -245.56 1.8403113e-38
-1329.16 947.953 -232.39 1.8403113e-38
-1041.0601 1249.72 -235.90401 1.8403113e-38
2371.55 4661.77 -235.70799 1.8403113e-38
-1344.01 907.26801 -225.741 1.8403113e-38
2369.3701 4601.6099 -220.787 1.8403113e-38
-1339.4 877.16901 -216.81 1.8403113e-38
-1074.3199 1118.33 -210.64999 1.8403113e-38
-949.55798 1241.24 -210.17101 1.8403113e-38
-953.67902 1266.39 -217.70399 1.8403113e-38
2382.3701 4585.1499 -213.20399 1.8403113e-38
-1341.37 843.02399 -208.52699 1.8403113e-38
-933.77802 1222.17 -201.201 1.8403113e-38
-733.65302 1452.65 -209.011 1.8403113e-38
2389.8501 4554.73 -203.451 1.8403113e-38
-1425.02 725.12402 -199.715 1.8403113e-38
-1341.25 809.77502 -199.94 1.8403113e-38
-1386.52 714.099 -186.96899 1.8403113e-38
-1323.79 684.50098 -163.20599 1.8403113e-38
-1267.97 754.20099 -166.778 1.8403113e-38
-1319.4399 652.56799 -153.869 1.8403113e-38
2294.24 4261.6201 -152.625 1.8403113e-38
-1340.48 603.44299 -146.64101 1.8403113e-38
2297.78 4230.1099 -143.605 1.8403113e-38
-1809.1899 79.511398 -132.436 1.8403113e-38
-1367.51 549.37299 -139.68201 1.8403113e-38
2305.3201 4209.6401 -136.394 1.8403113e-38
-1834.6801 16.9067 -122.886 1.8403113e-38
-1366.41 476.875 -120.742 1.8403113e-38
-1347.05 527.07898 -128.679 1.8403113e-38
2325.72 4183.1699 -124.332 1.8403113e-38
2314.47 4193.7002 -129.938 1.8403113e-38
-1831.46 -25.2246 -111.213 1.8403113e-38
2349.4199 4165.4702 -113.678 1.8403113e-38
2366.8999 4169.1001 -110.113 1.8403113e-38
2339.6201 4178.9102 -119.657 1.8403113e-38
-1321.02 472.13101 -107.838 1.8403113e-38
2348.6101 4096.1899 -96.058197 1.8403113e-38
-1851.15 -131.263 -88.990601 1.8403113e-38
-1500.38 183.561 -79.734596 1.8403113e-38
2272.8401 3906.3999 -66.714401 1.8403113e-38
-1401.6801 178.774 -53.101002 1.8403113e-38
2265.1499 3863.21 -57.5765 1.8403113e-38
2278.5601 3863.74 -54.261299 1.8403113e-38
2289.4099 3833.53 -43.694199 1.8403113e-38
2281.6101 3843.78 -48.338902 1.8403113e-38
-1243.67 265.23001 -34.682301 1.8403113e-38
2299.8799 3828.5 -39.706001 1.8403113e-38
2309.8201 3822.51 -35.603699 1.8403113e-38
2329.8201 3787.6001 -21.474701 1.8403113e-38
2311.99 3802.49 -29.896 1.8403113e-38
2326.5801 3805.05 -26.8004 1.8403113e-38
-1107.3199 337.685 -18.237801 1.8403113e-38
2348.3201 3774.1399 -13.2481 1.8403113e-38
2346.4099 3793.3701 -18.687201 1.8403113e-38
-1098.97 306.63 -8.0949602 1.8403113e-38
2382.6899 3764.73 -1.98197 1.8403113e-38
2361.3401 3773.6699 -9.7759199 1.8403113e-38
2374.3999 3773.0601 -6.2600098 1.8403113e-38
-1005.65 347.34698 5.4428802 1.8403113e-38
2402.25 3752.8799 6.1026902 1.8403113e-38
2416.9299 3754.3 9.5169401 1.8403113e-38
2395.2 3763.05 1.6716 1.8403113e-38
-994.16498 319.62299 15.5345 1.8403113e-38
2433.9199 3758.8401 12.7186 1.8403113e-38
2443.0801 3751.6899 16.9172 1.8403113e-38
2973.6799 4271.77 19.6339 1.8403113e-38
2968.28 4293.46 12.661 1.8403113e-38
-1013.95 264.27802 24.684799 1.8403113e-38
2466.99 3745.27 24.7237 1.8403113e-38
2481.8701 3745.9099 28.389799 1.8403113e-38
2459.6299 3755.0701 20.3067 1.8403113e-38
2659.95 3920.3899 29.317301 1.8403113e-38
2972.53 4242.3101 26.917999 1.8403113e-38
-974.034 261.03101 35.794701 1.8403113e-38
2493.8401 3742.3601 32.382401 1.8403113e-38
2541.26 3785.75 33.421799 1.8403113e-38
2969.0601 4210.6499 34.173199 1.8403113e-38
-937.18201 255.621 46.671799 1.8403113e-38
2975.01 4164.5698 47.563301 1.8403113e-38
2972.1899 4187.5898 40.913101 1.8403113e-38
-901.13098 250.006 57.395599 1.8403113e-38
2971 4134.0298 54.3913 1.8403113e-38
-906.74103 205.88699 67.305801 1.8403113e-38
2973.01 4086.1201 67.239998 1.8403113e-38
2966.5701 4103.6499 61.068699 1.8403113e-38
-951.612 123.62 76.929497 1.8403113e-38
2969.6899 4034.1001 79.773903 1.8403113e-38
2967.8401 4055.98 73.6651 1.8403113e-38
-896.836 135.754 87.904602 1.8403113e-38
2969.8999 4010.8201 85.819298 1.8403113e-38
-833.85901 157.05701 98.630699 1.8403113e-38
2969.3999 3964.5 97.610703 1.8403113e-38
2970.49 3988.3401 91.756104 1.8403113e-38
-846.33398 104.292 108.999 1.8403113e-38
2966.98 3917.8301 109 1.8403113e-38
2967.99 3940.76 103.359 1.8403113e-38
