# .PCD v0.7 - Point Cloud Data file format
VERSION 0.7
FIELDS x y z rgb
SIZE 4 4 4 4
TYPE F F F F
COUNT 1 1 1 1
WIDTH 356
HEIGHT 1
VIEWPOINT 0 0 0 1 0 0 0
POINTS 356
DATA ascii
-1451.79 2860.3501 -301.35999 1.8403113e-38
-1375.49 2870.01 -302.22 1.8403113e-38
-1298.3199 2878.22 -302.52701 1.8403113e-38
-1214.5601 2883.3899 -301.50601 1.8403113e-38
-1145.29 2891.3101 -301.98099 1.8403113e-38
-1071.36 2896.77 -301.40201 1.8403113e-38
-1010.86 2905.0801 -302.323 1.8403113e-38
-944.76898 2910.71 -302.077 1.8403113e-38
-888.23798 2918.3301 -302.88501 1.8403113e-38
-825.21503 2922.9299 -302.37201 1.8403113e-38
-766.07898 2927.8301 -302.104 1.8403113e-38
-710.80701 2933.1299 -302.11301 1.8403113e-38
-655.65198 2937.5901 -301.823 1.8403113e-38
-370.56799 2964.6599 -301.77399 1.8403113e-38
-329.061 2969.0701 -301.93701 1.8403113e-38
-294.87601 2976.02 -303.272 1.8403113e-38
-252.645 2978.8701 -302.84698 1.8403113e-38
-212.325 2981.9199 -302.55801 1.8403113e-38
-170.33701 2983.55 -301.69699 1.8403113e-38
-139.13699 2989.6399 -302.823 1.8403113e-38
-97.384102 2990.1201 -301.556 1.8403113e-38
-64.578598 2994.3701 -301.95999 1.8403113e-38
-23.0991 2993.71 -300.28601 1.8403113e-38
0.79215401 3001.47 -302.27301 1.8403113e-38
34.211899 3003.8701 -301.98599 1.8403113e-38
131.256 3009.6599 -300.73099 1.8403113e-38
162.534 3011.1699 -300.19601 1.8403113e-38
186.94901 3016.1899 -301.17099 1.8403113e-38
-3724.8101 2613.49 -290.49701 1.8403113e-38
-3519.5 2637.24 -292.00299 1.8403113e-38
-3341.96 2660.97 -294.46201 1.8403113e-38
-3150.5801 2680.0701 -294.767 1.8403113e-38
-2985.97 2699.7 -296.189 1.8403113e-38
-2813.52 2715.54 -295.96899 1.8403113e-38
-2659.9099 2731.47 -296.42801 1.8403113e-38
-2522.1299 2747.46 -297.45999 1.8403113e-38
-2385.4199 2761.4199 -297.79099 1.8403113e-38
-2271.3501 2777.21 -299.56699 1.8403113e-38
-2146.5901 2789.1699 -299.58801 1.8403113e-38
-2023.91 2799.52 -299.099 1.8403113e-38
-1912.09 2810.1101 -299.07001 1.8403113e-38
-1807.21 2820.3701 -299.16101 1.8403113e-38
-1696.63 2827.6899 -297.98801 1.8403113e-38
-1616.23 2840.1499 -299.724 1.8403113e-38
-1522.38 2848.1299 -299.37 1.8403113e-38
-569.08801 2929.6599 -295.95401 1.8403113e-38
74.424599 3002.0601 -299.94199 1.8403113e-38
106.735 3003.9299 -299.50201 1.8403113e-38
220.556 3015.3799 -299.71399 1.8403113e-38
250.673 3016.1201 -298.94 1.8403113e-38
304.77399 3019.99 -298.474 1.8403113e-38
274.86401 3020.04 -299.526 1.8403113e-38
327.996 3023.75 -299.035 1.8403113e-38
353.60901 3025.6101 -298.82001 1.8403113e-38
383.18399 3024.3999 -297.362 1.8403113e-38
431.50201 3027.99 -296.991 1.8403113e-38
455.931 3029.02 -296.51999 1.8403113e-38
401.34799 3030.47 -298.93301 1.8403113e-38
471.58801 3035.98 -298.5 1.8403113e-38
502.151 3031.8301 -295.94199 1.8403113e-38
519.29602 3037.1499 -297.27399 1.8403113e-38
549.56799 3032.26 -294.457 1.8403113e-38
566.59998 3037.0601 -295.60599 1.8403113e-38
582.09601 3042.8501 -297.17001 1.8403113e-38
606.66602 3041.1899 -295.71701 1.8403113e-38
623.60199 3045.3301 -296.63101 1.8403113e-38
646.47101 3044.3101 -295.47299 1.8403113e-38
669.22101 3043 -294.20999 1.8403113e-38
686.72302 3045.8101 -294.62299 1.8403113e-38
709.26801 3043.9399 -293.168 1.8403113e-38
725.20001 3047.5801 -293.93399 1.8403113e-38
741.823 3050.3799 -294.375 1.8403113e-38
758.40802 3052.99 -294.746 1.8403113e-38
777.76202 3052.75 -293.992 1.8403113e-38
795.633 3053.6101 -293.686 1.8403113e-38
809.98499 3057.6201 -294.64301 1.8403113e-38
827.06097 3058.76 -294.465 1.8403113e-38
837.30603 3066.54 -296.92899 1.8403113e-38
859.68298 3061.8101 -294.44199 1.8403113e-38
874.58698 3064.4399 -294.88 1.8403113e-38
890.11798 3066.2 -294.98199 1.8403113e-38
905.60303 3067.79 -295.022 1.8403113e-38
970.79602 3068.03 -292.85501 1.8403113e-38
1000.5 3069.97 -292.53201 1.8403113e-38
1016.18 3069.5801 -291.84799 1.8403113e-38
919.75299 3070.6299 -295.56 1.8403113e-38
931.33197 3076.1799 -297.17099 1.8403113e-38
952.39899 3070.78 -294.48801 1.8403113e-38
980.43103 3075.3101 -295.16101 1.8403113e-38
1026.42 3075.75 -293.72699 1.8403113e-38
1040.25 3077.3 -293.81299 1.8403113e-38
1056.36 3075.6799 -292.66901 1.8403113e-38
1070.65 3076.1599 -292.34799 1.8403113e-38
1080.35 3082.6201 -294.35501 1.8403113e-38
1095.71 3081.29 -293.34 1.8403113e-38
1109.33 3082.1101 -293.16699 1.8403113e-38
1120.71 3085.9099 -294.151 1.8403113e-38
1134.8 3085.6799 -293.57901 1.8403113e-38
1146.17 3089.25 -294.479 1.8403113e-38
1160.17 3088.73 -293.80899 1.8403113e-38
1174.1 3088.0701 -293.08701 1.8403113e-38
1188.98 3085.6499 -291.69601 1.8403113e-38
1202.76 3084.6799 -290.86801 1.8403113e-38
1213.02 3089.25 -292.16901 1.8403113e-38
1222.33 3095.3601 -294.06201 1.8403113e-38
1236.49 3093.2 -292.789 1.8403113e-38
1248.67 3094.1799 -292.72501 1.8403113e-38
1259.9 3096.7 -293.24899 1.8403113e-38
1286.39 3093.9099 -291.323 1.8403113e-38
1310.84 3093.95 -290.48999 1.8403113e-38
1321.09 3097.6001 -291.457 1.8403113e-38
1269.76 3101.6201 -294.68799 1.8403113e-38
1294.01 3102.8 -294.28 1.8403113e-38
1331.37 3101.1499 -292.39099 1.8403113e-38
1343.3 3101.21 -291.99899 1.8403113e-38
1367.4399 3100.1201 -290.76999 1.8403113e-38
1377.3101 3104.1499 -291.888 1.8403113e-38
1387.6 3107.23 -292.64899 1.8403113e-38
1400.86 3103.27 -290.75299 1.8403113e-38
1423.51 3103.6899 -290.12201 1.8403113e-38
1434.1 3105.5 -290.41199 1.8403113e-38
1444.02 3108.98 -291.33099 1.8403113e-38
1466.5 3108.6001 -290.41699 1.8403113e-38
-4693.9302 2495.53 -281.26001 1.8403113e-38
-4424.1201 2528.78 -283.98001 1.8403113e-38
-4180.1099 2559.8601 -286.806 1.8403113e-38
-3937.0701 2587.0701 -288.263 1.8403113e-38
1358 3095.1599 -289.297 1.8403113e-38
1412.92 3101.78 -289.79901 1.8403113e-38
1458.22 3100.8799 -287.905 1.8403113e-38
1478.92 3104.6899 -288.57199 1.8403113e-38
1490.64 3102.45 -287.354 1.8403113e-38
1501.41 3102.78 -287.103 1.8403113e-38
1511.5699 3104.8101 -287.487 1.8403113e-38
1563.75 3109.1399 -287.25 1.8403113e-38
1584.77 3109.3301 -286.59201 1.8403113e-38
1520.09 3112.1599 -289.85501 1.8403113e-38
1530.86 3112.23 -289.50699 1.8403113e-38
1541.09 3114.01 -289.79999 1.8403113e-38
1552.58 3111.1799 -288.37399 1.8403113e-38
1573.6899 3111.5601 -287.78299 1.8403113e-38
1594.92 3110.6599 -286.72299 1.8403113e-38
1604.03 3116.49 -288.51999 1.8403113e-38
1614.63 3115.8201 -287.91101 1.8403113e-38
1624.42 3118.74 -288.63101 1.8403113e-38
1635.35 3116.05 -287.27802 1.8403113e-38
1656.35 3114.0801 -285.83801 1.8403113e-38
1676.14 3118.24 -286.66199 1.8403113e-38
1644.29 3123.4199 -289.64099 1.8403113e-38
1665.04 3123.1499 -288.82401 1.8403113e-38
1685.4301 3124.3799 -288.56601 1.8403113e-38
1695.62 3124.8701 -288.39099 1.8403113e-38
1706.4301 3120.6201 -286.47601 1.8403113e-38
1716.1 3124.6599 -287.60699 1.8403113e-38
1725.73 3129.5601 -289.05099 1.8403113e-38
1736.91 3120.3701 -285.33401 1.8403113e-38
1746.38 3126.98 -287.401 1.8403113e-38
1757.1 3120.4099 -284.64999 1.8403113e-38
1766.53 3128.74 -287.341 1.8403113e-38
1777.0601 3122.9299 -284.87201 1.8403113e-38
1786.77 3129.22 -286.81799 1.8403113e-38
1797.04 3126.0601 -285.315 1.8403113e-38
1807.17 3124.6799 -284.46701 1.8403113e-38
1817.21 3125.1001 -284.272 1.8403113e-38
1857.39 3125.02 -282.853 1.8403113e-38
1827.12 3132.02 -286.436 1.8403113e-38
1837.23 3131.3401 -285.83801 1.8403113e-38
1847.33 3131.51 -285.552 1.8403113e-38
1867.53 3131.6101 -284.89001 1.8403113e-38
1877.61 3130.5901 -284.173 1.8403113e-38
1898.15 3138.6499 -286.384 1.8403113e-38
1918.47 3137.9199 -285.41501 1.8403113e-38
1888.15 3143.6001 -288.51999 1.8403113e-38
1908.46 3141.1499 -286.92999 1.8403113e-38
1929.09 3144 -287.25 1.8403113e-38
1939.37 3144.3601 -287.02499 1.8403113e-38
1949.49 3142.75 -286.095 1.8403113e-38
1959.87 3143.8799 -286.14401 1.8403113e-38
1970.0699 3143.05 -285.48999 1.8403113e-38
2000.99 3142.8501 -284.349 1.8403113e-38
1981.59 3153.3601 -288.828 1.8403113e-38
1991.75 3151.4199 -287.772 1.8403113e-38
2013.09 3154.74 -288.23901 1.8403113e-38
2023.09 3151.6101 -286.758 1.8403113e-38
2033.66 3152.1201 -286.578 1.8403113e-38
2044.42 3153.47 -286.69501 1.8403113e-38
2056.0701 3159.3701 -288.42999 1.8403113e-38
2066.03 3155.8999 -286.827 1.8403113e-38
2087.5901 3157.02 -286.48999 1.8403113e-38
2078.22 3163.45 -289.14099 1.8403113e-38
2099.3401 3161.6001 -287.742 1.8403113e-38
2109.8899 3160.55 -286.995 1.8403113e-38
2122.23 3166.75 -288.81799 1.8403113e-38
2132.1599 3162.76 -287.026 1.8403113e-38
2142.75 3161.4199 -286.17801 1.8403113e-38
2155.5601 3168.23 -288.20001 1.8403113e-38
2165.45 3163.97 -286.314 1.8403113e-38
2178.1899 3169.6299 -287.927 1.8403113e-38
2211.6499 3168.73 -286.44299 1.8403113e-38
2223.24 3169.4399 -286.298 1.8403113e-38
2257.26 3168.24 -284.68799 1.8403113e-38
2189.96 3171.55 -288.21301 1.8403113e-38
2200.95 3170.6399 -287.504 1.8403113e-38
2235.1799 3170.9299 -286.42801 1.8403113e-38
2246.53 3170.53 -285.88901 1.8403113e-38
2269.97 3171.2 -285.32199 1.8403113e-38
2283.0901 3174.9299 -286.21899 1.8403113e-38
2294.23 3173.21 -285.21301 1.8403113e-38
2307.5 3176.7 -286.01599 1.8403113e-38
2320.51 3179.1699 -286.46201 1.8403113e-38
2330.98 3175.3799 -284.72699 1.8403113e-38
2356.8799 3178.8601 -285.091 1.8403113e-38
2380.6001 3176.6399 -283.46799 1.8403113e-38
2345.6101 3181.1101 -286.298 1.8403113e-38
2370.1201 3180.8401 -285.35199 1.8403113e-38
2394.76 3180.1101 -284.23401 1.8403113e-38
2409.4399 3184.28 -285.23999 1.8403113e-38
2423.3701 3186.5901 -285.59601 1.8403113e-38
2436.96 3187.9099 -285.60501 1.8403113e-38
2451.05 3189.95 -285.854 1.8403113e-38
2463.4099 3188.46 -284.88699 1.8403113e-38
2476.25 3187.7 -284.16699 1.8403113e-38
2491.46 3190.99 -284.83401 1.8403113e-38
2505.8201 3192.45 -284.86899 1.8403113e-38
2521.22 3195.4299 -285.41501 1.8403113e-38
2535.74 3196.5901 -285.33301 1.8403113e-38
2550.3301 3197.6001 -285.194 1.8403113e-38
2564.99 3198.46 -284.99799 1.8403113e-38
2580.23 3199.97 -285.021 1.8403113e-38
2595.54 3201.3301 -284.98199 1.8403113e-38
2610.9299 3202.52 -284.88101 1.8403113e-38
2625.8701 3202.74 -284.44699 1.8403113e-38
2642.49 3205.2 -284.76199 1.8403113e-38
2659.21 3207.47 -285.00699 1.8403113e-38
2673.8 3206.4099 -284.11801 1.8403113e-38
2689.55 3206.76 -283.70001 1.8403113e-38
2704.8 3206.1599 -282.95599 1.8403113e-38
2721.8401 3207.72 -282.93201 1.8403113e-38
2755.5901 3209.5 -282.409 1.8403113e-38
2787.23 3207.5 -280.59299 1.8403113e-38
2743.0701 3214.47 -284.642 1.8403113e-38
2774.6799 3212.76 -282.931 1.8403113e-38
2809.5601 3214.1101 -282.215 1.8403113e-38
2825.8701 3213 -281.25 1.8403113e-38
2842.8601 3212.45 -280.46301 1.8403113e-38
-5297 2419.23 -274.46201 1.8403113e-38
-4983.5698 2459.1101 -278.07599 1.8403113e-38
-5547.3901 2371.45 -265.80701 1.8403113e-38
-204.701 2875.55 -263.75101 1.8403113e-38
2821.24 3166.95 -264.72501 1.8403113e-38
-268.46899 2839.7 -252.97 1.8403113e-38
-211.642 2858.2 -257.70599 1.8403113e-38
-5493.02 2308.5701 -241.147 1.8403113e-38
-205.52699 2835.8301 -249.39 1.8403113e-38
2863.6001 2978.9299 -195.134 1.8403113e-38
-4701.0698 2226.02 -183.856 1.8403113e-38
2629.04 2928.8101 -185.08299 1.8403113e-38
2862.3701 2946.0601 -183.269 1.8403113e-38
2858.3999 2958.1899 -187.8 1.8403113e-38
2621.6101 2905.1101 -176.752 1.8403113e-38
2853.6899 2922.98 -175.205 1.8403113e-38
2874.3201 2925.6499 -175.461 1.8403113e-38
-4789.1001 2173.9099 -168.01801 1.8403113e-38
2611.5601 2864.6799 -162.452 1.8403113e-38
2615.76 2883.74 -169.215 1.8403113e-38
2865.49 2888.2 -162.19501 1.8403113e-38
2862.9399 2900.8501 -166.867 1.8403113e-38
2621.1499 2846.6001 -155.57001 1.8403113e-38
2661.72 2846.0801 -153.98 1.8403113e-38
2702.75 2844.1001 -151.84399 1.8403113e-38
2616.4099 2855.6499 -159.01199 1.8403113e-38
2680.9399 2851.02 -155.106 1.8403113e-38
2694.6699 2850.3201 -154.37601 1.8403113e-38
2857.25 2866.8799 -154.757 1.8403113e-38
2876.22 2867.8799 -154.463 1.8403113e-38
-4666.8501 2117.95 -143.51801 1.8403113e-38
2619.3101 2817.3899 -145.052 1.8403113e-38
2875.6499 2839.03 -144.03101 1.8403113e-38
2875.26 2852.8201 -149.03799 1.8403113e-38
2587.02 2797.8301 -139.08 1.8403113e-38
2877.48 2812.8101 -134.465 1.8403113e-38
2877.4299 2826.5 -139.42599 1.8403113e-38
2878.1799 2773.23 -120.1 1.8403113e-38
2877.8501 2786.1799 -124.804 1.8403113e-38
2878.1499 2799.76 -129.714 1.8403113e-38
2876.74 2746.3601 -110.416 1.8403113e-38
2877.55 2759.76 -115.243 1.8403113e-38
2874.6299 2719.76 -100.85 1.8403113e-38
2883.1299 2737.98 -107.157 1.8403113e-38
-4896.5898 1954.4301 -92.211998 1.8403113e-38
2880.1599 2698.73 -93.039101 1.8403113e-38
2881.5901 2711.9299 -97.770897 1.8403113e-38
2884.2 2665.1799 -80.744797 1.8403113e-38
2876.8101 2672.5601 -83.671402 1.8403113e-38
2878.5701 2685.6101 -88.338997 1.8403113e-38
2879.98 2639.3201 -71.517899 1.8403113e-38
2882.1699 2652.21 -76.114403 1.8403113e-38
-4496.4399 1907.5699 -61.4007 1.8403113e-38
2875.98 2614.25 -62.573799 1.8403113e-38
2877.6201 2626.5 -66.956001 1.8403113e-38
2885.0701 2585.74 -51.928699 1.8403113e-38
2878.3501 2593.22 -54.874199 1.8403113e-38
2881.1299 2605.8601 -59.3564 1.8403113e-38
-4617.5098 1851.89 -45.4109 1.8403113e-38
2877.0601 2559.8501 -42.827202 1.8403113e-38
2882.03 2573.2 -47.490101 1.8403113e-38
-2063.6499 2055.79 -31.0009 1.8403113e-38
2887.1899 2532.8401 -32.689899 1.8403113e-38
2882.71 2541.29 -35.905602 1.8403113e-38
2881.71 2551.45 -39.622799 1.8403113e-38
-4676.1001 1796.5601 -27.388201 1.8403113e-38
2883.8 2500.04 -20.924101 1.8403113e-38
2884.7251 2515.96 -26.65975 1.8403113e-38
-2058.02 2023.6899 -19.1751 1.8403113e-38
2886.5449 2475.76 -12.031401 1.8403113e-38
2887.8999 2491.5801 -17.7174 1.8403113e-38
-4733.1699 1740.3 -8.9797401 1.8403113e-38
2885.885 2455.45 -4.6944399 1.8403113e-38
2882.53 2419.8401 8.0932703 1.8403113e-38
2885.7251 2435.635 2.4788146 1.8403113e-38
-4760.7402 1684.6801 10.222 1.8403113e-38
2883.8601 2391.52 18.3972 1.8403113e-38
2889.1599 2402.8999 14.4588 1.8403113e-38
2885.8899 2411.3799 11.2723 1.8403113e-38
2885.27 2363.6799 28.532801 1.8403113e-38
2884.26 2372.75 25.2146 1.8403113e-38
2888.8401 2383.6799 21.4121 1.8403113e-38
-4733.8901 1631.95 30.254801 1.8403113e-38
2887.76 2336.54 38.453201 1.8403113e-38
2885.1001 2345.02 35.288799 1.8403113e-38
2881.4099 2353.1899 32.201099 1.8403113e-38
-5211.29 1543.99 45.620098 1.8403113e-38
2889.9399 2318.75 44.9762 1.8403113e-38
2894.29 2310.72 48.034302 1.8403113e-38
2887.45 2327.25 41.810001 1.8403113e-38
2896.2 2283.8701 57.8298 1.8403113e-38
2890.1499 2291.5 54.856701 1.8403113e-38
2888.8799 2300.24 51.643799 1.8403113e-38
2894.3999 2256.49 67.688004 1.8403113e-38
2893.46 2265.24 64.483704 1.8403113e-38
2890.49 2273.5601 61.366199 1.8403113e-38
-3448.6101 1624.8101 77.273399 1.8403113e-38
2890.8101 2229.1699 77.461899 1.8403113e-38
2889.1499 2237.6899 74.317299 1.8403113e-38
2887.4099 2246.2 71.1754 1.8403113e-38
-5325.9399 1417.46 87.500198 1.8403113e-38
2895.3201 2203.53 86.908997 1.8403113e-38
2893.8899 2212.0901 83.757896 1.8403113e-38
2892.3899 2220.6399 80.608803 1.8403113e-38
2891.28 2168.0901 99.608101 1.8403113e-38
2891.1699 2176.75 96.466698 1.8403113e-38
2889.01 2185.1499 93.350098 1.8403113e-38
2884.79 2193.23 90.276497 1.8403113e-38
-5326.5801 1358.0699 108.999 1.8403113e-38
2885.1299 2141.5901 109 1.8403113e-38
2891.27 2155.1201 104.308 1.8403113e-38
