# .PCD v0.7 - Point Cloud Data file format
VERSION 0.7
FIELDS x y z rgb
SIZE 4 4 4 4
TYPE F F F F
COUNT 1 1 1 1
WIDTH 359
HEIGHT 1
VIEWPOINT 0 0 0 1 0 0 0
POINTS 359
DATA ascii
1165.63 -305.53201 -303.664 1.8403113e-38
1135.09 -270.828 -304.30701 1.8403113e-38
1104.33 -226.96899 -302.91199 1.8403113e-38
1077.11 -201.30901 -304.69901 1.8403113e-38
1047.3199 -154.931 -302.44699 1.8403113e-38
1020.29 -123.884 -302.94299 1.8403113e-38
994.41699 -90.516701 -302.578 1.8403113e-38
969.66699 -65.748398 -303.87201 1.8403113e-38
943.92499 -26.077999 -302.022 1.8403113e-38
919.43799 4.0198498 -302.017 1.8403113e-38
897.37097 27.616899 -302.823 1.8403113e-38
874.28198 55.233002 -302.99301 1.8403113e-38
851.815 88.967102 -301.58301 1.8403113e-38
830.09399 114.071 -301.94501 1.8403113e-38
809.77802 138.44 -302.07901 1.8403113e-38
789.51801 158.06599 -303.28699 1.8403113e-38
769.89801 183.755 -302.922 1.8403113e-38
749.38397 215.442 -301.42999 1.8403113e-38
730.67999 241.457 -300.73099 1.8403113e-38
712.12701 259.80499 -301.75101 1.8403113e-38
676.13098 309.655 -300.45599 1.8403113e-38
642.04401 353.233 -300.06299 1.8403113e-38
2685.8799 -2115.8 -290.569 1.8403113e-38
693.83099 292.95599 -299.297 1.8403113e-38
659.17401 334.297 -299.57901 1.8403113e-38
625.85797 378.133 -298.909 1.8403113e-38
609.44897 395.383 -299.577 1.8403113e-38
594.07703 412.72299 -299.931 1.8403113e-38
578.24902 433.14801 -299.70499 1.8403113e-38
563.53699 457.535 -298.25299 1.8403113e-38
548.40698 477.21399 -298.00101 1.8403113e-38
534.21399 493.04901 -298.36801 1.8403113e-38
519.49103 507.11301 -299.29199 1.8403113e-38
505.875 525.099 -299.00201 1.8403113e-38
491.953 545.19702 -298.31299 1.8403113e-38
478.991 564.33502 -297.57401 1.8403113e-38
465.37601 579.77502 -297.86899 1.8403113e-38
452.686 595.216 -297.90201 1.8403113e-38
439.30801 607.94702 -298.75201 1.8403113e-38
428.017 633.20398 -296.13501 1.8403113e-38
415.25 647.06897 -296.55301 1.8403113e-38
403.01801 658.02399 -297.48801 1.8403113e-38
390.53799 671.10602 -298.004 1.8403113e-38
379.79401 690.85602 -296.49799 1.8403113e-38
367.504 702.17999 -297.36401 1.8403113e-38
357.022 720.14203 -296.19501 1.8403113e-38
345.58801 734.48199 -296.12799 1.8403113e-38
334.509 745.89801 -296.63101 1.8403113e-38
323.32001 759.43103 -296.67899 1.8403113e-38
312.23499 769.09601 -297.58701 1.8403113e-38
301.423 782.77197 -297.496 1.8403113e-38
292.383 801.06799 -295.84299 1.8403113e-38
281.82199 813.91602 -295.87201 1.8403113e-38
271.617 824.78497 -296.254 1.8403113e-38
251.763 849.68701 -296.13599 1.8403113e-38
263.388 846.18201 -293.66 1.8403113e-38
241.235 859.98602 -296.741 1.8403113e-38
222.42999 885.23297 -296.24701 1.8403113e-38
234.575 882.237 -293.50699 1.8403113e-38
213.966 899.21997 -295.422 1.8403113e-38
204.084 909.75598 -295.79001 1.8403113e-38
195.16901 921.07397 -295.70499 1.8403113e-38
186.151 933.55499 -295.38199 1.8403113e-38
177.26601 944.05603 -295.47699 1.8403113e-38
168.586 956.63098 -295.03699 1.8403113e-38
163.073 976.27399 -292.07901 1.8403113e-38
142.077 986.97699 -295.54599 1.8403113e-38
152.28999 981.69 -293.87799 1.8403113e-38
134.70799 1001.52 -294.284 1.8403113e-38
116.6 1018.89 -295.40399 1.8403113e-38
126.704 1012.29 -294.069 1.8403113e-38
102.181 1044.41 -293.60699 1.8403113e-38
113.456 1041.25 -291.15201 1.8403113e-38
88.091904 1069.16 -291.89801 1.8403113e-38
97.705902 1062.36 -290.74799 1.8403113e-38
79.805199 1077.53 -292.31299 1.8403113e-38
70.740997 1085.34 -293.078 1.8403113e-38
64.650101 1098.13 -291.858 1.8403113e-38
56.215302 1106.89 -292.22501 1.8403113e-38
49.6031 1118.01 -291.535 1.8403113e-38
40.973 1126.02 -292.13101 1.8403113e-38
26.6369 1146.15 -291.55099 1.8403113e-38
19.212 1154.88 -291.64099 1.8403113e-38
12.7993 1166.42 -290.79999 1.8403113e-38
-9.8965998 1191.58 -291.42401 1.8403113e-38
-26.998199 1204.9 -293.189 1.8403113e-38
-39.815498 1224.89 -292.21399 1.8403113e-38
-59.408798 1253.63 -291.138 1.8403113e-38
-78.628098 1263.05 -294.39999 1.8403113e-38
-81.9786 1276.1899 -292.32501 1.8403113e-38
-90.5494 1282.75 -293.23599 1.8403113e-38
-105.427 1298.03 -293.92401 1.8403113e-38
-125.977 1339.45 -290.207 1.8403113e-38
36.778599 1141.4301 -289.77301 1.8403113e-38
4.8483157 1185.14 -288.742 1.8403113e-38
-14.8264 1204.85 -289.76401 1.8403113e-38
-27.7036 1224.67 -288.845 1.8403113e-38
-50.0793 1248.13 -289.76999 1.8403113e-38
-35.4949 1251.74 -284.82401 1.8403113e-38
-62.9547 1266.71 -289.134 1.8403113e-38
-90.248596 1300.4399 -289.086 1.8403113e-38
-103.077 1317.92 -288.69 1.8403113e-38
-110.126 1326.13 -288.793 1.8403113e-38
-118.475 1331.86 -289.83301 1.8403113e-38
-136.13901 1359.5 -288.46701 1.8403113e-38
-129.423 1351.12 -288.49799 1.8403113e-38
-140.55901 1369.74 -287.362 1.8403113e-38
-145.84801 1379.6 -286.58801 1.8403113e-38
-154.42999 1384.95 -287.78299 1.8403113e-38
-163.978 1390.01 -289.31299 1.8403113e-38
-175.543 1407.62 -288.53 1.8403113e-38
-166.746 1401.73 -287.401 1.8403113e-38
-178.08099 1419.35 -286.552 1.8403113e-38
-202.302 1438.59 -288.96701 1.8403113e-38
-191.05499 1435.09 -286.59799 1.8403113e-38
-182.14 1430.05 -285.23801 1.8403113e-38
-206.26649 1455.76 -286.1395 1.8403113e-38
-215.459 1467.75 -285.979 1.8403113e-38
-225.18201 1472.88 -287.54501 1.8403113e-38
-237.192 1489.3 -287.16299 1.8403113e-38
-224.758 1486.52 -284.29001 1.8403113e-38
-244.60001 1509.52 -284.60699 1.8403113e-38
-238.65601 1501.0601 -284.87201 1.8403113e-38
-253.774 1514.64 -286.01801 1.8403113e-38
-261.78101 1521.4399 -286.71701 1.8403113e-38
-271.439 1539.52 -285.28799 1.8403113e-38
-264.298 1532.04 -284.992 1.8403113e-38
-286.004 1553.74 -286.13101 1.8403113e-38
-270.77499 1552.42 -282.13699 1.8403113e-38
-288.155 1564.39 -284.29001 1.8403113e-38
-303.11801 1578.39 -285.29599 1.8403113e-38
-291.99899 1574.3101 -283.09698 1.8403113e-38
-309.89999 1586.24 -285.40601 1.8403113e-38
-310.134 1598 -282.76999 1.8403113e-38
-318.31699 1604.88 -283.50101 1.8403113e-38
-326.18799 1611.4399 -284.21399 1.8403113e-38
-339.69699 1626.73 -284.513 1.8403113e-38
-327.173 1623.0699 -281.82001 1.8403113e-38
-346.099 1634.9301 -284.436 1.8403113e-38
-350.56699 1643.75 -283.67099 1.8403113e-38
-362.78201 1659.99 -283.38501 1.8403113e-38
-358.453 1651.09 -284.20901 1.8403113e-38
-366.46399 1669.8 -282.17001 1.8403113e-38
-374.745 1676.46 -282.97699 1.8403113e-38
-386.543 1681.85 -285.069 1.8403113e-38
-396.505 1699.63 -283.79501 1.8403113e-38
-389.77802 1691.39 -283.79001 1.8403113e-38
-399.577 1709.21 -282.45999 1.8403113e-38
-405.32401 1717.98 -282.06699 1.8403113e-38
-413.319 1725.13 -282.67999 1.8403113e-38
-420.64401 1733.23 -282.888 1.8403113e-38
-434.909 1749.22 -283.23901 1.8403113e-38
-425.125 1742.15 -282.10199 1.8403113e-38
-438.39801 1758.64 -282.06 1.8403113e-38
-448.08801 1765.91 -283.12201 1.8403113e-38
-458.40302 1772.5 -284.51999 1.8403113e-38
-460.15201 1783.26 -282.54199 1.8403113e-38
-469.49899 1790.4 -283.539 1.8403113e-38
-483.85599 1807.1899 -283.733 1.8403113e-38
-468.42999 1802.22 -280.522 1.8403113e-38
-483.49301 1818.7 -280.98401 1.8403113e-38
-494.41599 1825.59 -282.48499 1.8403113e-38
-503.70499 1833.72 -283.23901 1.8403113e-38
-506.48199 1843.6 -281.75201 1.8403113e-38
-515.65503 1851.9301 -282.42801 1.8403113e-38
-530.05103 1869.58 -282.43399 1.8403113e-38
-521.89301 1860.75 -282.16 1.8403113e-38
-533.43597 1879.37 -281.14001 1.8403113e-38
-543.28699 1887.86 -281.97 1.8403113e-38
-550.18402 1896.75 -281.87399 1.8403113e-38
-555.34003 1906.7 -281.04099 1.8403113e-38
-568.54498 1914.11 -283.06601 1.8403113e-38
-570.79797 1924.9399 -281.215 1.8403113e-38
-582.06097 1933.08 -282.521 1.8403113e-38
-586.93103 1943.37 -281.53101 1.8403113e-38
-592.51099 1953.01 -280.89099 1.8403113e-38
-601.87799 1962.45 -281.36499 1.8403113e-38
-611.052 1971.52 -281.871 1.8403113e-38
-619.35797 1981.41 -281.94199 1.8403113e-38
-623.71997 1991.58 -280.83801 1.8403113e-38
-634.698 2001.2 -281.72601 1.8403113e-38
-653.52399 2020.84 -282.52499 1.8403113e-38
-659.47498 2031.08 -281.853 1.8403113e-38
-662.60999 2042.3101 -280.15701 1.8403113e-38
-679.89697 2063.01 -280.27802 1.8403113e-38
-690.28601 2073.0801 -280.896 1.8403113e-38
-700.69098 2083.8601 -281.35501 1.8403113e-38
-707.12299 2094.5901 -280.70499 1.8403113e-38
-741.72803 2139.04 -280.259 1.8403113e-38
-750.67603 2150.75 -280.09399 1.8403113e-38
-840.24799 2260 -280.26901 1.8403113e-38
1157.3 -180.69501 -277.32599 1.8403113e-38
-637.02502 2011.8199 -279.94199 1.8403113e-38
-668.39697 2052.6799 -279.40701 1.8403113e-38
-712.59302 2106.04 -279.61801 1.8403113e-38
-720.76703 2116.8101 -279.45001 1.8403113e-38
-731.79999 2128.0901 -279.97198 1.8403113e-38
-753.71899 2162.22 -278.315 1.8403113e-38
-769.20502 2174 -279.98099 1.8403113e-38
-777.83099 2185.5601 -279.758 1.8403113e-38
-782.56097 2197.8701 -278.26401 1.8403113e-38
-795.81403 2209.6799 -279.29199 1.8403113e-38
-800.34399 2222.21 -277.69101 1.8403113e-38
-815.33899 2234.4199 -279.11801 1.8403113e-38
-822.55298 2247.26 -278.20401 1.8403113e-38
-841.46698 2272.9099 -277.64801 1.8403113e-38
-850.28198 2285.6399 -277.20999 1.8403113e-38
-860.92102 2299.25 -277.086 1.8403113e-38
-867.59497 2312.1499 -276.005 1.8403113e-38
-887.64697 2326.8701 -278.28201 1.8403113e-38
-887.35199 2339.49 -275.297 1.8403113e-38
-901.38098 2354.1599 -275.88599 1.8403113e-38
-911.45801 2368.03 -275.54401 1.8403113e-38
-927.16101 2383.3799 -276.44901 1.8403113e-38
-927.37201 2396.4399 -273.50699 1.8403113e-38
-943.77502 2412.3301 -274.48499 1.8403113e-38
-952.39899 2426.77 -273.60101 1.8403113e-38
-968.52197 2443.1699 -274.38199 1.8403113e-38
-970.16498 2456.8999 -271.69199 1.8403113e-38
-985.04303 2473.5901 -272.056 1.8403113e-38
-993.138 2488.6799 -270.87201 1.8403113e-38
-1006.76 2505.6699 -270.81201 1.8403113e-38
-1031.7 2539.3201 -270.11899 1.8403113e-38
-1046.84 2556.75 -270.388 1.8403113e-38
2683.8201 -2020.36 -269.21701 1.8403113e-38
1172.33 -153.67 -266.875 1.8403113e-38
-1016.48 2521.48 -269.92401 1.8403113e-38
-1056 2573.8601 -269.04099 1.8403113e-38
-1068.92 2591.3401 -268.67001 1.8403113e-38
-1082.5 2609.99 -268.21799 1.8403113e-38
-1098.86 2628.8899 -268.49399 1.8403113e-38
-1120.59 2650.28 -269.711 1.8403113e-38
-1128.0699 2667.53 -267.858 1.8403113e-38
-1146.55 2688.8 -268.186 1.8403113e-38
-1161.21 2708.6001 -267.77301 1.8403113e-38
-1182.08 2731.3601 -268.43301 1.8403113e-38
-1188.83 2749.46 -266.17801 1.8403113e-38
-1198.96 2769.6299 -264.40399 1.8403113e-38
-1223.0699 2793.79 -265.659 1.8403113e-38
-1241.14 2817.28 -265.36099 1.8403113e-38
-1262.89 2841.6299 -265.90399 1.8403113e-38
-1273.04 2863.22 -263.80701 1.8403113e-38
-1301.6801 2890.95 -265.51801 1.8403113e-38
-1319.62 2916.21 -264.77899 1.8403113e-38
-1340.3101 2942.0701 -264.672 1.8403113e-38
-1359.53 2968.77 -263.96201 1.8403113e-38
-1376.9 2994.3 -263 1.8403113e-38
-1397.35 3022.47 -262.29901 1.8403113e-38
-1426.87 3054.05 -263.37399 1.8403113e-38
-1443.04 3081.53 -261.621 1.8403113e-38
-1471.85 3114.0801 -262.27499 1.8403113e-38
-1608.11 3286.8899 -261.022 1.8403113e-38
2739.9199 -2046.92 -259.48401 1.8403113e-38
1190.9 -145.877 -259.84201 1.8403113e-38
1209.5601 -134.85201 -252.041 1.8403113e-38
-1477.47 3137.8501 -258.396 1.8403113e-38
-1503.8 3170.4399 -258.33899 1.8403113e-38
-1524.92 3202.28 -256.98499 1.8403113e-38
-1542.48 3231.95 -255.12399 1.8403113e-38
-1622.16 3316.3201 -258.22501 1.8403113e-38
-1652.2 3355.55 -257.68701 1.8403113e-38
-1682.1801 3394.4399 -257.21399 1.8403113e-38
2768.02 -2013.55 -243.886 1.8403113e-38
1226.3101 -121.02 -244.136 1.8403113e-38
-1621.3199 3386.7 -241.814 1.8403113e-38
1243.8 -106.832 -235.939 1.8403113e-38
-1607.23 3402.23 -234.269 1.8403113e-38
-1630.67 3439.7 -232.276 1.8403113e-38
-1680.85 3491.8999 -234.444 1.8403113e-38
1313.24 -128.20399 -221.25 1.8403113e-38
1260.41 -93.679001 -228.228 1.8403113e-38
1280.65 -89.632698 -221.586 1.8403113e-38
-1668.0699 3510.1699 -226.636 1.8403113e-38
-1710.3 3559.6299 -227.19099 1.8403113e-38
1343.8199 -154.827 -218.737 1.8403113e-38
1328.95 -45.835602 -197.88699 1.8403113e-38
1341.0699 -18.5996 -188.207 1.8403113e-38
1356.13 -3.74523 -180.54401 1.8403113e-38
1383.97 -22.1257 -176.91 1.8403113e-38
1405.0601 -23.7225 -171.32401 1.8403113e-38
1422.9 -13.6653 -163.978 1.8403113e-38
2297.3501 -1040.64 -153.158 1.8403113e-38
1423.53 37.9282 -151.94299 1.8403113e-38
1436.71 58.3228 -143.537 1.8403113e-38
-1181.5601 3268.1001 -144.946 1.8403113e-38
2284.8301 -952.07098 -136.34 1.8403113e-38
1721.75 -236.80499 -130.90401 1.8403113e-38
1534.8 -26.1492 -135.261 1.8403113e-38
1449.47 76.646202 -135.72501 1.8403113e-38
1472.4 72.4245 -130.22301 1.8403113e-38
-1153.16 3270.29 -136.425 1.8403113e-38
2299.45 -918.76501 -124.56 1.8403113e-38
1755.99 -255.57899 -125.555 1.8403113e-38
1653.3 -139.317 -127.82 1.8403113e-38
1608.33 -92.210999 -129.687 1.8403113e-38
1560.77 -34.137901 -129.76801 1.8403113e-38
-1031.76 3214.9199 -114.883 1.8403113e-38
-1015.66 3222.97 -108.492 1.8403113e-38
-1020.01 3244.96 -104.663 1.8403113e-38
2767.6799 -1343.6 -90.028397 1.8403113e-38
2205.0701 -688.854 -98.366501 1.8403113e-38
2209.76 -643.28497 -86.571297 1.8403113e-38
2241.05 -642.03998 -77.453499 1.8403113e-38
2261.5901 -624.78302 -67.690399 1.8403113e-38
-719.06097 3065.0801 -61.058201 1.8403113e-38
-969.69202 3365.0701 -62.862 1.8403113e-38
2562.1001 -949.81702 -57.562099 1.8403113e-38
2304.25 -641.74701 -59.546902 1.8403113e-38
-971.802 3386.26 -58.587898 1.8403113e-38
-965.32001 3402.0901 -53.120602 1.8403113e-38
-960.70898 3418.48 -48.051498 1.8403113e-38
-922.73798 3409.3601 -39.431599 1.8403113e-38
-905.599 3415.3999 -33.205601 1.8403113e-38
2341.8799 -549.38397 -27.7006 1.8403113e-38
-914.12598 3443.4199 -29.172199 1.8403113e-38
-896.79797 3449.24 -22.9438 1.8403113e-38
-938.15698 3506 -21.5755 1.8403113e-38
2368.5 -539.84003 -17.994801 1.8403113e-38
-376.13901 2850.74 -13.5211 1.8403113e-38
-935.48901 3524.95 -16.466999 1.8403113e-38
-956.03198 3565.6899 -12.9034 1.8403113e-38
2364.73 -486.55899 -6.8145299 1.8403113e-38
-366.25601 2855.29 -9.6860704 1.8403113e-38
-350.39099 2856.1201 -5.0181398 1.8403113e-38
-357.56299 2872.4399 -3.2927799 1.8403113e-38
-358.62 2885.22 -0.65394598 1.8403113e-38
-924.39899 3582.51 -0.109699 1.8403113e-38
-962.42102 3593.5601 -8.3025904 1.8403113e-38
2348.3999 -413.73599 5.3126101 1.8403113e-38
-363.004 2900.03 1.51239 1.8403113e-38
-907.68597 3589.3201 6.1732702 1.8403113e-38
2370.0701 -400.56 14.4568 1.8403113e-38
-877.33197 3584.1899 13.5621 1.8403113e-38
-861.39203 3591.1899 19.669901 1.8403113e-38
2379.5 -367.62701 24.6852 1.8403113e-38
-831.289 3585.3301 26.819401 1.8403113e-38
2374.73 -317.47198 34.864498 1.8403113e-38
-808.29797 3584.8201 33.1903 1.8403113e-38
-785.56 3585.26 39.710602 1.8403113e-38
2388.98 -292.76401 44.564301 1.8403113e-38
-769.72601 3591.3 45.5681 1.8403113e-38
2404.3 -271.91 53.682098 1.8403113e-38
-742.94397 3586.8899 52.112301 1.8403113e-38
-740.88898 3607.01 57.316299 1.8403113e-38
2417.97 -247.026 63.258701 1.8403113e-38
-740.75299 3630.6299 62.782902 1.8403113e-38
-735.47498 3647.8999 68.242203 1.8403113e-38
2295.3701 -45.3228 75.003998 1.8403113e-38
-735.43903 3672.3899 73.878403 1.8403113e-38
-734.99799 3695.6799 79.356201 1.8403113e-38
2304.49 -18.2682 83.7967 1.8403113e-38
-734.31897 3720.3301 85.211601 1.8403113e-38
2311.1599 9.6888399 92.1026 1.8403113e-38
-739.117 3750.6101 90.816002 1.8403113e-38
-731.29199 3767.8 96.975502 1.8403113e-38
2327.71 26.6043 100.66 1.8403113e-38
2352.6899 31.3312 108.797 1.8403113e-38
-181.64301 3145.3999 109.087 1.8403113e-38
-724.521 3785.21 102.887 1.8403113e-38
