# .PCD v0.7 - Point Cloud Data file format
VERSION 0.7
FIELDS x y z rgb
SIZE 4 4 4 4
TYPE F F F F
COUNT 1 1 1 1
WIDTH 359
HEIGHT 1
VIEWPOINT 0 0 0 1 0 0 0
POINTS 359
DATA ascii
1466.65 -497.43301 -310.466 1.8403113e-38
1508.49 -529.72101 -309.60599 1.8403113e-38
1417.96 -436.89401 -305.086 1.8403113e-38
1381.1899 -411.70099 -306.728 1.8403113e-38
1345.76 -377.401 -305.52301 1.8403113e-38
1306.38 -342.224 -305.004 1.8403113e-38
1272.91 -308.95901 -303.62601 1.8403113e-38
1236.67 -277.47501 -303.39301 1.8403113e-38
1206.8199 -249.918 -302.75201 1.8403113e-38
1173.16 -221.325 -302.71799 1.8403113e-38
1143.96 -192.19701 -301.48599 1.8403113e-38
1113.38 -168.431 -302.069 1.8403113e-38
1085.17 -138.69099 -300.43399 1.8403113e-38
1054.36 -110.527 -299.85001 1.8403113e-38
1028.39 -83.932701 -298.56201 1.8403113e-38
1001.29 -63.544201 -299.26501 1.8403113e-38
975.64203 -34.547001 -297.23599 1.8403113e-38
951.37 -20.168301 -298.94501 1.8403113e-38
926.34497 10.272 -296.367 1.8403113e-38
903.06799 24.2185 -297.96301 1.8403113e-38
881.49402 45.680901 -297.069 1.8403113e-38
857.14099 66.727898 -296.944 1.8403113e-38
836.31403 88.611198 -295.758 1.8403113e-38
814.828 101.583 -297.203 1.8403113e-38
794.46997 124.807 -295.534 1.8403113e-38
773.172 140.10699 -296.28799 1.8403113e-38
753.95801 161.799 -294.776 1.8403113e-38
733.31299 177.506 -295.263 1.8403113e-38
714.79602 199.549 -293.48901 1.8403113e-38
693.39502 223.312 -291.91599 1.8403113e-38
678.35999 230.35001 -293.49399 1.8403113e-38
658.974 246.80901 -293.47601 1.8403113e-38
642.88501 262.767 -292.823 1.8403113e-38
624.258 278.61099 -292.798 1.8403113e-38
608.84601 293.88901 -292.17499 1.8403113e-38
591.69299 303.319 -293.586 1.8403113e-38
576.63202 319.82199 -292.539 1.8403113e-38
560.008 328.58801 -294.01001 1.8403113e-38
544.51801 354.021 -290.58401 1.8403113e-38
528.37701 363.078 -291.85999 1.8403113e-38
498.63901 389.40201 -291.534 1.8403113e-38
514.37402 380.07199 -290.42899 1.8403113e-38
469.755 417.17801 -290.604 1.8403113e-38
377.47501 491.28799 -291.69901 1.8403113e-38
363.65601 508.565 -290.14499 1.8403113e-38
485.069 407.58499 -289.67099 1.8403113e-38
456.819 433.642 -289.069 1.8403113e-38
441.91199 443.48499 -289.83801 1.8403113e-38
429.703 453.39301 -289.95401 1.8403113e-38
414.96701 470.229 -288.73901 1.8403113e-38
389.00299 488.711 -289.70499 1.8403113e-38
403.13 480.32901 -288.71399 1.8403113e-38
352.55899 525.76202 -287.974 1.8403113e-38
339.168 536.49902 -288.138 1.8403113e-38
315.267 557.09998 -288.03101 1.8403113e-38
328.57199 553.84802 -285.80701 1.8403113e-38
305.164 575.55499 -285.276 1.8403113e-38
292.39001 583.80103 -285.987 1.8403113e-38
269.23499 596.47302 -287.90799 1.8403113e-38
282.18701 593.771 -285.61499 1.8403113e-38
259.952 614.23401 -285.15399 1.8403113e-38
247.672 621.89801 -285.91101 1.8403113e-38
237.957 631.20099 -285.60901 1.8403113e-38
226.595 644.75 -284.51401 1.8403113e-38
217.188 654.18201 -284.104 1.8403113e-38
195.92599 668.91602 -285.00601 1.8403113e-38
205.858 665.034 -283.75101 1.8403113e-38
184.73399 678.98602 -284.83801 1.8403113e-38
176.00301 689.617 -283.936 1.8403113e-38
164.006 693.25098 -285.746 1.8403113e-38
155.36099 703.06299 -285.05099 1.8403113e-38
144.74699 713.43597 -284.664 1.8403113e-38
136.57401 724.29102 -283.56799 1.8403113e-38
116.607 737.37097 -284.62601 1.8403113e-38
126.484 735.72601 -282.76199 1.8403113e-38
105.302 742.453 -285.871 1.8403113e-38
97.642998 753.52002 -284.595 1.8403113e-38
87.885498 764.29999 -283.89301 1.8403113e-38
69.162903 778.99298 -284.20999 1.8403113e-38
81.013 777.289 -281.89899 1.8403113e-38
60.060001 782.909 -285.26199 1.8403113e-38
44.002701 805.26898 -282.82199 1.8403113e-38
53.179901 802.15601 -281.53 1.8403113e-38
12.7103 816.47101 -287.064 1.8403113e-38
35.389301 817.30402 -281.50201 1.8403113e-38
4.23101 821.69 -287.60699 1.8403113e-38
-12.9017 837.526 -287.23199 1.8403113e-38
-3.6427801 834.87701 -285.79199 1.8403113e-38
-23.078199 843.69501 -287.91 1.8403113e-38
-36.204498 868.70001 -284.04599 1.8403113e-38
-26.960501 860.66302 -284.10699 1.8403113e-38
-42.796299 877.74902 -283.08099 1.8403113e-38
-53.9669 880.65002 -284.89999 1.8403113e-38
-58.551399 894.146 -282.22699 1.8403113e-38
-67.361504 902.40503 -282.00299 1.8403113e-38
-73.128304 912.45697 -280.565 1.8403113e-38
-89.204903 926.63202 -280.40399 1.8403113e-38
-106.188 938.47498 -281.10501 1.8403113e-38
30.881201 835.01599 -277.63901 1.8403113e-38
-80.538399 923.39203 -279.267 1.8403113e-38
-97.187302 935.95203 -279.69 1.8403113e-38
-110.626 954.65997 -277.64999 1.8403113e-38
-135.89301 969.57599 -279.44299 1.8403113e-38
-127.934 965.13 -278.80801 1.8403113e-38
-116.525 963.177 -276.66901 1.8403113e-38
-150.19299 985.39099 -278.409 1.8403113e-38
-141.452 982.495 -277.16 1.8403113e-38
-167.903 994.85901 -279.94101 1.8403113e-38
-155.472 998.35699 -276.047 1.8403113e-38
-172.004 1009.52 -276.82901 1.8403113e-38
-180.603 1012.68 -277.97299 1.8403113e-38
-186.358 1024.15 -276.138 1.8403113e-38
-202.433 1035.8 -276.67801 1.8403113e-38
-192.868 1030.62 -275.87201 1.8403113e-38
-204.69701 1048.65 -273.63901 1.8403113e-38
-221.397 1059.03 -274.68201 1.8403113e-38
-213.584 1054.73 -274.039 1.8403113e-38
-232.886 1061.4 -276.72198 1.8403113e-38
-245.53999 1077.58 -275.19901 1.8403113e-38
-232.493 1077.34 -272.20001 1.8403113e-38
-261.23499 1089.4 -275.604 1.8403113e-38
-253.772 1081.38 -276.07901 1.8403113e-38
-276.15601 1102.22 -275.54901 1.8403113e-38
-264.25201 1100.04 -273.35599 1.8403113e-38
-287.88101 1118.91 -273.668 1.8403113e-38
-278.98099 1112.89 -273.24701 1.8403113e-38
-297.685 1120.91 -275.41599 1.8403113e-38
-304.40948 1136.415 -272.68701 1.8403113e-38
-332.26901 1157.14 -273.47601 1.8403113e-38
-322.41901 1152.09 -272.564 1.8403113e-38
-347.28601 1169.6801 -273.51999 1.8403113e-38
-333.03201 1169.28 -270.28101 1.8403113e-38
-360.13 1184.49 -272.42401 1.8403113e-38
-376.729 1195.52 -273.258 1.8403113e-38
-366.44299 1190.63 -272.20001 1.8403113e-38
-379.57501 1205.0601 -271.27802 1.8403113e-38
-392.453 1219.6801 -270.241 1.8403113e-38
-385.67499 1213.99 -270.23001 1.8403113e-38
-412.08499 1228.22 -272.48099 1.8403113e-38
-406.04901 1221.74 -272.86499 1.8403113e-38
-430.97699 1237.83 -274.25201 1.8403113e-38
-415.80701 1239.26 -270.289 1.8403113e-38
-434.55801 1248.97 -271.99799 1.8403113e-38
-440.39001 1255.66 -271.508 1.8403113e-38
-459.741 1265.35 -273.36499 1.8403113e-38
-448.13 1263.25 -271.21799 1.8403113e-38
-476.05099 1277.77 -273.746 1.8403113e-38
-462.95801 1276.61 -270.991 1.8403113e-38
-489.93701 1292.21 -272.996 1.8403113e-38
-507.444 1304.17 -273.78799 1.8403113e-38
-497.383 1300.29 -272.50201 1.8403113e-38
-508.60199 1316.74 -270.569 1.8403113e-38
-532.078 1324.9399 -273.80801 1.8403113e-38
-517.04102 1321.84 -271.133 1.8403113e-38
-531.03802 1336.51 -270.34799 1.8403113e-38
-550.409 1347.9 -271.733 1.8403113e-38
-544.46198 1340.9 -272.28201 1.8403113e-38
-557.38898 1356.58 -270.96399 1.8403113e-38
-564.034 1363.2 -270.686 1.8403113e-38
-585.60797 1374 -272.755 1.8403113e-38
-589.08099 1384.89 -270.54501 1.8403113e-38
-598.03302 1390.42 -271.112 1.8403113e-38
-631.38599 1419.1899 -270.95599 1.8403113e-38
-674.466 1457.3199 -270.48499 1.8403113e-38
1410.1 -271.32101 -260.92001 1.8403113e-38
-310.85599 1151.91 -269.89499 1.8403113e-38
-345.23099 1184.53 -268.91 1.8403113e-38
-476.09 1291.38 -269.97299 1.8403113e-38
-566.815 1374.41 -268.22198 1.8403113e-38
-604.50903 1404.885 -268.61401 1.8403113e-38
-620.03601 1414.5699 -269.57101 1.8403113e-38
-643.10699 1436.4301 -268.918 1.8403113e-38
-630.12201 1432.46 -266.97101 1.8403113e-38
-655.33398 1443.17 -269.92099 1.8403113e-38
-652.828 1454.6899 -266.129 1.8403113e-38
-679.61298 1465.4 -269.45001 1.8403113e-38
-686.46698 1474.96 -268.40201 1.8403113e-38
-694.11499 1482.04 -268.23401 1.8403113e-38
-711.91498 1497.58 -268.09698 1.8403113e-38
-699.95001 1492.12 -266.802 1.8403113e-38
-716.729 1508.1899 -266.28101 1.8403113e-38
-735.763 1511.21 -269.91599 1.8403113e-38
-740.45801 1522.03 -268.01099 1.8403113e-38
-756.86798 1539.05 -267.13901 1.8403113e-38
-745.14697 1530.66 -266.716 1.8403113e-38
-762.33899 1547.5 -266.07599 1.8403113e-38
-774.86401 1555.88 -266.69199 1.8403113e-38
-778.401 1565.08 -264.96701 1.8403113e-38
-798.13 1571.49 -267.82401 1.8403113e-38
-801.552 1580.86 -266.02301 1.8403113e-38
-816.24402 1599.62 -264.263 1.8403113e-38
-806.52698 1592 -264.09698 1.8403113e-38
-829.37598 1608.66 -264.83701 1.8403113e-38
-838.08099 1616.8 -264.61899 1.8403113e-38
-850.18103 1626.4399 -264.78699 1.8403113e-38
-862.51398 1633.9301 -265.60199 1.8403113e-38
-873.57098 1644.15 -265.362 1.8403113e-38
-878.32202 1653.66 -263.836 1.8403113e-38
-887.354 1664.54 -262.93399 1.8403113e-38
-899.49402 1672.64 -263.53699 1.8403113e-38
-911.21301 1683.26 -263.33899 1.8403113e-38
-923.25702 1691.7 -263.82501 1.8403113e-38
-932.94397 1703.02 -262.95599 1.8403113e-38
-944.88 1711.79 -263.32599 1.8403113e-38
-955.36298 1723.27 -262.60001 1.8403113e-38
-967.18402 1732.36 -262.85101 1.8403113e-38
-977.50897 1744.17 -261.995 1.8403113e-38
-996.86603 1752.59 -264.20599 1.8403113e-38
-1006.08 1764.92 -262.94501 1.8403113e-38
-1017.65 1774.72 -262.94101 1.8403113e-38
-1029.5699 1787.05 -262.315 1.8403113e-38
-1040.05 1797.29 -261.93301 1.8403113e-38
-1050.8199 1810.0699 -260.91299 1.8403113e-38
-1063.0699 1820.46 -260.90601 1.8403113e-38
-1073.65 1833.59 -259.74301 1.8403113e-38
-1083.8199 1844.45 -259.11499 1.8403113e-38
-1095.16 1857.87 -258.05301 1.8403113e-38
-1114.86 1868.61 -259.69699 1.8403113e-38
-1124.0699 1882.54 -257.98901 1.8403113e-38
-1143.62 1893.8199 -259.45001 1.8403113e-38
-1152.6 1908.14 -257.582 1.8403113e-38
-1163.23 1920.03 -256.77701 1.8403113e-38
-1183.67 1934.66 -257.513 1.8403113e-38
-1193.13 1946.9301 -256.327 1.8403113e-38
-1212.37 1962.15 -256.61801 1.8403113e-38
-1223.58 1974.84 -255.728 1.8403113e-38
-1230.87 1990.24 -253.16299 1.8403113e-38
-1259.4301 2004 -256.052 1.8403113e-38
-1267.4399 2019.89 -253.51801 1.8403113e-38
-1287 2033.87 -254.229 1.8403113e-38
-1303.51 2050.75 -253.41901 1.8403113e-38
-1312.11 2064.51 -251.617 1.8403113e-38
-1337.11 2082.6599 -252.45 1.8403113e-38
-1346.4399 2096.8999 -250.68401 1.8403113e-38
-1365.28 2115.1799 -250.033 1.8403113e-38
-1390.92 2131.6499 -251.481 1.8403113e-38
-1407.48 2150.4299 -250.15601 1.8403113e-38
-1422.13 2166.28 -249.19299 1.8403113e-38
-1447.1 2186.8501 -249.347 1.8403113e-38
-1455.62 2202.3999 -247.02699 1.8403113e-38
-1478.28 2223.4099 -246.515 1.8403113e-38
-1503 2242.0601 -247.14101 1.8403113e-38
-1519.4399 2262.8999 -245.215 1.8403113e-38
-1542.84 2282.1201 -245.37199 1.8403113e-38
-1564.6801 2304.74 -244.22 1.8403113e-38
-1587.71 2324.73 -244.07899 1.8403113e-38
-1603.3101 2346.9399 -241.57201 1.8403113e-38
-1658.42 2394.4199 -241.33099 1.8403113e-38
-1681.6 2416.1799 -240.733 1.8403113e-38
-1618.25 2365.97 -239.795 1.8403113e-38
-1703.9301 2441.73 -238.882 1.8403113e-38
-1729.55 2464.98 -238.44 1.8403113e-38
-1750.39 2491.1399 -236.06799 1.8403113e-38
-1781.25 2516.76 -236.201 1.8403113e-38
-1810.09 2546.2 -234.799 1.8403113e-38
-1839.46 2572.5801 -234.37199 1.8403113e-38
-1869.55 2603.6699 -232.806 1.8403113e-38
-1917.28 2636.8401 -234.804 1.8403113e-38
-1937.2 2666.23 -231.319 1.8403113e-38
-1984.22 2700.78 -232.769 1.8403113e-38
-2021.3 2737.1799 -231.367 1.8403113e-38
1359.35 -113.789 -229.071 1.8403113e-38
1365.62 -87.481499 -220.287 1.8403113e-38
1416.76 -104.865 -213.09599 1.8403113e-38
1388.11 -86.275803 -214.664 1.8403113e-38
-1913.77 2720.4199 -210.75301 1.8403113e-38
1433.1 -90.832497 -205.35699 1.8403113e-38
1440.34 -67.739403 -197.23599 1.8403113e-38
1445.33 -33.4683 -186.53999 1.8403113e-38
1445.13 1.76644 -176.79601 1.8403113e-38
-1721.3199 2675.8401 -177.909 1.8403113e-38
1523.45 -19.199301 -164.214 1.8403113e-38
1475.48 22.7801 -163.823 1.8403113e-38
1448.03 37.6339 -166.145 1.8403113e-38
-1654.78 2669.5601 -164.01401 1.8403113e-38
1542.52 -17.9403 -159.382 1.8403113e-38
1559.65 -6.2406702 -152.104 1.8403113e-38
-1620.85 2677.97 -153.701 1.8403113e-38
1548.86 43.512001 -140.813 1.8403113e-38
-1607.47 2690.03 -147.205 1.8403113e-38
-1604.91 2709.8201 -141.103 1.8403113e-38
2716.1399 -916.27899 -133.183 1.8403113e-38
-1595.01 2723.0701 -135.093 1.8403113e-38
2532.6299 -732.93103 -125.362 1.8403113e-38
1535.6 102.332 -127.584 1.8403113e-38
1539.9399 125.615 -120.094 1.8403113e-38
-1596.7 2744.6799 -129.48599 1.8403113e-38
-1604.87 2765.46 -125.63 1.8403113e-38
-1607.9301 2788.0701 -120.069 1.8403113e-38
1559.4399 131.513 -113.871 1.8403113e-38
-1602.92 2803.54 -114.591 1.8403113e-38
1563.83 154.015 -106.586 1.8403113e-38
-1600.11 2823.8201 -108.293 1.8403113e-38
2487.48 -590.875 -96.496597 1.8403113e-38
1641.08 139.55701 -92.447899 1.8403113e-38
1580.88 163.49001 -99.946198 1.8403113e-38
1590.99 177.015 -93.810799 1.8403113e-38
-1565.86 2825.9399 -99.6548 1.8403113e-38
2459.3899 -519.96002 -83.392097 1.8403113e-38
1670.4 126.76 -89.112 1.8403113e-38
1678.86 149.323 -80.853104 1.8403113e-38
-1468.1801 2801.4399 -83.505302 1.8403113e-38
2481.8401 -501.52899 -72.994003 1.8403113e-38
1849 14.4936 -78.332199 1.8403113e-38
1710.8199 133.875 -77.632896 1.8403113e-38
-1457.6 2813.26 -77.7323 1.8403113e-38
-1445.6 2827.9199 -70.8396 1.8403113e-38
1722.01 152.716 -69.768799 1.8403113e-38
-1443.75 2843.9299 -65.952599 1.8403113e-38
2430.3799 -406.61499 -58.712101 1.8403113e-38
1822.2 112.431 -57.414398 1.8403113e-38
1774.54 145.286 -59.4851 1.8403113e-38
-1439.46 2862.45 -59.8013 1.8403113e-38
-1439.95 2879.8501 -55.077702 1.8403113e-38
2443.76 -379.461 -48.020599 1.8403113e-38
2472.5701 -376.927 -40.546101 1.8403113e-38
-1442.33 2902.1201 -49.4505 1.8403113e-38
-1437.1801 2916.79 -44.161499 1.8403113e-38
-1490.59 2967.6899 -42.572701 1.8403113e-38
-1530.12 3008.2 -40.604401 1.8403113e-38
-1521.61 3026.1101 -33.626499 1.8403113e-38
2455.6599 -317.19501 -27.9193 1.8403113e-38
-1530.12 3049.97 -28.995001 1.8403113e-38
-1523.77 3069.4099 -22.1007 1.8403113e-38
2463.6699 -292.48599 -19.169701 1.8403113e-38
-1518.98 3085.76 -16.4314 1.8403113e-38
-2580.26 3975.8 -18.530399 1.8403113e-38
2468.74 -257.98901 -8.3928003 1.8403113e-38
2491.4099 -249.08701 -0.589917 1.8403113e-38
-1519.03 3109.3301 -9.8920698 1.8403113e-38
-1518.11 3128.3401 -4.3925099 1.8403113e-38
-2580.8501 4008.78 -9.5045605 1.8403113e-38
2514.72 -233.763 9.1480303 1.8403113e-38
-1531.08 3160.6899 1.54787 1.8403113e-38
-1640.0601 3252.05 1.3217 1.8403113e-38
-2583.49 4050.6399 1.50958 1.8403113e-38
2598.8101 -285.845 14.438 1.8403113e-38
-1524.46 3201.0801 14.3273 1.8403113e-38
-1561.54 3246.6699 18.283899 1.8403113e-38
-2580.8701 4082.1001 10.8653 1.8403113e-38
-2566.49 4112.3701 22.6597 1.8403113e-38
2377 -28.639601 33.7822 1.8403113e-38
2372.9399 4.17419 41.947601 1.8403113e-38
-1895.92 3642.23 49.617298 1.8403113e-38
2384.5701 27.575701 51.1833 1.8403113e-38
2399.48 41.726002 58.6199 1.8403113e-38
2421.6799 55.157501 67.570198 1.8403113e-38
-1791.7 3594.6299 60.882702 1.8403113e-38
-1779.4301 3610.73 68.2416 1.8403113e-38
2445.99 60.899502 74.881798 1.8403113e-38
-1769.84 3634.47 77.094398 1.8403113e-38
2791.6699 -212.787 80.072098 1.8403113e-38
2801.54 -189.61 88.832802 1.8403113e-38
-1773.6 3663.54 84.289101 1.8403113e-38
2809.2 -157.97301 99.424599 1.8403113e-38
-1768.84 3691.72 93.240196 1.8403113e-38
2819.3 -135.38 108.077 1.8403113e-38
-1550.52 3566.3999 109.727 1.8403113e-38
-1906.46 3832.9299 100.135 1.8403113e-38
