# .PCD v0.7 - Point Cloud Data file format
VERSION 0.7
FIELDS x y z rgb
SIZE 4 4 4 4
TYPE F F F F
COUNT 1 1 1 1
WIDTH 359
HEIGHT 1
VIEWPOINT 0 0 0 1 0 0 0
POINTS 359
DATA ascii
1773.09 -54.561501 -308.306 1.8403113e-38
1734.38 -33.221001 -307.603 1.8403113e-38
1693.41 -7.30548 -305.77399 1.8403113e-38
1657.28 12.5457 -305.14001 1.8403113e-38
1621.5699 32.840801 -304.293 1.8403113e-38
1555.6 68.058403 -303.47 1.8403113e-38
1582.11 60.221802 -301.742 1.8403113e-38
1527.27 79.5495 -304.30301 1.8403113e-38
1493.1801 101.481 -302.66 1.8403113e-38
1462.51 118.747 -301.98599 1.8403113e-38
1438.55 125.32 -303.716 1.8403113e-38
1405.65 148.383 -301.51199 1.8403113e-38
1381.24 157.261 -302.56201 1.8403113e-38
1350.55 178.467 -300.60699 1.8403113e-38
1326.6801 187.92799 -301.379 1.8403113e-38
1250.79 229.245 -300.172 1.8403113e-38
1184.16 258.923 -301.26401 1.8403113e-38
1773.1 -19.829901 -296.978 1.8403113e-38
1296.75 209.808 -299.082 1.8403113e-38
1273 220.70799 -299.366 1.8403113e-38
1224.53 246.80099 -298.69199 1.8403113e-38
1202.8 255.842 -299.255 1.8403113e-38
1155.95 283.48999 -297.811 1.8403113e-38
1134.54 294.13599 -297.79999 1.8403113e-38
1092.79 315.211 -297.67499 1.8403113e-38
1109.49 313.944 -295.38901 1.8403113e-38
1071.33 328.32501 -296.867 1.8403113e-38
1047.6 347.978 -294.29401 1.8403113e-38
1030.99 350.71201 -296.086 1.8403113e-38
1010.66 363.57901 -295.17599 1.8403113e-38
990.245 377.569 -293.91299 1.8403113e-38
971.10602 389.03601 -293.267 1.8403113e-38
954.13599 395.215 -293.995 1.8403113e-38
935.10602 407.97299 -292.91 1.8403113e-38
918.77899 413.577 -293.72198 1.8403113e-38
899.60199 428.54401 -291.94 1.8403113e-38
868.315 438.715 -293.67999 1.8403113e-38
883.612 434.478 -292.58899 1.8403113e-38
850.38702 452.36099 -292.12799 1.8403113e-38
819.68903 464.367 -293.17401 1.8403113e-38
832.98999 465.25699 -290.73401 1.8403113e-38
802.42401 478.50699 -291.353 1.8403113e-38
771.25598 497 -290.35999 1.8403113e-38
742.32202 509.504 -290.95901 1.8403113e-38
756.50299 504.12299 -290.422 1.8403113e-38
674.99402 527.90503 -295.841 1.8403113e-38
701.01398 523.58002 -293.04501 1.8403113e-38
713.30499 525.35199 -290.48099 1.8403113e-38
686.17401 535.11902 -291.681 1.8403113e-38
659.60303 544.41699 -292.94299 1.8403113e-38
39.493401 858.68903 -290.68301 1.8403113e-38
21.496401 868.87299 -290.271 1.8403113e-38
785.91101 490.948 -289.965 1.8403113e-38
725.98499 525.349 -288.43201 1.8403113e-38
643.58698 566.74597 -288.25 1.8403113e-38
604.21698 589.05103 -287.34 1.8403113e-38
617.20203 581.50201 -287.703 1.8403113e-38
629.29999 580.69702 -286.01001 1.8403113e-38
579.68201 595.93103 -289.061 1.8403113e-38
591.37299 596.711 -286.918 1.8403113e-38
567.14899 602.854 -288.82999 1.8403113e-38
542.289 618.91699 -287.60901 1.8403113e-38
554.64697 610.83301 -288.24799 1.8403113e-38
530.15601 626.15198 -287.211 1.8403113e-38
506.34 639.96899 -286.55399 1.8403113e-38
518.15198 633.487 -286.759 1.8403113e-38
494.48599 649.40399 -285.39301 1.8403113e-38
483.06 653.22302 -285.995 1.8403113e-38
449.08499 669.99597 -286.01599 1.8403113e-38
460.37701 662.09302 -286.76901 1.8403113e-38
471.52399 661.89398 -285.03201 1.8403113e-38
437.98401 672.28198 -287.065 1.8403113e-38
415.991 689.48102 -285.01099 1.8403113e-38
426.914 680.36298 -286.21899 1.8403113e-38
394.155 690.87799 -288.08499 1.8403113e-38
405.22299 698.68201 -283.75101 1.8403113e-38
373.01099 707.80603 -285.98199 1.8403113e-38
383.784 706.89099 -284.539 1.8403113e-38
362.754 718.28198 -284.22299 1.8403113e-38
341.81299 726.21698 -285.01999 1.8403113e-38
352.55399 726.93799 -283.04901 1.8403113e-38
321.53299 739.198 -284.065 1.8403113e-38
331.58401 732.19702 -284.72299 1.8403113e-38
300.73801 744.01599 -285.85501 1.8403113e-38
311.12201 741.56403 -284.97601 1.8403113e-38
290.82501 750.30902 -285.40399 1.8403113e-38
271.54599 764.98901 -283.733 1.8403113e-38
281.48901 760.42902 -283.61301 1.8403113e-38
241.175 773.539 -285.854 1.8403113e-38
252.28799 777.14099 -282.883 1.8403113e-38
262.48901 775.237 -281.85501 1.8403113e-38
222.10899 785.21899 -285.12701 1.8403113e-38
232.25101 783.06403 -284.19 1.8403113e-38
213.06 793.01599 -284.04599 1.8403113e-38
184.57401 807.56299 -283.90701 1.8403113e-38
205.07001 805.495 -281.26801 1.8403113e-38
175.062 811.94397 -284.01501 1.8403113e-38
195.711 810.63501 -281.10501 1.8403113e-38
157.119 824.57898 -282.79501 1.8403113e-38
167.15601 822.80902 -281.75 1.8403113e-38
127.797 833.125 -284.74701 1.8403113e-38
139.52499 837.466 -281.436 1.8403113e-38
149.233 834.63702 -280.79001 1.8403113e-38
121.496 847.883 -280.953 1.8403113e-38
61.150799 858.53802 -287.23199 1.8403113e-38
101.483 851.38 -283.047 1.8403113e-38
111.898 850.94 -281.50699 1.8403113e-38
51.625801 862.09698 -287.61099 1.8403113e-38
73.143501 862.17603 -284.10699 1.8403113e-38
84.438301 864.15399 -281.63599 1.8403113e-38
36.3759 879.10199 -284.53 1.8403113e-38
18.4175 888.43597 -284.388 1.8403113e-38
11.3179 897.54602 -282.565 1.8403113e-38
-9.2981501 900.37799 -284.974 1.8403113e-38
2.8668101 903.23401 -282.07599 1.8403113e-38
-25.2484 913.83698 -283.16299 1.8403113e-38
-15.3852 911.36603 -282.37399 1.8403113e-38
-40.4618 928.35199 -280.888 1.8403113e-38
-30.691401 925.74402 -280.16 1.8403113e-38
-57.438702 938.86401 -280.20401 1.8403113e-38
95.083298 864.45398 -279.81799 1.8403113e-38
-41.882198 947.88898 -274.746 1.8403113e-38
-72.884102 952.125 -278.37601 1.8403113e-38
-61.5201 952.55798 -276.39801 1.8403113e-38
-86.199097 968.87799 -275.065 1.8403113e-38
-76.233101 966.67902 -274.17099 1.8403113e-38
-105.208 975.18799 -276.07901 1.8403113e-38
-122.718 984.26099 -275.95001 1.8403113e-38
-109.432 987.37299 -272.78799 1.8403113e-38
-91.072197 980.16498 -272.17099 1.8403113e-38
-138.58701 996.01501 -274.68201 1.8403113e-38
-127.224 995.70898 -272.94501 1.8403113e-38
-166.66499 1007.05 -275.62 1.8403113e-38
-154.74001 1007.22 -273.63901 1.8403113e-38
-142.87399 1007.52 -271.62399 1.8403113e-38
-174.93201 1012.46 -275.194 1.8403113e-38
-212.013 1028.6899 -275.89301 1.8403113e-38
-190.784 1024.24 -273.914 1.8403113e-38
-179.92599 1022.57 -272.70499 1.8403113e-38
-229.289 1038.8199 -275.383 1.8403113e-38
-216.703 1038.98 -273.29501 1.8403113e-38
-197.8 1031.37 -272.724 1.8403113e-38
-245.834 1049.98 -274.41599 1.8403113e-38
-234.97 1047.71 -273.40302 1.8403113e-38
-266.41101 1056.35 -275.668 1.8403113e-38
-257.90399 1050.92 -276.06299 1.8403113e-38
-273.66199 1063.29 -274.57501 1.8403113e-38
-301.29599 1077.39 -274.444 1.8403113e-38
-290.45001 1074.49 -273.63501 1.8403113e-38
-280.84601 1070.28 -273.45499 1.8403113e-38
-317.888 1089.08 -273.314 1.8403113e-38
-305.80399 1087.39 -271.91199 1.8403113e-38
-333.466 1094.62 -274.02399 1.8403113e-38
-345.75201 1103.78 -273.02399 1.8403113e-38
-366.004 1112.26 -273.53 1.8403113e-38
-394.92001 1127.09 -273.36899 1.8403113e-38
-381.41199 1125.74 -271.62601 1.8403113e-38
-369.995 1122.58 -270.80899 1.8403113e-38
-427.19501 1139.67 -274.483 1.8403113e-38
-414.32599 1137.25 -273.19 1.8403113e-38
-402.88599 1133.72 -272.49399 1.8403113e-38
-452.14099 1159.4 -272.078 1.8403113e-38
-443.63101 1152.95 -272.80701 1.8403113e-38
-428.629 1152.17 -270.638 1.8403113e-38
-459.87299 1166.54 -271.00101 1.8403113e-38
-475.815 1173.825 -271.20148 1.8403113e-38
-504.61401 1184.8199 -272.26999 1.8403113e-38
-492.49701 1180.79 -271.62799 1.8403113e-38
-512.164 1192.42 -271.01199 1.8403113e-38
-544.57098 1208.48 -271.013 1.8403113e-38
-537.13501 1200.6 -272.383 1.8403113e-38
-558.99799 1211.55 -272.34299 1.8403113e-38
-579.20502 1224.0699 -271.526 1.8403113e-38
-565.565 1220.16 -270.59601 1.8403113e-38
-600.09399 1236.53 -270.83899 1.8403113e-38
-586.46503 1232.33 -270.00699 1.8403113e-38
-625.75598 1246.47 -271.745 1.8403113e-38
-613.73401 1240.92 -271.61499 1.8403113e-38
-699.26599 1282.02 -272.035 1.8403113e-38
-724.76703 1294.5 -272.08499 1.8403113e-38
-745.89899 1309.78 -270.51901 1.8403113e-38
-738.349 1300.5601 -272.30701 1.8403113e-38
-758.56201 1316.5601 -270.35599 1.8403113e-38
2506.3601 -276.42001 -262.13901 1.8403113e-38
-348.54099 1115.33 -269.707 1.8403113e-38
-519.65399 1200.09 -269.724 1.8403113e-38
-627.93701 1258.09 -268.30801 1.8403113e-38
-655.94501 1267.39 -269.80499 1.8403113e-38
-641.52399 1262.89 -268.94 1.8403113e-38
-666.21002 1274.4301 -269.16699 1.8403113e-38
-678.11401 1280.66 -269.05801 1.8403113e-38
-701.86102 1293.58 -268.685 1.8403113e-38
-765.12299 1326.38 -268.211 1.8403113e-38
-792.021 1339.85 -268.16599 1.8403113e-38
-778.58197 1333.03 -268.21899 1.8403113e-38
-798.396 1349.97 -265.896 1.8403113e-38
-818.836 1354.03 -267.87601 1.8403113e-38
-843.76398 1369.66 -266.80899 1.8403113e-38
-828.65302 1362.89 -266.57501 1.8403113e-38
-857.06897 1377.36 -266.45001 1.8403113e-38
-878.435 1382.0601 -268.36801 1.8403113e-38
-891.70502 1390.1899 -267.86401 1.8403113e-38
-910.85498 1409.59 -264.63101 1.8403113e-38
-897.68903 1401.1801 -265.24701 1.8403113e-38
-932.198 1415.3 -266.22 1.8403113e-38
-937.979 1426.64 -263.45499 1.8403113e-38
-959.29401 1432.85 -264.87601 1.8403113e-38
-973.237 1441.75 -264.22601 1.8403113e-38
-985.284 1451.4301 -263.01801 1.8403113e-38
-1020.38 1467.97 -263.293 1.8403113e-38
-1000.99 1460.14 -262.715 1.8403113e-38
-1028.54 1479.29 -260.923 1.8403113e-38
-1047.85 1487.6 -261.33301 1.8403113e-38
-1081.7 1506.3 -260.70499 1.8403113e-38
-1119.16 1525.09 -260.633 1.8403113e-38
2575.76 -275.40302 -250.59 1.8403113e-38
2534.76 -269.724 -255.36501 1.8403113e-38
-1059.63 1498.2 -259.78 1.8403113e-38
-1095.25 1516.84 -259.45801 1.8403113e-38
-1129.75 1536.75 -258.543 1.8403113e-38
-1151.6801 1546.03 -259.06 1.8403113e-38
-1165 1557.46 -257.48401 1.8403113e-38
-1186.84 1567.35 -257.79199 1.8403113e-38
-1208.65 1577.5601 -257.98499 1.8403113e-38
-1228.49 1588.47 -257.63501 1.8403113e-38
-1233.8199 1602.2 -254.02 1.8403113e-38
-1263.16 1611.98 -255.573 1.8403113e-38
-1285.71 1623.28 -255.53 1.8403113e-38
-1306.26 1635.23 -254.957 1.8403113e-38
-1325.77 1647.62 -254.06799 1.8403113e-38
-1353.95 1659.17 -254.85699 1.8403113e-38
-1372.34 1672.35 -253.53101 1.8403113e-38
-1395.52 1685.26 -253.067 1.8403113e-38
-1413.73 1699.04 -251.51601 1.8403113e-38
-1449.45 1711.41 -253.257 1.8403113e-38
-1461.62 1726.42 -250.32899 1.8403113e-38
-1489.35 1740.36 -250.265 1.8403113e-38
2599.3601 -263.069 -242.754 1.8403113e-38
1640.49 199.035 -247.037 1.8403113e-38
1651.21 214.16 -240.37199 1.8403113e-38
-1508.16 1755.37 -248.411 1.8403113e-38
-1545.52 1769.5 -249.84 1.8403113e-38
-1564.12 1785.25 -247.711 1.8403113e-38
-1593.4301 1800.8 -247.377 1.8403113e-38
-1620.66 1816.89 -246.53 1.8403113e-38
-1656.64 1833.17 -247.037 1.8403113e-38
-1677.71 1850.3199 -244.849 1.8403113e-38
-1715.4301 1867.62 -245.30299 1.8403113e-38
-1744.14 1885.5699 -244.091 1.8403113e-38
-1771.72 1903.97 -242.54601 1.8403113e-38
-1800.14 1922.84 -240.98801 1.8403113e-38
-1844.21 1942.52 -241.69501 1.8403113e-38
-1886.16 1962.86 -241.84 1.8403113e-38
-1960.66 2005.2 -240.07401 1.8403113e-38
-2007.03 2027.8199 -240.194 1.8403113e-38
2608.6399 -236.612 -232.625 1.8403113e-38
1665.27 224.597 -234.69501 1.8403113e-38
1688.75 222.55499 -231.56599 1.8403113e-38
-1914.11 1983.36 -239.673 1.8403113e-38
-2032.46 2049.8701 -237.11099 1.8403113e-38
-2078.4399 2073.8501 -236.724 1.8403113e-38
-2100.5 2096.6699 -232.84599 1.8403113e-38
1713.54 219.214 -228.649 1.8403113e-38
1717.16 243.388 -220.181 1.8403113e-38
-2176.29 2168.49 -221.67599 1.8403113e-38
-2294.1201 2203.9099 -229.168 1.8403113e-38
-2343.6101 2232.95 -227.696 1.8403113e-38
-2381.98 2261.3999 -224.621 1.8403113e-38
-2440.74 2293.3899 -223.688 1.8403113e-38
-2488.3701 2324.76 -221.15601 1.8403113e-38
-2554.3501 2359.8601 -220.37199 1.8403113e-38
2039.58 93.926804 -216.80901 1.8403113e-38
2057.8101 103.863 -210.62199 1.8403113e-38
1725.36 261.32999 -213.004 1.8403113e-38
-2002.88 2109.21 -212.978 1.8403113e-38
-2614.0701 2395.1001 -218.534 1.8403113e-38
-2683.23 2433.05 -217.33501 1.8403113e-38
-2743.1799 2470.5601 -214.791 1.8403113e-38
-2820.3201 2512.45 -213.599 1.8403113e-38
-2886.27 2553.51 -210.87 1.8403113e-38
2149.8701 65.086502 -208.388 1.8403113e-38
2067.8799 122.703 -202.85201 1.8403113e-38
1710.92 306.95599 -200.459 1.8403113e-38
-2002.85 2129.6399 -206.311 1.8403113e-38
-2953.73 2596.0901 -207.88699 1.8403113e-38
-3036.29 2643.1899 -205.871 1.8403113e-38
-3137.76 2696.0701 -205.024 1.8403113e-38
-3219.2 2746.1299 -201.86301 1.8403113e-38
2408.1599 -9.1615295 -190.854 1.8403113e-38
1902.67 218.64799 -198.265 1.8403113e-38
1723.4399 318.66699 -194.616 1.8403113e-38
-3235.1699 2781.8201 -192.80701 1.8403113e-38
2421.5901 9.4951496 -182.599 1.8403113e-38
1805.02 302.77399 -186.61301 1.8403113e-38
1727.5699 340.336 -186.882 1.8403113e-38
1747.46 343.14099 -182.752 1.8403113e-38
-3220.8101 2810.26 -181.21001 1.8403113e-38
2431.1799 31.632401 -173.83099 1.8403113e-38
2664.6899 -51.198502 -163.101 1.8403113e-38
2451.53 43.743698 -166.592 1.8403113e-38
2485.8601 43.433201 -161.144 1.8403113e-38
-3205.24 2838.26 -169.563 1.8403113e-38
2669.1499 -22.7803 -153.112 1.8403113e-38
2530.77 34.3354 -156.85201 1.8403113e-38
-3189.4199 2866.04 -157.94701 1.8403113e-38
2664.1101 13.2777 -142.168 1.8403113e-38
-3156.0601 2888.79 -145.13699 1.8403113e-38
2671.6499 38.347099 -132.77299 1.8403113e-38
2680.45 62.1647 -123.583 1.8403113e-38
-3306.1499 3030.5601 -123.161 1.8403113e-38
2688.99 86.009399 -114.428 1.8403113e-38
2699.6101 108.031 -105.53 1.8403113e-38
2702.0901 136.207 -95.9394 1.8403113e-38
2709.01 160.694 -86.835899 1.8403113e-38
-2401.26 2704.03 -83.388397 1.8403113e-38
2717.25 183.992 -77.906502 1.8403113e-38
-2470.6201 2749.8201 -79.667999 1.8403113e-38
2726.8401 206.136 -69.134499 1.8403113e-38
2727.29 234.74899 -59.730701 1.8403113e-38
2740.4299 254.034 -51.317299 1.8403113e-38
-2423.79 2787.23 -59.897701 1.8403113e-38
2749.29 276.28201 -42.630001 1.8403113e-38
-2379.73 2798.8201 -48.997002 1.8403113e-38
-2369.77 2821.0701 -40.134102 1.8403113e-38
2754.6201 300.828 -33.764301 1.8403113e-38
-2353 2840.9299 -30.9445 1.8403113e-38
-2348.3201 2864.8601 -22.3836 1.8403113e-38
2671.78 384.396 -19.901199 1.8403113e-38
2681.0701 404.897 -11.714 1.8403113e-38
-2398.8799 2908.72 -16.2542 1.8403113e-38
2774 371.11899 -7.7094002 1.8403113e-38
2777.4199 396.17599 1.01566 1.8403113e-38
2784.8101 418.547 9.5049601 1.8403113e-38
-2802.71 3175.21 5.3832598 1.8403113e-38
2796.22 438.33401 17.802299 1.8403113e-38
2799.74 462.85999 26.3689 1.8403113e-38
-1689.55 2673.27 21.6136 1.8403113e-38
-1660.87 2682.22 29.167999 1.8403113e-38
2805.5701 485.82901 34.801899 1.8403113e-38
-1629.37 2689.6599 36.684399 1.8403113e-38
2808.5601 510.31201 43.270401 1.8403113e-38
-1705.26 2759.6001 47.226398 1.8403113e-38
2815.6399 532.28601 51.580002 1.8403113e-38
2825.98 552.34198 59.7925 1.8403113e-38
-1634.55 2750.6101 55.7244 1.8403113e-38
2830 575.849 68.1073 1.8403113e-38
-1606.4301 2758.54 62.855202 1.8403113e-38
2832.8899 599.81403 76.389503 1.8403113e-38
-1562.71 2759.26 70.1567 1.8403113e-38
-1530.05 2764.2 77.043701 1.8403113e-38
2842.6001 620.021 84.548698 1.8403113e-38
-1523.83 2780.6599 83.420097 1.8403113e-38
-1558.24 2816.0601 89.401398 1.8403113e-38
2846.79 643.06201 92.7397 1.8403113e-38
-1521.75 2818.5901 96.124298 1.8403113e-38
2856.0901 663.388 100.872 1.8403113e-38
2866.1001 683.34802 108.999 1.8403113e-38
-1436.4399 2815.79 109 1.8403113e-38
-1484.4301 2820.1299 102.66 1.8403113e-38
