# .PCD v0.7 - Point Cloud Data file format
VERSION 0.7
FIELDS x y z rgb
SIZE 4 4 4 4
TYPE F F F F
COUNT 1 1 1 1
WIDTH 358
HEIGHT 1
VIEWPOINT 0 0 0 1 0 0 0
POINTS 358
DATA ascii
1830.92 289.633 -295.82199 1.8403113e-38
1729.9 296.17401 -296.71799 1.8403113e-38
1753.62 295.815 -296.08099 1.8403113e-38
1777.63 294.56799 -295.75699 1.8403113e-38
1806.66 290.24301 -296.38599 1.8403113e-38
1701.91 302.064 -295.48801 1.8403113e-38
1602.42 316.38101 -293.51599 1.8403113e-38
1622.17 316.76901 -292.73599 1.8403113e-38
1646.67 313.74399 -293.04099 1.8403113e-38
1669.39 311.90799 -292.97198 1.8403113e-38
1493.6 327.42899 -293.03101 1.8403113e-38
1510.77 329.89801 -291.58099 1.8403113e-38
1534.02 324.98401 -292.60999 1.8403113e-38
1558.63 320.09201 -293.58701 1.8403113e-38
1574.83 323.504 -291.82599 1.8403113e-38
1452.34 332.297 -292.60001 1.8403113e-38
1471.26 332.13501 -292.047 1.8403113e-38
1335.77 347.35999 -290.91 1.8403113e-38
1353.47 346.61899 -290.60599 1.8403113e-38
1374.36 341.17899 -291.90302 1.8403113e-38
1392.27 340.86899 -291.436 1.8403113e-38
1408.49 341.871 -290.548 1.8403113e-38
1427.16 341.21799 -290.181 1.8403113e-38
1202.72 356.85001 -291.77399 1.8403113e-38
1266.33 353.776 -290.83099 1.8403113e-38
1300.58 350.56601 -290.88699 1.8403113e-38
1316.9301 350.96201 -290.21399 1.8403113e-38
1153.9 364.534 -290.56699 1.8403113e-38
1169.03 363.04901 -290.616 1.8403113e-38
64.020897 455.901 -292.69699 1.8403113e-38
75.255898 457.461 -291.76801 1.8403113e-38
97.764603 459.85001 -290.17401 1.8403113e-38
1247.39 358.978 -289.55701 1.8403113e-38
1280.25 356.91599 -289.242 1.8403113e-38
1136.3101 369.17001 -289.45499 1.8403113e-38
1183.72 363.62799 -289.931 1.8403113e-38
1214.85 361.75601 -289.603 1.8403113e-38
1230.8199 360.121 -289.67899 1.8403113e-38
1047.74 379.12799 -288.70999 1.8403113e-38
1089.77 377.32001 -288.00601 1.8403113e-38
1102.5699 378.478 -287.172 1.8403113e-38
1121.37 370.98999 -289.27899 1.8403113e-38
1017.99 385.358 -287.414 1.8403113e-38
1033.75 381.017 -288.478 1.8403113e-38
1059.0699 383.48801 -286.763 1.8403113e-38
1073.64 381.02899 -287.18301 1.8403113e-38
899.83502 396.836 -287.07501 1.8403113e-38
911.94 396.23099 -286.90201 1.8403113e-38
934.81403 399.897 -284.83401 1.8403113e-38
947.91199 398.957 -284.75101 1.8403113e-38
961.78998 395.353 -285.608 1.8403113e-38
975.44 393.82001 -285.72198 1.8403113e-38
986.95001 395.62701 -284.69501 1.8403113e-38
1000.71 394.354 -284.71201 1.8403113e-38
825.06799 406.77701 -285.88901 1.8403113e-38
836.19 407.272 -285.35001 1.8403113e-38
861.74902 401.633 -286.56699 1.8403113e-38
871.36798 407.918 -283.978 1.8403113e-38
885.46301 401.77399 -285.74899 1.8403113e-38
921.50702 402.90201 -284.17499 1.8403113e-38
698.89899 416.16199 -286.56799 1.8403113e-38
752.93402 419.96399 -283.44199 1.8403113e-38
766.30499 411.68701 -286.01001 1.8403113e-38
777.19 413.617 -284.95801 1.8403113e-38
788.15698 413.69901 -284.57401 1.8403113e-38
800.55603 411.32401 -285.034 1.8403113e-38
811.591 411.60699 -284.57401 1.8403113e-38
846.146 412.47 -283.14401 1.8403113e-38
610.88501 429.423 -284.60699 1.8403113e-38
653.745 425.72299 -284.56201 1.8403113e-38
686.17297 425.117 -283.733 1.8403113e-38
708.98999 420.26001 -284.75601 1.8403113e-38
719.01898 422.5 -283.61899 1.8403113e-38
729.26703 425.84799 -282.07401 1.8403113e-38
740.81403 422.79099 -282.80899 1.8403113e-38
547.54797 438.15201 -283.492 1.8403113e-38
558.15802 437.27802 -283.465 1.8403113e-38
568.052 438.31 -282.771 1.8403113e-38
578.96002 435.746 -283.34799 1.8403113e-38
588.43903 439.741 -281.59299 1.8403113e-38
600.005 433.634 -283.43301 1.8403113e-38
621.336 430.95099 -283.715 1.8403113e-38
631.28003 432.48901 -282.836 1.8403113e-38
641.698 434.18799 -281.883 1.8403113e-38
663.61603 430.379 -282.55499 1.8403113e-38
673.771 431.33401 -281.88 1.8403113e-38
475.88699 448.728 -281.97501 1.8403113e-38
486.022 443.466 -283.55499 1.8403113e-38
495.96899 449.578 -281.01801 1.8403113e-38
506.19901 444.483 -282.534 1.8403113e-38
516.521 445.13101 -281.965 1.8403113e-38
526.62097 443.01901 -282.40399 1.8403113e-38
537.25299 441.03 -282.78101 1.8403113e-38
385.47 458.38901 -281.397 1.8403113e-38
405.405 457.75601 -280.98199 1.8403113e-38
415.625 459.43799 -280.04199 1.8403113e-38
425.354 454.629 -281.47101 1.8403113e-38
435.57901 455.539 -280.81 1.8403113e-38
445.40701 451.82901 -281.83701 1.8403113e-38
455.698 451.02701 -281.79501 1.8403113e-38
465.48099 451.23999 -281.401 1.8403113e-38
88.038101 462.58301 -289.49799 1.8403113e-38
306.10501 466.05899 -281.18399 1.8403113e-38
326.008 465.05899 -280.90302 1.8403113e-38
345.77301 462.51199 -281.18701 1.8403113e-38
365.74301 463.104 -280.32599 1.8403113e-38
375.90701 462.573 -280.19 1.8403113e-38
116.17 485.09399 -280.427 1.8403113e-38
316.61899 468.76801 -279.862 1.8403113e-38
336.534 468.87799 -279.17801 1.8403113e-38
356.405 469.31699 -278.37601 1.8403113e-38
395.767 461.78299 -279.83401 1.8403113e-38
247.34 476.59601 -279.26501 1.8403113e-38
266.98499 473.69501 -279.681 1.8403113e-38
277.95001 478.853 -277.45599 1.8403113e-38
286.67599 471.117 -279.979 1.8403113e-38
168.467 487.745 -277.77399 1.8403113e-38
179.276 489.22299 -276.88901 1.8403113e-38
189.159 489.05899 -276.629 1.8403113e-38
199.297 487.965 -276.69699 1.8403113e-38
208.77901 486.125 -277.05801 1.8403113e-38
219.461 487.96899 -276.04401 1.8403113e-38
228.42999 483.51599 -277.36801 1.8403113e-38
258.40201 481.57199 -277.103 1.8403113e-38
298.30899 482.98901 -275.29901 1.8403113e-38
67.222397 498.29999 -277.22299 1.8403113e-38
134.4785 494.91998 -276.27249 1.8403113e-38
149.795 494.98999 -275.75201 1.8403113e-38
159.91701 493.55801 -275.944 1.8403113e-38
239.87199 490.16699 -274.586 1.8403113e-38
6.0771999 508.125 -275.63901 1.8403113e-38
16.903799 507.20801 -275.621 1.8403113e-38
28.2675 509.194 -274.53299 1.8403113e-38
48.993301 507.13101 -274.61099 1.8403113e-38
57.528599 500.383 -276.78101 1.8403113e-38
-46.1245 515.36902 -274.70099 1.8403113e-38
-35.3088 515.01501 -274.479 1.8403113e-38
-25.2027 511.98199 -275.25201 1.8403113e-38
-12.9386 515.297 -273.65399 1.8403113e-38
-3.2174799 511.586 -274.685 1.8403113e-38
40.6828 512.90002 -272.78799 1.8403113e-38
-108.523 528.63202 -271.91101 1.8403113e-38
-98.499001 526.01202 -272.53601 1.8403113e-38
-88.867798 521.58197 -273.83099 1.8403113e-38
-76.297798 524.229 -272.465 1.8403113e-38
-66.2416 520.83801 -273.36899 1.8403113e-38
-54.198502 522.86401 -272.245 1.8403113e-38
-213.27699 537.33698 -272.14401 1.8403113e-38
-200.71201 536.78198 -271.939 1.8403113e-38
-187.646 538.22498 -270.99301 1.8403113e-38
-176.162 536.30603 -271.31699 1.8403113e-38
-164.661 535.55499 -271.21701 1.8403113e-38
-154.63699 531.39203 -272.40201 1.8403113e-38
-270.41199 548.28497 -270.02301 1.8403113e-38
-260.87399 543.47101 -271.45901 1.8403113e-38
-246.58 544.77899 -270.52301 1.8403113e-38
-237.02699 540.16498 -271.88699 1.8403113e-38
-222.839 541.75299 -270.85199 1.8403113e-38
-363.59299 553.33801 -271.20499 1.8403113e-38
-334.63699 554.026 -270.01901 1.8403113e-38
-138.04201 539.948 -268.76401 1.8403113e-38
-128.08 536.01703 -269.866 1.8403113e-38
-116.736 535.72998 -269.604 1.8403113e-38
-283.13699 549.58502 -269.96301 1.8403113e-38
-344.71899 558.70697 -268.64801 1.8403113e-38
-320.61899 553.70398 -269.68201 1.8403113e-38
-306.53 554.59698 -268.90302 1.8403113e-38
-292.63599 554.58698 -268.457 1.8403113e-38
-472.10101 567.81097 -269.46799 1.8403113e-38
-425.48901 567.31799 -268.13901 1.8403113e-38
-412.88599 564.83398 -268.63199 1.8403113e-38
-396.147 566.54102 -267.47198 1.8403113e-38
-382.397 565.82703 -267.285 1.8403113e-38
-367.655 565.68799 -266.85901 1.8403113e-38
-542.23297 579.93597 -267.341 1.8403113e-38
-526.01599 579.67102 -266.91199 1.8403113e-38
-514.146 574.40399 -268.43799 1.8403113e-38
-500.02301 572.40503 -268.70599 1.8403113e-38
-480.883 575.09497 -267.11099 1.8403113e-38
-453.76599 570.18799 -268.013 1.8403113e-38
-438.54401 570.27802 -267.48801 1.8403113e-38
-639.96698 588.77899 -267.29599 1.8403113e-38
-624.12299 586.70203 -267.53699 1.8403113e-38
-605.76001 586.35797 -267.06699 1.8403113e-38
-591.42902 583.35303 -267.69299 1.8403113e-38
-576.69098 580.10797 -268.39301 1.8403113e-38
-554.79602 584.81201 -265.979 1.8403113e-38
-727.039 598.44202 -266.60901 1.8403113e-38
-687.84497 597.63898 -265.633 1.8403113e-38
-669.99902 595.81897 -265.715 1.8403113e-38
-656.27899 591.474 -266.84698 1.8403113e-38
-758.151 606.83899 -264.57101 1.8403113e-38
-741.62 602.922 -265.457 1.8403113e-38
-703.83099 600.46997 -265.12399 1.8403113e-38
-899.13898 619.65698 -264.48499 1.8403113e-38
-882.74402 614.62598 -265.77899 1.8403113e-38
-853.28601 618.34497 -263.478 1.8403113e-38
-836.992 613.81299 -264.59399 1.8403113e-38
-812.49298 614.776 -263.452 1.8403113e-38
-790.85901 614.802 -262.74301 1.8403113e-38
-774.28601 610.48297 -263.772 1.8403113e-38
-940.47101 625.44299 -263.72501 1.8403113e-38
-915.95203 625.41699 -262.94101 1.8403113e-38
-979.53302 633.89099 -261.92499 1.8403113e-38
-956.51599 632.21698 -261.78799 1.8403113e-38
-996.41699 640.59497 -260.04099 1.8403113e-38
1702.05 423.065 -251.617 1.8403113e-38
1693.3 449.12 -242.455 1.8403113e-38
1693.65 467.91501 -235.63 1.8403113e-38
1703.12 478.04501 -231.651 1.8403113e-38
1729.73 475.20901 -231.81799 1.8403113e-38
-936.38702 694.14398 -238.686 1.8403113e-38
2579.53 417.07901 -225.40401 1.8403113e-38
2637.0901 410.12701 -226.063 1.8403113e-38
1729.91 492.94601 -225.382 1.8403113e-38
2646.55 429.12799 -218.868 1.8403113e-38
2656.25 446.88901 -212.116 1.8403113e-38
1706.34 529.83099 -212.77299 1.8403113e-38
-848.23901 763.87 -210.55701 1.8403113e-38
2659.98 468.59399 -204.127 1.8403113e-38
1693.4399 556.78802 -203.41701 1.8403113e-38
-847.698 778.63501 -205.187 1.8403113e-38
-869.31097 781.04303 -205.013 1.8403113e-38
2661.22 490.23199 -196.242 1.8403113e-38
2111.77 548.16302 -193.013 1.8403113e-38
1689.98 576.87598 -196.24699 1.8403113e-38
1806.84 577.745 -192.15199 1.8403113e-38
1832.03 578.30402 -191.134 1.8403113e-38
1693.72 590.48901 -191.19 1.8403113e-38
-848.974 807.01001 -194.94099 1.8403113e-38
-855.93701 817.79102 -191.258 1.8403113e-38
2667.1899 510.64499 -188.649 1.8403113e-38
2676.1499 528.57599 -181.858 1.8403113e-38
2027.77 578.46503 -184.744 1.8403113e-38
2102.4299 571.94397 -184.69299 1.8403113e-38
1841.3 589.00403 -186.955 1.8403113e-38
1867.41 589.58197 -185.901 1.8403113e-38
1922.83 589.146 -184.267 1.8403113e-38
1984.59 586.67297 -183.166 1.8403113e-38
1891.53 591.00897 -184.604 1.8403113e-38
1947.97 590.758 -182.869 1.8403113e-38
1703.29 600.552 -187.233 1.8403113e-38
1718.76 605.62299 -184.894 1.8403113e-38
1746.71 602.91998 -184.97 1.8403113e-38
-853.02399 833.29901 -185.54201 1.8403113e-38
-863.19397 842.255 -182.62399 1.8403113e-38
2677.1699 551.03802 -173.68201 1.8403113e-38
2097.51 593.75098 -176.94701 1.8403113e-38
2103.1899 608.552 -171.397 1.8403113e-38
-895.24103 853.69299 -179.51401 1.8403113e-38
-872.98602 850.80798 -179.84 1.8403113e-38
-897.95203 866.099 -175.104 1.8403113e-38
-908.76202 875.10797 -172.188 1.8403113e-38
-1228.61 884.11798 -179.267 1.8403113e-38
-1234.5699 897.41998 -174.638 1.8403113e-38
2685.76 569.052 -166.87399 1.8403113e-38
2117.8301 619.35303 -167.008 1.8403113e-38
2145.1499 622.72498 -164.90199 1.8403113e-38
-937.008 889.604 -167.84599 1.8403113e-38
-918.32599 884.13702 -169.224 1.8403113e-38
-980.37299 897.92798 -166.231 1.8403113e-38
-949.15302 897.677 -165.312 1.8403113e-38
-989.79797 907.646 -163.013 1.8403113e-38
-1071.97 916.38898 -162.50101 1.8403113e-38
-1013.9 911.78003 -162.29401 1.8403113e-38
2696.4299 587.26898 -159.924 1.8403113e-38
2697.3201 608.42999 -152.224 1.8403113e-38
-1023.23 921.82397 -158.95399 1.8403113e-38
-1068.48 932.117 -156.686 1.8403113e-38
-1340.9399 973.216 -150.60001 1.8403113e-38
-2806.3999 1100.53 -151.84801 1.8403113e-38
2705.78 627.50897 -145.033 1.8403113e-38
-1294.92 971.58002 -149.70399 1.8403113e-38
-1338.52 989.74103 -144.53101 1.8403113e-38
2715.53 645.039 -138.36301 1.8403113e-38
2717.1201 666.72998 -130.448 1.8403113e-38
-1335.23 1007.17 -138.108 1.8403113e-38
-1340.09 1021.31 -133.138 1.8403113e-38
-2531.72 1113.01 -138.439 1.8403113e-38
-2350.98 1114.7 -131.97701 1.8403113e-38
-4459.0498 1285.1899 -138.36 1.8403113e-38
2731.2 682.66498 -124.216 1.8403113e-38
-976.01501 1010.26 -125.367 1.8403113e-38
-972.46198 1024.5601 -120.066 1.8403113e-38
-1336.45 1038.6 -126.752 1.8403113e-38
-1342.9301 1052.22 -122.022 1.8403113e-38
2732.3899 704.38397 -116.304 1.8403113e-38
-984.82098 1033.71 -117.149 1.8403113e-38
-990.349 1044.72 -113.338 1.8403113e-38
-1007.26 1052.5601 -111.041 1.8403113e-38
-1347.6 1067.12 -116.771 1.8403113e-38
-1342.29 1083.8 -110.553 1.8403113e-38
-5287.3701 1431.16 -112.234 1.8403113e-38
2738.6399 723.177 -109.288 1.8403113e-38
2753.55 740.047 -102.69 1.8403113e-38
-1344.72 1099.16 -105.063 1.8403113e-38
-1348.74 1113.37 -100.043 1.8403113e-38
-1726.89 1135.59 -104.22 1.8403113e-38
-1630.21 1136.26 -100.849 1.8403113e-38
-1564.74 1131.38 -100.5 1.8403113e-38
-1919.89 1160.27 -101.515 1.8403113e-38
-2885.5901 1228.67 -107.952 1.8403113e-38
-2916.3701 1252.88 -100.174 1.8403113e-38
2767.04 756.49298 -96.291298 1.8403113e-38
-1502.46 1127.72 -99.814003 1.8403113e-38
-1387.71 1120.37 -98.765099 1.8403113e-38
-1396.39 1133.85 -94.158203 1.8403113e-38
-1809.96 1158.33 -98.663101 1.8403113e-38
-1741.5699 1151.8101 -98.815002 1.8403113e-38
-2968.99 1277.23 -93.045303 1.8403113e-38
2766.5 778.60602 -88.292397 1.8403113e-38
2773.01 797.34802 -81.287003 1.8403113e-38
-2989.4199 1303.22 -84.283997 1.8403113e-38
-3198.1499 1319.83 -85.014397 1.8403113e-38
2767.26 820.836 -72.958 1.8403113e-38
-5087.5801 1525.17 -71.690804 1.8403113e-38
2746.6001 847.47498 -63.9688 1.8403113e-38
-3400.51 1401.67 -61.892399 1.8403113e-38
2738.3999 871.08801 -55.674 1.8403113e-38
2716.1899 897.32501 -46.8806 1.8403113e-38
-3390.99 1434.1 -49.827099 1.8403113e-38
-4696.1602 1568.6801 -43.255699 1.8403113e-38
2704.55 921.22198 -38.593601 1.8403113e-38
2702.05 941.47803 -31.3309 1.8403113e-38
2715.0901 958.67999 -24.673 1.8403113e-38
-4600.1602 1608.21 -25.817801 1.8403113e-38
2717.0701 977.724 -17.704901 1.8403113e-38
2723.97 996.53802 -10.6612 1.8403113e-38
-1218.86 1326.85 -18.446699 1.8403113e-38
-1201.99 1342.22 -12.33 1.8403113e-38
-4615.73 1650.8 -10.8837 1.8403113e-38
2736.3201 1013.2 -4.2197399 1.8403113e-38
2825.8899 1014.34 -0.91043502 1.8403113e-38
-1205.88 1355.6801 -7.5761199 1.8403113e-38
-1210.54 1368.4399 -3.1010499 1.8403113e-38
2829.29 1033.77 6.2448702 1.8403113e-38
-4475.04 1686.71 6.6879802 1.8403113e-38
2834.6699 1053.79 13.6764 1.8403113e-38
2839.6699 1072.91 20.7689 1.8403113e-38
2843.7 1093.21 28.2596 1.8403113e-38
-4422.9102 1725.8199 22.551001 1.8403113e-38
-5052.6299 1794.91 27.229601 1.8403113e-38
2850.3101 1112.08 35.313599 1.8403113e-38
2855.9399 1132.15 42.771801 1.8403113e-38
2867.1399 1150.4 49.749001 1.8403113e-38
-5274.0801 1853.51 41.312801 1.8403113e-38
2886.25 1168.6 56.966999 1.8403113e-38
-5277.4902 1899.48 57.868099 1.8403113e-38
2967.46 1177.4301 62.7939 1.8403113e-38
2970.47 1198.8101 70.643501 1.8403113e-38
2965.22 1220.1899 78.222298 1.8403113e-38
-5311.23 1950.03 75.1026 1.8403113e-38
2942 1244.5 86.285698 1.8403113e-38
2553.47 1306.09 96.047501 1.8403113e-38
-4717.71 1948.13 93.610199 1.8403113e-38
2517.5 1327.6899 102.714 1.8403113e-38
2513.1001 1345.01 108.848 1.8403113e-38
-1996.9 1748.3 109.174 1.8403113e-38
