# .PCD v0.7 - Point Cloud Data file format
VERSION 0.7
FIELDS x y z rgb
SIZE 4 4 4 4
TYPE F F F F
COUNT 1 1 1 1
WIDTH 360
HEIGHT 1
VIEWPOINT 0 0 0 1 0 0 0
POINTS 360
DATA ascii
1380.74 -730.01398 -290.42899 1.8403113e-38
2056.2 -730.38 -293.75601 1.8403113e-38
2088.1699 -731.68201 -294.38101 1.8403113e-38
2121.6001 -732.40503 -294.802 1.8403113e-38
2151.3601 -731.25201 -294.52399 1.8403113e-38
2184.21 -730.54797 -294.423 1.8403113e-38
2218.3899 -731.104 -294.78699 1.8403113e-38
2253.1899 -730.46503 -294.71899 1.8403113e-38
2293.5801 -733.52502 -296.02301 1.8403113e-38
2326.96 -730.87598 -295.21701 1.8403113e-38
2817.96 -730.48499 -297.397 1.8403113e-38
1644.05 -726.22998 -290.297 1.8403113e-38
1690.61 -728.69 -291.41199 1.8403113e-38
1732.37 -725.612 -290.48901 1.8403113e-38
1755.76 -726.09003 -290.77399 1.8403113e-38
1779.74 -725.73401 -290.758 1.8403113e-38
1803.33 -725.60797 -290.82401 1.8403113e-38
2360.8101 -729.00098 -294.69501 1.8403113e-38
2402.1499 -729.66101 -295.13 1.8403113e-38
2427.5601 -722.13 -292.51001 1.8403113e-38
2662.6399 -728.54102 -295.95499 1.8403113e-38
2709.8899 -728.28101 -296.08401 1.8403113e-38
2764.0701 -729.32098 -296.71799 1.8403113e-38
2869.8101 -728.69299 -296.98999 1.8403113e-38
313.52899 -730.55402 -285.57901 1.8403113e-38
404.25201 -734.01099 -287.26501 1.8403113e-38
434.83801 -733.98602 -287.401 1.8403113e-38
444.62299 -730.05902 -286.01801 1.8403113e-38
475.27399 -732.789 -287.15701 1.8403113e-38
485.01901 -730.41998 -286.341 1.8403113e-38
505.31699 -731.039 -286.66199 1.8403113e-38
526.29199 -737.87201 -289.24799 1.8403113e-38
545.92798 -730.33502 -286.59799 1.8403113e-38
556.36401 -730.15503 -286.582 1.8403113e-38
597.5 -730.547 -286.91901 1.8403113e-38
649.43402 -731.44 -287.48901 1.8403113e-38
702.74902 -731.83801 -287.88599 1.8403113e-38
-25.3925 -720.86902 -280.45099 1.8403113e-38
-14.212 -720.867 -280.50299 1.8403113e-38
-3.2752099 -722.69501 -281.22 1.8403113e-38
8.1946802 -721.60901 -280.879 1.8403113e-38
19.105101 -723.237 -281.52301 1.8403113e-38
42.004601 -721.59003 -281.03201 1.8403113e-38
52.075401 -723.66998 -281.83701 1.8403113e-38
75.045097 -720.51599 -280.797 1.8403113e-38
94.790604 -726.89099 -283.211 1.8403113e-38
107.725 -720.49902 -280.94601 1.8403113e-38
117.479 -722.948 -281.883 1.8403113e-38
137.537 -727.72198 -283.715 1.8403113e-38
149.67999 -722.71997 -281.952 1.8403113e-38
159.675 -723.91602 -282.435 1.8403113e-38
169.73 -726.966 -283.59201 1.8403113e-38
179.541 -728.91803 -284.349 1.8403113e-38
190.24699 -729.03802 -284.444 1.8403113e-38
211.659 -726.14398 -283.492 1.8403113e-38
221.46201 -727.76099 -284.12601 1.8403113e-38
231.76401 -729.37299 -284.76199 1.8403113e-38
242.66701 -724.32599 -282.97699 1.8403113e-38
253.22501 -723.90002 -282.87201 1.8403113e-38
263.41299 -722.39099 -282.371 1.8403113e-38
273.15601 -727.38 -284.23199 1.8403113e-38
283.08701 -727.57202 -284.349 1.8403113e-38
294.15302 -722.12701 -282.42001 1.8403113e-38
303.918 -723.08398 -282.814 1.8403113e-38
334.526 -721.80298 -282.49301 1.8403113e-38
344.021 -726.18799 -284.133 1.8403113e-38
354.36401 -725.83197 -284.05301 1.8403113e-38
364.01401 -729.12299 -285.29599 1.8403113e-38
374.44501 -726.72101 -284.47101 1.8403113e-38
384.21799 -727.974 -284.974 1.8403113e-38
394.69901 -720.703 -282.37701 1.8403113e-38
414.64001 -728.44897 -285.29001 1.8403113e-38
424.435 -721.86298 -282.94 1.8403113e-38
454.79199 -725.09998 -284.26199 1.8403113e-38
464.772 -729.466 -285.89801 1.8403113e-38
495.082 -726.06799 -284.80399 1.8403113e-38
515.23297 -725.58502 -284.724 1.8403113e-38
535.19098 -722.901 -283.841 1.8403113e-38
566.07001 -728.08099 -285.87299 1.8403113e-38
575.56201 -721.21301 -283.418 1.8403113e-38
586.31 -726.427 -285.366 1.8403113e-38
606.534 -724.43903 -284.73801 1.8403113e-38
616.45801 -720.96503 -283.521 1.8403113e-38
627.62097 -726.73901 -285.67499 1.8403113e-38
638.46198 -727.71002 -286.07999 1.8403113e-38
658.13702 -722.099 -284.13101 1.8403113e-38
667.89301 -720.14301 -283.465 1.8403113e-38
680.09302 -726.25299 -285.74701 1.8403113e-38
690.11401 -725.03601 -285.35101 1.8403113e-38
712.59302 -729.52399 -287.091 1.8403113e-38
722.646 -726.10303 -285.89301 1.8403113e-38
732.43597 -723.63098 -285.04001 1.8403113e-38
743.77002 -724.56897 -285.435 1.8403113e-38
754.383 -724.633 -285.508 1.8403113e-38
764.64301 -721.77002 -284.51501 1.8403113e-38
774.98499 -720.75598 -284.19501 1.8403113e-38
788.85797 -728.45599 -287.06299 1.8403113e-38
797.73102 -722.77698 -285.03799 1.8403113e-38
810.53802 -726.66602 -286.51401 1.8403113e-38
822.63397 -729.69897 -287.67499 1.8403113e-38
832.26599 -724.49402 -285.82599 1.8403113e-38
854.73901 -723.69397 -285.64099 1.8403113e-38
865.22803 -721.91602 -285.04401 1.8403113e-38
888.57397 -722.25201 -285.276 1.8403113e-38
902.28302 -726.05798 -286.72601 1.8403113e-38
912.06897 -722.14801 -285.35001 1.8403113e-38
935.29303 -720.74298 -284.948 1.8403113e-38
971.85101 -720.24597 -284.94 1.8403113e-38
984.67297 -721.677 -285.521 1.8403113e-38
997.146 -721.073 -285.36099 1.8403113e-38
1035.22 -721.487 -285.69199 1.8403113e-38
1101.22 -720.88397 -285.784 1.8403113e-38
1115.1 -721.80603 -286.185 1.8403113e-38
1185.24 -720.97498 -286.21399 1.8403113e-38
1215.38 -722.12598 -286.776 1.8403113e-38
1244.04 -720.32599 -286.25699 1.8403113e-38
1259.09 -720.49799 -286.39001 1.8403113e-38
1290.4399 -720.75403 -286.63199 1.8403113e-38
1311.05 -726.01099 -288.642 1.8403113e-38
1342.9 -725.12402 -288.47 1.8403113e-38
1390.55 -722.27399 -287.65799 1.8403113e-38
1413.16 -727.58301 -289.69699 1.8403113e-38
1428.22 -725.23297 -288.91299 1.8403113e-38
1444.46 -723.01501 -288.18301 1.8403113e-38
1460.25 -721.02301 -287.53201 1.8403113e-38
1499.27 -722.927 -288.41 1.8403113e-38
1556.65 -721.75702 -288.25601 1.8403113e-38
1579.86 -725.17102 -289.608 1.8403113e-38
1596.55 -721.271 -288.267 1.8403113e-38
1620.71 -724.79102 -289.66299 1.8403113e-38
1659.6899 -721.48297 -288.64301 1.8403113e-38
1707.11 -724.09802 -289.819 1.8403113e-38
64.7211 -719.52301 -280.38699 1.8403113e-38
129.713 -718.14502 -280.19299 1.8403113e-38
202.88699 -716.97601 -280.11401 1.8403113e-38
324.54099 -718.24402 -281.14999 1.8403113e-38
841.349 -719.38202 -284.008 1.8403113e-38
875.45898 -718.12201 -283.711 1.8403113e-38
921.89899 -717.10101 -283.55899 1.8403113e-38
946.76501 -718.91998 -284.33899 1.8403113e-38
956.05902 -713.80402 -282.521 1.8403113e-38
1005.97 -714.73401 -283.09601 1.8403113e-38
1021.25 -718.90198 -284.685 1.8403113e-38
1043.52 -712.97198 -282.63199 1.8403113e-38
1057.5699 -715.30798 -283.548 1.8403113e-38
1070.71 -714.79199 -283.423 1.8403113e-38
1085.92 -718.46002 -284.82901 1.8403113e-38
1126.38 -717.51099 -284.67499 1.8403113e-38
1140.88 -718.95697 -285.26999 1.8403113e-38
1152.6899 -715.21802 -283.965 1.8403113e-38
1164.5699 -712.44598 -283.013 1.8403113e-38
1195.54 -715.57703 -284.29901 1.8403113e-38
1225.13 -715.711 -284.487 1.8403113e-38
1270.49 -714.901 -284.40701 1.8403113e-38
1321.45 -719.56702 -286.34601 1.8403113e-38
1353.3 -718.41498 -286.078 1.8403113e-38
1477.92 -719.815 -287.177 1.8403113e-38
1510.88 -715.164 -285.64001 1.8403113e-38
1533.1 -718.492 -286.95599 1.8403113e-38
1973.6801 -714.34198 -287.52899 1.8403113e-38
2010.1 -719.95801 -289.745 1.8403113e-38
1798.87 -702.65198 -282.448 1.8403113e-38
2434.26 -703.38202 -285.71799 1.8403113e-38
2444.6799 -687.664 -280.047 1.8403113e-38
2530.1399 -687.04797 -280.22699 1.8403113e-38
-33.743599 -712.73199 -277.45001 1.8403113e-38
31.7861 -718.38501 -279.81699 1.8403113e-38
87.526497 -716.13898 -279.263 1.8403113e-38
1915.39 -693.65802 -279.72601 1.8403113e-38
1802.97 -687.45502 -276.936 1.8403113e-38
1820.6899 -681.59802 -274.88901 1.8403113e-38
1874.78 -683.44202 -275.81601 1.8403113e-38
1842.7 -679.53601 -274.24301 1.8403113e-38
2471.28 -679.04401 -277.03601 1.8403113e-38
2944.53 -662.07898 -273.10001 1.8403113e-38
-35.432701 -690.802 -269.461 1.8403113e-38
2701.6599 -632.052 -261.02301 1.8403113e-38
-33.341099 -660.07397 -258.28799 1.8403113e-38
2892.8501 -617.88702 -256.772 1.8403113e-38
2910.3601 -600.26501 -250.44099 1.8403113e-38
2979.3201 -602.883 -251.72099 1.8403113e-38
-31.052299 -631.37097 -247.85201 1.8403113e-38
-33.952 -613.78802 -241.439 1.8403113e-38
2986.5 -580.66101 -243.66701 1.8403113e-38
-32.4258 -588.70099 -232.31599 1.8403113e-38
-31.3095 -564.38501 -223.472 1.8403113e-38
2542.3601 -541.58801 -227.347 1.8403113e-38
2602.5901 -546.099 -229.27299 1.8403113e-38
2881.8101 -519.87299 -221.049 1.8403113e-38
-32.784199 -547.14502 -217.19099 1.8403113e-38
-33.940601 -528.922 -210.55299 1.8403113e-38
-31.2992 -505.02899 -201.87 1.8403113e-38
-32.240002 -487.78201 -195.589 1.8403113e-38
-37.104401 -479.12601 -192.416 1.8403113e-38
-5621.9702 -524.21899 -182.416 1.8403113e-38
-750.76202 -467.46399 -184.79601 1.8403113e-38
-733.724 -469.96301 -185.787 1.8403113e-38
-37.084 -461.11899 -185.862 1.8403113e-38
-469.23999 -459.33701 -183.17 1.8403113e-38
-453.65601 -459.48001 -183.29601 1.8403113e-38
-434.276 -455.08099 -181.787 1.8403113e-38
-421.66199 -457.49899 -182.726 1.8403113e-38
-408.04999 -458.08401 -183.00301 1.8403113e-38
-387.95401 -452.66599 -181.127 1.8403113e-38
-374.50201 -452.88101 -181.26801 1.8403113e-38
-305.07401 -450.33499 -180.67 1.8403113e-38
-51.1954 -451.86499 -182.42799 1.8403113e-38
-43.035599 -454.95401 -183.591 1.8403113e-38
-317.26801 -449.20801 -180.202 1.8403113e-38
-97.339203 -446.39099 -180.217 1.8403113e-38
-77.347504 -446.616 -180.394 1.8403113e-38
-67.5867 -446.479 -180.39 1.8403113e-38
-58.973301 -448.89301 -181.30901 1.8403113e-38
-355.35901 -447.67801 -179.465 1.8403113e-38
-342.73499 -448.23401 -179.72701 1.8403113e-38
-327.81799 -446.82101 -179.284 1.8403113e-38
-286.237 -443.08801 -178.12199 1.8403113e-38
-273.56299 -443.15302 -178.20599 1.8403113e-38
-235.367 -440.45599 -177.40401 1.8403113e-38
-213.32401 -442.02701 -178.08099 1.8403113e-38
-202.76801 -443.51501 -178.672 1.8403113e-38
-180.92799 -444.37701 -179.089 1.8403113e-38
-157.55701 -442.436 -178.493 1.8403113e-38
-148.092 -443.89499 -179.069 1.8403113e-38
-126.141 -442.79599 -178.77299 1.8403113e-38
-113.732 -440.186 -177.881 1.8403113e-38
-107.041 -445.22 -179.745 1.8403113e-38
-85.456398 -443.22299 -179.121 1.8403113e-38
-256.91501 -437.668 -176.28799 1.8403113e-38
-245.64101 -438.88199 -176.783 1.8403113e-38
-222.938 -439.93201 -177.27299 1.8403113e-38
-184.98801 -434.72699 -175.558 1.8403113e-38
-165.67999 -438.33401 -176.96201 1.8403113e-38
-133.34399 -438.40399 -177.14 1.8403113e-38
-734.97101 -427.263 -170.241 1.8403113e-38
2561.78 -385.60999 -170.672 1.8403113e-38
-699.61298 -417.00299 -166.674 1.8403113e-38
-740.24902 -402.31699 -161.13699 1.8403113e-38
-727.64001 -407.767 -163.17999 1.8403113e-38
2570.3301 -369.07101 -164.69299 1.8403113e-38
-5504.2998 -456.23901 -158.231 1.8403113e-38
-743.25299 -389.90302 -156.604 1.8403113e-38
-413.49399 -382.14099 -155.339 1.8403113e-38
-402.125 -385.20099 -156.507 1.8403113e-38
-815.83801 -378.436 -152.088 1.8403113e-38
-761.06201 -373.30499 -150.479 1.8403113e-38
-748.28198 -379.52802 -152.80499 1.8403113e-38
2572.4399 -349.431 -157.55499 1.8403113e-38
2592.03 -336.39401 -152.903 1.8403113e-38
-825.82599 -370.50699 -149.155 1.8403113e-38
-776.01703 -368.92401 -148.815 1.8403113e-38
-413.99249 -363.65051 -148.6075 1.8403113e-38
-422.35001 -352.17801 -144.392 1.8403113e-38
2606.1499 -320.466 -147.173 1.8403113e-38
2755.9099 -324.50299 -149.351 1.8403113e-38
2639.8301 -311.23001 -143.97099 1.8403113e-38
2747.6599 -301.72699 -141.022 1.8403113e-38
-5380.5601 -391.96301 -135.424 1.8403113e-38
-426.23599 -330.89899 -136.63 1.8403113e-38
-416.992 -335.16 -138.224 1.8403113e-38
-767.651 -322.92801 -132.114 1.8403113e-38
-425.84 -318.302 -132.047 1.8403113e-38
2761.52 -284.24301 -134.72501 1.8403113e-38
-495.64099 -311.99301 -129.42101 1.8403113e-38
-432.668 -312.116 -129.76401 1.8403113e-38
-440.517 -306.12399 -127.546 1.8403113e-38
-734.18799 -291.26801 -120.75 1.8403113e-38
-454.99799 -293.66901 -122.944 1.8403113e-38
-444.905 -298.04199 -124.584 1.8403113e-38
2764.3799 -264.71301 -127.631 1.8403113e-38
2767.3201 -244.256 -120.199 1.8403113e-38
-743.72803 -283.45099 -117.86 1.8403113e-38
-750.32501 -274.58701 -114.603 1.8403113e-38
2768.8301 -224.49001 -113.013 1.8403113e-38
-745.77399 -259.22198 -109.032 1.8403113e-38
-739.00299 -243.536 -103.356 1.8403113e-38
2785.9099 -207.502 -106.911 1.8403113e-38
-735.82001 -229.33 -98.200699 1.8403113e-38
-726.89301 -213.05 -92.318199 1.8403113e-38
2783.1799 -186.76199 -99.350304 1.8403113e-38
-736.67999 -205.55499 -89.5439 1.8403113e-38
-738.13 -194.58701 -85.545502 1.8403113e-38
-734.32098 -180.67999 -80.502403 1.8403113e-38
-5290.8999 -236.664 -79.328796 1.8403113e-38
-729.20697 -166.92799 -75.5215 1.8403113e-38
2548.8701 -114.119 -71.804604 1.8403113e-38
-5287.02 -190.09 -62.396999 1.8403113e-38
-717.82202 -150.033 -69.426598 1.8403113e-38
-719.617 -139.73 -65.668404 1.8403113e-38
-719.69897 -128.21001 -61.475399 1.8403113e-38
2527.72 -91.688499 -63.541 1.8403113e-38
-1487.86 -118.718 -54.388401 1.8403113e-38
-722.19 -118.316 -57.8629 1.8403113e-38
-725.711 -108.336 -54.214298 1.8403113e-38
-729.85303 -99.153702 -50.852699 1.8403113e-38
2522.1399 -71.981598 -56.342499 1.8403113e-38
-738.73901 -91.263901 -47.939301 1.8403113e-38
-739.93799 -80.930199 -44.172798 1.8403113e-38
-805.21997 -70.599701 -40.104401 1.8403113e-38
-774.01501 -71.190903 -40.467201 1.8403113e-38
-749.61499 -73.221298 -41.321499 1.8403113e-38
2506.3899 -51.327499 -48.751202 1.8403113e-38
2494.51 -30.867701 -41.248901 1.8403113e-38
-919.95697 -61.136799 -36.117901 1.8403113e-38
-891.34003 -64.495796 -37.4757 1.8403113e-38
-862.95502 -66.900398 -38.4851 1.8403113e-38
-828.78497 -67.467598 -38.8531 1.8403113e-38
-1275.1 -50.715401 -30.6457 1.8403113e-38
-1009.48 -50.5839 -31.853901 1.8403113e-38
-973.297 -52.509701 -32.725899 1.8403113e-38
-943.66602 -56.4347 -34.294498 1.8403113e-38
2508.76 -16.171101 -35.967701 1.8403113e-38
2737.1101 -17.5077 -37.534 1.8403113e-38
2529.95 -1.60671 -30.7673 1.8403113e-38
2808.6899 -8.39328 -34.555401 1.8403113e-38
-5286.1499 -95.631302 -28.023899 1.8403113e-38
-1033.4301 -44.100601 -29.381201 1.8403113e-38
-1285.5 -38.7071 -26.2262 1.8403113e-38
-1111.03 -38.2995 -26.903 1.8403113e-38
-1063.9301 -39.623001 -27.6073 1.8403113e-38
-1279.41 -22.209499 -20.2509 1.8403113e-38
2812.9199 10.5948 -27.6649 1.8403113e-38
2816.1299 30.7062 -20.360701 1.8403113e-38
-1291.52 -10.4721 -15.9219 1.8403113e-38
-1286.11 5.7153301 -10.0562 1.8403113e-38
2819.02 49.894199 -13.3911 1.8403113e-38
-4804.4399 -13.4429 -0.39034301 1.8403113e-38
-1291.15 18.9956 -5.1992002 1.8403113e-38
-1302.1 31.9065 -0.44860601 1.8403113e-38
2829.79 69.112999 -6.4475698 1.8403113e-38
-5274.5298 -0.80110902 6.4335699 1.8403113e-38
-1301.01 46.403198 4.8221598 1.8403113e-38
2830.3401 88.627899 0.65206099 1.8403113e-38
2834.8 108.679 7.9282098 1.8403113e-38
-1278.26 65.233704 11.5677 1.8403113e-38
-1256.16 82.834602 17.8689 1.8403113e-38
2836.98 128.01199 14.9541 1.8403113e-38
-1250.76 98.136101 23.412201 1.8403113e-38
2849.04 147.468 21.978001 1.8403113e-38
2850.8601 166.914 29.046301 1.8403113e-38
-1448.6801 130.304 36.055401 1.8403113e-38
2861.5701 186.717 36.202702 1.8403113e-38
-1393.03 151.72501 43.587898 1.8403113e-38
2865.03 206.13901 43.254799 1.8403113e-38
-1610.15 178.293 54.283901 1.8403113e-38
2864.3899 226.782 50.770802 1.8403113e-38
2876.48 245.858 57.656101 1.8403113e-38
2878.46 266.45401 65.142601 1.8403113e-38
-1670.27 242.017 77.759804 1.8403113e-38
2887.2 285.905 72.180199 1.8403113e-38
2886.8 306.64499 79.730202 1.8403113e-38
-1670.1899 258.79599 83.866302 1.8403113e-38
2896.1799 326.28 86.831802 1.8403113e-38
-1662 276.69501 90.341499 1.8403113e-38
-1666.6 293.24301 96.385803 1.8403113e-38
2898.3899 347.06699 94.386597 1.8403113e-38
-1878.03 306.30099 102.138 1.8403113e-38
-1195.42 333.70499 108.883 1.8403113e-38
2905.3999 366.931 101.583 1.8403113e-38
2905.23 387.79999 109.178 1.8403113e-38
