# .PCD v0.7 - Point Cloud Data file format
VERSION 0.7
FIELDS x y z rgb
SIZE 4 4 4 4
TYPE F F F F
COUNT 1 1 1 1
WIDTH 358
HEIGHT 1
VIEWPOINT 0 0 0 1 0 0 0
POINTS 358
DATA ascii
-3.86816 -802.17999 -281.15701 1.8403113e-38
160.008 -801.86902 -281.76999 1.8403113e-38
222.715 -800.19 -281.436 1.8403113e-38
243.17 -800.46698 -281.62701 1.8403113e-38
263.30301 -802.26398 -282.371 1.8403113e-38
313.672 -802.94098 -282.84 1.8403113e-38
324.26501 -800.03998 -281.83099 1.8403113e-38
334.01001 -800.763 -282.138 1.8403113e-38
374.052 -801.97198 -282.755 1.8403113e-38
384.36099 -800.43201 -282.23999 1.8403113e-38
414.077 -802.80603 -283.23599 1.8403113e-38
434.073 -800.85199 -282.61301 1.8403113e-38
464.35501 -801.99402 -283.16299 1.8403113e-38
474.16 -802.534 -283.40302 1.8403113e-38
484.46201 -802.96997 -283.60699 1.8403113e-38
494.16599 -801.47302 -283.10501 1.8403113e-38
504.83701 -806.42603 -284.95499 1.8403113e-38
525.00098 -805.797 -284.815 1.8403113e-38
555.18298 -805.65802 -284.89801 1.8403113e-38
565.45697 -804.47498 -284.513 1.8403113e-38
586.05499 -805.63599 -285.02701 1.8403113e-38
595.54401 -802.40698 -283.89401 1.8403113e-38
646.995 -800.57202 -283.45401 1.8403113e-38
677.96198 -800.15698 -283.44 1.8403113e-38
42.3578 -798.453 -280.00601 1.8403113e-38
75.5159 -798.43298 -280.14499 1.8403113e-38
107.4 -799.21301 -280.57001 1.8403113e-38
149.78 -799.64697 -280.91599 1.8403113e-38
181.683 -798.60101 -280.67599 1.8403113e-38
191.61501 -799.54401 -281.06299 1.8403113e-38
212.85899 -796.64502 -280.10199 1.8403113e-38
232.78799 -799.87 -281.36401 1.8403113e-38
253.647 -797.18903 -280.48099 1.8403113e-38
284.40302 -796.26202 -280.28 1.8403113e-38
294.22501 -796.37097 -280.36301 1.8403113e-38
304.51999 -796.44501 -280.435 1.8403113e-38
344.646 -795.81201 -280.383 1.8403113e-38
354.35199 -796.37201 -280.63 1.8403113e-38
394.203 -796.91699 -281.004 1.8403113e-38
404.427 -795.20697 -280.427 1.8403113e-38
424.30899 -796.23102 -280.888 1.8403113e-38
444.18301 -795.04901 -280.54599 1.8403113e-38
453.966 -797.63098 -281.52899 1.8403113e-38
513.90698 -797.27502 -281.66501 1.8403113e-38
534.00702 -797.43298 -281.811 1.8403113e-38
544.41803 -798.297 -282.172 1.8403113e-38
574.57098 -798.612 -282.42001 1.8403113e-38
604.83099 -795.32001 -281.35599 1.8403113e-38
615.36401 -798.42902 -282.534 1.8403113e-38
625.39203 -795.81598 -281.62701 1.8403113e-38
635.461 -795.97601 -281.73001 1.8403113e-38
655.12299 -791.35101 -280.134 1.8403113e-38
666.94299 -796.677 -282.125 1.8403113e-38
687.04303 -793.37 -281.01001 1.8403113e-38
698.13397 -796.66699 -282.259 1.8403113e-38
707.58502 -791.552 -280.439 1.8403113e-38
719.26703 -796.479 -282.284 1.8403113e-38
728.40302 -790.29199 -280.073 1.8403113e-38
740.20801 -795.01703 -281.845 1.8403113e-38
750.65399 -793.18298 -281.224 1.8403113e-38
762.61798 -797.69397 -282.918 1.8403113e-38
772.22101 -792.974 -281.24301 1.8403113e-38
783.40698 -794.58801 -281.88 1.8403113e-38
795.43903 -796.84399 -282.755 1.8403113e-38
804.82501 -792.90698 -281.36301 1.8403113e-38
828.64398 -797.039 -282.97299 1.8403113e-38
839.862 -796.20502 -282.71899 1.8403113e-38
849.56097 -792.80298 -281.52301 1.8403113e-38
861.14801 -792.65198 -281.51999 1.8403113e-38
872.289 -792.57001 -281.539 1.8403113e-38
884.69299 -793.94397 -282.09399 1.8403113e-38
897.44897 -797.11603 -283.30499 1.8403113e-38
908.026 -793.92297 -282.19 1.8403113e-38
929.86401 -790.03198 -280.871 1.8403113e-38
955.95599 -794.25 -282.521 1.8403113e-38
1151.03 -794.53497 -283.48901 1.8403113e-38
1206.83 -792.289 -282.918 1.8403113e-38
1235.29 -790.65601 -282.45001 1.8403113e-38
1254.26 -795.13098 -284.16299 1.8403113e-38
1314.54 -792.19702 -283.362 1.8403113e-38
1329.8101 -791.59302 -283.20999 1.8403113e-38
1346.25 -791.18298 -283.133 1.8403113e-38
1362.27 -790.95502 -283.121 1.8403113e-38
1379.47 -790.88501 -283.172 1.8403113e-38
1431.23 -790.94598 -283.423 1.8403113e-38
1453.4301 -794.92798 -284.97101 1.8403113e-38
1469.87 -793.51801 -284.53 1.8403113e-38
1488.22 -792.86902 -284.375 1.8403113e-38
1543.4 -791.13202 -283.98801 1.8403113e-38
1566.99 -794.22198 -285.21701 1.8403113e-38
1583.8 -791.56 -284.32199 1.8403113e-38
1606.89 -793.43799 -285.108 1.8403113e-38
1623.8199 -790.33801 -284.05499 1.8403113e-38
1645.65 -790.38898 -284.17001 1.8403113e-38
1670.8 -793.81201 -285.52701 1.8403113e-38
1692.85 -793.27399 -285.42899 1.8403113e-38
1716.01 -794.20203 -285.86899 1.8403113e-38
1787.86 -794.73499 -286.38101 1.8403113e-38
2160.22 -798.27301 -289.31799 1.8403113e-38
2186.3401 -793.27197 -287.61301 1.8403113e-38
2218.79 -792.64001 -287.52701 1.8403113e-38
2252.6799 -791.336 -287.202 1.8403113e-38
2293.8999 -794.67401 -288.60001 1.8403113e-38
2328.0601 -792.34601 -287.90399 1.8403113e-38
2368.76 -794.08698 -288.71799 1.8403113e-38
2409.23 -793.99799 -288.86499 1.8403113e-38
2450.25 -794.57703 -289.25699 1.8403113e-38
2824.9299 -792.03497 -289.991 1.8403113e-38
814.97101 -789.62799 -280.215 1.8403113e-38
917.70203 -789.97498 -280.79599 1.8403113e-38
941.172 -789.32397 -280.66299 1.8403113e-38
965.20099 -789.07098 -280.677 1.8403113e-38
977.95099 -789.50299 -280.89099 1.8403113e-38
989.37903 -788.35303 -280.52301 1.8403113e-38
1001.76 -787.70203 -280.341 1.8403113e-38
1014.62 -788.82599 -280.80701 1.8403113e-38
1028.03 -789.58099 -281.14099 1.8403113e-38
1040.54 -789.61603 -281.20901 1.8403113e-38
1064.6801 -786.61298 -280.22299 1.8403113e-38
1105.16 -787.11798 -280.586 1.8403113e-38
1131.72 -786.04401 -280.31299 1.8403113e-38
1160.09 -786.77698 -280.70499 1.8403113e-38
1174.13 -787.06403 -280.87201 1.8403113e-38
1188.7 -786.89801 -280.87601 1.8403113e-38
1263.34 -787.659 -281.483 1.8403113e-38
1280.0699 -788.75897 -281.95801 1.8403113e-38
1295.1801 -788.52301 -281.939 1.8403113e-38
1393.02 -787.43701 -281.97699 1.8403113e-38
1411 -787.698 -282.151 1.8403113e-38
1503.39 -789.71002 -283.293 1.8403113e-38
1520.45 -787.297 -282.48999 1.8403113e-38
1733.71 -789.40601 -284.202 1.8403113e-38
1756.28 -789.17603 -284.21799 1.8403113e-38
1795.98 -782.55603 -281.98499 1.8403113e-38
2479.6399 -787.42499 -286.784 1.8403113e-38
2876.76 -789.89398 -289.44101 1.8403113e-38
-23.0697 -793.32098 -277.84799 1.8403113e-38
-11.4742 -793.47998 -277.957 1.8403113e-38
9.7824602 -796.84802 -279.27701 1.8403113e-38
20.831499 -796.53998 -279.21399 1.8403113e-38
32.325199 -796.28601 -279.172 1.8403113e-38
55.9478 -791.73401 -277.62 1.8403113e-38
65.623703 -794.604 -278.70801 1.8403113e-38
87.786598 -793.02802 -278.23199 1.8403113e-38
97.953003 -795.77197 -279.276 1.8403113e-38
119.93 -793.612 -278.58701 1.8403113e-38
129.62199 -795.97101 -279.48801 1.8403113e-38
141.49001 -791.97302 -278.086 1.8403113e-38
171.485 -796.56097 -279.88901 1.8403113e-38
203.158 -794.95203 -279.44299 1.8403113e-38
274.35001 -794.15302 -279.46799 1.8403113e-38
364.741 -793.12201 -279.49301 1.8403113e-38
-29.380699 -781.88599 -273.65799 1.8403113e-38
1050.65 -784.35797 -279.34 1.8403113e-38
1076.27 -783.58801 -279.17401 1.8403113e-38
1088.91 -783.14001 -279.06699 1.8403113e-38
1116.35 -783.98999 -279.49701 1.8403113e-38
1215.8101 -784.099 -279.97699 1.8403113e-38
2073.1699 -763.60101 -276.314 1.8403113e-38
2690.95 -754.89099 -275.879 1.8403113e-38
-26.0952 -747.63702 -261.20801 1.8403113e-38
1777.1801 -749.18701 -269.75699 1.8403113e-38
1991.38 -731.41199 -264.237 1.8403113e-38
2420.5801 -736.185 -267.87399 1.8403113e-38
2801.6299 -734.26898 -268.86401 1.8403113e-38
1768.4 -724.89899 -260.879 1.8403113e-38
2434.5601 -721.52802 -262.60199 1.8403113e-38
-29.517401 -731.03601 -255.151 1.8403113e-38
1777.08 -712.95599 -256.57101 1.8403113e-38
1936.22 -713.95203 -257.638 1.8403113e-38
1792.36 -706.60999 -254.32899 1.8403113e-38
1820.87 -708.539 -255.157 1.8403113e-38
2448.8799 -707.95099 -257.724 1.8403113e-38
1832.97 -699.513 -251.92599 1.8403113e-38
1852.74 -694.74402 -250.278 1.8403113e-38
1880.25 -695.71997 -250.755 1.8403113e-38
2470.6599 -696.79199 -253.759 1.8403113e-38
2501.8201 -690.742 -251.69501 1.8403113e-38
-31.132299 -709.95801 -247.47301 1.8403113e-38
2959.8101 -677.68701 -248.972 1.8403113e-38
-30.334 -685.67401 -238.638 1.8403113e-38
2886.4299 -627.32599 -230.319 1.8403113e-38
-25.8368 -653.58698 -226.98 1.8403113e-38
-28.768101 -638.89398 -221.62 1.8403113e-38
2760.1001 -625.62 -229.138 1.8403113e-38
2576.1001 -616.927 -225.16 1.8403113e-38
2980.6899 -613.75598 -225.797 1.8403113e-38
2894.95 -606.57501 -222.804 1.8403113e-38
-28.870701 -618.09497 -214.05 1.8403113e-38
2986.26 -591.26099 -217.63499 1.8403113e-38
2550.1699 -585.90302 -213.754 1.8403113e-38
-30.403299 -601.77802 -208.105 1.8403113e-38
2547.24 -563.61499 -205.629 1.8403113e-38
2985.5601 -567.90002 -209.13 1.8403113e-38
2986.8799 -544.20398 -200.51199 1.8403113e-38
-26.287001 -574.36798 -198.147 1.8403113e-38
-27.640499 -559.01898 -192.55499 1.8403113e-38
2985.7 -520.97998 -192.054 1.8403113e-38
-28.1961 -541.86401 -186.30901 1.8403113e-38
-31.8403 -531.59601 -182.556 1.8403113e-38
2989.3999 -498.254 -183.8 1.8403113e-38
-33.7878 -517.83801 -177.53999 1.8403113e-38
-33.7141 -501.82101 -171.711 1.8403113e-38
2988.71 -475.43201 -175.491 1.8403113e-38
-751.95001 -488.39499 -163.645 1.8403113e-38
-35.194901 -488.14301 -166.72701 1.8403113e-38
-36.614399 -475.49899 -162.119 1.8403113e-38
2989.0801 -451.93301 -166.94 1.8403113e-38
-747.22601 -471.58701 -157.548 1.8403113e-38
-438.672 -470.366 -158.47 1.8403113e-38
-467.30801 -468.67899 -157.73 1.8403113e-38
-451.315 -468.521 -157.743 1.8403113e-38
-421.34799 -468.535 -157.881 1.8403113e-38
-402.28699 -464.198 -156.38699 1.8403113e-38
-369.95599 -460.37701 -155.13901 1.8403113e-38
-48.933201 -465.474 -158.416 1.8403113e-38
-39.179298 -464.32999 -158.043 1.8403113e-38
-738.44702 -451.84 -150.401 1.8403113e-38
-383.039 -459.92899 -154.918 1.8403113e-38
-355.18399 -459.642 -154.937 1.8403113e-38
-339.42001 -457.07199 -154.07201 1.8403113e-38
-325.51001 -456.634 -153.974 1.8403113e-38
-313.37 -457.10001 -154.19701 1.8403113e-38
-296.86801 -453.57101 -152.98599 1.8403113e-38
-285.53201 -454.414 -153.343 1.8403113e-38
-260.66299 -453.86801 -153.254 1.8403113e-38
-222.686 -450.98901 -152.37399 1.8403113e-38
-211.653 -451.013 -152.43201 1.8403113e-38
-190.022 -451.672 -152.76801 1.8403113e-38
-178.187 -450.823 -152.511 1.8403113e-38
-169.168 -452.59299 -153.19501 1.8403113e-38
-158.035 -452.24301 -153.117 1.8403113e-38
-149.05901 -453.81201 -153.728 1.8403113e-38
-136.257 -450.93701 -152.73801 1.8403113e-38
-124.745 -455.73352 -154.535 1.8403113e-38
-109.823 -455.724 -154.59801 1.8403113e-38
-98.403503 -453.89499 -153.983 1.8403113e-38
-85.830048 -456.6095 -155.026 1.8403113e-38
-70.614403 -455.17599 -154.57201 1.8403113e-38
-63.656898 -459.26801 -156.092 1.8403113e-38
-53.868999 -458.293 -155.78 1.8403113e-38
-267.90201 -449.095 -151.485 1.8403113e-38
-241.94099 -446.74301 -150.744 1.8403113e-38
-230.85201 -446.996 -150.88499 1.8403113e-38
-199.086 -449.69501 -152.008 1.8403113e-38
2995.6101 -431.34799 -159.47701 1.8403113e-38
-734.92999 -436.36099 -144.783 1.8403113e-38
-739.95001 -425.616 -140.85001 1.8403113e-38
-743.703 -414.80399 -136.89799 1.8403113e-38
-412.26401 -410.75299 -136.892 1.8403113e-38
-747.64697 -403.51999 -132.774 1.8403113e-38
-858.15601 -397.47601 -130.08501 1.8403113e-38
2880.0801 -377.27899 -139.287 1.8403113e-38
-752.883 -393.66199 -129.16299 1.8403113e-38
-403.56601 -391.47198 -129.91299 1.8403113e-38
-805.96899 -382.983 -125.041 1.8403113e-38
-782.38501 -383.78799 -125.439 1.8403113e-38
-760.03998 -384.26401 -125.711 1.8403113e-38
-420.41699 -381.465 -126.196 1.8403113e-38
-414.91501 -389.10599 -129.00101 1.8403113e-38
-420.121 -369.95901 -122.01 1.8403113e-38
-413.71399 -353.47 -116.037 1.8403113e-38
-513.28101 -344.755 -112.425 1.8403113e-38
-412.29099 -341.53799 -111.701 1.8403113e-38
-422.069 -337.397 -110.151 1.8403113e-38
2756.72 -324.40601 -119.498 1.8403113e-38
2763.3301 -304.99899 -112.465 1.8403113e-38
-774.96698 -340.64099 -109.769 1.8403113e-38
-462.94699 -322.021 -104.374 1.8403113e-38
-451.59299 -325.526 -105.7 1.8403113e-38
-416.42001 -322.673 -104.817 1.8403113e-38
-755.79999 -318.603 -101.833 1.8403113e-38
-426.87399 -318.99399 -103.432 1.8403113e-38
2783.0601 -289.702 -106.985 1.8403113e-38
-751.63898 -303.89301 -96.497803 1.8403113e-38
-743.48102 -288.04099 -90.764801 1.8403113e-38
2782.55 -268.496 -99.264603 1.8403113e-38
2788.3899 -249.78799 -92.482002 1.8403113e-38
-745.198 -276.55399 -86.576599 1.8403113e-38
-744.75403 -264.71399 -82.269402 1.8403113e-38
2788.4399 -228.842 -84.8592 1.8403113e-38
-5284.6401 -311.32901 -79.132103 1.8403113e-38
-741.711 -251.23599 -77.377602 1.8403113e-38
-730.13098 -234.70399 -71.412201 1.8403113e-38
2799.79 -211.272 -78.514702 1.8403113e-38
2806.3101 -191.653 -71.403397 1.8403113e-38
-5284.9399 -262.92499 -61.5145 1.8403113e-38
-729.46301 -222.66299 -67.032799 1.8403113e-38
-727.53003 -210.742 -62.702801 1.8403113e-38
2808.52 -172.17599 -64.324699 1.8403113e-38
-707.35498 -190.871 -55.560299 1.8403113e-38
-705.08502 -179.233 -51.334801 1.8403113e-38
2718.4299 -135.263 -50.491699 1.8403113e-38
-705.65399 -168.30901 -47.3568 1.8403113e-38
-702.20697 -156.436 -43.050598 1.8403113e-38
-711.82703 -149.077 -40.3298 1.8403113e-38
-720.27698 -141.702 -37.608398 1.8403113e-38
-713.88599 -128.44501 -32.812099 1.8403113e-38
2525.3501 -83.351402 -30.743799 1.8403113e-38
-742.83801 -117.075 -28.545601 1.8403113e-38
-711.854 -117.401 -28.801701 1.8403113e-38
-753.802 -104.669 -23.981949 1.8403113e-38
2509.99 -62.634998 -23.136101 1.8403113e-38
-805.64001 -82.616302 -15.7266 1.8403113e-38
-770.92297 -82.973297 -16.0103 1.8403113e-38
-753.23401 -88.553802 -18.1196 1.8403113e-38
-808.01801 -72.032799 -11.8643 1.8403113e-38
2509.05 -45.297401 -16.8221 1.8403113e-38
2510.0701 -27.459999 -10.3348 1.8403113e-38
-4853.8301 -92.598999 -1.43434 1.8403113e-38
-870.23199 -55.521999 -5.5798001 1.8403113e-38
-798.61603 -58.770901 -7.0792999 1.8403113e-38
-912.98602 -43.085098 -0.864169 1.8403113e-38
-882.98102 -47.056599 -2.44241 1.8403113e-38
-806.53998 -49.791302 -3.77616 1.8403113e-38
2512.76 -10.729 -4.2575798 1.8403113e-38
-1286.87 -43.923401 0.48631901 1.8403113e-38
-1197.75 -40.765499 1.24098 1.8403113e-38
-1300.62 -31.4944 5.0706601 1.8403113e-38
-1033.61 -33.7159 3.0798299 1.8403113e-38
-980.00098 -34.724499 2.4753699 1.8403113e-38
-942.17798 -37.893501 1.1545399 1.8403113e-38
-1071.53 -29.239401 4.8769398 1.8403113e-38
2528.3 5.2024298 1.47175 1.8403113e-38
2712.75 19.791401 5.96455 1.8403113e-38
2536.6499 21.364201 7.3167601 1.8403113e-38
2836.26 25.6208 7.5392299 1.8403113e-38
-4742.2798 -41.258202 16.7568 1.8403113e-38
-1291.5 -15.7031 10.7774 1.8403113e-38
-1297.13 -1.7878799 15.8667 1.8403113e-38
2839.5601 45.821999 14.8767 1.8403113e-38
-1303.51 11.3662 20.682301 1.8403113e-38
-1293.0699 27.712 26.584999 1.8403113e-38
2841.5801 65.186203 21.915199 1.8403113e-38
2852.48 84.822701 29.0135 1.8403113e-38
-1289.29 42.244801 31.8573 1.8403113e-38
-1269.61 59.3969 38.0126 1.8403113e-38
2852.1599 104.428 36.150299 1.8403113e-38
-1243.6899 76.249702 44.0313 1.8403113e-38
-1801.73 83.400597 49.104801 1.8403113e-38
-1275.29 86.933701 48.059601 1.8403113e-38
2855.71 124.73 43.523201 1.8403113e-38
-5297.6802 64.649902 57.7607 1.8403113e-38
2860.01 144.05901 50.5387 1.8403113e-38
2871.1799 164.095 57.7813 1.8403113e-38
-1401.76 133.30099 65.494598 1.8403113e-38
2870.1299 183.78101 64.9505 1.8403113e-38
-4900.54 124.002 77.602997 1.8403113e-38
-1609.6801 166.93201 78.654999 1.8403113e-38
2881.9299 204.035 72.269699 1.8403113e-38
2883.51 223.71001 79.423103 1.8403113e-38
-1559.65 186.27299 85.472603 1.8403113e-38
2888.9299 244.32899 86.903397 1.8403113e-38
2891.1499 264.07001 94.078102 1.8403113e-38
-1674.33 232.33299 102.744 1.8403113e-38
-1656.63 250.149 109.149 1.8403113e-38
2902.1899 284.85699 101.595 1.8403113e-38
2915.05 304.867 108.82 1.8403113e-38
