# .PCD v0.7 - Point Cloud Data file format
VERSION 0.7
FIELDS x y z rgb
SIZE 4 4 4 4
TYPE F F F F
COUNT 1 1 1 1
WIDTH 347
HEIGHT 1
VIEWPOINT 0 0 0 1 0 0 0
POINTS 347
DATA ascii
-126.936 -1700.72 -280.60599 1.8403113e-38
444.25699 -1428.89 -282.354 1.8403113e-38
456.48599 -1421.09 -281.74399 1.8403113e-38
469.228 -1412.27 -280.88101 1.8403113e-38
481.16501 -1404.27 -280.15701 1.8403113e-38
492.728 -1404.75 -282.14999 1.8403113e-38
504.37601 -1397.5 -281.62799 1.8403113e-38
516.435 -1390.17 -281.14401 1.8403113e-38
637.84198 -1333.83 -281.98499 1.8403113e-38
648.56897 -1326.35 -281.242 1.8403113e-38
658.87402 -1323.58 -281.97 1.8403113e-38
669.39398 -1315.9301 -281.14001 1.8403113e-38
679.39899 -1310.16 -280.83801 1.8403113e-38
689.88898 -1305.1899 -280.879 1.8403113e-38
699.64301 -1298.3199 -280.17801 1.8403113e-38
709.96198 -1293.1899 -280.14001 1.8403113e-38
891.64099 -1204.66 -280.017 1.8403113e-38
914.85901 -1194.0801 -280.242 1.8403113e-38
928.93103 -1189.03 -280.82199 1.8403113e-38
956.08398 -1174.67 -280.435 1.8403113e-38
1036.6801 -1135.21 -280.32101 1.8403113e-38
1081.46 -1113.12 -280.20401 1.8403113e-38
1100.48 -1106.66 -281.11099 1.8403113e-38
1128.01 -1095.22 -281.73901 1.8403113e-38
1145.4399 -1085.49 -281.32401 1.8403113e-38
1153.83 -1079.59 -280.724 1.8403113e-38
1200.86 -1060.91 -282.07999 1.8403113e-38
1225.75 -1043.53 -280.341 1.8403113e-38
1237.13 -1042.64 -281.858 1.8403113e-38
1246.73 -1038.3 -281.965 1.8403113e-38
1253.12 -1030.37 -280.383 1.8403113e-38
1263.21 -1026.64 -280.763 1.8403113e-38
1281.24 -1016.93 -280.44901 1.8403113e-38
1299.74 -1007.63 -280.34201 1.8403113e-38
1404.64 -955.86603 -280.06201 1.8403113e-38
1424.5 -946.229 -280.06201 1.8403113e-38
1466.8101 -928.26001 -280.901 1.8403113e-38
1573.14 -876.44598 -280.82999 1.8403113e-38
1618.4301 -854.70599 -280.90701 1.8403113e-38
1843.1 -742.99597 -280.026 1.8403113e-38
1962.53 -685.95398 -280.32501 1.8403113e-38
2229.3601 -555.85498 -280.12299 1.8403113e-38
-104.911 -1687.47 -279.76599 1.8403113e-38
528.12701 -1377.98 -279.008 1.8403113e-38
540.34003 -1361.89 -275.67999 1.8403113e-38
627.28101 -1328.84 -278.67499 1.8403113e-38
719.41998 -1285.23 -279.035 1.8403113e-38
778.15399 -1256.4 -278.92599 1.8403113e-38
788.30499 -1253.46 -279.57599 1.8403113e-38
797.45099 -1247.74 -279.15799 1.8403113e-38
806.82501 -1240.9301 -278.41699 1.8403113e-38
815.61798 -1234.16 -277.59698 1.8403113e-38
882.21503 -1207.41 -279.418 1.8403113e-38
900.74298 -1198.98 -279.604 1.8403113e-38
937.224 -1181.27 -279.60199 1.8403113e-38
945.84497 -1176.3 -279.34399 1.8403113e-38
960.54199 -1158.03 -275.69699 1.8403113e-38
970.97198 -1157.15 -277.065 1.8403113e-38
980.97699 -1156.34 -278.39001 1.8403113e-38
991.10999 -1154.39 -279.35999 1.8403113e-38
999.41602 -1149.02 -278.92401 1.8403113e-38
1009.17 -1146.03 -279.49301 1.8403113e-38
1014.83 -1134.47 -276.60699 1.8403113e-38
1025.58 -1133.9301 -278.14001 1.8403113e-38
1045.1899 -1129.3199 -279.74399 1.8403113e-38
1053.2 -1123.5601 -279.13199 1.8403113e-38
1065.71 -1115.0449 -278.33051 1.8403113e-38
1089.7 -1107.95 -279.819 1.8403113e-38
1106.89 -1098.02 -279.30099 1.8403113e-38
1116.3 -1094.08 -279.50699 1.8403113e-38
1134.17 -1085.37 -279.49301 1.8403113e-38
1161.25 -1073.0699 -279.767 1.8403113e-38
1174.4 -1065.73 -279.45251 1.8403113e-38
1188.5 -1059.8101 -279.75601 1.8403113e-38
1205.85 -1049.89 -279.263 1.8403113e-38
1213.47 -1043.78 -278.47501 1.8403113e-38
1268.3101 -1017.11 -278.45499 1.8403113e-38
1287.36 -1008.79 -278.75601 1.8403113e-38
1306.35 -1000.1 -278.927 1.8403113e-38
1316.3101 -995.82001 -279.10901 1.8403113e-38
1326.49 -992.46899 -279.629 1.8403113e-38
1335.1801 -986.57202 -279.07999 1.8403113e-38
1342.8199 -980.211 -278.211 1.8403113e-38
1352.6899 -975.565 -278.258 1.8403113e-38
1363.45 -972.52698 -278.97299 1.8403113e-38
1372.65 -966.98602 -278.62 1.8403113e-38
1381.4399 -961.68903 -278.28201 1.8403113e-38
1394.54 -960.02502 -279.819 1.8403113e-38
1413.08 -949.26801 -279.242 1.8403113e-38
1430.8 -937.49902 -278.20499 1.8403113e-38
1443.59 -935.53802 -279.595 1.8403113e-38
1453.28 -929.86798 -279.27701 1.8403113e-38
1470.78 -917.34399 -277.957 1.8403113e-38
1483.6 -914.86603 -279.18201 1.8403113e-38
1496.0699 -911.242 -279.978 1.8403113e-38
1503.11 -903.59497 -278.59201 1.8403113e-38
1516.3 -900.32098 -279.616 1.8403113e-38
1523.99 -893.10797 -278.47501 1.8403113e-38
1535.6899 -888.37903 -278.78601 1.8403113e-38
1544.79 -882.16302 -278.19699 1.8403113e-38
1556.47 -877.18103 -278.42099 1.8403113e-38
1574.08 -863.27802 -276.668 1.8403113e-38
1590.78 -862.22998 -278.978 1.8403113e-38
1600.87 -855.60498 -278.41101 1.8403113e-38
1625.33 -845.65302 -279.04001 1.8403113e-38
1633.4301 -838.03101 -277.82999 1.8403113e-38
1647.38 -833.54401 -278.578 1.8403113e-38
1661.03 -829.31702 -279.36301 1.8403113e-38
1673.39 -823.45697 -279.40701 1.8403113e-38
1680.53 -814.89398 -277.73801 1.8403113e-38
1694.47 -809.76001 -278.271 1.8403113e-38
1709.75 -805.87402 -279.427 1.8403113e-38
1722.04 -799.40698 -279.263 1.8403113e-38
1730.67 -791.37097 -278.00299 1.8403113e-38
1745.42 -786.02197 -278.595 1.8403113e-38
1755.66 -778.66998 -277.814 1.8403113e-38
1769.54 -772.51703 -278.004 1.8403113e-38
1783.97 -767.112 -278.52701 1.8403113e-38
1800.4 -761.89203 -279.42899 1.8403113e-38
1811.39 -754.38 -278.716 1.8403113e-38
1824.36 -747.073 -278.384 1.8403113e-38
1856.91 -735.70599 -279.83401 1.8403113e-38
1870.42 -728.75598 -279.70499 1.8403113e-38
1884.1899 -721.10199 -279.38599 1.8403113e-38
1898.53 -714.18103 -279.39899 1.8403113e-38
1914.91 -707.27899 -279.741 1.8403113e-38
1929.22 -699.96002 -279.61801 1.8403113e-38
1940.1899 -690.46002 -278.25 1.8403113e-38
1974.33 -676.42499 -279.07901 1.8403113e-38
1989.4399 -668.65997 -278.93799 1.8403113e-38
2007.5 -661.09802 -279.332 1.8403113e-38
2018 -651.29303 -277.789 1.8403113e-38
2029.59 -641.08502 -276.28799 1.8403113e-38
2050.0701 -634.36902 -277.34399 1.8403113e-38
2063.4099 -624.37799 -276.19101 1.8403113e-38
2093.1201 -620.01599 -279.48401 1.8403113e-38
2106.3999 -609.51801 -278.15601 1.8403113e-38
2121.24 -600.008 -277.401 1.8403113e-38
2141.8799 -591.25702 -277.81299 1.8403113e-38
2165.0701 -583.60498 -278.99399 1.8403113e-38
2180.02 -572.71698 -277.80399 1.8403113e-38
2201.29 -563.95801 -278.315 1.8403113e-38
2243.01 -544.60602 -278.60699 1.8403113e-38
2257.74 -532.711 -277.052 1.8403113e-38
2286.48 -524.42499 -278.90601 1.8403113e-38
2299.1699 -511.58499 -276.71899 1.8403113e-38
2329.78 -502.93201 -278.74799 1.8403113e-38
2351.9199 -491.42999 -278.50101 1.8403113e-38
2376.72 -480.83801 -278.97198 1.8403113e-38
2399.72 -468.79999 -278.685 1.8403113e-38
2423.45 -457.306 -278.69199 1.8403113e-38
2449.22 -445.005 -278.759 1.8403113e-38
2471.8701 -432.62701 -278.30399 1.8403113e-38
2488.78 -418.32401 -276.30801 1.8403113e-38
2523.9099 -406.96301 -278.16901 1.8403113e-38
2536.74 -391.51801 -275.151 1.8403113e-38
2571.75 -379.23099 -276.69101 1.8403113e-38
2591.22 -363.94 -274.77701 1.8403113e-38
2630 -351.052 -276.72 1.8403113e-38
2650.25 -335.078 -274.70599 1.8403113e-38
2679.0901 -320.328 -274.45801 1.8403113e-38
2711.8701 -304.55099 -274.50101 1.8403113e-38
2731.6799 -288.30899 -272.32999 1.8403113e-38
818.93298 -1198.58 -266.47198 1.8403113e-38
2736.71 -270.099 -267.16599 1.8403113e-38
2745.4199 -252.87801 -262.91199 1.8403113e-38
4.0590701 -1546.75 -251 1.8403113e-38
442.94601 -1351.2 -256.70401 1.8403113e-38
829.79303 -1157.15 -254.631 1.8403113e-38
837.89801 -1151.1801 -253.966 1.8403113e-38
849.47601 -1157.86 -257.99301 1.8403113e-38
857.758 -1152.67 -257.60901 1.8403113e-38
2748.1599 -234.444 -257.311 1.8403113e-38
-86.468399 -1582.67 -248.38 1.8403113e-38
566.17999 -1251.41 -243.61 1.8403113e-38
746.24298 -1174.88 -247.162 1.8403113e-38
717.33502 -1169 -240.645 1.8403113e-38
735.698 -1165.17 -242.30701 1.8403113e-38
754.67603 -1165.71 -245.498 1.8403113e-38
817.612 -1146.5699 -249.231 1.8403113e-38
2713.21 -215.786 -245.647 1.8403113e-38
-86.236603 -1552.17 -238.42999 1.8403113e-38
615.065 -1187.01 -230.28999 1.8403113e-38
724.90399 -1155.42 -237.39999 1.8403113e-38
-87.4235 -1524.12 -229.05499 1.8403113e-38
-84.429604 -1490.3101 -218.46001 1.8403113e-38
605.91199 -1153.27 -217.786 1.8403113e-38
2564.6699 -194.61099 -215.11099 1.8403113e-38
-85.098999 -1463.29 -209.504 1.8403113e-38
-103.435 -1444.02 -200.28 1.8403113e-38
-88.486298 -1443.48 -202.48 1.8403113e-38
2515.4299 -177.927 -201.82401 1.8403113e-38
-110.698 -1431.86 -195.145 1.8403113e-38
74.995003 -1353.4301 -198.968 1.8403113e-38
459.35599 -1164.59 -198.20599 1.8403113e-38
562.04602 -1118.3 -199.366 1.8403113e-38
579.836 -1105.7 -198.067 1.8403113e-38
588.76398 -1099.76 -197.541 1.8403113e-38
597.125 -1099.47 -198.77499 1.8403113e-38
2514.4199 -161.467 -196.274 1.8403113e-38
2518.1699 -145.789 -191.735 1.8403113e-38
2777.72 -16.4587 -190.62801 1.8403113e-38
77.483704 -1321.14 -188.791 1.8403113e-38
453.54901 -1141.01 -189.562 1.8403113e-38
445.65701 -1135.4 -186.47301 1.8403113e-38
438.57901 -1123.08 -181.311 1.8403113e-38
2534.6499 -129.112 -188.892 1.8403113e-38
2548 -113.017 -185.743 1.8403113e-38
2557.27 -96.042999 -181.659 1.8403113e-38
2678.1101 -40.635799 -182.717 1.8403113e-38
2787.2 2.0120201 -186.08501 1.8403113e-38
-91.064201 -1371.79 -178.597 1.8403113e-38
2555.51 -80.134598 -176.17 1.8403113e-38
2588.21 -61.842201 -175.37601 1.8403113e-38
2787.5901 20.7999 -179.995 1.8403113e-38
2794.76 39.324501 -175.069 1.8403113e-38
-86.700203 -1341.15 -169.256 1.8403113e-38
432.52802 -1061.54 -160.2 1.8403113e-38
440.71399 -1063.54 -162.157 1.8403113e-38
2798.76 58.561501 -169.40401 1.8403113e-38
2796.71 76.353203 -163.25301 1.8403113e-38
411.81699 -1042.09 -150.539 1.8403113e-38
429.10101 -1037.86 -151.90199 1.8403113e-38
2797.3999 95.333298 -157.147 1.8403113e-38
2804.8799 114.29 -152.129 1.8403113e-38
259.591 -1086.21 -140.80099 1.8403113e-38
280.43301 -1079.22 -141.82201 1.8403113e-38
324.59799 -1052.96 -140.242 1.8403113e-38
343.151 -1048.45 -141.711 1.8403113e-38
353.34201 -1041.84 -141.168 1.8403113e-38
365.87952 -1042.53 -143.38651 1.8403113e-38
379.11401 -1040.27 -144.74899 1.8403113e-38
403.45099 -1041.71 -149.08501 1.8403113e-38
387.56 -1038.9301 -145.64999 1.8403113e-38
397.46701 -1032.89 -145.248 1.8403113e-38
421.37399 -1034.8101 -149.675 1.8403113e-38
2815.0601 134.64799 -147.08099 1.8403113e-38
2818.26 153.33 -141.47 1.8403113e-38
211.02901 -1089.72 -134.23199 1.8403113e-38
222.522 -1085.48 -134.67101 1.8403113e-38
236.778 -1072.89 -132.811 1.8403113e-38
254.218 -1075.45 -136.42101 1.8403113e-38
249.76601 -1063.87 -131.924 1.8403113e-38
274.638 -1069.49 -137.717 1.8403113e-38
296.966 -1056.74 -137.08701 1.8403113e-38
308.27802 -1049.78 -136.60699 1.8403113e-38
316.68399 -1049.98 -138.007 1.8403113e-38
337.21799 -1039.15 -137.72301 1.8403113e-38
2818.23 172.52499 -135.181 1.8403113e-38
2825.01 191.91299 -129.909 1.8403113e-38
2822.6599 210.856 -123.333 1.8403113e-38
44.124802 -1098.09 -110.454 1.8403113e-38
2835.9399 231.601 -118.65 1.8403113e-38
2834.21 250.798 -112.089 1.8403113e-38
2839.28 270.38901 -106.479 1.8403113e-38
2845.97 291.36499 -100.674 1.8403113e-38
2848.72 310.759 -94.7593 1.8403113e-38
85.916397 -1011.66 -88.790497 1.8403113e-38
86.985298 -993.33502 -82.960297 1.8403113e-38
2854.04 331.74899 -88.731499 1.8403113e-38
2862.24 352.60101 -83.207001 1.8403113e-38
82.938499 -984.414 -79.396103 1.8403113e-38
84.510902 -966.19202 -73.679001 1.8403113e-38
2865.21 373.37799 -76.874802 1.8403113e-38
2872.04 394.26199 -71.121902 1.8403113e-38
82.408096 -954.82202 -69.621803 1.8403113e-38
88.867897 -930.18103 -62.579399 1.8403113e-38
2883.3 417.405 -65.333199 1.8403113e-38
86.658997 -919.72302 -58.8041 1.8403113e-38
88.200302 -903.41498 -53.708698 1.8403113e-38
2888.74 438.34299 -59.341999 1.8403113e-38
2896.6499 461.08801 -53.151001 1.8403113e-38
87.321999 -884.9035 -47.5075 1.8403113e-38
85.672897 -868.07501 -41.734901 1.8403113e-38
2896.8701 480.94 -46.684601 1.8403113e-38
89.292702 -850.42297 -36.529999 1.8403113e-38
88.722397 -839.367 -32.819 1.8403113e-38
2891.8601 500.36401 -39.5285 1.8403113e-38
2884.05 517.97498 -32.5201 1.8403113e-38
84.414902 -832.841 -29.997499 1.8403113e-38
84.1259 -821.823 -26.3438 1.8403113e-38
77.526299 -807.37701 -20.5648 1.8403113e-38
86.795403 -806.78003 -21.8419 1.8403113e-38
2872.96 535.52399 -25.0117 1.8403113e-38
78.634201 -794.69702 -16.5886 1.8403113e-38
74.479202 -789.09998 -14.0956 1.8403113e-38
2864.8401 552.91699 -18.0264 1.8403113e-38
2846.8 568.04303 -10.2062 1.8403113e-38
77.830498 -774.23798 -9.7615404 1.8403113e-38
72.472748 -764.99701 -5.8840752 1.8403113e-38
71.882004 -750.54797 -1.0589 1.8403113e-38
2835.55 584.21503 -3.1232901 1.8403113e-38
67.938698 -744.724 1.4747699 1.8403113e-38
71.050903 -731.81403 5.2077799 1.8403113e-38
70.710602 -722.39001 8.3477297 1.8403113e-38
2832.3999 604.02899 3.8663399 1.8403113e-38
72.109497 -711.77197 11.6024 1.8403113e-38
69.269798 -705.26703 14.1835 1.8403113e-38
74.427002 -691.20502 17.9687 1.8403113e-38
2832.1699 623.935 10.4202 1.8403113e-38
2827.6899 643.40997 17.509501 1.8403113e-38
75.340302 -681.25 21.0835 1.8403113e-38
70.921204 -677.09802 23.1451 1.8403113e-38
58.932598 -662.64203 29.7838 1.8403113e-38
66.313095 -668.52899 26.683451 1.8403113e-38
2839.27 667.84497 23.6705 1.8403113e-38
60.563099 -652.98499 32.687099 1.8403113e-38
63.601898 -641.84302 35.852501 1.8403113e-38
59.5373 -637.58099 37.894199 1.8403113e-38
2841.8501 690.21899 30.587 1.8403113e-38
2874.3601 723.34698 36.269798 1.8403113e-38
55.117699 -625.50299 42.551498 1.8403113e-38
61.3293 -627.849 40.796001 1.8403113e-38
55.1973 -613.66296 46.415699 1.8403113e-38
2937.7 770.49701 41.644699 1.8403113e-38
2947.05 795.98499 48.504601 1.8403113e-38
57.0425 -600.64502 50.3853 1.8403113e-38
53.345901 -596.31299 52.391201 1.8403113e-38
53.6012 -584.93701 56.075851 1.8403113e-38
54.863499 -573.04401 59.769501 1.8403113e-38
2957.5901 823.37299 55.797699 1.8403113e-38
51.412399 -568.68402 61.745701 1.8403113e-38
46.678501 -550.94598 68.306198 1.8403113e-38
52.204102 -557.46448 65.2938 1.8403113e-38
2958.0901 845.75 63.045502 1.8403113e-38
42.1549 -543.8855 71.337051 1.8403113e-38
42.694698 -533.43298 74.673897 1.8403113e-38
34.992348 -528.39197 77.548645 1.8403113e-38
2962.55 871.117 70.643501 1.8403113e-38
2970.8 897.30798 77.910004 1.8403113e-38
-8.5202246 -514.96204 88.860298 1.8403113e-38
9.7669497 -514.26099 86.184196 1.8403113e-38
16.127899 -516.89801 84.309898 1.8403113e-38
22.644899 -519.68402 82.362099 1.8403113e-38
35.767799 -517.86798 80.8713 1.8403113e-38
2977.4199 924.21301 85.6679 1.8403113e-38
-75.683296 -513.948 99.864304 1.8403113e-38
-57.509949 -514.95898 96.645447 1.8403113e-38
-30.690701 -510.70099 93.778503 1.8403113e-38
-26.9156 -515.26703 91.683502 1.8403113e-38
2985.0801 950.771 93.147697 1.8403113e-38
-151.007 -522.41498 109.06 1.8403113e-38
-124.598 -517.21301 106.567 1.8403113e-38
-103.82 -514.02002 104.312 1.8403113e-38
-85.660698 -512.16199 102.034 1.8403113e-38
2992.8999 978.88501 101.111 1.8403113e-38
2993.6499 1002.76 108.808 1.8403113e-38
