# .PCD v0.7 - Point Cloud Data file format
VERSION 0.7
FIELDS x y z rgb
SIZE 4 4 4 4
TYPE F F F F
COUNT 1 1 1 1
WIDTH 347
HEIGHT 1
VIEWPOINT 0 0 0 1 0 0 0
POINTS 347
DATA ascii
2570 -571.26099 -290.065 1.8403113e-38
1267.65 -1218.64 -280.04199 1.8403113e-38
1338.95 -1181.37 -280.00299 1.8403113e-38
1357.47 -1172.58 -280.27802 1.8403113e-38
1375.9 -1163.4399 -280.427 1.8403113e-38
1414.3 -1146.28 -281.34399 1.8403113e-38
1430.5699 -1133.97 -280.10699 1.8403113e-38
1470.37 -1116.7 -281.224 1.8403113e-38
1515.46 -1091.11 -280.547 1.8403113e-38
1528.24 -1086.4399 -281.18799 1.8403113e-38
1535.75 -1081.5601 -280.87799 1.8403113e-38
1567.3 -1065.13 -280.879 1.8403113e-38
1588.15 -1055.08 -281.14001 1.8403113e-38
1606.71 -1042.79 -280.29401 1.8403113e-38
1617.73 -1040.23 -281.319 1.8403113e-38
1634.14 -1037.09 -283.06601 1.8403113e-38
1638.41 -1029.0699 -281.194 1.8403113e-38
1654.83 -1025.59 -282.832 1.8403113e-38
1660.53 -1018.57 -281.52701 1.8403113e-38
1674.65 -1013.07 -282.12601 1.8403113e-38
1679.49 -1005.38 -280.45499 1.8403113e-38
1700.62 -1004.45 -283.70801 1.8403113e-38
1700.66 -993.38501 -280.14301 1.8403113e-38
1717.08 -988.862 -281.444 1.8403113e-38
1738.9399 -976.54303 -281.14401 1.8403113e-38
1749.15 -971.99597 -281.39401 1.8403113e-38
1763.96 -965.703 -281.853 1.8403113e-38
1769.25 -957.94897 -280.23901 1.8403113e-38
1784.01 -951.33801 -280.586 1.8403113e-38
1802.4399 -951.091 -283.60599 1.8403113e-38
1815.5601 -943.08899 -283.229 1.8403113e-38
1823.21 -936.37097 -282.34601 1.8403113e-38
1836.24 -928.07098 -281.85901 1.8403113e-38
1851.4301 -925.20801 -283.48801 1.8403113e-38
1861.87 -915.21301 -282.017 1.8403113e-38
1870.23 -908.52802 -281.26501 1.8403113e-38
1892.5699 -904.25 -283.642 1.8403113e-38
1895.71 -894.78101 -281.11301 1.8403113e-38
1916.34 -889.17102 -282.771 1.8403113e-38
1928.08 -883.60999 -282.94901 1.8403113e-38
1943.47 -875.07501 -282.78299 1.8403113e-38
1954.3 -868.82098 -282.58401 1.8403113e-38
2143.5601 -776.95898 -284.75601 1.8403113e-38
2163.96 -766.995 -284.97101 1.8403113e-38
2178.1001 -759.59497 -284.95901 1.8403113e-38
2201.23 -749.85699 -285.70499 1.8403113e-38
2219.98 -743.34698 -286.75601 1.8403113e-38
2236.5 -731.11902 -285.58701 1.8403113e-38
2258.02 -724.85797 -287.186 1.8403113e-38
2270.6599 -711.11902 -284.87601 1.8403113e-38
2293.0901 -704.55103 -286.52802 1.8403113e-38
2322.6201 -694.35303 -288.202 1.8403113e-38
2332.7 -684.29999 -286.65201 1.8403113e-38
2357.3999 -672.271 -286.922 1.8403113e-38
2376.8999 -663.86401 -287.487 1.8403113e-38
2400.54 -650.87903 -287.26999 1.8403113e-38
2420.9199 -642.08502 -287.858 1.8403113e-38
2450.1899 -629.39398 -288.68399 1.8403113e-38
2470.5 -619.966 -289.056 1.8403113e-38
2500.6299 -606.53003 -289.785 1.8403113e-38
2519.8899 -596.31299 -289.72501 1.8403113e-38
2541.1699 -580.69299 -288.26199 1.8403113e-38
2591.1001 -554.86499 -288.32101 1.8403113e-38
2618.8701 -544.53198 -289.65399 1.8403113e-38
2647.5601 -528.23499 -289.21701 1.8403113e-38
663.76599 -1507.48 -271.73599 1.8403113e-38
672.83899 -1502.46 -271.64099 1.8403113e-38
768.89502 -1454.76 -272.39401 1.8403113e-38
777.383 -1451.89 -272.896 1.8403113e-38
789.64301 -1452.3101 -275.09299 1.8403113e-38
797.48297 -1442.7 -273.30801 1.8403113e-38
809.40198 -1440.09 -274.47198 1.8403113e-38
817.10602 -1431.3101 -272.93201 1.8403113e-38
906.95801 -1397.9399 -277.26901 1.8403113e-38
914.07202 -1390.47 -276.05399 1.8403113e-38
922.21899 -1372 -271.46399 1.8403113e-38
1052.2 -1320.05 -276.54999 1.8403113e-38
1059.26 -1315.38 -276.229 1.8403113e-38
1074.72 -1311.89 -277.70151 1.8403113e-38
1084.61 -1294.22 -273.66101 1.8403113e-38
1094.61 -1297.1899 -276.30301 1.8403113e-38
1105.95 -1294.42 -277.314 1.8403113e-38
1112.75 -1289.42 -276.84201 1.8403113e-38
1119.87 -1276.99 -274.03101 1.8403113e-38
1128.4399 -1276.2 -275.215 1.8403113e-38
1139.24 -1272.23 -275.74799 1.8403113e-38
1145.42 -1266.1801 -274.83401 1.8403113e-38
1157.78 -1265.41 -276.66599 1.8403113e-38
1161.78 -1255.05 -273.99399 1.8403113e-38
1175.39 -1256.61 -276.784 1.8403113e-38
1179.2 -1246.1899 -274.06201 1.8403113e-38
1193.29 -1248.34 -277.12601 1.8403113e-38
1197.8199 -1239.52 -275.039 1.8403113e-38
1213.03 -1234.915 -276.112 1.8403113e-38
1237.74 -1230.03 -278.69 1.8403113e-38
1227.78 -1229.28 -276.77301 1.8403113e-38
1249.17 -1226.5601 -279.49301 1.8403113e-38
1256.24 -1222.3101 -279.31 1.8403113e-38
1273.14 -1211.89 -278.78699 1.8403113e-38
1287.4299 -1205 -278.9675 1.8403113e-38
1297.4301 -1191.71 -276.358 1.8403113e-38
1306.9399 -1191 -277.72699 1.8403113e-38
1319.8101 -1189.05 -279.263 1.8403113e-38
1323.3101 -1179.75 -276.849 1.8403113e-38
1345.72 -1176.51 -279.57101 1.8403113e-38
1361.85 -1164.62 -278.448 1.8403113e-38
1378.38 -1153.21 -277.543 1.8403113e-38
1390.61 -1149.61 -278.43799 1.8403113e-38
1400.8 -1148.72 -279.86401 1.8403113e-38
1417.1 -1136.65 -278.70599 1.8403113e-38
1436.37 -1127.79 -279.08701 1.8403113e-38
1447.28 -1122.08 -279.07999 1.8403113e-38
1454.28 -1117.17 -278.672 1.8403113e-38
1473.39 -1107.5699 -278.784 1.8403113e-38
1484.85 -1102.1 -278.948 1.8403113e-38
1489.04 -1094.26 -277.12201 1.8403113e-38
1503.14 -1091.23 -278.51401 1.8403113e-38
1545 -1073.46 -279.81699 1.8403113e-38
1549.6 -1065.95 -278.16501 1.8403113e-38
1573.27 -1058.72 -279.811 1.8403113e-38
1593.3101 -1047.92 -279.69699 1.8403113e-38
1713.74 -975.70599 -276.63501 1.8403113e-38
2065.95 -763.08899 -267.228 1.8403113e-38
822.784 -1377.77 -256.604 1.8403113e-38
1889.15 -825.31 -257.58401 1.8403113e-38
2510.3899 -500.02301 -257.04599 1.8403113e-38
916.52197 -1308.3 -249.94099 1.8403113e-38
1874.78 -808.88898 -249.868 1.8403113e-38
1861.87 -789.31403 -241.377 1.8403113e-38
2494.6699 -480.28299 -248.03 1.8403113e-38
2488.73 -466.92401 -242.72 1.8403113e-38
2712.6599 -363.08899 -246.856 1.8403113e-38
2751.1699 -349.608 -248.98 1.8403113e-38
2750.5601 -329.29901 -242.32201 1.8403113e-38
-52.475101 -1761.35 -233.24699 1.8403113e-38
-35.728001 -1764.39 -237.043 1.8403113e-38
686.34998 -1380.14 -234.42799 1.8403113e-38
919.21198 -1271.5601 -238.536 1.8403113e-38
1864.97 -780.58502 -239.08 1.8403113e-38
1874.97 -770.526 -237.515 1.8403113e-38
1892.36 -767.21198 -239.369 1.8403113e-38
1906.79 -758.48102 -238.979 1.8403113e-38
1921.48 -753.73499 -239.916 1.8403113e-38
1934.03 -743.93201 -238.862 1.8403113e-38
1946.86 -738.18903 -239.166 1.8403113e-38
2490.23 -449.07599 -237.211 1.8403113e-38
2493.8401 -436.57199 -233.78101 1.8403113e-38
2514.6499 -419.87 -231.888 1.8403113e-38
2759.28 -314.89301 -239.13901 1.8403113e-38
2769.1599 -294.465 -234.205 1.8403113e-38
-80.260002 -1754.14 -226.24699 1.8403113e-38
-87.986198 -1744.05 -221.689 1.8403113e-38
868.25702 -1253.8 -224.23199 1.8403113e-38
916.07202 -1226.54 -223.474 1.8403113e-38
997.69598 -1196.77 -227.589 1.8403113e-38
2515.1001 -407.01999 -227.817 1.8403113e-38
2538.5901 -389.935 -226.25101 1.8403113e-38
2570.3 -378.05301 -227.748 1.8403113e-38
2769.74 -279.93201 -229.612 1.8403113e-38
2770.3701 -259.496 -223.121 1.8403113e-38
-113.103 -1731.91 -213.548 1.8403113e-38
-102.695 -1737.01 -216.94299 1.8403113e-38
919.82599 -1200.08 -215.563 1.8403113e-38
925.15302 -1192.6801 -214.07001 1.8403113e-38
940.50403 -1185.15 -214.22099 1.8403113e-38
959.21802 -1189.1 -218.644 1.8403113e-38
968.34302 -1185.09 -218.884 1.8403113e-38
931.34998 -1178.08 -210.40199 1.8403113e-38
946.41199 -1170.47 -210.478 1.8403113e-38
973.85303 -1179.24 -217.923 1.8403113e-38
983.461 -1176.88 -218.77699 1.8403113e-38
2778.5901 -244.713 -219.731 1.8403113e-38
2778.8501 -224.21001 -213.157 1.8403113e-38
745.552 -1250.35 -202.487 1.8403113e-38
2787.8 -209.201 -209.81599 1.8403113e-38
2787.6899 -188.627 -203.15601 1.8403113e-38
2796.3601 -173.42 -199.707 1.8403113e-38
2795.8799 -152.782 -192.964 1.8403113e-38
2804.29 -137.383 -189.40601 1.8403113e-38
2810.3301 -116.048 -183.536 1.8403113e-38
116.076 -1483.16 -171.789 1.8403113e-38
661.86102 -1211.4301 -175.851 1.8403113e-38
799.33002 -1130.52 -172.849 1.8403113e-38
834.47302 -1104.63 -170.401 1.8403113e-38
2788.8799 -103.361 -175.832 1.8403113e-38
71.957199 -1499.09 -169.511 1.8403113e-38
811.89398 -1111.99 -168.981 1.8403113e-38
820.41602 -1110.38 -169.89301 1.8403113e-38
805.04602 -1107.47 -166.369 1.8403113e-38
825.07703 -1100.79 -167.58099 1.8403113e-38
2793.5601 -82.189598 -169.786 1.8403113e-38
694.39502 -1134.25 -156.407 1.8403113e-38
732.41998 -1122.04 -158.86 1.8403113e-38
723.54999 -1115.2 -155.16 1.8403113e-38
717.19397 -1105.23 -150.873 1.8403113e-38
-137.73599 -1541.85 -148.054 1.8403113e-38
-141.08099 -1528.3199 -143.123 1.8403113e-38
291.198 -1293.59 -140.045 1.8403113e-38
315.04599 -1283.0699 -140.65601 1.8403113e-38
658.97998 -1122.9 -146.78799 1.8403113e-38
705.745 -1103.1599 -148.27951 1.8403113e-38
2670.4099 -81.800903 -148.952 1.8403113e-38
198.979 -1341.17 -139.895 1.8403113e-38
222.41299 -1310.6801 -133.993 1.8403113e-38
236.435 -1306.78 -135.093 1.8403113e-38
244.567 -1307.8199 -136.795 1.8403113e-38
256.858 -1307.22 -138.66901 1.8403113e-38
271.914 -1291.99 -136.285 1.8403113e-38
282.465 -1294.7 -138.933 1.8403113e-38
308.60999 -1278.9301 -138.24001 1.8403113e-38
334.10199 -1262.62 -137.261 1.8403113e-38
342.14499 -1262.04 -138.425 1.8403113e-38
357.28799 -1250.35 -137.198 1.8403113e-38
569.96997 -1128.6801 -133.688 1.8403113e-38
576.073 -1129.23 -134.89101 1.8403113e-38
585.55902 -1123.28 -134.56599 1.8403113e-38
592.229 -1118.97 -134.29601 1.8403113e-38
604.5365 -1112.55 -134.2925 1.8403113e-38
2598.03 -71.414597 -133.429 1.8403113e-38
-117.792 -1469.79 -128.146 1.8403113e-38
376.772 -1216.63 -129.59 1.8403113e-38
562.63397 -1120.26 -129.735 1.8403113e-38
624.86102 -1081.45 -127.67 1.8403113e-38
639.57001 -1070.38 -126.573 1.8403113e-38
634.03601 -1068.36 -124.987 1.8403113e-38
649.04199 -1046.67 -120.511 1.8403113e-38
2584.0801 -59.875801 -127.359 1.8403113e-38
2577.3899 -42.099701 -120.495 1.8403113e-38
2837.8401 83.574303 -123.723 1.8403113e-38
-108.443 -1439.58 -119.967 1.8403113e-38
-114.638 -1416.79 -111.568 1.8403113e-38
444.92401 -1140.37 -116.434 1.8403113e-38
432.25201 -1130.3199 -111.058 1.8403113e-38
453.79401 -1132.51 -115.388 1.8403113e-38
440.34201 -1125.36 -110.818 1.8403113e-38
468.40302 -1113.02 -111.552 1.8403113e-38
554.138 -1085.54 -117.098 1.8403113e-38
563.71301 -1077.96 -116.261 1.8403113e-38
654.91699 -1040.03 -119.354 1.8403113e-38
624.039 -1030.77 -111.173 1.8403113e-38
2586.8101 -27.386 -117.329 1.8403113e-38
2597.4299 -6.8522902 -112.487 1.8403113e-38
2722.51 47.847198 -115.863 1.8403113e-38
2839.54 105.424 -116.956 1.8403113e-38
2840.0601 120.882 -112.054 1.8403113e-38
-209.77299 -1432.51 -100.647 1.8403113e-38
-140.756 -1405.1899 -103.431 1.8403113e-38
-127.468 -1403.5 -105.122 1.8403113e-38
135.995 -1271.5699 -106.837 1.8403113e-38
422.38699 -1112.73 -103.721 1.8403113e-38
431.98099 -1103.28 -102.283 1.8403113e-38
493.31299 -1075.84 -103.741 1.8403113e-38
486.87799 -1068.63 -100.329 1.8403113e-38
519.14301 -1052.24 -100.465 1.8403113e-38
526.68298 -1054.48 -102.457 1.8403113e-38
533.034 -1051.6 -102.595 1.8403113e-38
543.34399 -1054.1001 -105.136 1.8403113e-38
553.90802 -1055.53 -107.374 1.8403113e-38
2605.5901 8.0042896 -109.064 1.8403113e-38
2848.1699 144.257 -105.872 1.8403113e-38
2853.25 160.87399 -101.363 1.8403113e-38
-170.112 -1405.1 -98.466103 1.8403113e-38
-150.632 -1395.91 -98.775299 1.8403113e-38
513.18298 -1053.14 -99.7537 1.8403113e-38
505.92099 -1049.83 -97.464203 1.8403113e-38
2856.05 183.438 -94.550102 1.8403113e-38
-180.22701 -1380.6 -88.857803 1.8403113e-38
2860.8201 200.224 -89.933502 1.8403113e-38
2867.05 223.908 -83.336502 1.8403113e-38
2863.77 238.922 -77.9375 1.8403113e-38
2884.01 266.60999 -72.403603 1.8403113e-38
-110.424 -1275.9399 -66.810204 1.8403113e-38
-110.957 -1263.0699 -62.566399 1.8403113e-38
137.01199 -1153.6 -68.928101 1.8403113e-38
227.48399 -1101.47 -67.314499 1.8403113e-38
228.04201 -1082.95 -61.428699 1.8403113e-38
2890.99 284.60001 -67.770401 1.8403113e-38
2887.6201 306.44901 -60.151299 1.8403113e-38
-156.127 -1250.99 -51.073101 1.8403113e-38
-120.807 -1242.73 -54.3451 1.8403113e-38
-114.731 -1248.8199 -57.334099 1.8403113e-38
-131.51199 -1236.61 -50.5695 1.8403113e-38
185.64301 -1092.04 -57.232201 1.8403113e-38
214.56799 -1075.65 -56.807701 1.8403113e-38
226.543 -1073.25 -58.044498 1.8403113e-38
212.717 -1066.75 -53.621601 1.8403113e-38
2879.8899 320.465 -54.326698 1.8403113e-38
2869.4399 340.20999 -46.1959 1.8403113e-38
-104.293 -1176.7 -35.808701 1.8403113e-38
2854.79 351.97 -39.936001 1.8403113e-38
2845.9199 371.97601 -31.986799 1.8403113e-38
2840.5601 386.47299 -26.406 1.8403113e-38
2834.1699 407.22601 -18.6329 1.8403113e-38
2821.9399 419.34 -12.6658 1.8403113e-38
41.540298 -1009.09 -6.22651 1.8403113e-38
2831.2 445.564 -5.7574601 1.8403113e-38
2830.9299 461.94 -0.425872 1.8403113e-38
66.838997 -964.633 3.87027 1.8403113e-38
63.9086 -950.638 8.8805704 1.8403113e-38
2829.3501 484.64999 7.1698999 1.8403113e-38
58.6493 -947.14099 10.8937 1.8403113e-38
62.946098 -930.73297 15.4678 1.8403113e-38
60.686001 -924.44598 17.8771 1.8403113e-38
2844.6299 507.121 11.8544 1.8403113e-38
2902.0901 553.37299 17.122299 1.8403113e-38
63.955399 -909.58899 22.1234 1.8403113e-38
66.251801 -899.258 25.0718 1.8403113e-38
67.000504 -887.28699 28.8104 1.8403113e-38
2937.1699 584.828 21.378201 1.8403113e-38
2943.51 612.49902 29.243 1.8403113e-38
60.704201 -885.091 30.5779 1.8403113e-38
55.746799 -878.45203 33.554501 1.8403113e-38
59.236599 -867.61102 36.466999 1.8403113e-38
56.745602 -859.01599 39.660599 1.8403113e-38
2953.9199 634.849 34.707001 1.8403113e-38
60.492199 -848.297 42.4907 1.8403113e-38
58.388802 -832.31897 48.0019 1.8403113e-38
62.853199 -835.93402 46.0844 1.8403113e-38
2954.1399 660.52899 42.959702 1.8403113e-38
2954.9199 679.19098 48.852402 1.8403113e-38
60.249298 -820.677 51.447201 1.8403113e-38
54.3251 -818.26398 53.222198 1.8403113e-38
57.2197 -806.07703 56.6693 1.8403113e-38
60.8904 -796.32599 59.1996 1.8403113e-38
2962.8101 708.69897 57.050499 1.8403113e-38
55.652298 -787.25647 63.008148 1.8403113e-38
53.39085 -772.758 68.06855 1.8403113e-38
2974.0901 732.521 62.844002 1.8403113e-38
53.510902 -756.875 73.175354 1.8403113e-38
55.093201 -743.55798 77.207802 1.8403113e-38
52.098999 -739.22601 79.109703 1.8403113e-38
2970.4399 757.36798 71.478996 1.8403113e-38
2980.3101 781.091 77.476303 1.8403113e-38
55.721149 -724.93396 83.114197 1.8403113e-38
63.0009 -708.67999 87.137001 1.8403113e-38
73.017303 -696.50098 89.383797 1.8403113e-38
2986.8701 811.35602 86.142403 1.8403113e-38
57.256802 -691.93799 93.507004 1.8403113e-38
65.883003 -692.62799 91.833801 1.8403113e-38
52.3209 -683.65454 97.010895 1.8403113e-38
2993.53 834.11499 92.370201 1.8403113e-38
53.602402 -671.87799 100.597 1.8403113e-38
51.148201 -667.51001 102.419 1.8403113e-38
54.060749 -655.11798 105.93 1.8403113e-38
58.077801 -642.39502 109.361 1.8403113e-38
3001.1799 865.66803 101.269 1.8403113e-38
3001.0901 885.51398 107.689 1.8403113e-38
