# .PCD v0.7 - Point Cloud Data file format
VERSION 0.7
FIELDS x y z rgb
SIZE 4 4 4 4
TYPE F F F F
COUNT 1 1 1 1
WIDTH 352
HEIGHT 1
VIEWPOINT 0 0 0 1 0 0 0
POINTS 352
DATA ascii
2285.1799 -497.44299 -301.05899 1.8403113e-38
2307.53 -422.758 -300.17099 1.8403113e-38
2321.8899 -378.965 -300.08401 1.8403113e-38
2332.3201 -356.53699 -301.09799 1.8403113e-38
2341.1101 -322.67599 -300.233 1.8403113e-38
2348.7 -299.64099 -300.20099 1.8403113e-38
2375.71 -227.929 -301.26501 1.8403113e-38
2385.9399 -191.26801 -300.573 1.8403113e-38
2395.04 -165.93401 -300.79501 1.8403113e-38
2411.0901 -126.518 -301.797 1.8403113e-38
2423.72 -74.310204 -300.14301 1.8403113e-38
2429.5901 -60.264099 -300.54999 1.8403113e-38
2441.8401 -31.533501 -301.47101 1.8403113e-38
2447.1399 -4.2713599 -300.159 1.8403113e-38
2456.49 24.7673 -300.043 1.8403113e-38
2464.1499 40.528599 -300.86899 1.8403113e-38
2468.9199 55.502399 -300.793 1.8403113e-38
2475.3601 71.238701 -301.203 1.8403113e-38
2485.0701 102.115 -300.99899 1.8403113e-38
2497.3301 120.7 -303.08899 1.8403113e-38
2500.72 150.207 -300.86301 1.8403113e-38
2511.55 168.98 -302.43701 1.8403113e-38
2518.6299 186.45399 -302.86801 1.8403113e-38
2532.5901 207.21001 -305.298 1.8403113e-38
2529.6001 220.69501 -302.711 1.8403113e-38
2541.3999 241.061 -304.439 1.8403113e-38
2547.73 259.19601 -304.535 1.8403113e-38
2553.8701 277.48499 -304.548 1.8403113e-38
2552.01 292.06201 -302.22601 1.8403113e-38
2556.0601 309.707 -301.59299 1.8403113e-38
2565.1001 330.13901 -302.35999 1.8403113e-38
2577.3401 352.58801 -304.00101 1.8403113e-38
2577.3701 368.858 -302.13599 1.8403113e-38
2582.3401 387.98401 -301.64899 1.8403113e-38
2587.96 407.724 -301.31299 1.8403113e-38
2604.3201 433.89801 -303.94601 1.8403113e-38
2606.9299 452.56299 -302.69901 1.8403113e-38
2614.3601 474.31799 -302.759 1.8403113e-38
2614.8999 492.21301 -300.88101 1.8403113e-38
2629.3201 518.901 -302.78601 1.8403113e-38
2644.24 546.42499 -304.767 1.8403113e-38
2651.45 569.521 -304.595 1.8403113e-38
2654.3201 590.13 -303.21201 1.8403113e-38
2663.45 615.19501 -303.478 1.8403113e-38
2669.8701 638.836 -302.97 1.8403113e-38
2681.6299 666.55798 -303.83701 1.8403113e-38
2692.26 693.992 -304.34601 1.8403113e-38
2702.5601 721.685 -304.711 1.8403113e-38
2710.9399 748.47498 -304.51801 1.8403113e-38
2729.2 783.09998 -306.83401 1.8403113e-38
2732.98 807.45801 -305.332 1.8403113e-38
2746.55 839.75299 -306.298 1.8403113e-38
2752.01 866.30402 -305.125 1.8403113e-38
2773.24 905.91101 -307.89099 1.8403113e-38
2780.25 934.81598 -306.98001 1.8403113e-38
2791.4399 967.69098 -307.05701 1.8403113e-38
2799.97 998.95099 -306.39899 1.8403113e-38
2800.6399 1024.05 -303.741 1.8403113e-38
2808.4399 1055.72 -302.784 1.8403113e-38
2811.4199 1083.7 -300.59201 1.8403113e-38
2890.71 1264.28 -307.16299 1.8403113e-38
2031.98 -1164.5699 -290.492 1.8403113e-38
2041.41 -1158.36 -293.03601 1.8403113e-38
2044.9 -1147.3199 -292.96899 1.8403113e-38
2048.28 -1136.28 -292.86401 1.8403113e-38
2049.3 -1123.52 -291.745 1.8403113e-38
2057.73 -1116.49 -293.845 1.8403113e-38
2057 -1102.62 -291.99399 1.8403113e-38
2061.46 -1092.71 -292.39301 1.8403113e-38
2067.3701 -1083.87 -293.41501 1.8403113e-38
2064.6899 -1069.04 -290.78201 1.8403113e-38
2067.29 -1058.05 -290.41199 1.8403113e-38
2072.1299 -1048.64 -291 1.8403113e-38
2073.73 -1037.13 -290.228 1.8403113e-38
2082.3601 -1030.24 -292.41199 1.8403113e-38
2084.5601 -1019.22 -291.905 1.8403113e-38
2085.8601 -1007.72 -291.02802 1.8403113e-38
2092.6799 -999.66602 -292.45499 1.8403113e-38
2103.6101 -946.12903 -290.061 1.8403113e-38
2111.28 -926.87701 -290.48901 1.8403113e-38
2116.6599 -918.06799 -291.33301 1.8403113e-38
2128.72 -912.55499 -294.86099 1.8403113e-38
2126.3799 -899.87903 -292.59399 1.8403113e-38
2127.3101 -888.90302 -291.64999 1.8403113e-38
2134.96 -881.11401 -293.39301 1.8403113e-38
2141.7 -872.83899 -294.76801 1.8403113e-38
2141.51 -861.45001 -293.38901 1.8403113e-38
2139.47 -849.36401 -291.29401 1.8403113e-38
2142.52 -839.53601 -291.21201 1.8403113e-38
2143.73 -828.98102 -290.41699 1.8403113e-38
2193.5 -694.66699 -292.12399 1.8403113e-38
2206.1599 -687.29797 -295.64801 1.8403113e-38
2209.6599 -677.50098 -295.72601 1.8403113e-38
2214.9099 -668.09497 -296.45499 1.8403113e-38
2223.76 -659.43903 -298.513 1.8403113e-38
2225.1899 -649.07202 -297.815 1.8403113e-38
2229.3101 -639.26898 -298.10599 1.8403113e-38
2230.5801 -628.87598 -297.34601 1.8403113e-38
2231.76 -618.48297 -296.556 1.8403113e-38
2236.55 -608.742 -297.091 1.8403113e-38
2240.3501 -598.78101 -297.254 1.8403113e-38
2246.8601 -589.20697 -298.39801 1.8403113e-38
2250.5 -579.12402 -298.49399 1.8403113e-38
2253.1299 -568.86603 -298.22 1.8403113e-38
2258.48 -558.93799 -298.923 1.8403113e-38
2264.6899 -549.04102 -299.927 1.8403113e-38
2262.3899 -538.12598 -297.87701 1.8403113e-38
2263.75 -527.64502 -297.13901 1.8403113e-38
2268.78 -517.49597 -297.70599 1.8403113e-38
2273.73 -507.26999 -298.23599 1.8403113e-38
2280.5601 -486.41299 -298.19299 1.8403113e-38
2286.21 -476.03699 -298.94699 1.8403113e-38
2288.95 -465.444 -298.672 1.8403113e-38
2293.49 -454.879 -299.021 1.8403113e-38
2296.99 -444.216 -299.005 1.8403113e-38
2299.47 -433.48401 -298.62399 1.8403113e-38
2307.95 -411.905 -299.064 1.8403113e-38
2309.22 -401.04199 -298.25101 1.8403113e-38
2310.3999 -390.16299 -297.405 1.8403113e-38
2324.79 -367.88699 -299.806 1.8403113e-38
2327.46 -345.74899 -298.17801 1.8403113e-38
2332.9099 -334.367 -298.75 1.8403113e-38
2340.7 -311.55099 -298.81 1.8403113e-38
2350.9399 -288.164 -299.651 1.8403113e-38
2350.25 -276.96201 -298.12201 1.8403113e-38
2359.8401 -264.51501 -299.99799 1.8403113e-38
2361.78 -252.87199 -299.327 1.8403113e-38
2361.74 -241.452 -297.99799 1.8403113e-38
2374.53 -216.521 -299.54199 1.8403113e-38
2374.1899 -204.972 -298.09399 1.8403113e-38
2388.2 -179.08299 -299.95001 1.8403113e-38
2393.3401 -154.37199 -298.87799 1.8403113e-38
2398.0801 -141.431 -299.02399 1.8403113e-38
2405.3501 -115.69 -298.569 1.8403113e-38
2411.6001 -102.024 -299.15201 1.8403113e-38
2416.8 -88.464401 -299.384 1.8403113e-38
2429.79 -47.646702 -299.16599 1.8403113e-38
2441.8 -18.764 -299.98499 1.8403113e-38
2451.4299 10.0475 -299.98999 1.8403113e-38
2475.3301 84.785202 -299.63101 1.8403113e-38
2492.3799 132.739 -299.996 1.8403113e-38
2816.27 1113.8 -298.79501 1.8403113e-38
2815.6599 1139.4301 -295.63501 1.8403113e-38
2816.2 1166.49 -292.703 1.8403113e-38
2865.23 1268.22 -297.909 1.8403113e-38
2846.1201 1278.04 -290.18201 1.8403113e-38
2006.55 -1171.08 -282.466 1.8403113e-38
2019.61 -1168.22 -286.64499 1.8403113e-38
2086.48 -983.84601 -288.49301 1.8403113e-38
2090.6799 -974.34497 -288.84698 1.8403113e-38
2089.8899 -962.02399 -287.15302 1.8403113e-38
2096.3601 -953.888 -288.452 1.8403113e-38
2101.6699 -933.41998 -287.92599 1.8403113e-38
2144.8601 -818.44397 -289.59 1.8403113e-38
2822.79 1283.45 -281.50299 1.8403113e-38
3189.03 2338.8301 -286.366 1.8403113e-38
3188.5601 2386.3601 -280.728 1.8403113e-38
1982.11 -1163.78 -273.18399 1.8403113e-38
2808.48 1297.7 -274.92099 1.8403113e-38
3189.21 2436.49 -275.177 1.8403113e-38
3194.3701 2494.0901 -270.32199 1.8403113e-38
1947.88 -1160.74 -261.01901 1.8403113e-38
1961.41 -1159.23 -265.513 1.8403113e-38
2774.1399 1291.22 -263.81299 1.8403113e-38
2776.8 1322.92 -261.07599 1.8403113e-38
3191.3201 2541.3701 -263.82199 1.8403113e-38
1933.02 -1160.77 -255.88901 1.8403113e-38
2081.97 -674.86603 -251.33701 1.8403113e-38
2749.3401 1323 -251.586 1.8403113e-38
3190.46 2592.8799 -257.58899 1.8403113e-38
1900.0699 -1156.9 -244.069 1.8403113e-38
1916.15 -1158.64 -249.819 1.8403113e-38
2058.9099 -696.73401 -245.895 1.8403113e-38
2050.71 -684.89398 -241.69901 1.8403113e-38
2060.46 -678.349 -244.312 1.8403113e-38
3128.77 2555.46 -240.604 1.8403113e-38
1869.58 -1154.0601 -233.213 1.8403113e-38
1882.0601 -1152.9399 -237.39301 1.8403113e-38
2015.25 -757.48401 -237.82001 1.8403113e-38
2016.6 -748.53101 -237.255 1.8403113e-38
2016.99 -739.263 -236.32201 1.8403113e-38
2012.87 -728.45001 -233.65199 1.8403113e-38
2021.95 -722.33002 -236.08501 1.8403113e-38
2023.88 -713.69202 -235.756 1.8403113e-38
2029.3199 -706.20398 -236.769 1.8403113e-38
2032.01 -697.80103 -236.73 1.8403113e-38
2698.55 1297.23 -237.022 1.8403113e-38
1835.48 -1146.23 -220.539 1.8403113e-38
1850.46 -1148.25 -225.942 1.8403113e-38
2679.48 1305.17 -229.522 1.8403113e-38
2667.6201 1321.03 -223.60001 1.8403113e-38
2666.6799 1349.46 -220 1.8403113e-38
3052.4299 2493.9299 -221.33501 1.8403113e-38
1813.63 -1149.89 -213.41701 1.8403113e-38
1825.2 -1148.8199 -217.287 1.8403113e-38
2680.24 1395.27 -219.40401 1.8403113e-38
2677.1699 1422.51 -215.20599 1.8403113e-38
1780.47 -1153.6 -202.394 1.8403113e-38
1788.08 -1148.73 -204.461 1.8403113e-38
1798.24 -1146.59 -207.724 1.8403113e-38
2668.0601 1442.9399 -209.70599 1.8403113e-38
2655.5801 1459.5 -203.492 1.8403113e-38
3007.6399 2478.01 -207.705 1.8403113e-38
3193.1399 3069.5901 -203.599 1.8403113e-38
1759.05 -1142.54 -193.72701 1.8403113e-38
2652.26 1487.5601 -199.112 1.8403113e-38
2644.28 1510.23 -193.746 1.8403113e-38
2670.8899 1612.36 -191.16499 1.8403113e-38
2956.26 2450.5901 -193.12399 1.8403113e-38
3193.9099 3137.28 -196.065 1.8403113e-38
1728.51 -1146.4399 -183.632 1.8403113e-38
1740.91 -1147.95 -188.08701 1.8403113e-38
1745.33 -1139.86 -188.679 1.8403113e-38
2640.8999 1539.15 -189.24699 1.8403113e-38
2917.0901 2441.03 -180.70399 1.8403113e-38
1693.58 -1143.12 -171.188 1.8403113e-38
1702.1801 -1140.64 -173.871 1.8403113e-38
1717.4 -1146.23 -179.771 1.8403113e-38
2953.0901 2608.0901 -173.884 1.8403113e-38
3103.1299 3046.72 -175.15601 1.8403113e-38
1666.12 -1147.66 -162.231 1.8403113e-38
1671.22 -1140.89 -163.213 1.8403113e-38
1682.66 -1142.46 -167.342 1.8403113e-38
3079.8301 3072.3101 -164.161 1.8403113e-38
1635.05 -1145.6801 -151.27499 1.8403113e-38
1645.72 -1146.99 -155.11 1.8403113e-38
1651.4 -1141.17 -156.39999 1.8403113e-38
3060.5601 3105.6001 -153.674 1.8403113e-38
1607.6801 -1147.3199 -142.01601 1.8403113e-38
1613.92 -1142.63 -143.627 1.8403113e-38
1624.45 -1144.22 -147.44701 1.8403113e-38
3033.29 3124.71 -142.05901 1.8403113e-38
1597.24 -1145.49 -138.2 1.8403113e-38
1584.3 -1139.46 -133.03799 1.8403113e-38
1547.5601 -1166.83 -123.506 1.8403113e-38
1553.9399 -1162.6801 -125.23 1.8403113e-38
1552.5 -1145.15 -122.714 1.8403113e-38
1566.255 -1146.275 -127.592 1.8403113e-38
1574.55 -1138.15 -129.521 1.8403113e-38
2999.3101 3131.22 -129.575 1.8403113e-38
1498.24 -1137.26 -103.07 1.8403113e-38
1506.61 -1137.85 -106.028 1.8403113e-38
1515.02 -1138.35 -108.99 1.8403113e-38
1516.04 -1125.1899 -107.826 1.8403113e-38
2872.5601 2958.3101 -105.735 1.8403113e-38
3166.9299 3865.3401 -102.874 1.8403113e-38
1457.76 -1151.13 -90.691002 1.8403113e-38
1460.72 -1140.76 -90.521896 1.8403113e-38
1470.59 -1145.3101 -94.450996 1.8403113e-38
1485.55 -1135.74 -98.514999 1.8403113e-38
1468.34 -1124.42 -91.267303 1.8403113e-38
2846.8501 2976.6799 -94.742798 1.8403113e-38
2955.8701 3343.1799 -90.159103 1.8403113e-38
3175.9299 3976.6599 -93.157402 1.8403113e-38
1432.64 -1202.53 -87.941002 1.8403113e-38
1434.59 -1187.67 -86.900902 1.8403113e-38
1438.52 -1178.24 -87.174599 1.8403113e-38
1443.83 -1172.4 -88.335602 1.8403113e-38
1447.92 -1163.85 -88.7621 1.8403113e-38
1451.12 -1153.5 -88.672501 1.8403113e-38
2864.99 3083.3501 -88.716499 1.8403113e-38
3174.52 4069.3101 -81.995598 1.8403113e-38
1406.6 -1154.55 -73.425301 1.8403113e-38
1394.6 -1141.8 -67.810997 1.8403113e-38
1383.16 -1129.8 -62.480099 1.8403113e-38
3167.6399 4153.0898 -69.969498 1.8403113e-38
1326.7 -1197.8101 -50.820999 1.8403113e-38
1333.02 -1194.73 -52.647999 1.8403113e-38
1338.27 -1187.8199 -53.6633 1.8403113e-38
1363.5 -1112.7 -53.7216 1.8403113e-38
1371.63 -1116.71 -56.991798 1.8403113e-38
3167.53 4255.3301 -58.1521 1.8403113e-38
995.04602 -2139.1399 -44.761799 1.8403113e-38
1009.34 -2139.71 -49.763599 1.8403113e-38
1353.92 -1103.96 -49.406898 1.8403113e-38
1343.61 -1092.3 -44.504501 1.8403113e-38
1335.85 -1087.96 -41.326698 1.8403113e-38
3145.04 4309.1299 -44.1894 1.8403113e-38
951.81799 -2140.6201 -30.006901 1.8403113e-38
966.48102 -2137.6101 -34.7234 1.8403113e-38
980.758 -2138.4399 -39.748199 1.8403113e-38
1320.92 -1101.72 -37.7551 1.8403113e-38
1325.6499 -1085.495 -37.520149 1.8403113e-38
1279.39 -1084.16 -21.3943 1.8403113e-38
1292.73 -1089.37 -26.6 1.8403113e-38
1284.09 -1078.6801 -22.3864 1.8403113e-38
3097.1299 4303.8101 -28.2598 1.8403113e-38
936.49701 -2025.38 -11.4417 1.8403113e-38
949.50897 -2029.5 -16.4088 1.8403113e-38
1045.26 -1773.4301 -19.966299 1.8403113e-38
1246.33 -1097.88 -11.5621 1.8403113e-38
1263.66 -1094.61 -17.1658 1.8403113e-38
1256.63 -1089.3101 -14.1313 1.8403113e-38
1273.76 -1085.77 -19.6371 1.8403113e-38
1248.8199 -1079.09 -10.2552 1.8403113e-38
1266.5 -1079.63 -16.4202 1.8403113e-38
879.987 -2137.78 -4.8798499 1.8403113e-38
894.90302 -2134.46 -9.6471004 1.8403113e-38
921.93298 -2034.01 -7.40727 1.8403113e-38
1166.03 -1240.7 -0.289417 1.8403113e-38
1172.28 -1229.14 -1.11771 1.8403113e-38
1178.29 -1216.55 -1.7408 1.8403113e-38
1184.6801 -1211.8199 -3.4026599 1.8403113e-38
1193.485 -1197.23 -4.7614498 1.8403113e-38
1200.39 -1166.8101 -3.64131 1.8403113e-38
1204.97 -1150.12 -3.2989399 1.8403113e-38
1212.7 -1111.8 -1.55506 1.8403113e-38
1223.79 -1105.73 -4.6827002 1.8403113e-38
1227.95 -1093.84 -4.74898 1.8403113e-38
1239.14 -1090.4399 -8.2195101 1.8403113e-38
1232.54 -1085.83 -5.4121499 1.8403113e-38
851.22302 -2136.1101 5.24336 1.8403113e-38
865.75201 -2136.03 0.23700599 1.8403113e-38
1073.74 -1433.72 9.3353004 1.8403113e-38
1124.66 -1279.1801 9.559 1.8403113e-38
1145.8 -1260.2 4.4485102 1.8403113e-38
1152.96 -1263.67 1.57428 1.8403113e-38
1138.63 -1252.6899 7.7875299 1.8403113e-38
1159.63 -1253.2 0.479743 1.8403113e-38
1206.3 -1107.89 1.1056401 1.8403113e-38
1215.52 -1088.23 0.18802799 1.8403113e-38
2716.0901 3481.6599 8.5804501 1.8403113e-38
836.35303 -2138.03 10.1565 1.8403113e-38
1083.84 -1395.05 10.3028 1.8403113e-38
1093.4399 -1352.33 11.9119 1.8403113e-38
1110.08 -1291.53 13.1727 1.8403113e-38
1103.22 -1274.74 17.4723 1.8403113e-38
1117.59 -1266.51 13.4609 1.8403113e-38
1131.64 -1251.0699 10.3876 1.8403113e-38
828.60101 -2021.62 26.2432 1.8403113e-38
841.00897 -2028.6801 21.146601 1.8403113e-38
2670.8501 3461.4099 21.867701 1.8403113e-38
762.61298 -2139.6299 35.4314 1.8403113e-38
801.72803 -2018.9399 35.830502 1.8403113e-38
815.35101 -2019.36 31.078501 1.8403113e-38
2636.55 3467.6599 34.428101 1.8403113e-38
745.62903 -2149.49 40.1595 1.8403113e-38
738.43799 -2115.3201 46.578701 1.8403113e-38
2597.28 3460.49 47.161201 1.8403113e-38
2571.4199 3488.52 59.320202 1.8403113e-38
2592.4099 3647.0901 70.339996 1.8403113e-38
966.164 -1064.38 89.027802 1.8403113e-38
2723.77 4126.9199 80.264 1.8403113e-38
943.43701 -1053.925 98.078705 1.8403113e-38
954.61249 -1054.3301 94.173706 1.8403113e-38
962.53601 -1056.3199 91.208603 1.8403113e-38
2754.6101 4338.5898 94.004204 1.8403113e-38
554.05298 -2126.0701 109 1.8403113e-38
758.29401 -1544.79 105.451 1.8403113e-38
860.56799 -1253.0699 103.747 1.8403113e-38
936.84497 -1037.9851 102.1915 1.8403113e-38
2748.5 4450.46 108.999 1.8403113e-38
