# .PCD v0.7 - Point Cloud Data file format
VERSION 0.7
FIELDS x y z rgb
SIZE 4 4 4 4
TYPE F F F F
COUNT 1 1 1 1
WIDTH 353
HEIGHT 1
VIEWPOINT 0 0 0 1 0 0 0
POINTS 353
DATA ascii
2498.48 6998.52 -313.86499 1.8403113e-38
2499.73 7435.9702 -314.34799 1.8403113e-38
2461.6299 1087.86 -300.065 1.8403113e-38
2462.5701 1489.33 -300.43399 1.8403113e-38
2461.6699 1525.39 -300.10901 1.8403113e-38
2462.5 1563.65 -300.41299 1.8403113e-38
2462.98 1604.27 -300.58899 1.8403113e-38
2462.5 1684.63 -300.42001 1.8403113e-38
2462.99 1863.78 -300.60901 1.8403113e-38
2462.8899 2066.9099 -300.58701 1.8403113e-38
2464.6201 2124.8501 -301.22101 1.8403113e-38
2464.0901 2182.6001 -301.03101 1.8403113e-38
2463.71 2240.04 -300.89899 1.8403113e-38
2466.02 2309.1201 -301.74301 1.8403113e-38
2465.3501 2370.6001 -301.505 1.8403113e-38
2470.3701 2452.1001 -303.336 1.8403113e-38
2462.6799 2501.0701 -300.54099 1.8403113e-38
2461.9199 2573.78 -300.26801 1.8403113e-38
2467.4199 2662.95 -302.276 1.8403113e-38
2466.3 2741.73 -301.871 1.8403113e-38
2469.1499 2831.47 -302.91699 1.8403113e-38
2468.7 2920.1001 -302.758 1.8403113e-38
2468.5 3009.4199 -302.69299 1.8403113e-38
2472.9099 3122.1599 -304.30499 1.8403113e-38
2471.29 3216.73 -303.71899 1.8403113e-38
2474.3 3336.75 -304.82599 1.8403113e-38
2470.7 3435.6101 -303.522 1.8403113e-38
2473.3799 3567.7 -304.50299 1.8403113e-38
2473.6699 3692.9099 -304.61801 1.8403113e-38
2470.6299 3819.8701 -303.521 1.8403113e-38
2471.28 3962.01 -303.767 1.8403113e-38
2470.3899 4114.6201 -303.45099 1.8403113e-38
2463.45 4244.77 -300.935 1.8403113e-38
2462.23 4597.54 -300.51501 1.8403113e-38
2463.3501 4806.8198 -300.936 1.8403113e-38
2470.7 5052.1299 -303.62601 1.8403113e-38
2473.1201 5304.2998 -304.522 1.8403113e-38
2472.99 5552.52 -304.492 1.8403113e-38
2475.1101 5848.75 -305.28201 1.8403113e-38
2482.1101 6186.2598 -307.85199 1.8403113e-38
2486.74 6559.3198 -309.565 1.8403113e-38
2439.78 -1225.97 -291.95901 1.8403113e-38
2435.97 -1207.4301 -290.57599 1.8403113e-38
2440.9299 -1196.3199 -292.38 1.8403113e-38
2435.1899 -1176.85 -290.29199 1.8403113e-38
2441.4399 -1166.88 -292.57001 1.8403113e-38
2439.25 -1150.37 -291.77301 1.8403113e-38
2439.75 -1136.6 -291.95499 1.8403113e-38
2438.01 -1120.8 -291.32101 1.8403113e-38
2438.54 -1093.05 -291.51901 1.8403113e-38
2437.6499 -1078.99 -291.19501 1.8403113e-38
2438.51 -1065.51 -291.508 1.8403113e-38
2440.9399 -703.97101 -292.41699 1.8403113e-38
2444.3201 -694.21503 -293.64899 1.8403113e-38
2447.75 -683.922 -294.896 1.8403113e-38
2442.75 -671.98798 -293.077 1.8403113e-38
2444.1599 -661.24597 -293.59 1.8403113e-38
2441.7 -650.13 -292.69699 1.8403113e-38
2451.2 -641.28302 -296.15302 1.8403113e-38
2443.96 -629.19299 -293.51999 1.8403113e-38
2443.1499 -618.09399 -293.228 1.8403113e-38
2447.71 -608.617 -294.888 1.8403113e-38
2447.6499 -597.70697 -294.867 1.8403113e-38
2440.9299 -586.15997 -292.422 1.8403113e-38
2449.03 -576.755 -295.371 1.8403113e-38
2444.9099 -565.79303 -293.87201 1.8403113e-38
2444.48 -554.98102 -293.716 1.8403113e-38
2437.3799 -543.77502 -291.13101 1.8403113e-38
2443.29 -533.91998 -293.28299 1.8403113e-38
2437.8701 -523.10699 -291.31 1.8403113e-38
2448.29 -513.68298 -295.103 1.8403113e-38
2441.75 -502.85101 -292.72601 1.8403113e-38
2435.1699 -491.655 -290.32901 1.8403113e-38
2439.6899 -482.021 -291.97601 1.8403113e-38
2440.4199 -471.54001 -292.242 1.8403113e-38
2437.28 -461.30301 -291.10001 1.8403113e-38
2444.3999 -451.20901 -293.69299 1.8403113e-38
2440.1599 -440.96201 -292.14899 1.8403113e-38
2447.1201 -430.72 -294.68301 1.8403113e-38
2438.95 -420.43301 -291.70999 1.8403113e-38
2442.9199 -410.02899 -293.15601 1.8403113e-38
2438.3401 -399.97198 -291.48999 1.8403113e-38
2448.72 -389.50299 -295.26801 1.8403113e-38
2441.1599 -379.508 -292.51599 1.8403113e-38
2447.6001 -368.892 -294.86301 1.8403113e-38
2441.75 -358.995 -292.73599 1.8403113e-38
2444.27 -348.39301 -293.651 1.8403113e-38
2445.77 -338.28101 -294.20001 1.8403113e-38
2445.29 -327.74799 -294.026 1.8403113e-38
2444.76 -317.715 -293.83099 1.8403113e-38
2445.04 -307.12201 -293.936 1.8403113e-38
2447.1499 -296.85599 -294.703 1.8403113e-38
2450.0701 -285.961 -295.76599 1.8403113e-38
2442.6499 -276.55899 -293.06601 1.8403113e-38
2445.3899 -265.638 -294.065 1.8403113e-38
2454.6201 -254.36 -297.42599 1.8403113e-38
2447.8401 -244.479 -294.95999 1.8403113e-38
2443.8401 -234.81799 -293.505 1.8403113e-38
2444.3601 -224.028 -293.69199 1.8403113e-38
2445.78 -213.563 -294.20999 1.8403113e-38
2447.04 -202.564 -294.66901 1.8403113e-38
2448.28 -192.02499 -295.121 1.8403113e-38
2450.27 -180.77699 -295.84698 1.8403113e-38
2446.71 -171.07001 -294.55099 1.8403113e-38
2445.75 -160.343 -294.203 1.8403113e-38
2442.03 -150.711 -292.85001 1.8403113e-38
2447.3301 -138.554 -294.77899 1.8403113e-38
2448.03 -127.86 -295.034 1.8403113e-38
2446.7 -117.088 -294.55099 1.8403113e-38
2446.3 -106.583 -294.40701 1.8403113e-38
2442.05 -96.5382 -292.862 1.8403113e-38
2439.6699 -86.543297 -291.99301 1.8403113e-38
2445.24 -73.745102 -294.02399 1.8403113e-38
2449.01 -61.8503 -295.396 1.8403113e-38
2448.02 -50.7449 -295.035 1.8403113e-38
2445.26 -40.697601 -294.03299 1.8403113e-38
2452.1699 -26.9606 -296.547 1.8403113e-38
2445.6399 -18.08 -294.17099 1.8403113e-38
2441.5801 -7.8698602 -292.694 1.8403113e-38
2450.95 6.5620699 -296.108 1.8403113e-38
2450.24 18.108999 -295.85001 1.8403113e-38
2444.28 27.1721 -293.67999 1.8403113e-38
2451.3301 41.7855 -296.246 1.8403113e-38
2447.8301 51.859501 -294.97501 1.8403113e-38
2453.73 66.343102 -297.121 1.8403113e-38
2446.54 74.971298 -294.505 1.8403113e-38
2444.3301 86.245598 -293.702 1.8403113e-38
2454.3701 102.38 -297.35699 1.8403113e-38
2445.8601 111.022 -294.263 1.8403113e-38
2446.99 123.438 -294.67099 1.8403113e-38
2448.6399 136.814 -295.27399 1.8403113e-38
2445.24 147.27499 -294.03601 1.8403113e-38
2445.79 160.32201 -294.23801 1.8403113e-38
2448.98 174.218 -295.39999 1.8403113e-38
2446.73 186.078 -294.582 1.8403113e-38
2441.24 195.658 -292.58401 1.8403113e-38
2450.51 213.851 -295.95901 1.8403113e-38
2447.3 224.83501 -294.793 1.8403113e-38
2448.73 239.119 -295.314 1.8403113e-38
2451.0901 253.459 -296.173 1.8403113e-38
2451.3899 267.41501 -296.284 1.8403113e-38
2451.8101 280.92999 -296.439 1.8403113e-38
2447.76 292.49701 -294.965 1.8403113e-38
2448.74 306.591 -295.32101 1.8403113e-38
2450.0901 321.76501 -295.814 1.8403113e-38
2444.3501 331.81799 -293.72699 1.8403113e-38
2452.5901 351.85599 -296.72601 1.8403113e-38
2446.6101 361.92999 -294.55099 1.8403113e-38
2452.0701 380.61801 -296.539 1.8403113e-38
2447.4299 391.79099 -294.85101 1.8403113e-38
2452.5 410.70401 -296.69901 1.8403113e-38
2454.5701 427.00699 -297.453 1.8403113e-38
2453.0601 441.61099 -296.901 1.8403113e-38
2452.48 456.33301 -296.69299 1.8403113e-38
2453.6899 473.36801 -297.134 1.8403113e-38
2452.78 488.207 -296.80399 1.8403113e-38
2454.3601 506 -297.38199 1.8403113e-38
2450.8799 519.12903 -296.11499 1.8403113e-38
2450.6001 535.83698 -296.01501 1.8403113e-38
2449.77 551.48999 -295.71399 1.8403113e-38
2455.6899 573.98901 -297.87 1.8403113e-38
2449.3899 585.35602 -295.57599 1.8403113e-38
2451.95 605.53302 -296.508 1.8403113e-38
2451.0801 622.08801 -296.19501 1.8403113e-38
2449.6299 639.198 -295.66699 1.8403113e-38
2452.6101 659.83899 -296.754 1.8403113e-38
2450.73 677.09198 -296.07101 1.8403113e-38
2454.6201 699.29999 -297.48801 1.8403113e-38
2455.05 719.42902 -297.64401 1.8403113e-38
2454.99 738.46198 -297.62399 1.8403113e-38
2459.6499 763.63397 -299.32501 1.8403113e-38
2454.3999 777.96399 -297.414 1.8403113e-38
2454.51 799.146 -297.45499 1.8403113e-38
2457.47 822.77502 -298.53299 1.8403113e-38
2457.6799 844.888 -298.61099 1.8403113e-38
2452.9299 860.79401 -296.883 1.8403113e-38
2456.47 887.44397 -298.17499 1.8403113e-38
2454.46 907.12 -297.444 1.8403113e-38
2456.0901 932.55499 -298.04001 1.8403113e-38
2455.4299 954.625 -297.79999 1.8403113e-38
2461.3501 986.33801 -299.95599 1.8403113e-38
2458.23 1006.36 -298.82001 1.8403113e-38
2460.9399 1035.34 -299.81201 1.8403113e-38
2457.8601 1056.27 -298.69199 1.8403113e-38
2459.71 1111.29 -299.366 1.8403113e-38
2459.2 1138.45 -299.18301 1.8403113e-38
2457.22 1162.84 -298.46399 1.8403113e-38
2461.0901 1197.39 -299.87601 1.8403113e-38
2460.0801 1224.39 -299.51001 1.8403113e-38
2458.0701 1252 -298.78101 1.8403113e-38
2460.1699 1284.89 -299.54501 1.8403113e-38
2460.6001 1317.61 -299.70499 1.8403113e-38
2461.26 1349.98 -299.948 1.8403113e-38
2461.3101 1383.8101 -299.96701 1.8403113e-38
2459.52 1413.9399 -299.31699 1.8403113e-38
2457.1101 1445.51 -298.44299 1.8403113e-38
2459.8501 1637.66 -299.453 1.8403113e-38
2456.49 1714.77 -298.237 1.8403113e-38
2460.6299 1767.3101 -299.74399 1.8403113e-38
2459.9099 1809.9301 -299.48499 1.8403113e-38
2460.52 1905.83 -299.716 1.8403113e-38
2456.97 1949.39 -298.42599 1.8403113e-38
2460.8401 2007.78 -299.83899 1.8403113e-38
2458.3 4399.8799 -299.07101 1.8403113e-38
2407.01 -1231.4301 -280.03299 1.8403113e-38
2427.72 -1231.8101 -287.57199 1.8403113e-38
2434.2 -1104.53 -289.936 1.8403113e-38
2429.5701 7392.8101 -288.80899 1.8403113e-38
2380.24 -1271.87 -270.285 1.8403113e-38
2383.8999 -1258.84 -271.61801 1.8403113e-38
2391.5601 -1249.9399 -274.40701 1.8403113e-38
2397.99 -1239.29 -276.74799 1.8403113e-38
2352.23 -689.07599 -260.13101 1.8403113e-38
2359.3401 7366.2402 -263.246 1.8403113e-38
2294.29 7351.4199 -239.571 1.8403113e-38
2225.8201 7330.4302 -214.646 1.8403113e-38
2216.46 7829.0298 -211.27499 1.8403113e-38
2213.1599 -1143.52 -209.48199 1.8403113e-38
2196.04 -906.349 -203.265 1.8403113e-38
2163.9399 -1126.9 -191.57001 1.8403113e-38
2180.6899 -1128.92 -197.66499 1.8403113e-38
2173.21 -882.18103 -194.959 1.8403113e-38
2165.5601 -867.91602 -192.174 1.8403113e-38
2167.8799 -859.08801 -193.02 1.8403113e-38
2170.77 -851.08899 -194.07201 1.8403113e-38
2174.6101 -843.15002 -195.47 1.8403113e-38
2176.52 -834.65997 -196.16701 1.8403113e-38
2177.6899 -825.35303 -196.593 1.8403113e-38
2186.23 -820.31 -199.702 1.8403113e-38
2180.4399 -807.58099 -197.59599 1.8403113e-38
2166.0601 -650.81299 -192.373 1.8403113e-38
2173.6399 -644.57898 -195.131 1.8403113e-38
2142 -1120.4399 -183.58299 1.8403113e-38
2146.4199 -661.04303 -185.224 1.8403113e-38
2155.8601 -655.67999 -188.658 1.8403113e-38
2145.45 7817.1699 -185.42599 1.8403113e-38
2114.4099 -1120.6801 -173.54201 1.8403113e-38
2131.1599 -1123.11 -179.638 1.8403113e-38
2122.1799 -770.08398 -176.39301 1.8403113e-38
2106.9199 -679.55798 -170.845 1.8403113e-38
2115.54 -674.51001 -173.98399 1.8403113e-38
2120.46 -668.40399 -175.776 1.8403113e-38
2130.8201 -663.729 -179.543 1.8403113e-38
2080.1299 -1113.38 -161.067 1.8403113e-38
2095.96 -1115.65 -166.827 1.8403113e-38
2099.5801 -750.41901 -168.17 1.8403113e-38
2083.48 -734.73499 -162.31 1.8403113e-38
2095.01 -690.99402 -166.50999 1.8403113e-38
2093.98 -682.41602 -166.134 1.8403113e-38
2053.1599 -1111.91 -151.24899 1.8403113e-38
2070.8799 -1116.67 -157.69901 1.8403113e-38
2075.96 -722.94702 -159.575 1.8403113e-38
2073.3899 -713.95203 -158.64 1.8403113e-38
2069.98 -704.32599 -157.39999 1.8403113e-38
2064.6001 -694.383 -155.442 1.8403113e-38
2073.27 -689.96698 -158.59801 1.8403113e-38
2042.62 -1113.5 -147.414 1.8403113e-38
2023.78 -1106.86 -140.55701 1.8403113e-38
2017.35 -1112.34 -138.217 1.8403113e-38
1999.4 -1105.9399 -131.68401 1.8403113e-38
1969.53 -1110.08 -120.81 1.8403113e-38
1983.03 -1113.03 -125.725 1.8403113e-38
1988.4301 -1106.15 -127.688 1.8403113e-38
1960.92 -1113.11 -117.675 1.8403113e-38
1945.67 -1107.58 -112.127 1.8403113e-38
1912.4 -1105.39 -100.019 1.8403113e-38
1920.86 -1102.92 -103.096 1.8403113e-38
1930.9 -1102.85 -106.751 1.8403113e-38
1891.62 -1104.38 -92.452797 1.8403113e-38
1904.24 -1107.51 -97.047699 1.8403113e-38
1877.84 -1105.335 -87.43895 1.8403113e-38
1855.26 -1107.05 -79.220703 1.8403113e-38
1834.0901 -1096.505 -71.516556 1.8403113e-38
1857.21 -1096.59 -79.931 1.8403113e-38
1807.73 -1103.24 -61.919601 1.8403113e-38
1812.87 -1098.15 -63.792599 1.8403113e-38
1822.67 -1099.26 -67.358299 1.8403113e-38
1780.54 -1101.1801 -52.023899 1.8403113e-38
1793.8149 -1101.9199 -56.85545 1.8403113e-38
1755.5601 -1100.45 -42.932899 1.8403113e-38
1760.73 -1095.79 -44.813301 1.8403113e-38
1771.25 -1099.29 -48.641899 1.8403113e-38
1724.01 -1100.8 -31.4505 1.8403113e-38
1728.73 -1095.5601 -33.1689 1.8403113e-38
1739 -1099.52 -36.9062 1.8403113e-38
1744.67 -1095.86 -38.9678 1.8403113e-38
1698.1801 -1095.58 -22.048 1.8403113e-38
1708.1899 -1099.99 -25.692699 1.8403113e-38
1713.4 -1095.74 -27.5877 1.8403113e-38
1667.27 -1092.42 -10.7978 1.8403113e-38
1685.8149 -1092.9651 -17.547199 1.8403113e-38
1673.15 -1089.26 -12.9404 1.8403113e-38
1647.24 -1094.9301 -3.5060301 1.8403113e-38
1652.0601 -1090.3 -5.2609901 1.8403113e-38
1658.75 -1089.08 -7.69732 1.8403113e-38
1625.15 -1092.37 4.53269 1.8403113e-38
1616.9399 -1088.5 7.5184498 1.8403113e-38
1633.8301 -1088.27 1.372592 1.8403113e-38
1594.99 -1092.605 15.508801 1.8403113e-38
1582.97 -1086.79 19.885099 1.8403113e-38
1606.835 -1088.6499 11.19765 1.8403113e-38
1592.74 2431.05 16.0977 1.8403113e-38
1572.13 -1093.12 23.830099 1.8403113e-38
1556.6801 -1085.03 29.451401 1.8403113e-38
1563.74 -1086.71 26.884199 1.8403113e-38
1577.38 -1088.99 21.9181 1.8403113e-38
1570.1 2446.3101 24.3375 1.8403113e-38
1528.74 -1304.71 39.636799 1.8403113e-38
1529.4301 -1270.71 39.384701 1.8403113e-38
1532.08 -1249.49 38.418701 1.8403113e-38
1533.37 -1222.39 37.947201 1.8403113e-38
1535.78 -1203.16 37.066502 1.8403113e-38
1538.46 -1184.83 36.0896 1.8403113e-38
1540.54 -1166.6 35.330799 1.8403113e-38
1544.47 -1155.03 33.903099 1.8403113e-38
1546.04 -1136.84 33.328701 1.8403113e-38
1547.08 -1116.66 32.949799 1.8403113e-38
1550.0601 -1105.2 31.8643 1.8403113e-38
1554.3101 -1097.45 30.315599 1.8403113e-38
1546.66 2438.3401 32.869801 1.8403113e-38
1506.41 -2088.53 47.814999 1.8403113e-38
1520.21 -2088.9299 42.792301 1.8403113e-38
1525.51 -2009.71 40.858398 1.8403113e-38
1507.8101 -1597.51 47.273602 1.8403113e-38
1509.99 -1542.51 46.478001 1.8403113e-38
1512.53 -1498.51 45.550499 1.8403113e-38
1514.8 -1454.46 44.721298 1.8403113e-38
1517.14 -1417.42 43.866901 1.8403113e-38
1520.1899 -1385.25 42.754002 1.8403113e-38
1521.96 -1351.23 42.107601 1.8403113e-38
1524.35 -1321.0699 41.236099 1.8403113e-38
1525.5699 2481.1101 40.542599 1.8403113e-38
1478.6899 -2093.3899 57.903599 1.8403113e-38
1491.33 -2081.1001 53.304501 1.8403113e-38
1499.3199 -1607.92 50.364101 1.8403113e-38
1484.91 -1575.6899 55.6073 1.8403113e-38
1450.27 -2088.76 68.247002 1.8403113e-38
1463.72 -2085.6899 63.354099 1.8403113e-38
1471.5699 2343.3501 60.204201 1.8403113e-38
1450.3101 2359.45 67.943199 1.8403113e-38
1422.4 -2090.5801 78.3936 1.8403113e-38
1436 -2089.76 73.441399 1.8403113e-38
1426.79 2347.4199 76.502998 1.8403113e-38
1394.49 -2091.8899 88.549599 1.8403113e-38
1408.11 -2091.3201 83.593102 1.8403113e-38
1405.64 2379.1101 84.1996 1.8403113e-38
1416.52 4510.3301 80.097504 1.8403113e-38
1380.2 -2092.3601 93.752701 1.8403113e-38
1366.42 -2083.6799 98.766098 1.8403113e-38
1338.64 -2083.95 108.878 1.8403113e-38
1352.2 -2083.8899 103.944 1.8403113e-38
1360.79 2451.9399 100.517 1.8403113e-38
1336.92 2477.05 109.206 1.8403113e-38
