# .PCD v0.7 - Point Cloud Data file format
VERSION 0.7
FIELDS x y z rgb
SIZE 4 4 4 4
TYPE F F F F
COUNT 1 1 1 1
WIDTH 348
HEIGHT 1
VIEWPOINT 0 0 0 1 0 0 0
POINTS 348
DATA ascii
2583.98 7182.7002 -301.224 1.8403113e-38
2606.95 -638.65698 -290.35999 1.8403113e-38
2605.8101 -308.30801 -290.758 1.8403113e-38
2604.4399 324.01999 -291.81201 1.8403113e-38
2602.03 408.97 -291.142 1.8403113e-38
2598.74 436.70099 -290.01599 1.8403113e-38
2600.8899 501 -290.95401 1.8403113e-38
2597.46 670.45898 -290.12299 1.8403113e-38
2597.23 988.90601 -290.82401 1.8403113e-38
2595.1599 1010.29 -290.121 1.8403113e-38
2597.5901 1039.2 -291.077 1.8403113e-38
2600.2 1067.77 -292.09698 1.8403113e-38
2594.5 1113.1899 -290.13501 1.8403113e-38
2594.8799 1141.8101 -290.34399 1.8403113e-38
2595.49 1170.0699 -290.633 1.8403113e-38
2597.8601 1202.98 -291.57599 1.8403113e-38
2598.21 1232.3101 -291.77802 1.8403113e-38
2594.8201 1258.17 -290.608 1.8403113e-38
2593.8799 1286.89 -290.336 1.8403113e-38
2595.04 1321.16 -290.84299 1.8403113e-38
2599.01 1359.27 -292.379 1.8403113e-38
2596.0901 1388.85 -291.38901 1.8403113e-38
2596 1422.23 -291.44 1.8403113e-38
2593.23 1453.6899 -290.51001 1.8403113e-38
2589.76 1768.85 -290.01901 1.8403113e-38
2589.3 1861.62 -290.08301 1.8403113e-38
2592.72 1916.9301 -291.46201 1.8403113e-38
2589.4299 1962.1899 -290.37701 1.8403113e-38
2588.8601 2012.49 -290.29099 1.8403113e-38
2589.77 2070.6699 -290.76599 1.8403113e-38
2590.79 2128.5701 -291.27899 1.8403113e-38
2593.3899 2195.3701 -292.38901 1.8403113e-38
2592.24 2252.76 -292.11099 1.8403113e-38
2589.54 2311.73 -291.276 1.8403113e-38
2590.6499 2379.5901 -291.845 1.8403113e-38
2589.6201 2448.1499 -291.64099 1.8403113e-38
2591.79 2524.79 -292.61899 1.8403113e-38
2588.5901 2593.77 -291.621 1.8403113e-38
2591.1399 2678.3401 -292.75699 1.8403113e-38
2587.6101 2753.3201 -291.65799 1.8403113e-38
2593.3201 2855.3101 -293.98801 1.8403113e-38
2590.3201 2940.1599 -293.10199 1.8403113e-38
2591.52 3037.99 -293.78 1.8403113e-38
2588.6699 3132.76 -292.97501 1.8403113e-38
2590.5701 3243.46 -293.94 1.8403113e-38
2587.3701 3348.24 -293.03101 1.8403113e-38
2589.6399 3472.8799 -294.16599 1.8403113e-38
2585.5601 3587.75 -292.96201 1.8403113e-38
2585.54 3718.73 -293.27802 1.8403113e-38
2582.3201 3852.3999 -292.43301 1.8403113e-38
2583.3999 4005.21 -293.203 1.8403113e-38
2573.9099 4131.6602 -290.06 1.8403113e-38
2573.9099 5137.6001 -292.53 1.8403113e-38
2567.76 5366.3501 -290.854 1.8403113e-38
2566.6101 5631.3101 -291.08899 1.8403113e-38
2568.03 5952.25 -292.39499 1.8403113e-38
2572.1101 6306.7202 -294.74899 1.8403113e-38
2576.55 6720.4399 -297.38199 1.8403113e-38
2596.115 -1224.6801 -284.97549 1.8403113e-38
2600.6299 -1205.03 -286.66901 1.8403113e-38
2604.8101 -1193.4 -288.21701 1.8403113e-38
2608.4099 -1180.7 -289.561 1.8403113e-38
2600.6299 -1160.73 -286.776 1.8403113e-38
2592.8999 -1140.47 -284.013 1.8403113e-38
2592.55 -1126.3 -283.92001 1.8403113e-38
2595.8301 -733.30103 -286.082 1.8403113e-38
2596.8799 -722.388 -286.48999 1.8403113e-38
2601.3301 -713.04901 -288.13101 1.8403113e-38
2595.8501 -700.29102 -286.168 1.8403113e-38
2598.3101 -690.42297 -287.086 1.8403113e-38
2598.98 -679.55499 -287.358 1.8403113e-38
2603.1001 -670.13098 -288.88 1.8403113e-38
2596.27 -657.435 -286.42599 1.8403113e-38
2605.72 -649.31598 -289.88599 1.8403113e-38
2599.71 -626.672 -287.754 1.8403113e-38
2602.5901 -616.474 -288.828 1.8403113e-38
2598.8401 -605.43903 -287.48801 1.8403113e-38
2595.99 -594.177 -286.48001 1.8403113e-38
2600.3799 -584.81403 -288.10101 1.8403113e-38
2594.5601 -573.14801 -286.013 1.8403113e-38
2601.5801 -564.198 -288.58801 1.8403113e-38
2594.6399 -552.51801 -286.091 1.8403113e-38
2595.9199 -542.66602 -286.57999 1.8403113e-38
2599.97 -532.68597 -288.07901 1.8403113e-38
2593.6201 -521.85999 -285.79401 1.8403113e-38
2593.76 -511.42401 -285.87299 1.8403113e-38
2594.71 -501.57999 -286.241 1.8403113e-38
2596.55 -491.33099 -286.93799 1.8403113e-38
2592.6599 -481.05801 -285.54501 1.8403113e-38
2594.3301 -470.811 -286.17899 1.8403113e-38
2595.8899 -461.02701 -286.771 1.8403113e-38
2595.52 -450.62399 -286.66199 1.8403113e-38
2595.04 -440.72 -286.51199 1.8403113e-38
2594.5 -430.34201 -286.341 1.8403113e-38
2596.6799 -420.552 -287.15701 1.8403113e-38
2592.21 -410.09799 -285.556 1.8403113e-38
2596.1001 -400.31699 -286.99701 1.8403113e-38
2596.615 -385.034 -287.2225 1.8403113e-38
2596.96 -369.74301 -287.38599 1.8403113e-38
2598.6499 -359.827 -288.026 1.8403113e-38
2596.49 -349.51999 -287.26501 1.8403113e-38
2598.96 -339.534 -288.18799 1.8403113e-38
2601.3301 -329.01001 -289.07401 1.8403113e-38
2602.6899 -318.98599 -289.595 1.8403113e-38
2596.7 -299.04401 -287.465 1.8403113e-38
2595.9099 -288.69299 -287.202 1.8403113e-38
2599.75 -278.37 -288.62601 1.8403113e-38
2598.79 -267.98999 -288.29999 1.8403113e-38
2602.45 -257.55499 -289.66 1.8403113e-38
2601.3101 -247.151 -289.271 1.8403113e-38
2599.21 -237.37399 -288.53 1.8403113e-38
2598.8301 -226.864 -288.418 1.8403113e-38
2591 -218 -285.58701 1.8403113e-38
2596.02 -206.627 -287.44501 1.8403113e-38
2599.1699 -195.959 -288.61499 1.8403113e-38
2593.8 -186.27299 -286.68701 1.8403113e-38
2596.77 -175.541 -287.793 1.8403113e-38
2592.1699 -165.758 -286.14401 1.8403113e-38
2589.4299 -156.136 -285.17001 1.8403113e-38
2586.52 -146.064 -284.13599 1.8403113e-38
2592.8 -134.371 -286.45099 1.8403113e-38
2588.8 -124.508 -285.017 1.8403113e-38
2592.1299 -113.335 -286.259 1.8403113e-38
2594.3401 -101.835 -287.091 1.8403113e-38
2592.01 -91.998398 -286.267 1.8403113e-38
2586.76 -82.467903 -284.37799 1.8403113e-38
2589.71 -60.0145 -285.508 1.8403113e-38
2596.05 -69.258904 -287.79199 1.8403113e-38
2595.1599 -47.687199 -287.521 1.8403113e-38
2594.0601 -36.7785 -287.146 1.8403113e-38
2597.48 -24.858601 -288.422 1.8403113e-38
2594.3899 -14.5087 -287.32101 1.8403113e-38
2600.27 -1.52572 -289.496 1.8403113e-38
2596.0901 8.5266705 -287.99899 1.8403113e-38
2600.8601 21.358299 -289.76401 1.8403113e-38
2596.49 31.399 -288.20001 1.8403113e-38
2593.97 41.599098 -287.30899 1.8403113e-38
2592.95 52.981899 -286.966 1.8403113e-38
2594.6299 64.986 -287.60699 1.8403113e-38
2599.5 79.0299 -289.41299 1.8403113e-38
2595.72 88.908096 -288.06201 1.8403113e-38
2599.46 102.734 -289.457 1.8403113e-38
2596.3601 113.008 -288.35199 1.8403113e-38
2598.98 126.579 -289.33899 1.8403113e-38
2595.6699 136.864 -288.16199 1.8403113e-38
2598.04 150.55499 -289.05701 1.8403113e-38
2599.6299 163.41499 -289.668 1.8403113e-38
2590.73 171.59801 -286.448 1.8403113e-38
2599.6799 188.496 -289.746 1.8403113e-38
2587.25 194.793 -285.23801 1.8403113e-38
2596.73 212.367 -288.73099 1.8403113e-38
2599.1101 226.909 -289.63501 1.8403113e-38
2596.6299 238.20399 -288.76001 1.8403113e-38
2595.4399 250.951 -288.358 1.8403113e-38
2597.6599 265.19901 -289.198 1.8403113e-38
2593.75 276.53699 -287.806 1.8403113e-38
2594.8799 290.39899 -288.25 1.8403113e-38
2593.97 303.79199 -287.953 1.8403113e-38
2598.4099 334.42401 -289.64499 1.8403113e-38
2598.1499 348.03101 -289.57999 1.8403113e-38
2592.71 358.918 -287.62799 1.8403113e-38
2595.3201 374.77399 -288.61801 1.8403113e-38
2595.1101 389.548 -288.577 1.8403113e-38
2595.29 419.349 -288.715 1.8403113e-38
2594.8201 449.39099 -288.61801 1.8403113e-38
2594.8799 464.54999 -288.67899 1.8403113e-38
2595.9399 481.45901 -289.10599 1.8403113e-38
2597.0801 514.43402 -289.603 1.8403113e-38
2597.1799 530.48297 -289.67899 1.8403113e-38
2597.47 547.71399 -289.82501 1.8403113e-38
2596.47 563.26703 -289.50101 1.8403113e-38
2594.9299 579.35699 -288.978 1.8403113e-38
2597.1599 598.24402 -289.83801 1.8403113e-38
2595.23 614.45898 -289.173 1.8403113e-38
2594.21 630.88898 -288.845 1.8403113e-38
2593.3 648.52802 -288.55701 1.8403113e-38
2592.6499 684.86798 -288.41 1.8403113e-38
2596.3201 707.02301 -289.798 1.8403113e-38
2594.52 724.96002 -289.189 1.8403113e-38
2592.29 741.76501 -288.41699 1.8403113e-38
2594.0701 764.03302 -289.12 1.8403113e-38
2592.0701 781.66803 -288.435 1.8403113e-38
2594.6201 805.57599 -289.423 1.8403113e-38
2590.8601 821.901 -288.095 1.8403113e-38
2593.5 846.755 -289.11401 1.8403113e-38
2595.6599 870.53198 -289.95999 1.8403113e-38
2591.3401 888.25098 -288.43301 1.8403113e-38
2592.3201 911.48102 -288.845 1.8403113e-38
2593.1001 936.06201 -289.18799 1.8403113e-38
2591.02 956.479 -288.483 1.8403113e-38
2593.72 1085.98 -289.785 1.8403113e-38
2590.27 1483.9 -289.50699 1.8403113e-38
2589.0601 1519.8101 -289.155 1.8403113e-38
2590.98 1560.53 -289.95099 1.8403113e-38
2588.7 1596.71 -289.21201 1.8403113e-38
2586.7 1632.52 -288.57199 1.8403113e-38
2587.05 1675.9 -288.80499 1.8403113e-38
2588.49 1720.72 -289.43799 1.8403113e-38
2587.6899 1809.59 -289.36801 1.8403113e-38
2569.74 4282.0898 -288.91199 1.8403113e-38
2564.74 4448.8198 -287.50101 1.8403113e-38
2566.5801 4651.4502 -288.67001 1.8403113e-38
2565.74 4867.6401 -288.89401 1.8403113e-38
2551.1699 7423.3501 -289.871 1.8403113e-38
2559.24 -1249.6801 -271.49301 1.8403113e-38
2567.1799 -1240.26 -274.40701 1.8403113e-38
2573.21 -1230.04 -276.62601 1.8403113e-38
2541.21 -1249.91 -264.93201 1.8403113e-38
2481.4099 7375.0898 -264.36301 1.8403113e-38
2518.51 -1246.58 -256.67801 1.8403113e-38
2483.3201 -1277.6899 -243.793 1.8403113e-38
2485 -1263.23 -244.44099 1.8403113e-38
2496.3101 -1258.1801 -248.57001 1.8403113e-38
2493.3701 -1239.92 -247.54401 1.8403113e-38
2412.5801 7353.3301 -239.258 1.8403113e-38
2347.1399 7329.52 -215.382 1.8403113e-38
2331.23 7825.4399 -210.81 1.8403113e-38
2368.51 -1186.5 -202.23199 1.8403113e-38
2264.6499 7823.7002 -186.57201 1.8403113e-38
2297.8301 -1134.17 -176.633 1.8403113e-38
2280.25 -903.18799 -170.80299 1.8403113e-38
2279.6001 -863.66498 -170.66499 1.8403113e-38
2285.8301 -858.14203 -172.946 1.8403113e-38
2285.6499 -848.29498 -172.90199 1.8403113e-38
2290.1299 -841.71301 -174.549 1.8403113e-38
2293.0801 -833.789 -175.64301 1.8403113e-38
2294.95 -825.73297 -176.345 1.8403113e-38
2259.8799 -1123.65 -162.84599 1.8403113e-38
2275.0901 -1125.2 -168.38 1.8403113e-38
2265.1399 -883.58197 -165.351 1.8403113e-38
2263.6399 -872.745 -164.83099 1.8403113e-38
2269.9099 -867.41199 -167.13 1.8403113e-38
2254.71 -636.05249 -162.166 1.8403113e-38
2195.0701 7823.6602 -161.24899 1.8403113e-38
2243.6699 -1120.1801 -156.955 1.8403113e-38
2230 -1119.54 -151.983 1.8403113e-38
2234.21 -640.28101 -154.69299 1.8403113e-38
2199.96 -1126.47 -141.033 1.8403113e-38
2202.5 -1116.67 -141.98199 1.8403113e-38
2218.05 -1119.79 -147.631 1.8403113e-38
2214.1001 -772.16699 -147.049 1.8403113e-38
2211.27 -762.617 -146.04201 1.8403113e-38
2207.6299 -752.39203 -144.745 1.8403113e-38
2195.27 -738.25 -140.28 1.8403113e-38
2195.8501 -662.96899 -140.675 1.8403113e-38
2206.45 -652.51001 -144.56 1.8403113e-38
2204.21 -644.21997 -143.763 1.8403113e-38
2220.48 -643.01898 -149.69 1.8403113e-38
2180.5801 -1118.72 -133.99899 1.8403113e-38
2190.53 -727.87903 -138.57899 1.8403113e-38
2185.54 -717.92999 -136.786 1.8403113e-38
2171.98 -703.70697 -131.888 1.8403113e-38
2170.1499 -688.18799 -131.258 1.8403113e-38
2173.23 -675.09497 -132.41299 1.8403113e-38
2182.49 -672.00897 -135.79201 1.8403113e-38
2178.72 -663.06097 -134.439 1.8403113e-38
2192.8401 -654.35303 -139.60001 1.8403113e-38
2128.6499 7820.6802 -137.069 1.8403113e-38
2149.77 -1110 -122.805 1.8403113e-38
2166.8899 -1116.13 -129.021 1.8403113e-38
2165.8701 -693.66901 -129.69 1.8403113e-38
2166.45 -679.48297 -129.935 1.8403113e-38
2120 -1113.33 -111.964 1.8403113e-38
2135.175 -1112.165 -117.4875 1.8403113e-38
2059.02 7816.3398 -111.716 1.8403113e-38
2096.3201 -1110.2 -103.351 1.8403113e-38
2108.9099 -1113.11 -107.928 1.8403113e-38
2068.0601 -1113.3101 -93.058098 1.8403113e-38
2071.72 -1104.89 -94.410698 1.8403113e-38
2084.1399 -1108.14 -98.922401 1.8403113e-38
2037.46 -1111.16 -81.927399 1.8403113e-38
2058.1001 -1112.9 -89.434502 1.8403113e-38
2045.5699 -1109.47 -84.8815 1.8403113e-38
2018.1801 -1110.47 -74.911003 1.8403113e-38
2027.37 -1110.59 -78.2556 1.8403113e-38
1983.8701 -1106.6951 -62.433098 1.8403113e-38
1996.33 -1105.24 -66.970398 1.8403113e-38
2002.61 -1101.59 -69.2659 1.8403113e-38
1953.37 -1106.41 -51.333 1.8403113e-38
1955.72 -1096.34 -52.2127 1.8403113e-38
1962.97 -1094.74 -54.854599 1.8403113e-38
1942.5 -1102.02 -47.386002 1.8403113e-38
1923.26 -1097.23 -40.3974 1.8403113e-38
1923.39 -1084.15 -40.475201 1.8403113e-38
1902.1899 -1102.59 -32.715698 1.8403113e-38
1916.8 -1100.29 -38.036598 1.8403113e-38
1907.22 -1097.1 -34.557598 1.8403113e-38
1876.4399 -1097.46 -23.3536 1.8403113e-38
1882.1 -1094.1 -25.424601 1.8403113e-38
1892.24 -1098.3199 -29.103399 1.8403113e-38
1845.7 -1095.52 -12.1713 1.8403113e-38
1851.35 -1092.4399 -14.2366 1.8403113e-38
1863.605 -1094.62 -18.690201 1.8403113e-38
1805.4 4642.5601 -11.6078 1.8403113e-38
1815.15 -1091.28 -1.0628099 1.8403113e-38
1824 -1095.71 -4.2713499 1.8403113e-38
1833.1599 -1092.11 -7.6159306 1.8403113e-38
1787.49 -1091.1801 9.0034599 1.8403113e-38
1793.86 -1090.47 6.6840701 1.8403113e-38
1803.5601 -1096.87 3.16889 1.8403113e-38
1810 -1095.99 0.82188898 1.8403113e-38
1755.35 4491.46 6.9802999 1.8403113e-38
1765.075 -1094.34 17.16905 1.8403113e-38
1781.5699 -1093.8101 11.165 1.8403113e-38
1772.4 -1086.98 14.4854 1.8403113e-38
1734.59 -1091.25 28.257601 1.8403113e-38
1754.96 -1094.14 20.849701 1.8403113e-38
1743.1599 -1088.0601 25.13195 1.8403113e-38
1716.77 4504.5498 20.9909 1.8403113e-38
1713.11 -1094.46 36.085098 1.8403113e-38
1726.13 -1095.3049 31.3466 1.8403113e-38
1675.78 4509.3701 35.897499 1.8403113e-38
1693.615 -1092.21 43.173798 1.8403113e-38
1676.72 -1086.6801 49.310501 1.8403113e-38
1682.58 -1085.05 47.171398 1.8403113e-38
1702.2 -1089.6 40.0424 1.8403113e-38
1647.84 -1092.8101 59.836498 1.8403113e-38
1656.9399 -1093.255 56.525902 1.8403113e-38
1671.5699 -1090.12 51.1936 1.8403113e-38
1664.35 -1085.8 53.808998 1.8403113e-38
1623.6899 -1335.35 69.220398 1.8403113e-38
1624.79 -1281.72 68.687599 1.8403113e-38
1629.0601 -1259.86 67.079597 1.8403113e-38
1631.87 -1228.05 65.9786 1.8403113e-38
1637.22 -1218.02 64.009598 1.8403113e-38
1636.75 -1171.4399 64.066002 1.8403113e-38
1641.83 -1163.37 62.196201 1.8403113e-38
1641.41 -1123.77 62.2537 1.8403113e-38
1645.99 -1115.67 60.5639 1.8403113e-38
1602.78 -2085.3 78.674202 1.8403113e-38
1600.5601 -1827.92 78.849297 1.8403113e-38
1601.28 -1677.48 78.220299 1.8403113e-38
1603.98 -1575.91 76.986099 1.8403113e-38
1609.6 -1531.2 74.831703 1.8403113e-38
1610.78 -1443.65 74.186203 1.8403113e-38
1616.8199 -1419.83 71.9291 1.8403113e-38
1618.25 -1355.22 71.25 1.8403113e-38
1582.71 2458.6001 74.811897 1.8403113e-38
1589.52 -2093.0701 83.518501 1.8403113e-38
1561.38 2603.1899 82.220901 1.8403113e-38
1546.99 -2085.73 98.980598 1.8403113e-38
1550.16 -1731.5 96.957901 1.8403113e-38
1554.11 -1558.22 95.094803 1.8403113e-38
1536.75 2532.5901 91.359497 1.8403113e-38
1515.09 4511.7598 94.377296 1.8403113e-38
1519.14 -2088.1699 109.122 1.8403113e-38
1533.4301 -2088.01 103.923 1.8403113e-38
1476.05 4486.6802 108.648 1.8403113e-38
