# .PCD v0.7 - Point Cloud Data file format
VERSION 0.7
FIELDS x y z rgb
SIZE 4 4 4 4
TYPE F F F F
COUNT 1 1 1 1
WIDTH 294
HEIGHT 1
VIEWPOINT 0 0 0 1 0 0 0
POINTS 294
DATA ascii
2492.6201 1273.15 -280.55801 1.8403113e-38
2497.3201 1287.4301 -282.97101 1.8403113e-38
2493.02 1349.05 -284.53 1.8403113e-38
2476.29 1388.96 -280.513 1.8403113e-38
2393.6599 1976.13 -280.35599 1.8403113e-38
2352.97 2296.02 -281.83401 1.8403113e-38
2336.6499 2418.1899 -282.11401 1.8403113e-38
2316.98 2542.53 -281.297 1.8403113e-38
2295.97 2678.6499 -280.59201 1.8403113e-38
2277.51 2848.99 -282.53299 1.8403113e-38
2254.72 3025.49 -283.22501 1.8403113e-38
2228.9299 3217.8601 -283.63501 1.8403113e-38
2199.78 3429.0601 -283.78699 1.8403113e-38
2166.8701 3663.03 -283.73001 1.8403113e-38
2130.3201 3930.6299 -284.05801 1.8403113e-38
2087.1899 4219 -283.06299 1.8403113e-38
2037.75 4543.9302 -281.63699 1.8403113e-38
1985.4301 4985.9399 -285.07901 1.8403113e-38
1922.4399 5504.3701 -288.53299 1.8403113e-38
2763.76 -823.89648 -272.4765 1.8403113e-38
2761.1101 -800.00299 -272.728 1.8403113e-38
2762.5701 -798.716 -273.31601 1.8403113e-38
2755.01 -773.32446 -271.8735 1.8403113e-38
2759.5 -752.86603 -274.52499 1.8403113e-38
2751.0601 -747.98297 -271.72699 1.8403113e-38
2734.1401 -612.08398 -272.48801 1.8403113e-38
2736.6499 -591.50806 -274.42999 1.8403113e-38
2733.5801 -570.66803 -274.37701 1.8403113e-38
2723.6599 -566.97699 -270.98499 1.8403113e-38
2723.1001 -546.21002 -271.82999 1.8403113e-38
2730.29 -549.19202 -274.27399 1.8403113e-38
2722.5449 -526.39349 -272.6315 1.8403113e-38
2721.2949 -505.77802 -273.2225 1.8403113e-38
2719.3201 -484.39499 -273.58701 1.8403113e-38
2721.03 -486.228 -274.11301 1.8403113e-38
2716.365 -464.66351 -273.51898 1.8403113e-38
2713.1499 -444.276 -273.38849 1.8403113e-38
2709.6299 -423.23901 -273.18301 1.8403113e-38
2710.5 -424.88501 -273.41101 1.8403113e-38
2708.5 -404.87399 -273.70099 1.8403113e-38
2710.4299 -403.401 -274.47198 1.8403113e-38
2682.6399 -267.759 -271.29999 1.8403113e-38
2691.8899 -265.509 -274.746 1.8403113e-38
2678.8799 -247.036 -270.987 1.8403113e-38
2683.71 -248.13699 -272.673 1.8403113e-38
2676.415 -228.5625 -271.03198 1.8403113e-38
2671.8 -210.37801 -270.28601 1.8403113e-38
2678.1201 -207.991 -272.68399 1.8403113e-38
2668.8899 -189.687 -270.28101 1.8403113e-38
2668.8999 -171.619 -271.19601 1.8403113e-38
2676.98 -168.679 -274.259 1.8403113e-38
2669.9199 -150.108 -272.64899 1.8403113e-38
2670.2 -151.632 -272.673 1.8403113e-38
2665.3301 -131.157 -271.95001 1.8403113e-38
2671.1499 -131.532 -274.03101 1.8403113e-38
2664.26 -112.23 -272.51999 1.8403113e-38
2662.2451 -92.622398 -272.784 1.8403113e-38
2655.3601 -74.220245 -271.22998 1.8403113e-38
2657.6799 -53.262352 -273.12399 1.8403113e-38
2658.7148 -32.40065 -274.55051 1.8403113e-38
2655.1299 -13.6167 -274.20599 1.8403113e-38
2662.72 -9.47194 -277.15201 1.8403113e-38
2649.6299 7.07868 -273.26599 1.8403113e-38
2652.78 6.50597 -274.37399 1.8403113e-38
2645.6599 69.567001 -274.98999 1.8403113e-38
2641.28 88.673645 -274.375 1.8403113e-38
2635.4102 108.1035 -273.23999 1.8403113e-38
2631.24 127.534 -272.71701 1.8403113e-38
2638.27 132.674 -275.51001 1.8403113e-38
2628.9399 148.955 -272.96899 1.8403113e-38
2627.4299 150.002 -272.47501 1.8403113e-38
2621.21 167.819 -271.133 1.8403113e-38
2626.3799 172.35201 -273.22601 1.8403113e-38
2624.4302 193.6385 -273.5975 1.8403113e-38
2616.3899 213.655 -271.711 1.8403113e-38
2622.9099 215.48199 -274.151 1.8403113e-38
2616.51 235.744 -272.866 1.8403113e-38
2621.4199 240.595 -274.883 1.8403113e-38
2613.77 258.44699 -273.026 1.8403113e-38
2616.1799 261.89999 -274.07001 1.8403113e-38
2613.7598 284.28052 -274.32449 1.8403113e-38
2606.1699 303.578 -272.56201 1.8403113e-38
2610.03 308.20099 -274.186 1.8403113e-38
2607.095 331.02951 -274.28101 1.8403113e-38
2599.8601 351.15701 -272.689 1.8403113e-38
2605.8601 357.62601 -275.177 1.8403113e-38
2598.6399 377.095 -273.55701 1.8403113e-38
2603.75 383.117 -275.70499 1.8403113e-38
2590.8401 398.51501 -271.82599 1.8403113e-38
2596.6001 405.229 -274.242 1.8403113e-38
2588.5601 424.68701 -272.327 1.8403113e-38
2596.4199 433.32999 -275.59698 1.8403113e-38
2594.1499 460.436 -276.14499 1.8403113e-38
2580.8501 476.22699 -272.147 1.8403113e-38
2587.6699 484.55899 -275.02802 1.8403113e-38
2582.55 507.93399 -274.35901 1.8403113e-38
2584.25 511.91599 -275.173 1.8403113e-38
2576.49 533.41602 -273.461 1.8403113e-38
2581.6001 540.72498 -275.67401 1.8403113e-38
2576.0701 564.961 -274.90399 1.8403113e-38
2583.8 575.06403 -278.198 1.8403113e-38
2570.1699 592.005 -274.13901 1.8403113e-38
2577.71 602.26703 -277.375 1.8403113e-38
2564.3201 619.815 -273.435 1.8403113e-38
2571.01 629.53802 -276.33801 1.8403113e-38
2564.3799 654.76898 -275.22101 1.8403113e-38
2568.9299 662.52002 -277.25101 1.8403113e-38
2561.2849 688.93054 -275.827 1.8403113e-38
2551.1699 713.172 -273.40701 1.8403113e-38
2557.3201 723.31799 -276.133 1.8403113e-38
2543.8601 742.85901 -272.26901 1.8403113e-38
2550.4299 753.87799 -275.19299 1.8403113e-38
2537.0601 774.117 -271.39499 1.8403113e-38
2547.6599 790.56097 -276.04401 1.8403113e-38
2537.6201 817.62305 -273.793 1.8403113e-38
2530.47 849.31702 -272.815 1.8403113e-38
2536.99 861.53802 -275.78 1.8403113e-38
2524.5901 885.698 -272.53201 1.8403113e-38
2529.75 896.487 -274.93399 1.8403113e-38
2524.9648 934.47546 -275.1275 1.8403113e-38
2519.24 972.659 -274.98801 1.8403113e-38
2522.8799 982.07501 -276.77701 1.8403113e-38
2511.3899 1011.26 -274.10699 1.8403113e-38
2519.5701 1028.14 -277.91 1.8403113e-38
2505.1001 1054.14 -274.004 1.8403113e-38
2512.97 1071.1899 -277.702 1.8403113e-38
2500.6599 1102.23 -274.83099 1.8403113e-38
2507.21 1117.79 -277.97699 1.8403113e-38
2492.96 1147.22 -274.32599 1.8403113e-38
2504.54 1172.25 -279.76099 1.8403113e-38
2494.8799 1212.0699 -278.28799 1.8403113e-38
2497.52 1221.9399 -279.737 1.8403113e-38
2467.3999 1292.71 -272.453 1.8403113e-38
2458.05 1345.35 -271.73901 1.8403113e-38
2451.3501 1407.0601 -272.439 1.8403113e-38
2461.3899 1435.02 -277.46899 1.8403113e-38
2442.48 1468.17 -272.323 1.8403113e-38
2450.4099 1492.75 -276.42099 1.8403113e-38
2436.8201 1541.27 -273.97101 1.8403113e-38
2443.1201 1563.3199 -277.354 1.8403113e-38
2424.95 1604.7 -272.89301 1.8403113e-38
2434.1201 1635.12 -277.733 1.8403113e-38
2411.23 1668.29 -271.159 1.8403113e-38
2422.6499 1706.27 -277.19 1.8403113e-38
2404.79 1756.99 -273.311 1.8403113e-38
2413.79 1790.6 -278.25299 1.8403113e-38
2393.72 1840.5 -273.53601 1.8403113e-38
2403.3601 1878.05 -278.90701 1.8403113e-38
2380.45 1925.21 -273.026 1.8403113e-38
2369.5701 2026.1801 -274.20001 1.8403113e-38
2378.6299 2066.99 -279.52499 1.8403113e-38
2355.8799 2128.4199 -274.422 1.8403113e-38
2364.4199 2170.3999 -279.61899 1.8403113e-38
2339.8201 2233.77 -273.95099 1.8403113e-38
2329.79 2375.8101 -277.50201 1.8403113e-38
2304.5801 2472.95 -273.31699 1.8403113e-38
2285.3 2610.73 -273.32001 1.8403113e-38
2267.5801 2777.8999 -275.36801 1.8403113e-38
2241.1399 2926.8 -273.35101 1.8403113e-38
2217.54 3120.8201 -274.63501 1.8403113e-38
2189.97 3329.77 -275.23801 1.8403113e-38
2155.97 3540.8 -273.63101 1.8403113e-38
2120.96 3801.21 -274.15302 1.8403113e-38
2078.8501 4074.47 -272.76099 1.8403113e-38
2029.8101 4370.3701 -270.01501 1.8403113e-38
1977.54 4761.4102 -270.90601 1.8403113e-38
1916.67 5234.77 -272.853 1.8403113e-38
1843.27 5794.3599 -274.63101 1.8403113e-38
2668.1899 -191.34801 -269.944 1.8403113e-38
2630.52 61.631302 -269.13199 1.8403113e-38
2578.3999 444.86499 -269.68201 1.8403113e-38
2724.21 -830.30652 -257.897 1.8403113e-38
2687.8701 -703.75098 -251.185 1.8403113e-38
2698.22 -708.99298 -254.651 1.8403113e-38
2688.95 -622.31097 -255.68201 1.8403113e-38
2692.95 -621.73102 -257.15399 1.8403113e-38
2659.4199 -675.09302 -242.373 1.8403113e-38
2660.73 -673.88702 -242.90601 1.8403113e-38
2654.115 -652.30902 -241.6125 1.8403113e-38
2667.3799 -635.98352 -247.2175 1.8403113e-38
2621.52 -381.078 -243.55 1.8403113e-38
2566.385 16.2605 -243.724 1.8403113e-38
2584.5 -362.20099 -231.159 1.8403113e-38
2584.8401 -345.36899 -232.129 1.8403113e-38
2583.6299 -308.90601 -233.534 1.8403113e-38
2596.7349 -291.28998 -239.14499 1.8403113e-38
2555.6699 -7.2878647 -238.6725 1.8403113e-38
2574.47 -343.98901 -228.46001 1.8403113e-38
2574.5151 -327.323 -229.3185 1.8403113e-38
2573.3601 -310.68201 -229.743 1.8403113e-38
2595.1299 -793.40247 -213.23151 1.8403113e-38
1808 4944.8599 -219.05299 1.8403113e-38
2577.73 -806.76898 -206.283 1.8403113e-38
2584.3301 -808.34302 -208.58299 1.8403113e-38
2584.2 -1332.79 -182.076 1.8403113e-38
1713.9399 4499.54 -162.679 1.8403113e-38
1720.55 4515.2798 -165.854 1.8403113e-38
2504.1799 -1246.77 -157.57201 1.8403113e-38
2489.96 -1204.38 -154.586 1.8403113e-38
2491.0601 -1203.14 -155.045 1.8403113e-38
2421.1399 -1191.0601 -130.451 1.8403113e-38
2422.23 -1189.9301 -130.899 1.8403113e-38
1634.23 4532.6099 -135.61301 1.8403113e-38
1640.6 4530.5 -137.804 1.8403113e-38
2395.8052 -1191.12 -121.31551 1.8403113e-38
2377.29 -1200.48 -114.168 1.8403113e-38
2378.3899 -1199.41 -114.618 1.8403113e-38
2350.9648 -1227.845 -103.298 1.8403113e-38
2362.3198 -1211.38 -108.223 1.8403113e-38
1554.0601 4531.2402 -106.649 1.8403113e-38
1560.4399 4531.25 -108.946 1.8403113e-38
2338.375 -1242.98 -97.995949 1.8403113e-38
2253.8401 -924.81403 -83.581802 1.8403113e-38
2247.48 -917.24597 -81.669601 1.8403113e-38
2240.04 -892.52197 -80.235603 1.8403113e-38
2214.76 -641.33197 -83.799004 1.8403113e-38
2210.02 -637.86902 -82.2631 1.8403113e-38
2242.6851 -933.47449 -79.122696 1.8403113e-38
2238.5801 -889.685 -79.851196 1.8403113e-38
2209.3 -846.77802 -71.462097 1.8403113e-38
2210.6699 -846.58899 -71.966599 1.8403113e-38
2178.2 -647.32202 -70.317802 1.8403113e-38
2185.2251 -638.09802 -73.314301 1.8403113e-38
1473.96 4529.3901 -77.680702 1.8403113e-38
1480.33 4529.5098 -79.9823 1.8403113e-38
2226.0801 -1126.9399 -63.373299 1.8403113e-38
2220.5601 -1117.4399 -61.8652 1.8403113e-38
2158.5549 -648.09045 -63.197601 1.8403113e-38
2170.2 -641.85498 -67.707901 1.8403113e-38
2198.1748 -1115.5349 -53.891998 1.8403113e-38
2142.8901 -663.40002 -56.777649 1.8403113e-38
2142.76 -651.47302 -57.333099 1.8403113e-38
2141.5 -649.74103 -56.966801 1.8403113e-38
2178.7949 -1115.87 -46.889748 1.8403113e-38
2123.8201 -663.96899 -49.8745 1.8403113e-38
2096.71 -656.91699 -40.459301 1.8403113e-38
2116.1499 -657.97803 -47.413898 1.8403113e-38
2156.7949 -1111.63 -39.175102 1.8403113e-38
2136.4448 -1108.885 -31.977449 1.8403113e-38
2106.6201 -741.28802 -39.774101 1.8403113e-38
2100.1799 -736.93903 -37.673599 1.8403113e-38
2075.6565 -686.28241 -31.389967 1.8403113e-38
2080.3501 -681.09003 -33.344101 1.8403113e-38
2083.125 -671.55902 -34.824448 1.8403113e-38
2087.5 -662.80798 -36.843246 1.8403113e-38
2093.9199 -655.95203 -39.5023 1.8403113e-38
1420.49 3997 -31.5439 1.8403113e-38
1421.13 4100.04 -36.9753 1.8403113e-38
2123.6699 -1116.17 -27.005699 1.8403113e-38
2117.4199 -1108.48 -25.138901 1.8403113e-38
2067.9502 -696.45203 -28.0996 1.8403113e-38
2100.8401 -1110.24 -19.075701 1.8403113e-38
2081.8501 -1106.155 -12.435249 1.8403113e-38
2101.3201 -1108.73 -19.3232 1.8403113e-38
2062.6201 -1100.76 -5.77703 1.8403113e-38
2060.6799 -1099.63 -5.1321802 1.8403113e-38
2026.785 -1095.5701 6.8797703 1.8403113e-38
2044.12 -1098.0901 0.75750101 1.8403113e-38
1995.49 -1095.145 18.139549 1.8403113e-38
2010.9651 -1095.3149 12.56745 1.8403113e-38
1397.2 3273.45 13.36 1.8403113e-38
1401.8 3275.71 11.5898 1.8403113e-38
1963.665 -1091.05 29.40295 1.8403113e-38
1979.29 -1092.825 23.861301 1.8403113e-38
1936.015 -1094.335 39.535149 1.8403113e-38
1949.345 -1091.6851 34.597 1.8403113e-38
1920.79 -1093.1801 44.965801 1.8403113e-38
1920.35 -1089.05 44.917 1.8403113e-38
1405.91 2495.6201 49.4711 1.8403113e-38
1394.49 2588 48.923801 1.8403113e-38
1239.75 3706.72 48.250301 1.8403113e-38
1889.28 -1080.845 55.7005 1.8403113e-38
1904.3 -1084.75 50.484299 1.8403113e-38
1234.96 3701.25 50.253101 1.8403113e-38
1851.72 -1087.21 69.558998 1.8403113e-38
1862.62 -1081.135 65.325256 1.8403113e-38
1876.915 -1084.21 60.326851 1.8403113e-38
1838.59 -1091.1 74.491203 1.8403113e-38
1823.79 -1082.235 79.375801 1.8403113e-38
1850.21 -1085.58 70.022903 1.8403113e-38
1835.65 -1076.36 74.804199 1.8403113e-38
1796.0649 -1072.095 88.858948 1.8403113e-38
1808.84 -1075.24 84.414001 1.8403113e-38
1810.01 -1075.97 84.026497 1.8403113e-38
1329.12 2344.8999 84.7547 1.8403113e-38
1293.84 2617.6599 83.707703 1.8403113e-38
1772.345 -1078.04 97.708801 1.8403113e-38
1784.04 -1074.1949 93.299255 1.8403113e-38
1013.44 4355.3599 97.096199 1.8403113e-38
1746.45 -1073.29 106.803 1.8403113e-38
1759.175 -1073.29 102.2175 1.8403113e-38
1746.21 -1065.24 106.482 1.8403113e-38
1283.59 2350.47 100.884 1.8403113e-38
1734.39 -1066.91 110.827 1.8403113e-38
