# .PCD v0.7 - Point Cloud Data file format
VERSION 0.7
FIELDS x y z rgb
SIZE 4 4 4 4
TYPE F F F F
COUNT 1 1 1 1
WIDTH 353
HEIGHT 1
VIEWPOINT 0 0 0 1 0 0 0
POINTS 353
DATA ascii
2541.46 1147.08 -300.35599 1.8403113e-38
2552.4099 1144.46 -302.991 1.8403113e-38
2533.0801 1157.91 -300.254 1.8403113e-38
890.77197 3374.0701 -300.52301 1.8403113e-38
830.71899 3464.1699 -302.49899 1.8403113e-38
765.63501 3554.5701 -303.06799 1.8403113e-38
710.185 3621.6499 -301.39801 1.8403113e-38
636.28802 3726.3601 -302.49301 1.8403113e-38
570.21503 3813.45 -302.05399 1.8403113e-38
2548.0601 1107.86 -293.784 1.8403113e-38
2511.97 1167.54 -296.173 1.8403113e-38
2523.24 1162.95 -298.47 1.8403113e-38
1770.3101 2141.01 -290.366 1.8403113e-38
1701.54 2234.05 -290.427 1.8403113e-38
1678.92 2263.76 -290.258 1.8403113e-38
1652.47 2302.8401 -290.995 1.8403113e-38
1627.55 2339.9099 -291.74701 1.8403113e-38
1601.38 2368.75 -290.345 1.8403113e-38
1574.26 2411.1699 -291.61499 1.8403113e-38
1544.97 2450.1599 -291.504 1.8403113e-38
1516.84 2490.1101 -291.93799 1.8403113e-38
1484.6 2536.25 -292.51401 1.8403113e-38
1455.0699 2575.6101 -292.414 1.8403113e-38
1420.62 2623.99 -292.828 1.8403113e-38
1384.17 2686.8401 -295.79901 1.8403113e-38
1349.48 2727.71 -294.51599 1.8403113e-38
1312.29 2784.99 -296.06 1.8403113e-38
1273.79 2833.72 -295.36801 1.8403113e-38
1232.45 2898.8201 -297.39499 1.8403113e-38
1188.15 2961.01 -297.923 1.8403113e-38
1148.41 3011.8101 -297.31699 1.8403113e-38
1097.8199 3087.3 -298.892 1.8403113e-38
1051.59 3152.3701 -299.48001 1.8403113e-38
1001.36 3217.1799 -298.84399 1.8403113e-38
950.20099 3289.6899 -299.608 1.8403113e-38
2648.74 916.68701 -281.776 1.8403113e-38
2635.7 934.54401 -281.83701 1.8403113e-38
2629.71 943.51898 -282.03101 1.8403113e-38
2614.0701 957.96301 -280.58899 1.8403113e-38
2624.3301 955.43799 -283.04099 1.8403113e-38
2612.46 976.25598 -284.08301 1.8403113e-38
2595.72 989.651 -282.09399 1.8403113e-38
2588.6499 997.60999 -281.75299 1.8403113e-38
2579.6899 1004.43 -280.60999 1.8403113e-38
2565.1799 1022.3 -280.24301 1.8403113e-38
2551.1499 1041.6899 -280.34201 1.8403113e-38
2545.71 1053.61 -281.336 1.8403113e-38
2540.47 1068.59 -283.052 1.8403113e-38
2485.7 1133.75 -281.16599 1.8403113e-38
2478.3799 1146.8 -281.853 1.8403113e-38
2471.1499 1157.58 -282.07599 1.8403113e-38
2461.3899 1165.22 -280.88101 1.8403113e-38
2454.5901 1177.71 -281.599 1.8403113e-38
2445.9399 1188.8199 -281.479 1.8403113e-38
2438.8201 1201.24 -282.09 1.8403113e-38
2420.55 1219.1801 -280.638 1.8403113e-38
2430.8101 1214.97 -282.724 1.8403113e-38
2414.3401 1239.1899 -283.15799 1.8403113e-38
2404.48 1245.09 -281.556 1.8403113e-38
2395.2 1256.8199 -281.38699 1.8403113e-38
2387.6699 1270.86 -282.228 1.8403113e-38
2377.78 1281.5601 -281.65701 1.8403113e-38
2369.3601 1293.6801 -281.82001 1.8403113e-38
2350.6599 1317.21 -281.45401 1.8403113e-38
2342.27 1336.0699 -283.09 1.8403113e-38
2333.3601 1348.9399 -283.27399 1.8403113e-38
2323.1101 1362.11 -283.133 1.8403113e-38
2313.4099 1372.99 -282.65601 1.8403113e-38
2302.5901 1385.09 -282.116 1.8403113e-38
2281.8 1409.7 -281.371 1.8403113e-38
2294.73 1406.24 -284.405 1.8403113e-38
2274.1499 1434.5699 -284.52802 1.8403113e-38
2251.9199 1457.87 -283.07901 1.8403113e-38
2263.1899 1450.21 -284.715 1.8403113e-38
2240.54 1473.38 -283.11499 1.8403113e-38
2229.45 1483.75 -282.11899 1.8403113e-38
2218.3301 1503.89 -283.23401 1.8403113e-38
2207.3799 1517.96 -283.08301 1.8403113e-38
2194.45 1528.35 -281.55801 1.8403113e-38
2183.5701 1546.12 -282.228 1.8403113e-38
2170.8 1561.16 -281.75201 1.8403113e-38
2159.49 1579.75 -282.47699 1.8403113e-38
2146.3799 1596.55 -282.28699 1.8403113e-38
2134.5901 1615.97 -283.04901 1.8403113e-38
2121.2 1636.47 -283.57999 1.8403113e-38
2108.8 1655.74 -284.13 1.8403113e-38
2094.3201 1668.28 -282.616 1.8403113e-38
2081.6899 1694.1801 -284.53799 1.8403113e-38
2067 1714.3 -284.604 1.8403113e-38
2053.1499 1725.41 -282.96301 1.8403113e-38
2038.2 1760.92 -286.29099 1.8403113e-38
2023.8 1770.84 -284.233 1.8403113e-38
2007.86 1801.27 -286.16599 1.8403113e-38
1992.96 1818.78 -285.608 1.8403113e-38
1976.23 1839.1899 -285.13901 1.8403113e-38
1960.65 1861.35 -285.39001 1.8403113e-38
1943.04 1887.36 -285.88 1.8403113e-38
1926.79 1907.33 -285.457 1.8403113e-38
1908.0699 1938.9301 -286.83401 1.8403113e-38
1890.7 1965.47 -287.51099 1.8403113e-38
1871.2 1992.85 -287.74301 1.8403113e-38
1852.96 2019.11 -288.10199 1.8403113e-38
1832.04 2052.03 -289.12399 1.8403113e-38
1812.89 2077.97 -289.147 1.8403113e-38
1790.9 2110.52 -289.77499 1.8403113e-38
1748.23 2164.3701 -288.97601 1.8403113e-38
1726.7 2194.49 -289.20901 1.8403113e-38
2911.6201 516.80902 -271.94699 1.8403113e-38
2910.3701 527.974 -274.00101 1.8403113e-38
2910.3 538.85101 -276.33801 1.8403113e-38
2900.8101 545.13898 -274.927 1.8403113e-38
2886.22 559.10498 -273.689 1.8403113e-38
2897.3701 554.02301 -275.84698 1.8403113e-38
2879.51 565.836 -273.18701 1.8403113e-38
2877.6899 576.94501 -275.065 1.8403113e-38
2870.8601 583.58301 -274.50699 1.8403113e-38
2868.0701 594.15399 -275.983 1.8403113e-38
2852.8301 607.36603 -274.39001 1.8403113e-38
2860.3601 600.14398 -275.02701 1.8403113e-38
2847.3101 614.86902 -274.40399 1.8403113e-38
2841.9199 623.64899 -274.73199 1.8403113e-38
2840.01 633.93298 -276.401 1.8403113e-38
2825.71 647.68298 -275.202 1.8403113e-38
2832.96 641.50702 -275.983 1.8403113e-38
2822.9299 658.68201 -276.77301 1.8403113e-38
2819.8999 668.35797 -277.98599 1.8403113e-38
2812.5801 675.73499 -277.44501 1.8403113e-38
2809.3799 685.38397 -278.60001 1.8403113e-38
2794.3401 698.51398 -277.048 1.8403113e-38
2800.51 691.41602 -277.314 1.8403113e-38
2771.47 718.32703 -274.65799 1.8403113e-38
2782.5701 714.54999 -277.08301 1.8403113e-38
2792.3401 710.71399 -279.108 1.8403113e-38
2771.8601 731.72302 -277.677 1.8403113e-38
2758.8401 746.77399 -277.13101 1.8403113e-38
2768.0701 742.59003 -278.92401 1.8403113e-38
2754.2 756.91699 -277.97299 1.8403113e-38
2746.8601 762.97498 -277.142 1.8403113e-38
2732.6599 776.94202 -276.01801 1.8403113e-38
2742.03 773.06299 -277.91699 1.8403113e-38
2730.2 789.74103 -278.073 1.8403113e-38
2725.1399 798.396 -278.47101 1.8403113e-38
2719.29 807.68701 -278.77301 1.8403113e-38
2710.3601 812.008 -277.10101 1.8403113e-38
2698.98 829.724 -277.612 1.8403113e-38
2705.5701 822.64398 -278.005 1.8403113e-38
2688.99 849.53302 -278.98599 1.8403113e-38
2694.5601 841.052 -278.77701 1.8403113e-38
2682.5701 858.61603 -279.07999 1.8403113e-38
2672.8 861.79901 -276.91101 1.8403113e-38
2671.3501 877.55603 -279.905 1.8403113e-38
2662.04 881.36798 -278.01001 1.8403113e-38
2658.6101 894.86902 -279.93201 1.8403113e-38
2651.9399 902.39899 -279.616 1.8403113e-38
2634.3899 913.23999 -276.83499 1.8403113e-38
2597.6699 971.35999 -278.69699 1.8403113e-38
2571.0801 1009.8 -279.25601 1.8403113e-38
2557.78 1030.0699 -279.76199 1.8403113e-38
2357.3899 1297.77 -279.20801 1.8403113e-38
2931.7 439.883 -261.142 1.8403113e-38
2925.3999 447.957 -261.04999 1.8403113e-38
2921.4099 467.43201 -264.104 1.8403113e-38
2913.6799 473.68301 -263.20001 1.8403113e-38
2912.0701 484.245 -265.021 1.8403113e-38
2914.1101 495.85101 -268.13199 1.8403113e-38
2908.1899 504.16199 -268.202 1.8403113e-38
2935.1201 389.83099 -251.29201 1.8403113e-38
2933.9299 399.07101 -252.946 1.8403113e-38
2929.6799 407.98401 -253.636 1.8403113e-38
2930.8899 418.42001 -256.25101 1.8403113e-38
2928.1699 428.12201 -257.55899 1.8403113e-38
2916.1201 453.44 -259.52499 1.8403113e-38
2944.1499 333.28299 -241.674 1.8403113e-38
2942.6001 342.09799 -243.13 1.8403113e-38
2942.3799 352.42599 -245.30499 1.8403113e-38
2935 369.51001 -246.85001 1.8403113e-38
2940.6499 361.267 -246.717 1.8403113e-38
2933.99 378.69199 -248.547 1.8403113e-38
2964.6101 169.657 -212.18401 1.8403113e-38
2963.55 178.09 -213.701 1.8403113e-38
2960.3401 186.97501 -214.69 1.8403113e-38
2952.6399 193.99001 -213.959 1.8403113e-38
2988.1899 82.985497 -200.289 1.8403113e-38
2985.9399 91.2939 -201.43201 1.8403113e-38
2981.8201 104.504 -203.0905 1.8403113e-38
2969.99 116.64 -202.263 1.8403113e-38
2977.8601 126.246 -206.645 1.8403113e-38
2966.6201 134.006 -205.04401 1.8403113e-38
2974.3201 143.75999 -209.407 1.8403113e-38
2963.915 155.76801 -208.96899 1.8403113e-38
3267.6399 -333.26501 -191.755 1.8403113e-38
3253.7 -317.68399 -191.05701 1.8403113e-38
2994.8201 29.8517 -190.707 1.8403113e-38
2993.95 38.2915 -192.282 1.8403113e-38
2981.45 46.892899 -190.494 1.8403113e-38
2991.8999 56.014801 -195.52499 1.8403113e-38
2979.27 64.401398 -193.651 1.8403113e-38
2988.5901 73.634598 -198.379 1.8403113e-38
3271.6101 -381.311 -182.49899 1.8403113e-38
3264.79 -367.00101 -183.60699 1.8403113e-38
3262.3101 -355.177 -185.446 1.8403113e-38
2998.71 -23.397301 -180.30299 1.8403113e-38
2998.28 -14.949 -182.007 1.8403113e-38
2986.21 -5.71911 -180.478 1.8403113e-38
2999.0601 2.83302 -186.089 1.8403113e-38
2989.71 11.9441 -185.332 1.8403113e-38
2995.6899 20.552799 -188.94701 1.8403113e-38
3279.6299 -419.048 -176.662 1.8403113e-38
3277.6101 -406.95801 -178.692 1.8403113e-38
3271.05 -392.44101 -179.922 1.8403113e-38
3198.6399 -326.267 -173.09801 1.8403113e-38
3005.6499 -76.987602 -170.713 1.8403113e-38
3007.5701 -68.613098 -173.09 1.8403113e-38
2999.8 -58.8885 -172.925 1.8403113e-38
3007.3401 -50.7421 -176.897 1.8403113e-38
2998.45 -41.1194 -176.383 1.8403113e-38
2996.23 -32.641998 -177.57401 1.8403113e-38
2829.01 175.505 -173.80701 1.8403113e-38
2757.3 256.61099 -170.42101 1.8403113e-38
2772.3401 254.379 -174.336 1.8403113e-38
3007.3501 -94.955399 -167.315 1.8403113e-38
3005.5701 -86.324898 -168.666 1.8403113e-38
2795.6599 175.20799 -163.99001 1.8403113e-38
2784.22 184.056 -162.56451 1.8403113e-38
2770.7749 195.7025 -161.158 1.8403113e-38
2767.3899 206.29201 -162.463 1.8403113e-38
2766.1001 213.153 -163.575 1.8403113e-38
2762.9248 223.83701 -164.9615 1.8403113e-38
2757.8201 233.899 -165.65199 1.8403113e-38
2761.6899 242.52499 -168.651 1.8403113e-38
3282.1699 -583.09698 -141.843 1.8403113e-38
3278.4399 -567.89697 -144.04601 1.8403113e-38
3282.3 -557.32898 -147.467 1.8403113e-38
3062.22 -261.75 -147.19901 1.8403113e-38
3276.3601 -619.08197 -132.34399 1.8403113e-38
3280.6499 -608.55603 -135.879 1.8403113e-38
3278.1001 -593.65002 -138.36301 1.8403113e-38
3273.1799 -671.03003 -120.153 1.8403113e-38
3276.1299 -659.65997 -123.48 1.8403113e-38
3275.03 -645.01501 -126.331 1.8403113e-38
3279.52 -634.51202 -129.923 1.8403113e-38
3273.1001 -712.85699 -111.06 1.8403113e-38
3278.6599 -701.33801 -115.182 1.8403113e-38
3275.75 -686.67297 -117.513 1.8403113e-38
3008.8101 -342.87601 -113.998 1.8403113e-38
2812.74 -93.3629 -110.763 1.8403113e-38
2830.27 -88.1063 -117.028 1.8403113e-38
1179.75 2126.75 -114.614 1.8403113e-38
3275.72 -727.62097 -108.626 1.8403113e-38
2964.8301 -337.164 -102.376 1.8403113e-38
2803.8601 -128.569 -100.533 1.8403113e-38
2812.1001 -122.176 -104.33 1.8403113e-38
2814.49 -115.598 -106.455 1.8403113e-38
2814.645 -104.5835 -108.8865 1.8403113e-38
1141.77 2119.5801 -101.954 1.8403113e-38
1158.7 2130.97 -109.375 1.8403113e-38
2930.9199 -335.04501 -92.922501 1.8403113e-38
2799.26 -170.91299 -90.0112 1.8403113e-38
2790.54 -154.942 -90.921402 1.8403113e-38
2795.53 -144.952 -94.546852 1.8403113e-38
2794.6599 -133.98801 -96.6688 1.8403113e-38
1134.29 2090.26 -93.412102 1.8403113e-38
2899.98 -349.90701 -80.654198 1.8403113e-38
2905.95 -343.79501 -83.723801 1.8403113e-38
2923.1699 -340.77899 -89.413498 1.8403113e-38
2814.23 -195.66 -89.023102 1.8403113e-38
2809.6001 -187.617 -89.412201 1.8403113e-38
2799.29 -177.78999 -88.526703 1.8403113e-38
2791.6399 -161.918 -89.732101 1.8403113e-38
1119.76 2074.05 -85.648598 1.8403113e-38
2875.8 -357.92999 -71.8451 1.8403113e-38
2895.5601 -357.39099 -77.7397 1.8403113e-38
1103.5699 2066.6299 -79.307999 1.8403113e-38
1075.3101 2082.1001 -74.399696 1.8403113e-38
1033.26 2131.5601 -72.827599 1.8403113e-38
3008.04 -589.086 -60.396999 1.8403113e-38
2881.53 -377.61499 -69.254303 1.8403113e-38
2865.8401 -362.93701 -67.8489 1.8403113e-38
1019.97 2111.8401 -64.667 1.8403113e-38
1010.36 2089.1699 -56.9436 1.8403113e-38
3277.6201 -1040.0699 -41.446098 1.8403113e-38
3278.3201 -1024.17 -45.0993 1.8403113e-38
3226.98 -966.30103 -42.634102 1.8403113e-38
989.11102 2045.64 -41.2939 1.8403113e-38
997.23102 2070.2 -48.9916 1.8403113e-38
3273.3501 -1071.78 -33.3256 1.8403113e-38
3281.3301 -1061.48 -37.891399 1.8403113e-38
973.42499 2032.78 -33.9189 1.8403113e-38
3282.4299 -1135.13 -22.247101 1.8403113e-38
3278.1899 -1112.03 -26.014799 1.8403113e-38
3279.6599 -1095.91 -29.9375 1.8403113e-38
2823.3799 -492.056 -27.4438 1.8403113e-38
965.45099 2009.02 -26.437901 1.8403113e-38
3271.6799 -1163.3 -12.9961 1.8403113e-38
3273.8401 -1145.39 -17.5119 1.8403113e-38
2744.5901 -454.875 -12.4691 1.8403113e-38
977.95398 1942.88 -15.754 1.8403113e-38
3270.2 -1180.21 -8.8970299 1.8403113e-38
2714.97 -461.44501 -2.38359 1.8403113e-38
2724.1599 -459.24899 -5.5476499 1.8403113e-38
2733.6899 -456.32001 -8.9689598 1.8403113e-38
963.92902 1932.47 -9.3970203 1.8403113e-38
925.07098 1964.12 -4.8980498 1.8403113e-38
2680.95 -464.55701 8.2362604 1.8403113e-38
2683.8 -457.896 5.9615698 1.8403113e-38
2693.75 -456.599 2.7686801 1.8403113e-38
891.927 1947.59 8.3752604 1.8403113e-38
910.461 1954.17 1.53101 1.8403113e-38
2653.48 -478.30801 19.249701 1.8403113e-38
2651.6001 -468.461 17.665001 1.8403113e-38
2663.1599 -468.79501 14.3576 1.8403113e-38
2671.8101 -466.18399 11.2611 1.8403113e-38
884.98102 1924.38 15.4378 1.8403113e-38
2887.3701 -842.17902 29.7498 1.8403113e-38
2689.79 -539.60303 21.9226 1.8403113e-38
2644.04 -495.77899 25.796301 1.8403113e-38
2639.6599 -484.64001 24.663 1.8403113e-38
2639.52 -475.996 22.8314 1.8403113e-38
868.45203 1880.51 29.781401 1.8403113e-38
873.776 1905.47 22.8139 1.8403113e-38
2830.3701 -801.10199 37.509399 1.8403113e-38
862.49298 1853.83 37.307201 1.8403113e-38
2782.5 -793.83398 49.928699 1.8403113e-38
2797.6201 -795.33197 45.832699 1.8403113e-38
2803.6001 -788.94299 42.699799 1.8403113e-38
839.41199 1858.63 43.014301 1.8403113e-38
2763.52 -800.35602 56.891602 1.8403113e-38
2771.5701 -795.06 53.390701 1.8403113e-38
825.45001 1813.5601 56.867699 1.8403113e-38
840.362 1821.7 50.741699 1.8403113e-38
2737.0249 -804.61151 65.561646 1.8403113e-38
2754.6799 -803.50598 60.160801 1.8403113e-38
792.70697 1829.42 63.0014 1.8403113e-38
767.75403 1835.84 68.906303 1.8403113e-38
2707.1399 -817.98798 77.198402 1.8403113e-38
2717.3 -815.53302 73.694504 1.8403113e-38
2724.1599 -810.57397 70.614799 1.8403113e-38
745.66199 1834.36 75.686096 1.8403113e-38
2684.95 -846.37598 89.841003 1.8403113e-38
2688.8501 -836.57397 86.574898 1.8403113e-38
2695.8701 -831.888 83.506798 1.8403113e-38
2700.23 -822.78802 80.260002 1.8403113e-38
712.47498 1851.72 81.625702 1.8403113e-38
647.526 1910.13 87.950996 1.8403113e-38
2665.8601 -864.36798 99.321602 1.8403113e-38
2676.8201 -864.61102 96.169701 1.8403113e-38
2677.1899 -850.17297 92.932404 1.8403113e-38
540.57501 2028.03 93.661797 1.8403113e-38
-535.95001 3468.45 96.144302 1.8403113e-38
2652.71 -892.00702 109.157 1.8403113e-38
2659.04 -884.771 105.738 1.8403113e-38
2662.78 -875.62799 102.662 1.8403113e-38
-639.841 3552.21 108.36 1.8403113e-38
