# .PCD v0.7 - Point Cloud Data file format
VERSION 0.7
FIELDS x y z rgb
SIZE 4 4 4 4
TYPE F F F F
COUNT 1 1 1 1
WIDTH 339
HEIGHT 1
VIEWPOINT 0 0 0 1 0 0 0
POINTS 339
DATA ascii
2459.8 1167.29 -290.75299 1.8403113e-38
2453.01 1175.4301 -291.46899 1.8403113e-38
798.55298 2535.51 -290.552 1.8403113e-38
749.74597 2574.1899 -290.12 1.8403113e-38
704.85101 2615.51 -291.33499 1.8403113e-38
2460.8301 1138.89 -283.013 1.8403113e-38
2436.6699 1166.01 -285.03799 1.8403113e-38
2408.1201 1175.6801 -281.14499 1.8403113e-38
2419.23 1179.37 -284.75601 1.8403113e-38
2428.8301 1171.35 -284.724 1.8403113e-38
2382.27 1201.73 -282.48099 1.8403113e-38
2252.1001 1305.3 -281.444 1.8403113e-38
2263.8101 1300.49 -282.80301 1.8403113e-38
2127.24 1403.13 -280.021 1.8403113e-38
2072.05 1453.67 -281.44501 1.8403113e-38
2058.77 1462.53 -280.858 1.8403113e-38
2023.91 1489.98 -280.5 1.8403113e-38
2010 1500.33 -280.189 1.8403113e-38
1998.89 1511.41 -280.728 1.8403113e-38
1946.5699 1555.9399 -281.12701 1.8403113e-38
1931.61 1564.63 -280.104 1.8403113e-38
1891.21 1599.6801 -280.59601 1.8403113e-38
1903.54 1591.29 -281.09698 1.8403113e-38
1874.96 1613.63 -280.754 1.8403113e-38
1861.46 1629.5 -282.091 1.8403113e-38
1844.8 1642.21 -281.80099 1.8403113e-38
1831.79 1650.15 -281.022 1.8403113e-38
1814.17 1666.42 -281.51199 1.8403113e-38
1799.3101 1684.7 -283.20801 1.8403113e-38
1782.4 1692 -281.345 1.8403113e-38
1768.42 1701.39 -280.746 1.8403113e-38
1748.58 1723.72 -282.42499 1.8403113e-38
1734.01 1733.8 -281.88501 1.8403113e-38
1714.9 1748.11 -281.48199 1.8403113e-38
1678.76 1779.52 -281.939 1.8403113e-38
1697.12 1772.26 -284.14999 1.8403113e-38
1662.15 1794.76 -282.37701 1.8403113e-38
1639.77 1817.85 -283.681 1.8403113e-38
1623.03 1830.87 -283.46201 1.8403113e-38
1600.33 1851.62 -284.03699 1.8403113e-38
1583.08 1864.3 -283.60699 1.8403113e-38
1560.9 1879.88 -282.849 1.8403113e-38
1542.6801 1894.11 -282.629 1.8403113e-38
1519.64 1910.1899 -281.811 1.8403113e-38
1499.55 1928.76 -282.37701 1.8403113e-38
1476.13 1943.42 -281.07401 1.8403113e-38
1454.85 1963.46 -281.77802 1.8403113e-38
1428.41 1985.11 -281.73801 1.8403113e-38
1406.72 2003.77 -281.961 1.8403113e-38
1379.46 2024.85 -281.573 1.8403113e-38
1355.1801 2048.6201 -282.63 1.8403113e-38
1327.72 2067.25 -281.50601 1.8403113e-38
1303.33 2088.6599 -281.87399 1.8403113e-38
1271.62 2115.8899 -282.185 1.8403113e-38
1247.14 2134.9199 -281.86301 1.8403113e-38
1214.45 2161.45 -281.74701 1.8403113e-38
1183.33 2194.55 -283.841 1.8403113e-38
1151.03 2216.6499 -282.57401 1.8403113e-38
1114.62 2259.05 -286.056 1.8403113e-38
1077.6899 2288.49 -285.776 1.8403113e-38
1043.9301 2321.03 -287.103 1.8403113e-38
1005.38 2350.47 -286.45001 1.8403113e-38
967.61102 2388.5 -288.38901 1.8403113e-38
921.85699 2429.48 -289.30899 1.8403113e-38
889.20502 2453.24 -288.42499 1.8403113e-38
840.24701 2496.6699 -289.29401 1.8403113e-38
2818.9399 798.15399 -270.19299 1.8403113e-38
2798.3 817.383 -270.81799 1.8403113e-38
2809.77 816.26501 -273.159 1.8403113e-38
2820.1101 810.75403 -274.00299 1.8403113e-38
2776.25 838.40198 -271.61801 1.8403113e-38
2789.3899 835.91803 -273.96201 1.8403113e-38
2800.8999 834.95898 -276.358 1.8403113e-38
2769.47 843.74103 -271.547 1.8403113e-38
2755.3899 857.224 -272.077 1.8403113e-38
2760.95 850.651 -271.51801 1.8403113e-38
2750.6299 868.10303 -274.03101 1.8403113e-38
2742.3799 871.85602 -273.17499 1.8403113e-38
2733.5601 884.84351 -274.78149 1.8403113e-38
2712.48 896.98401 -273.31299 1.8403113e-38
2723.9299 897.05701 -275.983 1.8403113e-38
2696.3401 908.08099 -272.694 1.8403113e-38
2708.3601 909.08099 -275.758 1.8403113e-38
2679.47 918.15302 -271.617 1.8403113e-38
2690.26 917.914 -274.048 1.8403113e-38
2668.76 936.11902 -274.185 1.8403113e-38
2679.01 935.28699 -276.32401 1.8403113e-38
2664.5601 948.79498 -276.77301 1.8403113e-38
2658.75 955.51398 -277.31601 1.8403113e-38
2646.3401 964.63599 -277.00702 1.8403113e-38
2637.5801 979.02002 -279.01901 1.8403113e-38
2625.0649 986.02197 -278.08899 1.8403113e-38
2614.5601 996.02899 -278.46899 1.8403113e-38
2597.99 1006.97 -277.707 1.8403113e-38
2606.3101 1003.78 -278.73599 1.8403113e-38
2581.72 1018.45 -277.16501 1.8403113e-38
2590.1001 1015.39 -278.245 1.8403113e-38
2564.79 1028.85 -276.16599 1.8403113e-38
2572.73 1025.12 -276.95801 1.8403113e-38
2556.1499 1036.1899 -276.23001 1.8403113e-38
2550.8799 1044.73 -277.409 1.8403113e-38
2534.3999 1056.29 -276.84 1.8403113e-38
2541.6201 1051.14 -277.064 1.8403113e-38
2525.02 1062.55 -276.427 1.8403113e-38
2509.04 1075.39 -276.33499 1.8403113e-38
2519.3999 1070.95 -277.487 1.8403113e-38
2502.03 1081.17 -276.33499 1.8403113e-38
2486.8401 1096.24 -277.05499 1.8403113e-38
2496.3999 1095.6801 -279.10901 1.8403113e-38
2479.74 1108.12 -278.74799 1.8403113e-38
2472.4299 1113.72 -278.62799 1.8403113e-38
2462.8301 1120.3101 -278.258 1.8403113e-38
2396.5901 1178.15 -279.172 1.8403113e-38
2388.3101 1182.3199 -278.42801 1.8403113e-38
2371.54 1198.5699 -279.10999 1.8403113e-38
2362.3301 1208.85 -279.867 1.8403113e-38
2354.0701 1213.7 -279.314 1.8403113e-38
2336.2 1228.58 -279.35999 1.8403113e-38
2343.5801 1220.2 -278.71399 1.8403113e-38
2316.3201 1236.77 -277.05701 1.8403113e-38
2324.8101 1232.1801 -277.73401 1.8403113e-38
2297.79 1251.11 -276.79901 1.8403113e-38
2307.3201 1250.34 -278.78601 1.8403113e-38
2289.3101 1268.28 -279.65601 1.8403113e-38
2280.6799 1273.5601 -279.14499 1.8403113e-38
2269.6399 1280.38 -278.504 1.8403113e-38
2230.3401 1309.33 -277.53699 1.8403113e-38
2241.78 1302.84 -278.362 1.8403113e-38
2222.1699 1319.87 -278.60901 1.8403113e-38
2201.8 1334.74 -278.07001 1.8403113e-38
2211.21 1330.92 -279.17401 1.8403113e-38
2190.3101 1343.73 -277.93399 1.8403113e-38
2169.26 1358.12 -277.10501 1.8403113e-38
2181.5901 1354.04 -278.814 1.8403113e-38
2160.0901 1366.4 -277.31 1.8403113e-38
2148.25 1376.95 -277.53201 1.8403113e-38
2138.99 1387.01 -278.21399 1.8403113e-38
2117.3701 1409.23 -279.452 1.8403113e-38
2104.72 1417.52 -278.85001 1.8403113e-38
2081.6499 1428.6801 -276.64499 1.8403113e-38
2094.8601 1427.3 -279.31601 1.8403113e-38
2048.1499 1463.36 -278.633 1.8403113e-38
2034.66 1473.92 -278.47699 1.8403113e-38
1984.67 1519.61 -279.741 1.8403113e-38
1973.27 1529.54 -279.89301 1.8403113e-38
1958.76 1537.51 -278.771 1.8403113e-38
1919.55 1574.1801 -279.995 1.8403113e-38
2830.3 756.98499 -261.258 1.8403113e-38
2826.23 764.57098 -262.448 1.8403113e-38
2824.1399 776.93201 -265.436 1.8403113e-38
2819.1799 783.89001 -266.24301 1.8403113e-38
2844.0601 706.13202 -250.16 1.8403113e-38
2842.02 717.784 -252.961 1.8403113e-38
2836.8101 724.23602 -253.567 1.8403113e-38
2834.53 735.90802 -256.31799 1.8403113e-38
2831.3799 744.08002 -257.884 1.8403113e-38
2853.55 667.19501 -241.41901 1.8403113e-38
2846.6101 674.95203 -241.993 1.8403113e-38
2848.6299 686.36102 -245.666 1.8403113e-38
2843.05 695.18103 -246.85001 1.8403113e-38
2861.3301 628.51898 -232.35699 1.8403113e-38
2857.1299 637.90198 -234.021 1.8403113e-38
2853.3201 644.95502 -235.119 1.8403113e-38
2852.8501 656.94202 -238.37801 1.8403113e-38
2866.6499 585.20752 -221.423 1.8403113e-38
2865.9399 605.50952 -226.9615 1.8403113e-38
2856.1899 615.92401 -227.62801 1.8403113e-38
2881.5 537.53101 -211.467 1.8403113e-38
2876.6001 546.03003 -212.722 1.8403113e-38
2872.71 552.66998 -213.685 1.8403113e-38
2866.1399 569.05902 -216.76801 1.8403113e-38
2872.6499 563.83099 -216.80701 1.8403113e-38
2887.1599 493.31299 -200.358 1.8403113e-38
2879.1399 508.509 -202.771 1.8403113e-38
2886.25 501.21799 -202.367 1.8403113e-38
2882.3601 518.49597 -206.32001 1.8403113e-38
2880.1899 528.27301 -208.565 1.8403113e-38
2896.76 449.95001 -190.401 1.8403113e-38
2889.21 457.08701 -190.658 1.8403113e-38
2886 463.78299 -191.795 1.8403113e-38
2888.8101 475.332 -195.689 1.8403113e-38
2886.3301 482.42001 -197.105 1.8403113e-38
982.60999 2043.15 -194.855 1.8403113e-38
2898.71 424.69901 -183.758 1.8403113e-38
2895.75 431.453 -184.96899 1.8403113e-38
2899.8701 443.17899 -189.218 1.8403113e-38
990.38202 1995.2 -183.187 1.8403113e-38
2914.3899 367.39899 -171.293 1.8403113e-38
2910.25 375.83701 -172.705 1.8403113e-38
2908.5701 382.95099 -174.314 1.8403113e-38
2902.9299 394.71948 -176.3145 1.8403113e-38
2900.76 407.677 -179.451 1.8403113e-38
2894.3401 413.14001 -179.49899 1.8403113e-38
965.47699 1998.3 -178.29401 1.8403113e-38
939.94501 2010.88 -175.91701 1.8403113e-38
2919.0901 326.98901 -161.02901 1.8403113e-38
2916.8701 333.85501 -162.44501 1.8403113e-38
2912.3501 345.87149 -164.7735 1.8403113e-38
2907.6799 357.836 -167.05299 1.8403113e-38
912.50702 1985.28 -162.375 1.8403113e-38
925.69 1994.53 -168.02499 1.8403113e-38
2915.51 309.33499 -155.243 1.8403113e-38
2913.4399 316.16599 -156.68201 1.8403113e-38
936.13098 1906.6899 -145.76801 1.8403113e-38
914.46198 1875.16 -131.896 1.8403113e-38
934.57397 1879.72 -137.83299 1.8403113e-38
895.32599 1876.6899 -127.897 1.8403113e-38
853.49402 1905.03 -126.173 1.8403113e-38
831.25702 1910.16 -122.469 1.8403113e-38
824.09198 1884.72 -113.665 1.8403113e-38
2968.885 74.709549 -101.693 1.8403113e-38
2968.3601 87.367401 -105.128 1.8403113e-38
2967.99 94.502403 -107.045 1.8403113e-38
2958.6699 103.557 -107.431 1.8403113e-38
2958.1699 110.626 -109.302 1.8403113e-38
827.11401 1852.5601 -105.329 1.8403113e-38
2977.1599 29.075399 -90.789902 1.8403113e-38
2985.8101 21.184799 -90.575996 1.8403113e-38
2977.24 38.221199 -93.378799 1.8403113e-38
2978.23 45.346298 -95.607101 1.8403113e-38
2969.3701 54.927601 -96.247704 1.8403113e-38
2977.05 61.745098 -99.941399 1.8403113e-38
2713.3601 248.72301 -91.427803 1.8403113e-38
2713.74 254.41499 -93.1129 1.8403113e-38
2984.5 -11.6764 -81.041603 1.8403113e-38
2984.8899 -4.46242 -83.157997 1.8403113e-38
2985.3 4.7397299 -85.838501 1.8403113e-38
2976.78 12.7702 -86.1222 1.8403113e-38
2698.8301 220.875 -80.241096 1.8403113e-38
2700.3899 226.558 -82.198502 1.8403113e-38
2716.6299 236.70799 -88.808899 1.8403113e-38
2708.6299 240.62801 -88.057297 1.8403113e-38
864.40997 1739.24 -82.131798 1.8403113e-38
872.664 1752.98 -87.900902 1.8403113e-38
2998.5901 -56.349098 -71.756699 1.8403113e-38
2988.8201 -45.4291 -72.562103 1.8403113e-38
2991.4199 -38.4758 -75.1157 1.8403113e-38
2990.48 -25.344051 -78.586746 1.8403113e-38
2708.6799 179.082 -70.781998 1.8403113e-38
2707.45 185.711 -72.359802 1.8403113e-38
2705.29 194.1445 -74.229095 1.8403113e-38
2697.075 205.0175 -75.381401 1.8403113e-38
2699.45 214.145 -78.4944 1.8403113e-38
865.84003 1705.48 -72.979401 1.8403113e-38
820.297 1743.09 -73.004097 1.8403113e-38
-1218.92 3415.8 -70.844803 1.8403113e-38
3004.665 -95.197052 -62.24955 1.8403113e-38
3004.52 -81.809402 -65.977097 1.8403113e-38
3003.51 -74.128799 -67.899803 1.8403113e-38
2997.8101 -63.641499 -69.526398 1.8403113e-38
2779.46 115.777 -69.3825 1.8403113e-38
2726.78 126.758 -60.275002 1.8403113e-38
2727.7749 135.571 -62.98 1.8403113e-38
2736.4199 144.905 -67.602303 1.8403113e-38
2723.0449 153.55 -66.935745 1.8403113e-38
2717.8701 165.26849 -69.029495 1.8403113e-38
2708.6399 173.77 -69.279701 1.8403113e-38
776.39502 1745.13 -63.4151 1.8403113e-38
783.27002 1761 -69.4636 1.8403113e-38
3008.21 -134.30299 -52.085899 1.8403113e-38
3011.46 -127.406 -54.776299 1.8403113e-38
3004.4099 -116.099 -56.3195 1.8403113e-38
3006.5601 -108.985 -58.8167 1.8403113e-38
2731.3201 120.094 -59.454498 1.8403113e-38
753.73798 1718.73 -50.755798 1.8403113e-38
766.38599 1726.8199 -55.955898 1.8403113e-38
-1198.73 3347.9199 -56.451801 1.8403113e-38
3006.8799 -151.436 -46.966099 1.8403113e-38
3009.3101 -144.35201 -49.516998 1.8403113e-38
752.86102 1689.39 -42.310902 1.8403113e-38
715.453 1681.86 -31.5354 1.8403113e-38
733.56897 1689.6801 -37.926399 1.8403113e-38
-1167.72 3258.04 -38.384899 1.8403113e-38
708.93903 1666.47 -25.7057 1.8403113e-38
-1170.65 3215.6201 -25.790001 1.8403113e-38
2800.1699 -112.275 -10.12 1.8403113e-38
2816.72 -110.58 -14.4267 1.8403113e-38
665.77899 1664.67 -15.2117 1.8403113e-38
685.80603 1664.4 -19.770399 1.8403113e-38
578.92603 1733.75 -14.5121 1.8403113e-38
512.82501 1783.58 -13.2072 1.8403113e-38
-1265.22 3249.23 -13.3397 1.8403113e-38
2762.9299 -115.343 -0.63731098 1.8403113e-38
2782.3201 -115.004 -5.2203598 1.8403113e-38
466.50601 1778.67 -1.10855 1.8403113e-38
482.93301 1785.29 -6.7685399 1.8403113e-38
-1430.67 3359.99 -6.1540298 1.8403113e-38
2743.71 -122.773 5.8965001 1.8403113e-38
2746.03 -117.724 3.9411199 1.8403113e-38
485.22299 1728.22 8.7323999 1.8403113e-38
2716.145 -136.815 16.22175 1.8403113e-38
2723.73 -126.5345 11.5786 1.8403113e-38
471.24301 1719.37 14.4537 1.8403113e-38
-1136.42 3028.1599 18.9445 1.8403113e-38
2699.29 -166.302 28.406401 1.8403113e-38
2694.9102 -154.623 26.139851 1.8403113e-38
2703.7251 -145.207 21.45435 1.8403113e-38
2758.5 -253.855 39.292999 1.8403113e-38
2776.1799 -255.73199 35.727699 1.8403113e-38
2760.25 -239.88901 34.965199 1.8403113e-38
2731.72 -220.46001 36.112301 1.8403113e-38
2709.8799 -202.925 36.242802 1.8403113e-38
2708.24 -196.29401 34.758701 1.8403113e-38
2707.105 -185.422 31.967751 1.8403113e-38
2694.75 -170.147 30.5366 1.8403113e-38
-1129.5601 2979.8 30.939899 1.8403113e-38
2803.24 -324.04501 48.653599 1.8403113e-38
2815.8101 -323.539 45.600899 1.8403113e-38
2830.0901 -321.716 41.7836 1.8403113e-38
2820.5701 -309.40799 40.5312 1.8403113e-38
2762.71 -270.978 43.129398 1.8403113e-38
2756.29 -261.13699 41.8498 1.8403113e-38
-1167.25 2960.8101 44.998001 1.8403113e-38
2791.1499 -350.66699 58.9291 1.8403113e-38
2794.28 -345.07101 56.634399 1.8403113e-38
2792.1201 -334.44901 54.151001 1.8403113e-38
2802.95 -333.21899 51.297501 1.8403113e-38
-1275.64 3015.1899 54.810001 1.8403113e-38
2772.1699 -373.104 69.625099 1.8403113e-38
2775.48 -367.66101 67.3312 1.8403113e-38
2782.1799 -362.25201 64.259804 1.8403113e-38
2787.1101 -357.76001 61.857498 1.8403113e-38
-1537.48 3188.4199 66.758698 1.8403113e-38
2756.98 -380.42899 75.199203 1.8403113e-38
2741.01 -379.367 78.597504 1.8403113e-38
2760.3501 -375.10501 72.923698 1.8403113e-38
-1469.23 3085.4199 79.891701 1.8403113e-38
2734.7451 -404.6575 87.151802 1.8403113e-38
2738.9299 -395.09201 83.495903 1.8403113e-38
2739.25 -385.66901 80.775299 1.8403113e-38
2717.9399 -432.69699 98.916702 1.8403113e-38
2723.45 -422.89099 94.887604 1.8403113e-38
2727.2 -411.84799 90.9179 1.8403113e-38
-1741.85 3258.72 94.317596 1.8403113e-38
2840.4099 -558.40997 105.881 1.8403113e-38
2805.03 -541.651 109.362 1.8403113e-38
2834.96 -544.41901 103.211 1.8403113e-38
2699.1499 -425.952 101.372 1.8403113e-38
-1512.4 3023.26 107.346 1.8403113e-38
