# .PCD v0.7 - Point Cloud Data file format
VERSION 0.7
FIELDS x y z rgb
SIZE 4 4 4 4
TYPE F F F F
COUNT 1 1 1 1
WIDTH 343
HEIGHT 1
VIEWPOINT 0 0 0 1 0 0 0
POINTS 343
DATA ascii
-843.09497 2642.5801 -295.689 1.8403113e-38
-937.32599 2676.8701 -295.44 1.8403113e-38
-1042.11 2715.0901 -295.19101 1.8403113e-38
-1140.3 2748.3401 -294.086 1.8403113e-38
-1241.9301 2779.97 -291.98999 1.8403113e-38
-1361.88 2824.79 -292.073 1.8403113e-38
-1491.24 2871.52 -291.61099 1.8403113e-38
-1641.02 2931.9199 -293.22601 1.8403113e-38
-1794.03 2989.04 -293.314 1.8403113e-38
-1947.92 3046.03 -293.24301 1.8403113e-38
-2097.53 3094.6299 -290.854 1.8403113e-38
-2266.3301 3155.1101 -290.082 1.8403113e-38
2732.49 1267.91 -280.073 1.8403113e-38
2713.3101 1276.11 -280.439 1.8403113e-38
2646.8501 1303.52 -281.36301 1.8403113e-38
2597.8301 1319.5601 -280.61899 1.8403113e-38
2579.1101 1326.98 -280.77499 1.8403113e-38
2424.3701 1398.2 -285.45401 1.8403113e-38
2433.6599 1395.05 -285.556 1.8403113e-38
2443.4099 1391.65 -285.633 1.8403113e-38
2364.4399 1407.8 -281.13 1.8403113e-38
2393.47 1401.22 -282.565 1.8403113e-38
2405.22 1404.4399 -285.155 1.8403113e-38
2415.7 1405.02 -286.68201 1.8403113e-38
2346.3 1417.61 -282.17801 1.8403113e-38
2355.5 1414.17 -282.172 1.8403113e-38
2307.1599 1426.27 -280.16901 1.8403113e-38
2317.8799 1429.5699 -282.65399 1.8403113e-38
2288.1299 1433.35 -280.17001 1.8403113e-38
2297.51 1430.36 -280.341 1.8403113e-38
2250.02 1449.38 -280.80701 1.8403113e-38
2269.4199 1442.9 -281.05801 1.8403113e-38
2220.54 1459.95 -280.67599 1.8403113e-38
2140.9399 1489.27 -280.58701 1.8403113e-38
2079.0901 1518.51 -282.71899 1.8403113e-38
2036.6 1528.74 -280.82101 1.8403113e-38
1992.97 1544.1801 -280.55701 1.8403113e-38
2003.98 1544.49 -282.05801 1.8403113e-38
1970.61 1552.77 -280.65399 1.8403113e-38
1948.05 1560.04 -280.27399 1.8403113e-38
1912.99 1577.33 -281.724 1.8403113e-38
1924.22 1574.48 -282.177 1.8403113e-38
1877.04 1589.87 -281.444 1.8403113e-38
1889.95 1581.73 -280.306 1.8403113e-38
1853.09 1596.48 -280.66199 1.8403113e-38
1828.09 1606.41 -280.88101 1.8403113e-38
1790.36 1619.58 -280.591 1.8403113e-38
1814.92 1614.99 -282.14001 1.8403113e-38
1801.4301 1621.49 -282.646 1.8403113e-38
1749.04 1639.95 -282.302 1.8403113e-38
1762.05 1637.66 -283.17099 1.8403113e-38
1774.86 1633.28 -283.30099 1.8403113e-38
1722.13 1648.92 -281.95099 1.8403113e-38
1736.3101 1643.1801 -281.78799 1.8403113e-38
1708.16 1655.59 -282.45401 1.8403113e-38
1665.6801 1669.9301 -281.95801 1.8403113e-38
1680.62 1663.8101 -281.76501 1.8403113e-38
1693.4399 1661.99 -282.771 1.8403113e-38
1651.8101 1674.24 -281.67001 1.8403113e-38
1634.13 1687.36 -283.90399 1.8403113e-38
1603.8199 1698.72 -283.936 1.8403113e-38
1619.98 1691.38 -283.48401 1.8403113e-38
1573.6899 1707.67 -283.172 1.8403113e-38
1588.79 1704.27 -283.923 1.8403113e-38
1555.97 1719.22 -284.86401 1.8403113e-38
1525.0699 1727.25 -283.686 1.8403113e-38
1539.9 1724.1 -284.492 1.8403113e-38
1509.53 1730.04 -282.66501 1.8403113e-38
1473.34 1747.76 -284.12299 1.8403113e-38
1490.3101 1742.66 -284.53601 1.8403113e-38
1457.67 1751.16 -283.298 1.8403113e-38
1404.59 1768.65 -282.53299 1.8403113e-38
1421.6801 1765.14 -283.50101 1.8403113e-38
1438.01 1761.1899 -284.22699 1.8403113e-38
1387.62 1773.13 -281.909 1.8403113e-38
1350.89 1784.73 -281.20901 1.8403113e-38
1366.8101 1783.21 -282.711 1.8403113e-38
1328.79 1796.1 -282.28699 1.8403113e-38
1290.62 1807.3 -281.26999 1.8403113e-38
1308.03 1805.8101 -282.96701 1.8403113e-38
1250.89 1819.37 -280.349 1.8403113e-38
1269.02 1817.4301 -281.98401 1.8403113e-38
1225.46 1834.92 -282.42999 1.8403113e-38
1184.64 1845.59 -280.892 1.8403113e-38
1202.53 1843.96 -282.60501 1.8403113e-38
1134.34 1869.38 -282.63101 1.8403113e-38
1156.71 1861.59 -282.81 1.8403113e-38
1084.59 1889.51 -283.19199 1.8403113e-38
1107.39 1882.27 -283.61099 1.8403113e-38
1060.91 1896.08 -282.43201 1.8403113e-38
1038.3101 1901.99 -281.582 1.8403113e-38
980.58002 1928.6 -283.34 1.8403113e-38
1004.21 1922.49 -284.25201 1.8403113e-38
946.31897 1947.5 -285.444 1.8403113e-38
917.59302 1959.3101 -285.83099 1.8403113e-38
891.96899 1964.79 -284.45001 1.8403113e-38
858.59003 1981.39 -285.883 1.8403113e-38
827.10999 1993.1899 -285.914 1.8403113e-38
791.83197 2010.5 -287.35001 1.8403113e-38
757.26398 2024.54 -287.754 1.8403113e-38
721.25598 2040.96 -288.79099 1.8403113e-38
2809.26 1216.4301 -272.24301 1.8403113e-38
2804.05 1226.52 -275.02499 1.8403113e-38
2787.71 1238.99 -277.20901 1.8403113e-38
2797.3201 1234.09 -276.754 1.8403113e-38
2756.73 1248.79 -276.62299 1.8403113e-38
2773.3799 1245.49 -277.60748 1.8403113e-38
2738.9099 1258.97 -277.83499 1.8403113e-38
2749.8899 1257.09 -278.58701 1.8403113e-38
2719.8601 1267.29 -278.26001 1.8403113e-38
2701.27 1276.04 -278.888 1.8403113e-38
2672.71 1288.28 -279.44299 1.8403113e-38
2682.0601 1283.67 -279.05499 1.8403113e-38
2692.5 1281.61 -279.67401 1.8403113e-38
2653.8899 1296.1899 -279.755 1.8403113e-38
2663.28 1291.75 -279.42999 1.8403113e-38
2603.29 1308.2 -277.435 1.8403113e-38
2625.48 1306.89 -279.80399 1.8403113e-38
2634.98 1303.77 -279.94101 1.8403113e-38
2584.3101 1314.87 -277.30701 1.8403113e-38
2615.53 1310.1801 -279.664 1.8403113e-38
2547.02 1328.91 -277.367 1.8403113e-38
2565.71 1322.05 -277.397 1.8403113e-38
2528.25 1335.45 -277.21701 1.8403113e-38
2540.21 1338.28 -279.70099 1.8403113e-38
2559.05 1331.54 -279.789 1.8403113e-38
2501.2 1348.21 -278.14001 1.8403113e-38
2515.145 1342.76 -278.04999 1.8403113e-38
2483.96 1358.3101 -279.40201 1.8403113e-38
2492.6599 1352.76 -278.61099 1.8403113e-38
2454.8101 1364.52 -277.82501 1.8403113e-38
2464.48 1362.89 -278.49399 1.8403113e-38
2474.97 1361.86 -279.474 1.8403113e-38
2447.22 1373.3199 -279.862 1.8403113e-38
2372.27 1399.7 -279.35999 1.8403113e-38
2381.27 1394.11 -278.59399 1.8403113e-38
2325.3899 1416.14 -279.026 1.8403113e-38
2334.3701 1411.96 -278.73599 1.8403113e-38
2277.8799 1434.51 -279.26599 1.8403113e-38
2239.26 1447.41 -278.77301 1.8403113e-38
2258.8 1442.04 -279.418 1.8403113e-38
2209.8899 1453.9 -277.26199 1.8403113e-38
2229.96 1451.8101 -279.09201 1.8403113e-38
2191.0901 1468.8 -279.96201 1.8403113e-38
2200.6399 1464.7 -279.77399 1.8403113e-38
2150.75 1476.08 -277.33099 1.8403113e-38
2160.9099 1478.89 -279.57599 1.8403113e-38
2171 1473.08 -278.87299 1.8403113e-38
2180.8799 1471.95 -279.742 1.8403113e-38
2120.3401 1489.9 -278.18799 1.8403113e-38
2130.77 1486.3 -278.284 1.8403113e-38
2110.5 1498.1 -279.73901 1.8403113e-38
2089.8101 1502 -278.44699 1.8403113e-38
2099.9199 1501.53 -279.56601 1.8403113e-38
2058.21 1511.49 -277.67499 1.8403113e-38
2068.95 1510.3 -278.633 1.8403113e-38
2026.3199 1527.76 -279.185 1.8403113e-38
2047.72 1521.1 -279.62601 1.8403113e-38
2015.23 1531.4301 -279.03 1.8403113e-38
1982.4301 1544.75 -279.41501 1.8403113e-38
1959.99 1553.16 -279.44 1.8403113e-38
1937.36 1560.25 -278.98901 1.8403113e-38
1901.85 1575.3101 -279.62399 1.8403113e-38
1866.05 1589.5 -279.927 1.8403113e-38
1842.41 1594.04 -278.478 1.8403113e-38
2816.3601 1179 -260.37601 1.8403113e-38
2813.25 1190.16 -263.78601 1.8403113e-38
2812.0801 1204.51 -268.53299 1.8403113e-38
780.85199 1939.73 -261.81299 1.8403113e-38
-2134.55 3020.6299 -260.91199 1.8403113e-38
-2431.5701 3157.01 -269.77899 1.8403113e-38
-2809.75 3280.26 -263.875 1.8403113e-38
2821.8899 1155.73 -253.136 1.8403113e-38
2819.72 1167.54 -256.89001 1.8403113e-38
-2481.53 3134.8201 -255.87399 1.8403113e-38
2835.8101 1114.17 -240.72301 1.8403113e-38
2829.54 1121.1801 -242.31799 1.8403113e-38
2828.1201 1133.91 -246.483 1.8403113e-38
2824.29 1143.62 -249.308 1.8403113e-38
-2830.8101 3236.8501 -246.396 1.8403113e-38
2835.47 1087.21 -231.48 1.8403113e-38
2836.25 1100.8199 -236.224 1.8403113e-38
2846.75 1058.95 -223.269 1.8403113e-38
2838.3 1076.59 -228.218 1.8403113e-38
2844.8501 1070.2 -226.868 1.8403113e-38
868.03497 1785.14 -220.12399 1.8403113e-38
871.42603 1806.25 -227.756 1.8403113e-38
-2848.45 3194.3701 -229.666 1.8403113e-38
2855.8799 1018.02 -210.463 1.8403113e-38
2855.25 1029.79 -214.39799 1.8403113e-38
2851.9299 1038.76 -217.037 1.8403113e-38
2848.1699 1048.0601 -219.73599 1.8403113e-38
836.59802 1773.03 -212.006 1.8403113e-38
846.146 1786.84 -217.92799 1.8403113e-38
-2885.1799 3159.97 -213.272 1.8403113e-38
2871.26 983.92999 -200.783 1.8403113e-38
2858.5701 996.784 -203.56 1.8403113e-38
2856.77 1007.25 -206.90199 1.8403113e-38
814.633 1774.3101 -209.66 1.8403113e-38
-2966.77 3152.8 -200.479 1.8403113e-38
2876.0901 965.10699 -194.974 1.8403113e-38
2870.1699 972.06799 -196.59801 1.8403113e-38
2858.4399 985.5 -199.69299 1.8403113e-38
846.00201 1715.97 -193.73199 1.8403113e-38
-3149.04 3195.98 -192.099 1.8403113e-38
2882.8799 926.53699 -182.67599 1.8403113e-38
2874.2549 936.56848 -185.005 1.8403113e-38
2870.8999 950.487 -189.327 1.8403113e-38
853.99597 1685.42 -184.323 1.8403113e-38
2884.23 896.45898 -172.586 1.8403113e-38
2894.29 892.53802 -172.52299 1.8403113e-38
2880.8101 904.18597 -174.78799 1.8403113e-38
2882.5701 916.047 -179.058 1.8403113e-38
843.29901 1652.86 -171.86 1.8403113e-38
848.24701 1668.89 -177.95399 1.8403113e-38
746.026 1684.9399 -170.468 1.8403113e-38
710.62201 1697.88 -170.394 1.8403113e-38
2900.1001 856.09302 -160.826 1.8403113e-38
2899.29 865.72803 -164.011 1.8403113e-38
2893.73 871.98999 -165.44099 1.8403113e-38
2894.3501 882.67499 -169.16499 1.8403113e-38
826.88702 1647.61 -167.985 1.8403113e-38
797.78998 1655.98 -167.15199 1.8403113e-38
699.40802 1685.89 -164.881 1.8403113e-38
642.21301 1695.0601 -160.75999 1.8403113e-38
667.94299 1694 -163.659 1.8403113e-38
446.13599 1777.48 -164.01401 1.8403113e-38
-3053.1101 3091.23 -168.52499 1.8403113e-38
2904.9199 825.22705 -150.907 1.8403113e-38
2903.6299 838.72302 -155.34801 1.8403113e-38
2901.3799 847.33899 -158.00101 1.8403113e-38
581.39001 1705.38 -156.567 1.8403113e-38
612.56299 1700.4 -158.819 1.8403113e-38
549.14301 1711.88 -154.696 1.8403113e-38
445.55899 1755 -156.27299 1.8403113e-38
250.778 1818 -153.069 1.8403113e-38
-3093.45 3056.9399 -151.714 1.8403113e-38
2917.1499 789.59601 -140.30099 1.8403113e-38
2915.4299 798.18201 -143.01199 1.8403113e-38
2914.6899 806.86298 -145.88 1.8403113e-38
2906.8401 812.271 -146.73 1.8403113e-38
435.422 1717.15 -142.073 1.8403113e-38
443.12299 1733.1899 -148.52299 1.8403113e-38
2926.21 757.73999 -130.58099 1.8403113e-38
2923.96 765.89001 -133.077 1.8403113e-38
2917.49 771.56403 -134.192 1.8403113e-38
2919.4299 781.81799 -137.936 1.8403113e-38
412.58099 1712.2 -137.49001 1.8403113e-38
-3044.23 2979.48 -131.52901 1.8403113e-38
2933.8501 734.80103 -123.724 1.8403113e-38
2924.6499 748.36298 -127.184 1.8403113e-38
2932.03 742.59198 -126.152 1.8403113e-38
2941.6201 703.27399 -113.953 1.8403113e-38
2934.73 713.30347 -116.5015 1.8403113e-38
2929.52 724.005 -119.492 1.8403113e-38
-3132.8501 2969.49 -116.88 1.8403113e-38
2947.5801 663.00403 -100.97 1.8403113e-38
2944.7852 674.66901 -104.5955 1.8403113e-38
2940.02 685.65601 -107.739 1.8403113e-38
2935.04 692.008 -109.276 1.8403113e-38
-3216.9099 2958.6599 -102.527 1.8403113e-38
2961.8701 634.49103 -93.054298 1.8403113e-38
2957.1602 645.52051 -96.22065 1.8403113e-38
2952.3201 656.49902 -99.3526 1.8403113e-38
-4964.1802 3598.0901 -99.130402 1.8403113e-38
2966.1699 595.21698 -80.2005 1.8403113e-38
2962.8601 602.19299 -82.161499 1.8403113e-38
2959.71 617.49799 -86.982803 1.8403113e-38
2961.26 610.03802 -84.634102 1.8403113e-38
2956.0801 624.78601 -89.008698 1.8403113e-38
-3333.77 2959.46 -87.983101 1.8403113e-38
2975.1899 565.37201 -71.161797 1.8403113e-38
2973.0901 572.664 -73.383698 1.8403113e-38
2967.6299 587.35199 -77.703003 1.8403113e-38
2970.8101 580.32703 -75.709297 1.8403113e-38
-3479.72 2974.8 -74.709503 1.8403113e-38
-4996.6699 3544.74 -76.809402 1.8403113e-38
2982.1499 535.10797 -61.719799 1.8403113e-38
2980.3201 542.44702 -63.991699 1.8403113e-38
2978.29 557.88098 -68.9991 1.8403113e-38
2980.25 550.55298 -66.748199 1.8403113e-38
2981.1899 503.677 -50.874901 1.8403113e-38
2976.97 518.534 -55.408699 1.8403113e-38
2989.3701 512.547 -54.937302 1.8403113e-38
2984.01 527.36603 -59.314098 1.8403113e-38
2997.96 466.81699 -40.426102 1.8403113e-38
2996.6699 474.65799 -42.937302 1.8403113e-38
2994.1699 485.94299 -46.4701 1.8403113e-38
2991.53 497.203 -49.977299 1.8403113e-38
3001.3201 436.10001 -30.372101 1.8403113e-38
3000.3201 443.95999 -32.926102 1.8403113e-38
2999.1201 459.36401 -38.030399 1.8403113e-38
3002.24 451.686 -35.806499 1.8403113e-38
-5085.48 3444.29 -31.2759 1.8403113e-38
3013.45 405.76501 -21.5602 1.8403113e-38
3003.8201 413.284 -22.905199 1.8403113e-38
3002.21 428.63101 -27.936501 1.8403113e-38
3010.98 421.21201 -26.516701 1.8403113e-38
3019.53 374.755 -11.7526 1.8403113e-38
3021.0801 382.78201 -14.6868 1.8403113e-38
3006.1499 397.95499 -17.9701 1.8403113e-38
3014.6499 390.25 -16.419399 1.8403113e-38
3025.49 343.44699 -1.82629 1.8403113e-38
3017.2 359.19501 -6.1472902 1.8403113e-38
3020.3799 351.573 -3.9507201 1.8403113e-38
3021.8701 367.159 -9.4565897 1.8403113e-38
3034.27 311.60199 7.9247599 1.8403113e-38
3026.5151 323.927 4.7036152 1.8403113e-38
3026.55 335.78299 0.65383601 1.8403113e-38
3031.4199 288.311 16.232201 1.8403113e-38
3031.78 295.97299 13.5732 1.8403113e-38
3032.0701 304.048 10.7806 1.8403113e-38
-1748.47 2049.0801 21.5963 1.8403113e-38
2733.6001 307.939 47.299301 1.8403113e-38
2692.8501 286.39301 59.816601 1.8403113e-38
2696.0649 293.6055 56.94875 1.8403113e-38
2700.8701 303.33148 53.021599 1.8403113e-38
-950.58398 1640.26 59.901901 1.8403113e-38
2673.8601 263.92899 69.889 1.8403113e-38
2680.5 267.94 67.678101 1.8403113e-38
2681.9951 275.2085 65.009354 1.8403113e-38
2683.3999 282.49899 62.344299 1.8403113e-38
2670.5601 239.571 78.617104 1.8403113e-38
2672.9299 246.573 75.928398 1.8403113e-38
2672.6899 256.68951 72.506897 1.8403113e-38
-662.828 1493.95 73.331596 1.8403113e-38
2685.2849 207.5 87.692451 1.8403113e-38
2680.8501 216.601 85.149696 1.8403113e-38
2673.24 223.54401 83.745598 1.8403113e-38
2668.0649 232.4895 81.350052 1.8403113e-38
-632.36499 1454.87 82.802902 1.8403113e-38
3099.8999 19.1348 99.384201 1.8403113e-38
3095.04 29.8109 96.357903 1.8403113e-38
3085.45 42.365398 93.290398 1.8403113e-38
2846.8301 126.797 94.741501 1.8403113e-38
2717.6699 176.339 94.217102 1.8403113e-38
2705.54 188.408 91.637901 1.8403113e-38
2691.51 197.722 90.238899 1.8403113e-38
-621.45801 1425.51 91.435204 1.8403113e-38
3109.71 -12.9419 109.084 1.8403113e-38
3104.4099 -1.23483 105.761 1.8403113e-38
3100.72 9.26264 102.648 1.8403113e-38
-612.23602 1371.25 108.777 1.8403113e-38
