# .PCD v0.7 - Point Cloud Data file format
VERSION 0.7
FIELDS x y z rgb
SIZE 4 4 4 4
TYPE F F F F
COUNT 1 1 1 1
WIDTH 339
HEIGHT 1
VIEWPOINT 0 0 0 1 0 0 0
POINTS 339
DATA ascii
-1821.9301 3126.04 -295.02701 1.8403113e-38
-1980.73 3180.26 -295.547 1.8403113e-38
-2119.76 3214.8999 -291.573 1.8403113e-38
-2301.28 3276.73 -292.11499 1.8403113e-38
-2486.29 3332.24 -290.07901 1.8403113e-38
2759.5 1562.08 -280.10699 1.8403113e-38
2719.97 1575.23 -280.11401 1.8403113e-38
2701.3 1583.3 -280.763 1.8403113e-38
2652.53 1597.67 -280.133 1.8403113e-38
2643.48 1603.0601 -280.95801 1.8403113e-38
2435.24 1673.87 -281.54099 1.8403113e-38
2447.05 1677.46 -284.134 1.8403113e-38
2455.74 1673.05 -283.60699 1.8403113e-38
2387.8601 1688.51 -281.16501 1.8403113e-38
2408.3999 1688.52 -283.522 1.8403113e-38
2417.03 1683.47 -282.76999 1.8403113e-38
2428.1201 1684.51 -284.39999 1.8403113e-38
2300.1599 1714.51 -280.091 1.8403113e-38
2310.47 1711.98 -280.397 1.8403113e-38
2260.97 1728.25 -280.34201 1.8403113e-38
2271.25 1724.17 -280.112 1.8403113e-38
2149.95 1764.37 -280.08899 1.8403113e-38
2030.75 1804.38 -280.24301 1.8403113e-38
1973.55 1826.97 -281.48499 1.8403113e-38
1926.79 1838.3199 -280.04501 1.8403113e-38
1913.75 1844.09 -280.543 1.8403113e-38
1877.14 1856.39 -280.595 1.8403113e-38
1850.9301 1868 -281.599 1.8403113e-38
1811.61 1879.3 -280.99399 1.8403113e-38
1825.25 1875.42 -281.21899 1.8403113e-38
1837.96 1870.27 -280.896 1.8403113e-38
1784.3101 1889.67 -281.44699 1.8403113e-38
1798.7 1884.21 -281.21201 1.8403113e-38
1744.74 1899.38 -280.26599 1.8403113e-38
1756.86 1898.61 -281.38699 1.8403113e-38
1729.62 1905.21 -280.543 1.8403113e-38
1699.12 1919.4301 -281.95801 1.8403113e-38
1715.48 1911.1899 -280.98999 1.8403113e-38
1685.37 1923.33 -281.728 1.8403113e-38
1639.87 1937.0699 -281.26001 1.8403113e-38
1655.41 1933.0601 -281.65601 1.8403113e-38
1666.97 1935.73 -283.90399 1.8403113e-38
1623.53 1945.77 -282.39001 1.8403113e-38
1591.83 1956.0601 -282.30801 1.8403113e-38
1606.23 1953.01 -282.90799 1.8403113e-38
1543.38 1968.72 -281.129 1.8403113e-38
1560.4301 1963.9301 -281.42899 1.8403113e-38
1575.02 1961.1801 -282.151 1.8403113e-38
1528.2 1972.05 -280.53699 1.8403113e-38
1492.52 1985.58 -281.11801 1.8403113e-38
1508.37 1981.71 -281.60199 1.8403113e-38
1472.75 1993.96 -281.746 1.8403113e-38
1435.16 2008.01 -282.289 1.8403113e-38
1362.35 2026.03 -280.168 1.8403113e-38
1342.09 2034.34 -280.715 1.8403113e-38
1319.9399 2042.63 -281.03799 1.8403113e-38
1258.85 2060.6899 -280.27301 1.8403113e-38
1231.7 2074.53 -281.939 1.8403113e-38
1167.97 2090.48 -280.14099 1.8403113e-38
1141.49 2100.6799 -280.63 1.8403113e-38
1091.89 2116.9399 -280.55801 1.8403113e-38
1116.59 2110.55 -281.18301 1.8403113e-38
1036.1801 2139.0601 -281.811 1.8403113e-38
1061.34 2133.3201 -282.71301 1.8403113e-38
1012.14 2145.3701 -281.233 1.8403113e-38
975.80402 2164.4399 -283.65601 1.8403113e-38
913.013 2189.8301 -285.22501 1.8403113e-38
942.797 2180.8799 -285.548 1.8403113e-38
882.46002 2201.6499 -285.806 1.8403113e-38
801.828 2214.8999 -281.138 1.8403113e-38
843.99701 2219.6499 -287.61301 1.8403113e-38
808.39001 2235.9099 -289.147 1.8403113e-38
2853.02 1517.27 -275.35001 1.8403113e-38
2834.54 1526.9 -276.55701 1.8403113e-38
2848.52 1527.47 -278.35599 1.8403113e-38
2826.51 1532.45 -277.55301 1.8403113e-38
2775.8 1549.87 -277.755 1.8403113e-38
2784.26 1543.41 -276.49399 1.8403113e-38
2795.0801 1542.0601 -277.26901 1.8403113e-38
2808.9299 1543.14 -279.23099 1.8403113e-38
2818.71 1540.02 -279.276 1.8403113e-38
2746.1599 1559.0699 -277.53699 1.8403113e-38
2764.48 1550.23 -276.58099 1.8403113e-38
2728.71 1569.22 -279.039 1.8403113e-38
2736.54 1563.62 -278.005 1.8403113e-38
2708.72 1575 -278.74301 1.8403113e-38
2675.3799 1587.845 -279.36047 1.8403113e-38
2689.1699 1581.23 -278.65601 1.8403113e-38
2609.1101 1599.22 -275.689 1.8403113e-38
2659.3501 1590.13 -278.311 1.8403113e-38
2601.1899 1606.8199 -277.40601 1.8403113e-38
2622.0801 1604.72 -279.07599 1.8403113e-38
2631.5601 1600.35 -278.655 1.8403113e-38
2553.4299 1619.36 -276.26099 1.8403113e-38
2572.8101 1614.6899 -276.871 1.8403113e-38
2581.1201 1610.25 -276.29099 1.8403113e-38
2592.53 1610.54 -277.70099 1.8403113e-38
2524.04 1626.3199 -275.29901 1.8403113e-38
2545.48 1627.4301 -278.14001 1.8403113e-38
2564.27 1621.16 -278.12701 1.8403113e-38
2497.8701 1639.35 -276.79901 1.8403113e-38
2507.3501 1638.14 -277.46799 1.8403113e-38
2516.8101 1633.88 -277.07901 1.8403113e-38
2537 1631.61 -278.60901 1.8403113e-38
2485.1602 1648.915 -278.64398 1.8403113e-38
2461.1001 1653.87 -277.595 1.8403113e-38
2471.45 1655.66 -279.40201 1.8403113e-38
2395.72 1679.95 -279.108 1.8403113e-38
2366.8899 1685.38 -277.677 1.8403113e-38
2376.1299 1683.41 -278.05701 1.8403113e-38
2348.71 1696.6899 -279.50201 1.8403113e-38
2357.8799 1693.9399 -279.60199 1.8403113e-38
2318.71 1702.0601 -277.91699 1.8403113e-38
2329.3301 1702.16 -279.16901 1.8403113e-38
2338.71 1700.48 -279.664 1.8403113e-38
2280.2 1717.3199 -278.77301 1.8403113e-38
2290.6699 1715.89 -279.478 1.8403113e-38
2230.95 1727.5601 -276.66199 1.8403113e-38
2240.3899 1724.77 -276.78101 1.8403113e-38
2251.1399 1726.5 -278.612 1.8403113e-38
2211.0601 1734.88 -276.91101 1.8403113e-38
2220.6399 1733.1899 -277.42401 1.8403113e-38
2191.1101 1748.5 -279.32501 1.8403113e-38
2200.6599 1742.23 -278.258 1.8403113e-38
2159.8501 1756.52 -278.51401 1.8403113e-38
2170.6299 1752.34 -278.30701 1.8403113e-38
2180.4099 1751.9 -279.276 1.8403113e-38
2118.26 1766.63 -277.23801 1.8403113e-38
2129.1799 1765.65 -278.14899 1.8403113e-38
2139.1399 1761.75 -277.944 1.8403113e-38
2096.72 1779.6899 -279.27701 1.8403113e-38
2108.05 1773.21 -278.33899 1.8403113e-38
2065.3601 1783.49 -276.995 1.8403113e-38
2075.5901 1781.04 -277.32101 1.8403113e-38
2086.4199 1784.2 -279.655 1.8403113e-38
2043.4399 1790.9301 -277.052 1.8403113e-38
2053.52 1791.48 -278.39801 1.8403113e-38
2009.11 1804.64 -277.853 1.8403113e-38
2020.34 1805.54 -279.44901 1.8403113e-38
1963.25 1819.1 -277.586 1.8403113e-38
1986.3199 1812.0699 -277.80399 1.8403113e-38
1997.74 1812.22 -279.16501 1.8403113e-38
1951.79 1824.4 -278.10501 1.8403113e-38
1938.66 1832.28 -279.32101 1.8403113e-38
1889.63 1849.85 -279.76901 1.8403113e-38
1902.86 1844.3101 -279.371 1.8403113e-38
1865.26 1855.1899 -278.81799 1.8403113e-38
1772.9 1888.85 -279.854 1.8403113e-38
1460.21 1990.59 -279.14499 1.8403113e-38
1422.48 2004.33 -279.56601 1.8403113e-38
1383.61 2018.09 -279.862 1.8403113e-38
1402.0601 2011.88 -279.83401 1.8403113e-38
1302.85 2044.66 -279.77899 1.8403113e-38
1280.85 2051.6399 -279.66901 1.8403113e-38
1218.36 2069.1899 -278.564 1.8403113e-38
1190.76 2082.45 -279.98199 1.8403113e-38
2854.0701 1501.3 -269.95401 1.8403113e-38
-2373.95 3219.6599 -264.07001 1.8403113e-38
2829.6599 1455.8199 -251.446 1.8403113e-38
-2451.97 3211.5701 -252.328 1.8403113e-38
2841.99 1424.9 -242.177 1.8403113e-38
2835.3401 1432.5 -244.037 1.8403113e-38
2832.95 1443.87 -247.692 1.8403113e-38
892.10797 2086.1699 -247.02 1.8403113e-38
-2514.9099 3198.8101 -240.705 1.8403113e-38
-2804.21 3301.9399 -243.155 1.8403113e-38
2838.5 1407.12 -235.634 1.8403113e-38
2846.1399 1400.9399 -234.37801 1.8403113e-38
886.94397 2043.14 -231.567 1.8403113e-38
895.63501 2056.4299 -237.15199 1.8403113e-38
2853.0601 1367.99 -223.786 1.8403113e-38
2845.76 1372.9399 -224.661 1.8403113e-38
2845.3899 1386.84 -229.42 1.8403113e-38
890.55701 2014.35 -222.033 1.8403113e-38
-2831.1101 3266.1799 -227.71899 1.8403113e-38
2861.99 1337.39 -214.241 1.8403113e-38
2853.1101 1354.15 -219.01199 1.8403113e-38
2861.5801 1350.49 -218.72 1.8403113e-38
891.05603 1991.72 -214.274 1.8403113e-38
-2878.49 3235.8301 -211.804 1.8403113e-38
2870.9399 1296.55 -201.161 1.8403113e-38
2863.6001 1302.26 -202.289 1.8403113e-38
2856.1699 1319.58 -207.42 1.8403113e-38
2862.29 1312.62 -205.71899 1.8403113e-38
884.59698 1974.62 -207.627 1.8403113e-38
-2993.03 3244.04 -201.504 1.8403113e-38
2872.95 1263.78 -190.07001 1.8403113e-38
2871.4399 1273.4 -193.22 1.8403113e-38
2869.9199 1284.28 -196.80299 1.8403113e-38
858.29999 1935.74 -191.17999 1.8403113e-38
874.85999 1939.99 -194.548 1.8403113e-38
889.104 1948.59 -199.15199 1.8403113e-38
2889.2 1232.92 -181.274 1.8403113e-38
2883.21 1244.2151 -184.489 1.8403113e-38
2881.3799 1259.24 -189.47 1.8403113e-38
842.03802 1928.91 -186.95599 1.8403113e-38
-3102.98 3242.9199 -188.50999 1.8403113e-38
2890.5901 1201.37 -170.534 1.8403113e-38
2897.5701 1218 -177.07899 1.8403113e-38
2890.73 1222.76 -177.939 1.8403113e-38
871.70001 1879.72 -173.366 1.8403113e-38
2901.0701 1168.25 -160.29401 1.8403113e-38
2899.5 1177.6801 -163.371 1.8403113e-38
2896.02 1184.8 -165.433 1.8403113e-38
2897.27 1196.59 -169.649 1.8403113e-38
882.43799 1847.77 -163.55901 1.8403113e-38
-3040.4099 3161.3999 -167.526 1.8403113e-38
2913.23 1137.36 -151.01801 1.8403113e-38
2912.8501 1147.3 -154.408 1.8403113e-38
2905.8599 1156.955 -156.942 1.8403113e-38
876.60901 1833.92 -158.10899 1.8403113e-38
2911.9099 1108.52 -140.907 1.8403113e-38
2924.0701 1106.4 -141.567 1.8403113e-38
2915.9099 1124.995 -147.054 1.8403113e-38
841.79102 1804.73 -144.03101 1.8403113e-38
885.23798 1805.03 -149.118 1.8403113e-38
848.992 1819.1 -149.823 1.8403113e-38
-3066.3501 3118.55 -149.74899 1.8403113e-38
2930.23 1073.5 -130.91 1.8403113e-38
2925.6951 1084.615 -134.228 1.8403113e-38
2919.3601 1094.7 -136.987 1.8403113e-38
858.13599 1771.8199 -134.537 1.8403113e-38
-3063.6201 3067.3401 -132.371 1.8403113e-38
2944.3501 1045.83 -122.97 1.8403113e-38
2934.98 1050 -123.335 1.8403113e-38
2935.2251 1063.14 -127.9025 1.8403113e-38
871.75702 1740.16 -125.165 1.8403113e-38
2957.47 1009.76 -112.015 1.8403113e-38
2939.51 1017.98 -112.795 1.8403113e-38
2953.9099 1016.14 -113.811 1.8403113e-38
2945.3899 1029.03 -117.286 1.8403113e-38
2939.5701 1035.0699 -118.704 1.8403113e-38
866.98499 1707.24 -113.244 1.8403113e-38
871.625 1722.59 -119.079 1.8403113e-38
-3035.9299 3000.1899 -112.35 1.8403113e-38
2946.2 987.85999 -103.157 1.8403113e-38
2951.6201 981.69299 -101.648 1.8403113e-38
2950.76 997.81403 -107.118 1.8403113e-38
841.34302 1691.8101 -104.974 1.8403113e-38
806.04303 1702.52 -104.627 1.8403113e-38
853.43799 1701.04 -109.549 1.8403113e-38
747.20099 1711.17 -100.867 1.8403113e-38
760.93799 1718.35 -104.924 1.8403113e-38
-3169.8301 3010.99 -100.73 1.8403113e-38
2961.6299 945.909 -90.433899 1.8403113e-38
2958.6201 952.30603 -92.299202 1.8403113e-38
2955.9399 963.42651 -95.833252 1.8403113e-38
2954.8799 975.341 -99.8274 1.8403113e-38
714.94098 1698.1801 -92.680199 1.8403113e-38
729.41498 1705.1 -96.732101 1.8403113e-38
-4951.3501 3594.0701 -97.869202 1.8403113e-38
2975.1399 915.21155 -81.37915 1.8403113e-38
2962.6201 922.29401 -82.389999 1.8403113e-38
2965.405 935.271 -87.192154 1.8403113e-38
638.13397 1696.29 -83.222099 1.8403113e-38
692.354 1695.1899 -89.057602 1.8403113e-38
601.466 1703.64 -81.556602 1.8403113e-38
654.39203 1704.5699 -87.944298 1.8403113e-38
485.077 1743 -81.806801 1.8403113e-38
-3259.3899 2995.1899 -85 1.8403113e-38
2977.21 888.987 -72.557999 1.8403113e-38
2980.8501 882.08801 -70.591698 1.8403113e-38
2971.9099 894.591 -73.885498 1.8403113e-38
2970.9399 902.32599 -76.4468 1.8403113e-38
576.90002 1700.36 -77.604202 1.8403113e-38
400.54501 1757.4301 -77.098503 1.8403113e-38
438.284 1752.5601 -79.743103 1.8403113e-38
-3365.51 2990.1899 -71.105301 1.8403113e-38
-5071.0698 3577.8201 -78.527298 1.8403113e-38
2983.165 856.41602 -61.989651 1.8403113e-38
2985.8201 868.30798 -66.401299 1.8403113e-38
2983.24 875.539 -68.604301 1.8403113e-38
2998.26 826.33301 -53.328701 1.8403113e-38
2993.165 836.51355 -56.260601 1.8403113e-38
2988.8999 846.85797 -59.3447 1.8403113e-38
-5071.5498 3505.73 -53.571701 1.8403113e-38
2987.5601 794.64001 -41.153599 1.8403113e-38
2985.6899 801.86499 -43.435398 1.8403113e-38
2991.5901 813.89502 -48.26685 1.8403113e-38
2979.0649 775.33099 -33.508999 1.8403113e-38
2978.55 786.07501 -37.1614 1.8403113e-38
-5056.8701 3434.8501 -30.768499 1.8403113e-38
2967.23 745.51697 -21.853401 1.8403113e-38
2969.1001 756.32397 -25.8015 1.8403113e-38
2969.7 763.04102 -28.1903 1.8403113e-38
2952.73 719.755 -11.2913 1.8403113e-38
2954.54 727.00201 -14.0026 1.8403113e-38
2962.27 734.39697 -17.443701 1.8403113e-38
2941.75 699.12701 -2.9066501 1.8403113e-38
2945.8301 705.75299 -5.66431 1.8403113e-38
2947.79 712.88702 -8.3530998 1.8403113e-38
2927.5601 675.31604 6.9450951 1.8403113e-38
2929.5 685.20898 3.30527 1.8403113e-38
2929.77 691.354 1.15104 1.8403113e-38
3052.26 596.92297 19.7257 1.8403113e-38
3045.3201 604.87903 17.7742 1.8403113e-38
3052.22 611.67297 14.6355 1.8403113e-38
2934.95 643.54297 17.072899 1.8403113e-38
2922.01 659.32098 13.1066 1.8403113e-38
2932.4099 652.95599 14.1131 1.8403113e-38
2928.46 665.617 10.1921 1.8403113e-38
3058.49 566.94598 29.3675 1.8403113e-38
3059.78 574.65503 26.556299 1.8403113e-38
3055.5898 585.84552 23.17095 1.8403113e-38
2943.5901 627.29199 21.6964 1.8403113e-38
2950.71 621.01501 23.048401 1.8403113e-38
2935.3999 634.078 20.290899 1.8403113e-38
3065.5801 536.375 39.114201 1.8403113e-38
3068.1599 544.00598 36.183102 1.8403113e-38
3058.4248 555.96448 33.167599 1.8403113e-38
3070.54 505.47101 49.220501 1.8403113e-38
3071.4299 513.33197 46.4034 1.8403113e-38
3065.97 529.15997 41.561501 1.8403113e-38
3074.1499 520.23199 43.708302 1.8403113e-38
-1737.5 2108.54 46.7733 1.8403113e-38
-5070.02 3233.8301 40.176498 1.8403113e-38
3075.3201 474.02899 59.533798 1.8403113e-38
3074.0552 485.99048 55.546951 1.8403113e-38
3066.71 498.784 51.969501 1.8403113e-38
-1750.92 2078.79 58.588299 1.8403113e-38
3086.5 444.75348 68.365295 1.8403113e-38
3079.72 457.689 64.674698 1.8403113e-38
3074.1799 466.87399 62.136501 1.8403113e-38
-5071.3701 3170.73 62.129601 1.8403113e-38
3086.9399 417.03201 77.890503 1.8403113e-38
3091.4399 423.61301 75.101402 1.8403113e-38
3084.3201 433.54001 72.488998 1.8403113e-38
3094.1101 382.862 88.871696 1.8403113e-38
3094.0649 394.90851 84.715698 1.8403113e-38
3092.8999 407.17999 80.609901 1.8403113e-38
3098.24 356.508 97.502197 1.8403113e-38
3095.74 365.94501 94.528702 1.8403113e-38
3093.9099 374.31601 91.847397 1.8403113e-38
-946.58099 1694.26 99.191803 1.8403113e-38
3102 321.56299 109.142 1.8403113e-38
3097.98 331.79401 106.069 1.8403113e-38
3100.3 339.10001 103.28 1.8403113e-38
3094.1599 349.79501 100.289 1.8403113e-38
-710.89697 1588.89 108.563 1.8403113e-38
