# .PCD v0.7 - Point Cloud Data file format
VERSION 0.7
FIELDS x y z rgb
SIZE 4 4 4 4
TYPE F F F F
COUNT 1 1 1 1
WIDTH 351
HEIGHT 1
VIEWPOINT 0 0 0 1 0 0 0
POINTS 351
DATA ascii
-2737.7 2030.98 -300.65701 1.8403113e-38
-2139.45 2046.92 -303.44699 1.8403113e-38
-2007.98 2049.55 -303.74399 1.8403113e-38
-1888.3101 2053.25 -304.48801 1.8403113e-38
-1766.03 2054.26 -304.241 1.8403113e-38
-1656.45 2056.96 -304.67099 1.8403113e-38
-3727.72 1999.54 -294.19601 1.8403113e-38
-3492.29 2005.33 -295.11899 1.8403113e-38
-3287.5801 2013.23 -296.96301 1.8403113e-38
-3079.25 2017.0601 -297.30899 1.8403113e-38
-2914.2 2026.61 -299.957 1.8403113e-38
637.12097 2059.0901 -293.90601 1.8403113e-38
672.07098 2051.9199 -291.12 1.8403113e-38
691.40002 2056.25 -292.60101 1.8403113e-38
722.91199 2050.6599 -290.40601 1.8403113e-38
745.12097 2051.98 -290.77399 1.8403113e-38
770.25598 2050.54 -290.125 1.8403113e-38
972.672 2039.86 -285.21899 1.8403113e-38
1011.2 2039.46 -284.88 1.8403113e-38
1032.03 2037.1899 -283.948 1.8403113e-38
1066.66 2038.86 -284.384 1.8403113e-38
1087.83 2035.17 -282.93201 1.8403113e-38
1135.73 2039.09 -284.11801 1.8403113e-38
1152.65 2038.8199 -283.936 1.8403113e-38
1202.9301 2036.86 -282.96899 1.8403113e-38
1216.49 2039.5601 -283.88199 1.8403113e-38
1234.23 2036.85 -282.80701 1.8403113e-38
1248.89 2037.71 -283.04901 1.8403113e-38
1262.92 2039.1801 -283.513 1.8403113e-38
1278.0699 2038.97 -283.35999 1.8403113e-38
1307.04 2039.6 -283.44299 1.8403113e-38
1706.6 2039.65 -281.45001 1.8403113e-38
794.51501 2049.3999 -289.58801 1.8403113e-38
840.45898 2048.0901 -288.879 1.8403113e-38
864.35498 2046.02 -288.008 1.8403113e-38
886.67297 2044.95 -287.505 1.8403113e-38
903.86298 2048.1799 -288.59299 1.8403113e-38
931.672 2041.3 -285.94901 1.8403113e-38
945.88702 2046.7 -287.84399 1.8403113e-38
988.87097 2042.83 -286.21799 1.8403113e-38
1046.02 2041.6 -285.483 1.8403113e-38
1097.75 2043.29 -285.83801 1.8403113e-38
1114.86 2043.45 -285.811 1.8403113e-38
1167.61 2040.5601 -284.49301 1.8403113e-38
1183.15 2041.39 -284.71799 1.8403113e-38
1288.02 2045.53 -285.698 1.8403113e-38
1319.22 2042.8 -284.547 1.8403113e-38
1334.6801 2041.1801 -283.87799 1.8403113e-38
1344.11 2048.0701 -286.33701 1.8403113e-38
1358.9399 2046.9399 -285.854 1.8403113e-38
1376.86 2040.87 -283.55301 1.8403113e-38
1390.97 2040.2 -283.23801 1.8403113e-38
1402.97 2042.61 -284.05499 1.8403113e-38
1417.48 2040.85 -283.341 1.8403113e-38
1427.9399 2045.45 -284.96399 1.8403113e-38
1440.39 2046.6899 -285.35199 1.8403113e-38
1454.25 2045.34 -284.789 1.8403113e-38
1466.61 2046.3199 -285.08499 1.8403113e-38
1493.09 2044.58 -284.32001 1.8403113e-38
1503.98 2047.7 -285.401 1.8403113e-38
1528.41 2048.5901 -285.599 1.8403113e-38
1542.7 2044.6 -284.077 1.8403113e-38
1552.27 2049.8501 -285.93799 1.8403113e-38
1565.59 2047.3101 -284.948 1.8403113e-38
1584.8149 2044.535 -283.84149 1.8403113e-38
1600.77 2048.4199 -285.17499 1.8403113e-38
1615.34 2041.91 -282.73099 1.8403113e-38
1636.74 2045.92 -284.08301 1.8403113e-38
1646.74 2049.54 -285.35001 1.8403113e-38
1659.54 2046.03 -284.008 1.8403113e-38
1669.87 2048.5801 -284.88501 1.8403113e-38
1682.53 2044.83 -283.45801 1.8403113e-38
1692.51 2048.0801 -284.58899 1.8403113e-38
1714.7 2048.0601 -284.47198 1.8403113e-38
1737.35 2045.85 -283.552 1.8403113e-38
1747.9 2046.84 -283.85999 1.8403113e-38
1759.8 2043.22 -282.48401 1.8403113e-38
1770.02 2044.9301 -283.05301 1.8403113e-38
1780.26 2046.55 -283.591 1.8403113e-38
1791.98 2042.62 -282.10199 1.8403113e-38
1801.7 2045.88 -283.23999 1.8403113e-38
1812.6 2044.49 -282.67999 1.8403113e-38
1822.13 2048.5 -284.09201 1.8403113e-38
1832.78 2047.85 -283.79999 1.8403113e-38
1844.41 2042.51 -281.797 1.8403113e-38
1854.17 2045.35 -282.78101 1.8403113e-38
1863.78 2049.03 -284.07401 1.8403113e-38
1874.6801 2046.17 -282.97699 1.8403113e-38
1885.6801 2042.28 -281.50699 1.8403113e-38
1895.15 2046.64 -283.047 1.8403113e-38
1905.75 2044.4301 -282.189 1.8403113e-38
1925.7 2047.1801 -283.08899 1.8403113e-38
1935.6899 2048.4299 -283.49399 1.8403113e-38
1946.63 2042.14 -281.14801 1.8403113e-38
1956.58 2043.22 -281.491 1.8403113e-38
1966.23 2047.02 -282.82599 1.8403113e-38
1976.41 2046.0699 -282.42899 1.8403113e-38
1986.22 2048.78 -283.36499 1.8403113e-38
1996.8199 2042.04 -280.858 1.8403113e-38
2006.5 2046.45 -282.418 1.8403113e-38
2026.42 2048.49 -283.05801 1.8403113e-38
2036.6899 2042.34 -280.76901 1.8403113e-38
2196.1599 2042.7 -280.09601 1.8403113e-38
2236.9299 2045.79 -281.01801 1.8403113e-38
2246.75 2043.5601 -280.15601 1.8403113e-38
2257 2044.04 -280.27802 1.8403113e-38
2267.27 2044.4301 -280.36899 1.8403113e-38
2278.0601 2047.51 -281.436 1.8403113e-38
2288.04 2045.87 -280.79001 1.8403113e-38
2329.27 2044.9399 -280.241 1.8403113e-38
2436.4099 2046.75 -280.36099 1.8403113e-38
2504.3999 2049.96 -281.189 1.8403113e-38
2537.97 2047.97 -280.29401 1.8403113e-38
2585.6799 2049.6201 -280.65399 1.8403113e-38
2621.9099 2049.6499 -280.483 1.8403113e-38
815.69098 2050.47 -289.87 1.8403113e-38
1476.62 2051.3301 -286.85999 1.8403113e-38
1514.4399 2051.5701 -286.75601 1.8403113e-38
1622.7 2051.8101 -286.297 1.8403113e-38
1725.01 2050.1499 -285.17899 1.8403113e-38
1915 2050.5 -284.349 1.8403113e-38
2352.1299 2052.6299 -282.927 1.8403113e-38
2362.6299 2052.21 -282.72198 1.8403113e-38
2374.6201 2057.1699 -284.466 1.8403113e-38
2384.6799 2054.74 -283.53101 1.8403113e-38
2636.23 2053.6599 -281.871 1.8403113e-38
2660.27 2051.99 -281.14099 1.8403113e-38
2398.9299 2066.74 -287.82599 1.8403113e-38
-2012.02 1978.48 -277.901 1.8403113e-38
2017.16 2035.79 -278.48199 1.8403113e-38
2046.85 2036.11 -278.45001 1.8403113e-38
2076.51 2034.76 -277.81 1.8403113e-38
2086.3701 2031.96 -276.73999 1.8403113e-38
2096.3 2038.47 -279.06 1.8403113e-38
2106.1399 2035.5 -277.931 1.8403113e-38
2115.96 2033.4 -277.11499 1.8403113e-38
2125.73 2031.21 -276.26999 1.8403113e-38
2135.6101 2031.76 -276.42001 1.8403113e-38
2145.6201 2034.11 -277.224 1.8403113e-38
2155.8101 2038.24 -278.67801 1.8403113e-38
2165.3401 2032.92 -276.69299 1.8403113e-38
2175.6001 2036.89 -278.086 1.8403113e-38
2185.48 2036.09 -277.746 1.8403113e-38
2401.47 2038.78 -277.63599 1.8403113e-38
2455.99 2039.9 -277.76999 1.8403113e-38
2666.1499 2039.6899 -276.63599 1.8403113e-38
2056.6499 2040.13 -279.862 1.8403113e-38
2066.5701 2040.3 -279.87701 1.8403113e-38
2206.1001 2041.73 -279.694 1.8403113e-38
2216.1399 2041.62 -279.60199 1.8403113e-38
2226.3201 2042.35 -279.81799 1.8403113e-38
2297.4399 2041.38 -279.108 1.8403113e-38
2307.95 2042.35 -279.40799 1.8403113e-38
2317.8701 2040.47 -278.673 1.8403113e-38
2339.4399 2043.79 -279.77399 1.8403113e-38
2413.6001 2043.35 -279.23801 1.8403113e-38
2424.1101 2042.4 -278.84 1.8403113e-38
2446.3701 2043.8101 -279.242 1.8403113e-38
2468.78 2044.8101 -279.495 1.8403113e-38
2478.72 2041.61 -278.27899 1.8403113e-38
2491.3401 2045.41 -279.59698 1.8403113e-38
2514.3899 2046.47 -279.867 1.8403113e-38
2525.4299 2045.52 -279.466 1.8403113e-38
2548.3201 2045.0699 -279.18701 1.8403113e-38
2558.6399 2042.08 -278.048 1.8403113e-38
2572.1101 2045.92 -279.37601 1.8403113e-38
2594.8401 2043.74 -278.46899 1.8403113e-38
2608.54 2047.1899 -279.65601 1.8403113e-38
2643.1499 2043.1801 -278.022 1.8403113e-38
702.44299 1991.45 -268.96201 1.8403113e-38
2649.49 1987.42 -257.69901 1.8403113e-38
812.39099 1893.4 -232.72501 1.8403113e-38
811.823 1877.27 -226.85699 1.8403113e-38
773.99902 1838.28 -212.856 1.8403113e-38
791.85199 1842.4 -214.26801 1.8403113e-38
800.00299 1852.96 -218.06799 1.8403113e-38
825.87799 1851.1 -217.263 1.8403113e-38
2598.29 1876.6899 -217.658 1.8403113e-38
-2656.6799 1769.89 -205.23 1.8403113e-38
765.50897 1811.9301 -203.31 1.8403113e-38
779.95203 1818.4301 -205.60201 1.8403113e-38
2592.23 1847.7 -207.13499 1.8403113e-38
-2655.1101 1729.5699 -190.55 1.8403113e-38
2586.1699 1819.6899 -196.97301 1.8403113e-38
2591.53 1811.45 -193.946 1.8403113e-38
815.29498 1750.11 -180.56 1.8403113e-38
808.45502 1769.33 -187.589 1.8403113e-38
2598.3301 1789.23 -185.828 1.8403113e-38
2603.8201 1781.76 -183.08 1.8403113e-38
2593.25 1797.49 -188.85899 1.8403113e-38
-1022.03 1707.9 -174.446 1.8403113e-38
803.53601 1727.7 -172.465 1.8403113e-38
813.14398 1736.64 -175.67101 1.8403113e-38
2606.49 1754.79 -173.25301 1.8403113e-38
3118.6499 1755.84 -171.056 1.8403113e-38
3147.8701 1763.64 -173.74699 1.8403113e-38
2606.5801 1770.26 -178.88 1.8403113e-38
-1032.6801 1683.3 -165.54601 1.8403113e-38
716.62 1702.91 -163.881 1.8403113e-38
716.57001 1717.86 -169.32201 1.8403113e-38
753.64697 1712.27 -167.099 1.8403113e-38
780.25299 1711.96 -166.85201 1.8403113e-38
795.69702 1717.6801 -168.856 1.8403113e-38
2618.0901 1727.5601 -163.284 1.8403113e-38
2625.0801 1723.14 -161.64101 1.8403113e-38
3148.05 1735.79 -163.61099 1.8403113e-38
2613.7852 1743.1499 -168.9785 1.8403113e-38
3148.05 1749.6801 -168.66901 1.8403113e-38
2647.29 1698.0699 -152.40401 1.8403113e-38
2654 1693.41 -150.675 1.8403113e-38
2622.8999 1706.3 -155.522 1.8403113e-38
2641.1201 1703.4399 -154.388 1.8403113e-38
3146.71 1707.62 -153.367 1.8403113e-38
2636.04 1710.29 -156.909 1.8403113e-38
3148.6699 1722.52 -158.778 1.8403113e-38
801.46997 1643.61 -141.87199 1.8403113e-38
2674.6499 1673.73 -143.40799 1.8403113e-38
2658.8601 1686.45 -148.118 1.8403113e-38
2664.23 1680.21 -145.82001 1.8403113e-38
3146.3 1680.8199 -143.614 1.8403113e-38
3147 1694.46 -148.577 1.8403113e-38
811.17401 1611.41 -130.105 1.8403113e-38
811.04303 1624.97 -135.039 1.8403113e-38
2712.6499 1637.55 -130.05099 1.8403113e-38
2698.9099 1646.36 -133.325 1.8403113e-38
2706.46 1642.7 -131.95399 1.8403113e-38
2681.8301 1651.3 -135.21001 1.8403113e-38
2691.99 1650.67 -134.929 1.8403113e-38
3144.3899 1653.72 -133.763 1.8403113e-38
2679.3101 1660.5601 -138.592 1.8403113e-38
3147.0701 1668.3101 -139.058 1.8403113e-38
807.45398 1586.6 -121.095 1.8403113e-38
808.80499 1599.22 -125.679 1.8403113e-38
2727.52 1618.4 -123.005 1.8403113e-38
2730.73 1610.37 -120.065 1.8403113e-38
2770.28 1614.74 -121.46 1.8403113e-38
2721.51 1623.66 -124.951 1.8403113e-38
2718.8 1632.36 -128.131 1.8403113e-38
805.16302 1561.46 -111.955 1.8403113e-38
810.70502 1571.91 -115.731 1.8403113e-38
2776.26 1587.28 -111.436 1.8403113e-38
2811.99 1596.7 -114.683 1.8403113e-38
2840 1598.3 -115.123 1.8403113e-38
2858.3601 1591.25 -112.468 1.8403113e-38
2735.22 1603.6801 -117.609 1.8403113e-38
2776.9199 1609.74 -119.604 1.8403113e-38
2782.0901 1603.37 -117.259 1.8403113e-38
2805.4399 1602.02 -116.652 1.8403113e-38
2834.1699 1604.49 -117.405 1.8403113e-38
2855.6201 1600.05 -115.683 1.8403113e-38
2887.9099 1603.53 -116.787 1.8403113e-38
2753.73 1610.33 -119.937 1.8403113e-38
2913.0901 1611.8 -119.668 1.8403113e-38
805.224 1535.63 -102.554 1.8403113e-38
799.71802 1550.96 -108.162 1.8403113e-38
700.50098 1500.75 -90.387901 1.8403113e-38
789.90302 1504.02 -91.127098 1.8403113e-38
794 1514.98 -95.096199 1.8403113e-38
806.37598 1522.39 -97.729897 1.8403113e-38
2987.6899 1542.41 -94.042503 1.8403113e-38
-1064.14 1448.58 -80.280098 1.8403113e-38
553.87 1470.92 -80.270203 1.8403113e-38
634.71399 1471.3 -80.001602 1.8403113e-38
665.61102 1473.87 -80.781303 1.8403113e-38
671.27899 1485.13 -84.850197 1.8403113e-38
691.90802 1490.79 -86.804802 1.8403113e-38
756.203 1492.15 -86.9785 1.8403113e-38
775.80402 1497.09 -88.678398 1.8403113e-38
572.94397 1450.85 -72.870903 1.8403113e-38
427.09601 1467.0699 -79.507401 1.8403113e-38
484.013 1464.52 -78.292297 1.8403113e-38
610.34698 1466.05 -78.213097 1.8403113e-38
2925.78 1483.65 -72.968102 1.8403113e-38
2936.4099 1480.23 -71.670799 1.8403113e-38
2926.03 1493.65 -76.605003 1.8403113e-38
2944.22 1455.6801 -62.694199 1.8403113e-38
2932.5801 1468.25 -67.329597 1.8403113e-38
2942.27 1464.1899 -65.803497 1.8403113e-38
-1158.72 1381.41 -56.311401 1.8403113e-38
-988.48401 1385.5699 -56.969101 1.8403113e-38
-816.46301 1386.6899 -56.5107 1.8403113e-38
2942.53 1426.48 -52.076401 1.8403113e-38
2946.1001 1437.72 -56.151501 1.8403113e-38
2940.8899 1444.3199 -58.576698 1.8403113e-38
-1154.51 1353.88 -46.271702 1.8403113e-38
2938.04 1396.8199 -41.305199 1.8403113e-38
2934.96 1404.27 -44.031601 1.8403113e-38
2939.6899 1415.78 -48.1968 1.8403113e-38
-1151.03 1326.5601 -36.312099 1.8403113e-38
2920.77 1370.84 -31.9359 1.8403113e-38
2931.27 1384.6 -36.893902 1.8403113e-38
-1152.26 1299.84 -26.591299 1.8403113e-38
2914.0898 1354.905 -26.171299 1.8403113e-38
-1148.26 1272.65 -16.6784 1.8403113e-38
2893.74 1317.1 -12.5148 1.8403113e-38
2892.3401 1324.53 -15.2272 1.8403113e-38
2900.8 1336.39 -19.5012 1.8403113e-38
-1143.01 1245.48 -6.7617502 1.8403113e-38
2880.9099 1288.26 -2.08272 1.8403113e-38
2883.47 1297.03 -5.2630701 1.8403113e-38
2880.4299 1303.59 -7.6659698 1.8403113e-38
-1145.48 1219.02 2.8540101 1.8403113e-38
2879.96 1257.51 9.1008902 1.8403113e-38
2879.1599 1264.73 6.4699702 1.8403113e-38
2878.2651 1275.76 2.4528849 1.8403113e-38
-1137.73 1191.87 12.7759 1.8403113e-38
2887.875 1234.165 17.63735 1.8403113e-38
2884.1799 1244.0601 14.0176 1.8403113e-38
2881.6299 1250.63 11.614 1.8403113e-38
-1138.7 1165.4 22.4042 1.8403113e-38
2887.3899 1208.39 27.014601 1.8403113e-38
2893.3701 1202.87 29.055901 1.8403113e-38
2924.27 1204.14 28.749901 1.8403113e-38
2967.77 1208.25 27.471701 1.8403113e-38
3001.76 1209.1801 27.3041 1.8403113e-38
2886.1299 1215.28 24.502399 1.8403113e-38
2882.8999 1221.5699 22.196699 1.8403113e-38
-1134.4301 1138.67 32.152401 1.8403113e-38
3008.98 1178.65 38.4524 1.8403113e-38
3007.04 1186.24 35.6782 1.8403113e-38
3011.8101 1195.45 32.350601 1.8403113e-38
3002.9399 1201.39 30.146601 1.8403113e-38
-1133.91 1112.2 41.7873 1.8403113e-38
3014.0701 1147.74 49.7257 1.8403113e-38
3010.46 1154.99 47.0676 1.8403113e-38
3013.6201 1163.61 43.9487 1.8403113e-38
3011.8201 1171.24 41.1609 1.8403113e-38
-1127.14 1085.55 51.522701 1.8403113e-38
3023.53 1125.55 57.8503 1.8403113e-38
3013.6899 1139.73 52.6376 1.8403113e-38
3022.0901 1133.27 55.034 1.8403113e-38
-1129.12 1059.26 61.080502 1.8403113e-38
3034.55 1095.33 68.902 1.8403113e-38
3033.3799 1103.14 66.053703 1.8403113e-38
3028.5249 1114.4 61.933601 1.8403113e-38
-1129.86 1032.9301 70.659897 1.8403113e-38
3037.145 1075.765 76.035904 1.8403113e-38
3035.6499 1087.51 71.753304 1.8403113e-38
-1129.6 980.24701 89.832703 1.8403113e-38
-1130.35 1006.59 80.242203 1.8403113e-38
3044.345 1044.66 87.392853 1.8403113e-38
3044.28 1056.59 83.050797 1.8403113e-38
3036.5 1063.8101 80.383202 1.8403113e-38
-1132.6 953.89899 99.4067 1.8403113e-38
3054.21 1017.37 97.373802 1.8403113e-38
3050.77 1025.1801 94.513802 1.8403113e-38
3046.26 1032.88 91.690598 1.8403113e-38
-1132.36 927.54401 108.999 1.8403113e-38
3053.24 985.41302 109 1.8403113e-38
3052.1001 993.35999 106.102 1.8403113e-38
3046.7349 1005.115 101.797 1.8403113e-38
