# .PCD v0.7 - Point Cloud Data file format
VERSION 0.7
FIELDS x y z rgb
SIZE 4 4 4 4
TYPE F F F F
COUNT 1 1 1 1
WIDTH 352
HEIGHT 1
VIEWPOINT 0 0 0 1 0 0 0
POINTS 352
DATA ascii
-1658.6899 2401.3501 -290.048 1.8403113e-38
-1445.3199 2406.9099 -290.04501 1.8403113e-38
-1270.04 2417.0701 -292.07501 1.8403113e-38
-1172.25 2416.8401 -291.064 1.8403113e-38
-1100.24 2423.3201 -292.73599 1.8403113e-38
-1025.55 2427.75 -293.64001 1.8403113e-38
-938.81201 2426.8799 -292.49899 1.8403113e-38
-789.46899 2429.5 -292.03299 1.8403113e-38
-886.03601 2436.46 -295.48499 1.8403113e-38
-724.88 2432.6899 -292.582 1.8403113e-38
-658.60498 2434.21 -292.504 1.8403113e-38
-597.13898 2436.51 -292.75601 1.8403113e-38
-534.92499 2437.51 -292.53101 1.8403113e-38
-483.89899 2442.05 -293.70001 1.8403113e-38
-422.952 2441.6499 -292.97501 1.8403113e-38
-364.94199 2441.5 -292.36801 1.8403113e-38
-312.565 2442.8501 -292.36099 1.8403113e-38
-263.96201 2445.03 -292.694 1.8403113e-38
-211.914 2444.8601 -292.13599 1.8403113e-38
-167.205 2447.25 -292.58301 1.8403113e-38
-77.314301 2449.6499 -292.603 1.8403113e-38
-127.082 2451.1201 -293.60901 1.8403113e-38
-33.921501 2450.53 -292.51001 1.8403113e-38
8.4411697 2451.23 -292.36099 1.8403113e-38
41.0401 2456.3 -293.89899 1.8403113e-38
81.398399 2456.78 -293.68701 1.8403113e-38
130.258 2451.98 -291.478 1.8403113e-38
163.37801 2455.03 -292.272 1.8403113e-38
198.116 2456.6499 -292.53201 1.8403113e-38
231.03101 2458.76 -292.987 1.8403113e-38
272.311 2455.4399 -291.38901 1.8403113e-38
305.802 2456.0701 -291.297 1.8403113e-38
336.651 2457.75 -291.61801 1.8403113e-38
370.72601 2456.9399 -291 1.8403113e-38
395.54099 2461.4299 -292.39499 1.8403113e-38
415.36801 2468.77 -294.87799 1.8403113e-38
-2127.48 2379.3401 -286.492 1.8403113e-38
-2006.84 2386.8601 -288.08099 1.8403113e-38
-1771.95 2397.6799 -289.789 1.8403113e-38
-1542.78 2402.45 -289.34601 1.8403113e-38
-1344.25 2408.74 -289.74799 1.8403113e-38
1168.52 2447.8301 -280.10599 1.8403113e-38
1199.8101 2448.4399 -280.03299 1.8403113e-38
1244.76 2449.9399 -280.151 1.8403113e-38
472.021 2451.6699 -288.11801 1.8403113e-38
494.884 2456.04 -289.492 1.8403113e-38
520.93799 2457.9199 -289.92801 1.8403113e-38
552.52301 2455.54 -288.76401 1.8403113e-38
575.96698 2458.3799 -289.57199 1.8403113e-38
607.26898 2455.2 -288.11801 1.8403113e-38
631.31201 2456.78 -288.46701 1.8403113e-38
662.30402 2452.8 -286.72299 1.8403113e-38
685.349 2454.29 -287.048 1.8403113e-38
709.854 2454.3 -286.81601 1.8403113e-38
727.36603 2459.3999 -288.508 1.8403113e-38
757.776 2453.95 -286.23499 1.8403113e-38
775.16803 2458.54 -287.73901 1.8403113e-38
799.27399 2457.3301 -287.07101 1.8403113e-38
821.77301 2457.0601 -286.76001 1.8403113e-38
845.64001 2455.24 -285.87 1.8403113e-38
868.646 2453.75 -285.108 1.8403113e-38
892.25299 2451.3101 -283.99799 1.8403113e-38
909.25702 2454.4399 -284.97299 1.8403113e-38
926.22803 2457.3601 -285.87601 1.8403113e-38
949.51703 2454.1201 -284.47501 1.8403113e-38
971.25702 2451.9099 -283.466 1.8403113e-38
988.70801 2453.48 -283.871 1.8403113e-38
1004.73 2456.21 -284.70999 1.8403113e-38
1024.12 2455.3201 -284.202 1.8403113e-38
1042.74 2454.8799 -283.86801 1.8403113e-38
1058.59 2457.01 -284.492 1.8403113e-38
1079.04 2454.04 -283.21799 1.8403113e-38
1099.35 2450.8201 -281.85199 1.8403113e-38
1112.4 2455.2 -283.32001 1.8403113e-38
1131.86 2452.25 -282.06299 1.8403113e-38
1148.03 2452.6799 -282.06699 1.8403113e-38
1180.16 2453 -281.87701 1.8403113e-38
1210.8 2454.0701 -281.97699 1.8403113e-38
1224.83 2455.8501 -282.492 1.8403113e-38
1258.65 2451.3799 -280.54099 1.8403113e-38
1270.77 2454.95 -281.728 1.8403113e-38
1283.46 2457.6499 -282.58701 1.8403113e-38
1299.53 2455.5701 -281.67899 1.8403113e-38
1313.27 2456.4199 -281.85901 1.8403113e-38
1328.0699 2455.5701 -281.40701 1.8403113e-38
1341.16 2456.9099 -281.771 1.8403113e-38
1357.4399 2453.3701 -280.328 1.8403113e-38
1397.3 2454.51 -280.36401 1.8403113e-38
1422.97 2455.6699 -280.543 1.8403113e-38
1433.78 2459.3201 -281.76999 1.8403113e-38
1473.33 2457.27 -280.647 1.8403113e-38
1509.21 2459.8899 -281.259 1.8403113e-38
1534.12 2458.8 -280.62601 1.8403113e-38
1405.09 2463.24 -283.46799 1.8403113e-38
1444.61 2462.8799 -282.961 1.8403113e-38
1457.83 2462.22 -282.59399 1.8403113e-38
1482.25 2463.8101 -282.94199 1.8403113e-38
1495.77 2461.9199 -282.12601 1.8403113e-38
1520.8199 2461.0901 -281.58701 1.8403113e-38
1544.39 2462.3301 -281.81201 1.8403113e-38
1555.9301 2463.2 -282.01999 1.8403113e-38
1567.03 2464.8201 -282.50601 1.8403113e-38
1580.11 2462.04 -281.36899 1.8403113e-38
1590.38 2465.1799 -282.41199 1.8403113e-38
1603.33 2462.1499 -281.189 1.8403113e-38
1613.21 2465.96 -282.48099 1.8403113e-38
1626.77 2460.95 -280.52899 1.8403113e-38
1636.99 2463.6899 -281.42899 1.8403113e-38
1648.97 2461.95 -280.67999 1.8403113e-38
1658.84 2465.3799 -281.83701 1.8403113e-38
1671.4 2461.6499 -280.36099 1.8403113e-38
1681.27 2464.8999 -281.45001 1.8403113e-38
1703.86 2463.1201 -280.58701 1.8403113e-38
1714.04 2465.21 -281.25101 1.8403113e-38
1723.64 2469.01 -282.54199 1.8403113e-38
1746 2466.45 -281.397 1.8403113e-38
1756.4399 2467.28 -281.60001 1.8403113e-38
1777.78 2466.8501 -281.241 1.8403113e-38
1788.65 2465.5801 -280.67599 1.8403113e-38
1870.9301 2467.74 -280.67899 1.8403113e-38
1961.61 2469.05 -280.29401 1.8403113e-38
1765.58 2472.55 -283.43301 1.8403113e-38
1808.01 2471.9099 -282.79501 1.8403113e-38
1818.4 2472.21 -282.80399 1.8403113e-38
1829.1801 2470.5801 -282.10901 1.8403113e-38
1849.83 2470.72 -281.965 1.8403113e-38
1859.95 2471.5801 -282.18301 1.8403113e-38
1879.86 2474.9099 -283.20499 1.8403113e-38
1889.99 2475.53 -283.332 1.8403113e-38
1900.7 2472.3401 -282.07001 1.8403113e-38
1910.9301 2471.8501 -281.79501 1.8403113e-38
1930.59 2476.2 -283.19299 1.8403113e-38
1951.29 2471.8301 -281.40601 1.8403113e-38
1971.01 2475.53 -282.565 1.8403113e-38
1991.3101 2472.3501 -281.215 1.8403113e-38
2011.26 2472.5901 -281.11099 1.8403113e-38
2031.25 2470.6201 -280.20401 1.8403113e-38
2041.16 2471.8601 -280.561 1.8403113e-38
2080.9099 2472.24 -280.32401 1.8403113e-38
2181 2475.9199 -280.71201 1.8403113e-38
2191.0801 2475.9299 -280.61899 1.8403113e-38
2201.1599 2475.8501 -280.495 1.8403113e-38
2304.03 2478.75 -280.57401 1.8403113e-38
2325.0701 2479.3899 -280.604 1.8403113e-38
2346.2 2479.6499 -280.50101 1.8403113e-38
2367.4199 2479.5601 -280.26501 1.8403113e-38
2211.8601 2480.3601 -282.03201 1.8403113e-38
2222.26 2481.97 -282.521 1.8403113e-38
2232.7 2483.5 -282.97699 1.8403113e-38
2263.5901 2483.8301 -282.80399 1.8403113e-38
2273.28 2480.3701 -281.45401 1.8403113e-38
2294.03 2480.6101 -281.34399 1.8403113e-38
2315.8999 2485.0901 -282.767 1.8403113e-38
2335.97 2480.9399 -281.06601 1.8403113e-38
2357.1699 2481.02 -280.89401 1.8403113e-38
2379.23 2483.46 -281.57101 1.8403113e-38
2389.25 2480.8999 -280.547 1.8403113e-38
2401.75 2486.3999 -282.42801 1.8403113e-38
2411.51 2482.76 -281.01099 1.8403113e-38
2433.9299 2484.21 -281.327 1.8403113e-38
2467.1899 2483.8501 -280.879 1.8403113e-38
2479.22 2485.8899 -281.508 1.8403113e-38
2501.3799 2484.3501 -280.73499 1.8403113e-38
2523.97 2483.28 -280.13101 1.8403113e-38
2537.3601 2487.3799 -281.49799 1.8403113e-38
2547.4099 2483.53 -280.00101 1.8403113e-38
2597.6399 2488.7 -281.405 1.8403113e-38
2622.03 2488.4199 -281.07001 1.8403113e-38
2646.5701 2487.6599 -280.56201 1.8403113e-38
2659.8 2488.78 -280.84299 1.8403113e-38
2244.3799 2492.3701 -286.095 1.8403113e-38
2255.28 2495.5601 -287.15302 1.8403113e-38
2493.04 2492.24 -283.685 1.8403113e-38
2574.6001 2491.1101 -282.49899 1.8403113e-38
2674.02 2491.4299 -281.67401 1.8403113e-38
2699.3899 2490.5 -281.09299 1.8403113e-38
2810.8401 2494.3799 -281.44501 1.8403113e-38
2979.0701 2495.54 -280.26901 1.8403113e-38
-2125.8201 2342.47 -273.05899 1.8403113e-38
-1752.2 2358.8601 -275.47601 1.8403113e-38
1372 2452.03 -279.702 1.8403113e-38
1385.45 2452.1299 -279.612 1.8403113e-38
1694.01 2460.0601 -279.56601 1.8403113e-38
1736.6801 2461.9299 -279.841 1.8403113e-38
1799.9399 2462.3899 -279.40799 1.8403113e-38
1840.9 2464.25 -279.69501 1.8403113e-38
1921.78 2466.6101 -279.78699 1.8403113e-38
1941.8 2467.0601 -279.76001 1.8403113e-38
1981.76 2466.96 -279.34399 1.8403113e-38
2001.5601 2468.29 -279.64001 1.8403113e-38
2021.71 2461.79 -277.082 1.8403113e-38
2051.1899 2466.4399 -278.49399 1.8403113e-38
2061.0601 2468.45 -279.134 1.8403113e-38
2090.77 2468.3701 -278.823 1.8403113e-38
2110.6499 2469.8 -279.151 1.8403113e-38
2120.29 2463.8101 -276.88199 1.8403113e-38
2150.27 2467.8999 -278.086 1.8403113e-38
2170.1399 2467.4099 -277.71701 1.8403113e-38
2070.97 2470.3899 -279.74399 1.8403113e-38
2100.76 2471 -279.685 1.8403113e-38
2130.5801 2470.8899 -279.35999 1.8403113e-38
2140.5 2470.3701 -279.078 1.8403113e-38
2160.5701 2471.9099 -279.44699 1.8403113e-38
2282.54 2474.99 -279.40799 1.8403113e-38
2421.23 2479.04 -279.56601 1.8403113e-38
2442.3999 2476.74 -278.52802 1.8403113e-38
2453.6299 2477.24 -278.60101 1.8403113e-38
2510.6799 2479.04 -278.71399 1.8403113e-38
2557.4199 2479.6001 -278.47501 1.8403113e-38
2759.04 2479.1001 -276.37799 1.8403113e-38
2582.6399 2482.6499 -279.34698 1.8403113e-38
2605.5701 2480.0901 -278.198 1.8403113e-38
2632.52 2484.72 -279.62399 1.8403113e-38
2681.74 2482.3101 -278.28101 1.8403113e-38
2708.49 2483.6699 -278.52301 1.8403113e-38
2719.97 2480.8799 -277.396 1.8403113e-38
2737.47 2487.75 -279.73001 1.8403113e-38
2751.5801 2488.74 -279.95599 1.8403113e-38
2777.3799 2486.26 -278.811 1.8403113e-38
2791.6599 2486.8301 -278.88 1.8403113e-38
2820.9299 2488.28 -279.13199 1.8403113e-38
2835.3999 2488.3799 -279.03101 1.8403113e-38
2851.04 2489.8899 -279.42899 1.8403113e-38
2890.9099 2483.3899 -276.68701 1.8403113e-38
2906.2 2483.49 -276.578 1.8403113e-38
2926.3201 2489.47 -278.56299 1.8403113e-38
2938.1699 2484.6799 -276.70901 1.8403113e-38
2957.9299 2489.49 -278.26999 1.8403113e-38
2989.1699 2488.0601 -277.45401 1.8403113e-38
3005.5 2487.8201 -277.20999 1.8403113e-38
3021.26 2486.6599 -276.64001 1.8403113e-38
3038.99 2487.49 -276.77399 1.8403113e-38
3075.3799 2489.24 -277.06299 1.8403113e-38
3091.3899 2487.3201 -276.21201 1.8403113e-38
3108.1001 2485.9199 -275.54401 1.8403113e-38
3123.51 2482.9399 -274.31299 1.8403113e-38
3143.73 2484.6001 -274.72699 1.8403113e-38
2866.2 2490.4399 -279.487 1.8403113e-38
2880.8601 2490.0601 -279.20801 1.8403113e-38
3058.77 2490.26 -277.59299 1.8403113e-38
3145.4399 2467.5901 -268.51999 1.8403113e-38
3161.52 2464.8401 -267.36801 1.8403113e-38
3149.1599 2416.8701 -250.032 1.8403113e-38
3151.6599 2437.0801 -257.35901 1.8403113e-38
3160.5801 2392.52 -241.064 1.8403113e-38
3152.0901 2402.0701 -244.618 1.8403113e-38
-1881.29 2253.4199 -238.336 1.8403113e-38
3145.73 2362.1799 -230.16499 1.8403113e-38
3151.6499 2350.77 -225.95799 1.8403113e-38
2793.4199 2025.8 -111.122 1.8403113e-38
-4545.6099 1772.26 -88.575302 1.8403113e-38
-3209.1899 1740.92 -64.478897 1.8403113e-38
2639.1599 1884.4301 -61.147202 1.8403113e-38
2631.6001 1869.76 -55.884701 1.8403113e-38
2615.24 1832.8101 -42.5937 1.8403113e-38
2624.9399 1848.27 -48.125401 1.8403113e-38
2617.77 1850.3199 -48.942402 1.8403113e-38
2608.76 1798.45 -30.1539 1.8403113e-38
2609.77 1806.37 -33.0247 1.8403113e-38
2609.1299 1813.14 -35.496799 1.8403113e-38
2612.26 1822.9399 -39.0298 1.8403113e-38
2620.6699 1778.89 -22.9249 1.8403113e-38
2615.55 1782.27 -24.2026 1.8403113e-38
2613.2 1794.59 -28.708599 1.8403113e-38
2621.6101 1793.53 -28.240999 1.8403113e-38
591.685 1694.92 -11.643 1.8403113e-38
614.02197 1703 -14.3688 1.8403113e-38
2620.8601 1745.58 -10.8017 1.8403113e-38
2618.9451 1754.175 -13.9493 1.8403113e-38
2615.625 1765.29 -18.0228 1.8403113e-38
591.29102 1669.74 -2.4844201 1.8403113e-38
585.06097 1683.53 -7.5609498 1.8403113e-38
2619.5701 1719.4301 -1.30153 1.8403113e-38
2625.0601 1716.37 -0.13540199 1.8403113e-38
2618.3201 1724.9301 -3.3116901 1.8403113e-38
2618.1399 1737.46 -7.8731198 1.8403113e-38
2622.9099 1733.96 -6.5566602 1.8403113e-38
-2921.3799 1558.23 4.7252598 1.8403113e-38
604.17902 1642.54 7.5362701 1.8403113e-38
582.92102 1658.62 1.48149 1.8403113e-38
2630.21 1694.78 7.7685399 1.8403113e-38
2624.72 1703.92 4.3901 1.8403113e-38
2632.71 1702.15 5.11199 1.8403113e-38
2627.9399 1711.8101 1.55207 1.8403113e-38
623.54797 1614.97 17.751301 1.8403113e-38
622.66498 1627.28 13.2626 1.8403113e-38
2626.29 1666.47 18.033199 1.8403113e-38
2622.1499 1673.0699 15.5925 1.8403113e-38
2623.1948 1682.2849 12.24855 1.8403113e-38
660.32001 1585.91 28.672001 1.8403113e-38
646.302 1599.66 23.5359 1.8403113e-38
2649.0601 1639.6 28.026199 1.8403113e-38
2662.28 1639.26 28.274 1.8403113e-38
2645.26 1646.51 25.476 1.8403113e-38
2629.46 1659.39 20.637699 1.8403113e-38
2635.24 1653.48 22.844501 1.8403113e-38
651.08398 1563.45 36.7584 1.8403113e-38
652.67798 1575.0699 32.5429 1.8403113e-38
2687.79 1608.62 39.667301 1.8403113e-38
2666 1618 36.0462 1.8403113e-38
2676.3999 1616.08 36.844601 1.8403113e-38
2685.8701 1613.6801 37.8078 1.8403113e-38
2667.49 1629.86 31.743099 1.8403113e-38
2674.23 1626.6801 32.964401 1.8403113e-38
2661.6699 1633.3101 30.433201 1.8403113e-38
602.16602 1532.48 47.560799 1.8403113e-38
637.28198 1541.22 44.714401 1.8403113e-38
639.664 1552.85 40.503399 1.8403113e-38
2712.8599 1584.865 48.547501 1.8403113e-38
2696.675 1597.22 43.8979 1.8403113e-38
2710.29 1592.76 45.648102 1.8403113e-38
3124.6299 1596.25 48.316502 1.8403113e-38
2690.6201 1603.85 41.429199 1.8403113e-38
-670.74402 1465.24 59.935799 1.8403113e-38
649.71802 1504.78 58.090599 1.8403113e-38
637.82001 1517.46 53.362301 1.8403113e-38
2734.96 1558.86 58.217602 1.8403113e-38
2742.2 1554.72 59.791801 1.8403113e-38
2738.3301 1565.5 55.835899 1.8403113e-38
3154.79 1565.09 59.937599 1.8403113e-38
2723.99 1579.29 50.682499 1.8403113e-38
2736.8101 1570.97 53.8284 1.8403113e-38
2741.02 1577.95 51.328602 1.8403113e-38
3151.3 1573.67 56.7826 1.8403113e-38
3148.7 1582.37 53.592899 1.8403113e-38
3152.9199 1592.25 50.0387 1.8403113e-38
-685.302 1442.98 67.898499 1.8403113e-38
539.38 1474.97 67.889099 1.8403113e-38
2766.3899 1548.1801 62.4039 1.8403113e-38
2785.3101 1546 63.375599 1.8403113e-38
3148.6799 1546.08 66.797401 1.8403113e-38
2751.3799 1550.91 61.268398 1.8403113e-38
2857.1799 1553.72 61.249401 1.8403113e-38
3147.3301 1554.92 63.5667 1.8403113e-38
542.71301 1462.26 72.544502 1.8403113e-38
3153.2451 1515.095 78.114151 1.8403113e-38
3151.1399 1528.36 73.268303 1.8403113e-38
3149.95 1537.23 70.031403 1.8403113e-38
3147.8501 1483.3 89.632103 1.8403113e-38
3145.0901 1491.97 86.4496 1.8403113e-38
3155.1899 1501.8 82.970596 1.8403113e-38
322.15701 1399.3 93.358704 1.8403113e-38
582.224 1411.88 91.250397 1.8403113e-38
3149.6499 1456.74 99.312599 1.8403113e-38
3150.1299 1465.66 96.0728 1.8403113e-38
3148.53 1474.45 92.857803 1.8403113e-38
654.56702 1364.99 109 1.8403113e-38
655.31799 1376.61 104.779 1.8403113e-38
654.177 1388.1899 100.553 1.8403113e-38
3090.74 1428.58 109 1.8403113e-38
3141.45 1438.7 105.797 1.8403113e-38
3142.1001 1447.54 102.589 1.8403113e-38
