# .PCD v0.7 - Point Cloud Data file format
VERSION 0.7
FIELDS x y z rgb
SIZE 4 4 4 4
TYPE F F F F
COUNT 1 1 1 1
WIDTH 355
HEIGHT 1
VIEWPOINT 0 0 0 1 0 0 0
POINTS 355
DATA ascii
-2185.1899 1811.8199 -280.52499 1.8403113e-38
-2091.8 1855.9 -280.07199 1.8403113e-38
-1992 1906.97 -280.88199 1.8403113e-38
-1812.66 1993.37 -280.57901 1.8403113e-38
-1744.2 2027.99 -281.00101 1.8403113e-38
-1667.13 2069.3301 -282.24899 1.8403113e-38
-1601.97 2101.26 -282.315 1.8403113e-38
-1547.8199 2137.4399 -285.526 1.8403113e-38
-1475.17 2168.0701 -283.97501 1.8403113e-38
-1416.4 2202.49 -285.87601 1.8403113e-38
-1345.21 2230.77 -283.78699 1.8403113e-38
-1292.76 2262.49 -285.80801 1.8403113e-38
-1231.98 2287.96 -284.457 1.8403113e-38
-1173.05 2318.0701 -284.92099 1.8403113e-38
-1116.8 2341.3999 -283.595 1.8403113e-38
-1071.23 2368.9099 -285.33701 1.8403113e-38
-1021.55 2390.3501 -284.435 1.8403113e-38
-974.56 2416.24 -285.42001 1.8403113e-38
-926.539 2436.1101 -284.27301 1.8403113e-38
-884.09698 2460.3201 -285.43301 1.8403113e-38
-837.771 2478.75 -284.08099 1.8403113e-38
-798.927 2501.49 -285.33301 1.8403113e-38
-753.34003 2518.5601 -283.65399 1.8403113e-38
-724.039 2540.1599 -286.056 1.8403113e-38
-675.27802 2555.8401 -283.41599 1.8403113e-38
-639.77502 2575.99 -284.35501 1.8403113e-38
-602.64203 2590.8799 -283.31 1.8403113e-38
-565.89899 2609.74 -283.62799 1.8403113e-38
-536.448 2624.04 -283.61499 1.8403113e-38
-507.319 2642.3401 -284.95999 1.8403113e-38
-469.85999 2655.0701 -283.159 1.8403113e-38
-448.33801 2673.0601 -285.61499 1.8403113e-38
-410.74799 2684.78 -283.45999 1.8403113e-38
-380.23001 2700.9099 -283.87701 1.8403113e-38
-360.078 2713.6599 -284.83801 1.8403113e-38
-322.57001 2727.97 -283.54599 1.8403113e-38
-295.48599 2739.0701 -282.862 1.8403113e-38
-273.37201 2754.51 -284.39001 1.8403113e-38
-245.214 2764.6899 -283.23499 1.8403113e-38
-214.246 2777.9099 -282.629 1.8403113e-38
-195.658 2788.9099 -283.26501 1.8403113e-38
-174.19299 2802.98 -284.45001 1.8403113e-38
-136.29201 2809.76 -280.63 1.8403113e-38
-115.678 2823.1799 -281.73801 1.8403113e-38
-102.634 2834.1399 -283.245 1.8403113e-38
-71.384598 2844.6899 -281.71701 1.8403113e-38
-51.5774 2853.6499 -281.495 1.8403113e-38
-28.8221 2865.29 -281.67899 1.8403113e-38
-7.0587101 2873.21 -280.80301 1.8403113e-38
5.4022899 2886.79 -283.26001 1.8403113e-38
35.692501 2891.9299 -280.11401 1.8403113e-38
48.278702 2904.98 -282.38 1.8403113e-38
71.996696 2911.21 -280.63901 1.8403113e-38
85.647301 2923.52 -282.495 1.8403113e-38
106.589 2929.99 -281.272 1.8403113e-38
120.359 2941.8401 -282.95901 1.8403113e-38
142.248 2947.47 -281.314 1.8403113e-38
157.96201 2958.25 -282.33701 1.8403113e-38
169.757 2966.74 -283.23401 1.8403113e-38
192.89101 2974.53 -282.09799 1.8403113e-38
206.57001 2981.99 -282.358 1.8403113e-38
226.991 2990.1499 -281.776 1.8403113e-38
262.95801 3004.1001 -280.60999 1.8403113e-38
269.53101 3013.6001 -282.672 1.8403113e-38
290.01099 3020.6899 -281.728 1.8403113e-38
303.806 3026.98 -281.58801 1.8403113e-38
319.858 3035.4199 -281.79199 1.8403113e-38
347.146 3050.53 -282.388 1.8403113e-38
357.505 3057.71 -283.09 1.8403113e-38
378.01199 3063.27 -281.64001 1.8403113e-38
387.54501 3070.5601 -282.508 1.8403113e-38
397.70401 3080.72 -284.21399 1.8403113e-38
413.32599 3084.77 -283.04901 1.8403113e-38
424.43301 3094.1899 -284.36301 1.8403113e-38
435.80499 3100.1101 -284.487 1.8403113e-38
444.483 3110.6201 -286.54599 1.8403113e-38
450.039 3119.54 -288.577 1.8403113e-38
474.737 3120.95 -285.103 1.8403113e-38
493.64499 3122 -282.436 1.8403113e-38
608.53497 3171.96 -280.47699 1.8403113e-38
653.76501 3193.6699 -280.375 1.8403113e-38
780.37097 3255.26 -280.35699 1.8403113e-38
896.37 3313.8201 -281.03799 1.8403113e-38
906.41498 3315.8701 -280.10699 1.8403113e-38
961.297 3344.6001 -280.763 1.8403113e-38
990.35101 3358.1201 -280.55899 1.8403113e-38
1015.48 3372.6101 -281.297 1.8403113e-38
1023.9 3380.26 -282.45999 1.8403113e-38
1041.96 3389.3301 -282.552 1.8403113e-38
1062.5601 3394.0701 -280.81799 1.8403113e-38
1070.13 3398.51 -281.065 1.8403113e-38
1105.41 3417.1899 -281.55701 1.8403113e-38
1135.13 3427.4099 -280.16599 1.8403113e-38
1160.79 3440.02 -280.20401 1.8403113e-38
-2600.22 1594.76 -275.62601 1.8403113e-38
-2286.79 1756.71 -278.68201 1.8403113e-38
-1899.7 1947.74 -279.51801 1.8403113e-38
248.847 2994.1201 -279.59201 1.8403113e-38
338.97101 3039.01 -279.92099 1.8403113e-38
516.49799 3123.6699 -279.341 1.8403113e-38
527.87402 3128.6201 -279.146 1.8403113e-38
540.81201 3135.6899 -279.39999 1.8403113e-38
555.448 3138.3401 -277.93399 1.8403113e-38
563.57098 3148.1399 -279.84799 1.8403113e-38
574.18298 3153.0701 -279.76901 1.8403113e-38
591.97601 3156.3601 -278.01001 1.8403113e-38
603.37201 3160.46 -277.53699 1.8403113e-38
628.55499 3169.8301 -276.59 1.8403113e-38
637.70203 3178.3601 -277.92499 1.8403113e-38
642.95203 3186.4299 -279.729 1.8403113e-38
671.276 3192.45 -277.18701 1.8403113e-38
679.83398 3201.1201 -278.659 1.8403113e-38
693.48999 3202.45 -276.91901 1.8403113e-38
705.61951 3214.115 -278.8045 1.8403113e-38
726.63599 3218.3501 -276.84 1.8403113e-38
729.31799 3228.28 -279.66199 1.8403113e-38
741.76398 3233.27 -279.314 1.8403113e-38
753.16498 3235.6499 -278.276 1.8403113e-38
763.48401 3242.25 -278.79099 1.8403113e-38
776.96503 3242.47 -276.71399 1.8403113e-38
791.07397 3257.8401 -279.495 1.8403113e-38
804.92999 3260.73 -278.23401 1.8403113e-38
810.18799 3268.3501 -279.89001 1.8403113e-38
826.04498 3268.97 -277.565 1.8403113e-38
834.03601 3273.76 -277.862 1.8403113e-38
841.27301 3282.8799 -279.69 1.8403113e-38
850.64398 3286.1699 -279.276 1.8403113e-38
861.87903 3291 -279.06601 1.8403113e-38
874.43701 3290.6201 -276.939 1.8403113e-38
879.98901 3301.51 -279.62 1.8403113e-38
888.763 3305.1399 -279.41101 1.8403113e-38
918.96698 3318.6001 -279.00201 1.8403113e-38
926.58801 3323.3501 -279.341 1.8403113e-38
936.17999 3329.51 -279.82901 1.8403113e-38
944.44897 3333.3799 -279.77899 1.8403113e-38
955.84399 3337.1299 -279.19 1.8403113e-38
975.54199 3344.3701 -278.41901 1.8403113e-38
983.30298 3348.6699 -278.59201 1.8403113e-38
999.82098 3360 -279.664 1.8403113e-38
1011.29 3363.1201 -278.85901 1.8403113e-38
1037.5 3375.51 -278.73599 1.8403113e-38
1054.95 3385.1399 -279.108 1.8403113e-38
1093.05 3398.6101 -277.44501 1.8403113e-38
1081.71 3400.8401 -279.98099 1.8403113e-38
1100.45 3408.0801 -279.36499 1.8403113e-38
1117.49 3418.3 -279.996 1.8403113e-38
1128.27 3416.51 -277.69199 1.8403113e-38
1143.36 3430.49 -279.862 1.8403113e-38
1153.75 3434.55 -279.535 1.8403113e-38
1172.84 3440.5 -278.44199 1.8403113e-38
1181.12 3443.29 -278.034 1.8403113e-38
1194.24 3440.96 -275.18201 1.8403113e-38
1197.67 3454.8 -279.16501 1.8403113e-38
1208.23 3458.3401 -278.63901 1.8403113e-38
1228.9399 3459.8401 -275.82999 1.8403113e-38
1216.61 3460.8501 -278.12701 1.8403113e-38
1237.64 3461.3201 -274.927 1.8403113e-38
1245.9 3470.6299 -276.65799 1.8403113e-38
1254.01 3473.74 -276.384 1.8403113e-38
1263.74 3479.3899 -276.68301 1.8403113e-38
1273.45 3477.9299 -274.65799 1.8403113e-38
1284.4 3493.7651 -278.09601 1.8403113e-38
1299.09 3498.76 -277.39001 1.8403113e-38
1307.13 3502.3899 -277.297 1.8403113e-38
1319.08 3501.27 -275.02499 1.8403113e-38
1325.85 3509.28 -276.56799 1.8403113e-38
1334.55 3519.76 -278.612 1.8403113e-38
1343.26 3521.3301 -277.737 1.8403113e-38
1353.59 3526.21 -277.689 1.8403113e-38
1362.55 3526.72 -276.427 1.8403113e-38
1373.6 3528.6799 -275.30701 1.8403113e-38
1380.26 3539.1399 -277.67099 1.8403113e-38
1395.4299 3543.3501 -276.6315 1.8403113e-38
1409.9301 3551.0901 -276.85199 1.8403113e-38
1418.61 3553.01 -276.099 1.8403113e-38
1429.36 3557.24 -275.76801 1.8403113e-38
1438.09 3559.02 -274.96201 1.8403113e-38
1448.05 3568.6699 -276.53101 1.8403113e-38
1456.85 3570.3201 -275.668 1.8403113e-38
1466.92 3580.75 -277.478 1.8403113e-38
1475.8199 3582.27 -276.55701 1.8403113e-38
1486.9399 3585.98 -276 1.8403113e-38
1495.14 3593.9299 -277.29599 1.8403113e-38
1506.59 3595.5901 -276.013 1.8403113e-38
1515.59 3596.8201 -274.98099 1.8403113e-38
1526.29 3607.72 -276.84601 1.8403113e-38
1536.01 3600.3101 -272.87 1.8403113e-38
1546.84 3611.99 -274.966 1.8403113e-38
1556 3611.98 -273.50201 1.8403113e-38
1566.96 3627.28 -276.76501 1.8403113e-38
1576.01 3632.8101 -277.134 1.8403113e-38
1587.6801 3638.47 -277.125 1.8403113e-38
1596.99 3639.1101 -275.85199 1.8403113e-38
1608.8 3645.53 -276.07101 1.8403113e-38
1618.15 3648.8701 -275.67401 1.8403113e-38
1634.91 3658.595 -276.18652 1.8403113e-38
1651.91 3668.1299 -276.59601 1.8403113e-38
1661.4 3667.3501 -274.83099 1.8403113e-38
1673.9399 3676.99 -275.987 1.8403113e-38
1683.97 3685.5701 -277.19699 1.8403113e-38
1696.74 3693.1101 -277.62701 1.8403113e-38
1706.51 3693.9099 -276.33499 1.8403113e-38
1719.5601 3702.1799 -276.961 1.8403113e-38
1742.61 3709.9299 -275.823 1.8403113e-38
1730.09 3710.4299 -277.983 1.8403113e-38
1753.24 3717.05 -276.45999 1.8403113e-38
1765.92 3717.28 -274.51401 1.8403113e-38
1776.86 3725.1699 -275.35501 1.8403113e-38
1790.66 3732.77 -275.642 1.8403113e-38
1801.86 3740.47 -276.37799 1.8403113e-38
1816.83 3753.51 -278.259 1.8403113e-38
1827.27 3754.3899 -276.883 1.8403113e-38
1841.65 3761.49 -276.91699 1.8403113e-38
1853.03 3766.9099 -276.87701 1.8403113e-38
1867.49 3772.8201 -276.505 1.8403113e-38
1878.13 3773.3201 -274.974 1.8403113e-38
1894.36 3786.5 -276.70099 1.8403113e-38
1905.54 3788.6799 -275.634 1.8403113e-38
1920.47 3794.0601 -275.01599 1.8403113e-38
1933.76 3804.48 -276.30701 1.8403113e-38
1949.89 3813.3201 -276.629 1.8403113e-38
1960.21 3810.4099 -274.03201 1.8403113e-38
1978.0699 3824.55 -275.815 1.8403113e-38
1991 3830.75 -275.78201 1.8403113e-38
2007.24 3837.1201 -275.28 1.8403113e-38
2018.23 3835.6499 -273.04901 1.8403113e-38
2036.92 3849.1299 -274.48199 1.8403113e-38
2052.9099 3863.1399 -276.51801 1.8403113e-38
2069.78 3868.8601 -275.703 1.8403113e-38
2083.77 3875.21 -275.54999 1.8403113e-38
2100.9099 3880.6001 -274.58401 1.8403113e-38
2117.3899 3893.0701 -276.04001 1.8403113e-38
2134.53 3897.2 -274.66 1.8403113e-38
2147.7 3899.3501 -273.263 1.8403113e-38
2163.6499 3899.52 -270.78 1.8403113e-38
2179.04 3906.8501 -270.72501 1.8403113e-38
2405 4026.3999 -273.84399 1.8403113e-38
2442.4199 4033.3201 -270.14301 1.8403113e-38
2463.3301 4044.1499 -270.35599 1.8403113e-38
2491.5801 4060.03 -271.05301 1.8403113e-38
2512.02 4068.6599 -270.62201 1.8403113e-38
2541.3899 4084.76 -271.207 1.8403113e-38
2191.51 3897.6899 -265.741 1.8403113e-38
2415.73 4018.53 -269.55899 1.8403113e-38
2559.79 4088.6599 -269.55499 1.8403113e-38
-2524.95 1570.3199 -255.634 1.8403113e-38
-2271.6201 1692.72 -255.32401 1.8403113e-38
2212.25 3878.3301 -256.10101 1.8403113e-38
2225.53 3879.8 -254.466 1.8403113e-38
2197.48 3881.3701 -259.45001 1.8403113e-38
2564.28 4034.55 -251.13 1.8403113e-38
2562.6799 4058.5901 -259.254 1.8403113e-38
-1992.01 1783.64 -240.52499 1.8403113e-38
2236.75 3868.47 -248.96899 1.8403113e-38
2264.72 3866.1499 -243.755 1.8403113e-38
2252.4399 3875.04 -248.621 1.8403113e-38
2296.5701 3871.21 -240.336 1.8403113e-38
2318.25 3888.5701 -242.563 1.8403113e-38
-2573.55 1486.91 -236.082 1.8403113e-38
2273.8999 3858.3401 -239.735 1.8403113e-38
2561.3401 3971.55 -230.981 1.8403113e-38
2563.1399 3999.6101 -239.87801 1.8403113e-38
-2543.8701 1461.95 -223.187 1.8403113e-38
2561.74 3941 -220.92101 1.8403113e-38
-2647.51 1394.89 -217.754 1.8403113e-38
2564.48 3921.3701 -214.063 1.8403113e-38
2563.98 3891 -204.203 1.8403113e-38
-2508.1399 1398.24 -196.644 1.8403113e-38
2568.8401 3875.55 -198.373 1.8403113e-38
2593.23 3882.6001 -196.79401 1.8403113e-38
2617.0901 3894.4299 -196.86301 1.8403113e-38
2605.77 3850.3999 -184.25999 1.8403113e-38
2653.27 3866.47 -181.948 1.8403113e-38
2612.29 3838.01 -179.16499 1.8403113e-38
2594.48 3767.1299 -158.808 1.8403113e-38
2566.8201 3706.0701 -143.235 1.8403113e-38
2582.3501 3707.28 -141.157 1.8403113e-38
2598.0701 3703.3799 -137.375 1.8403113e-38
-2126.1899 1364.8101 -124.845 1.8403113e-38
-1805.55 1486.6801 -113.637 1.8403113e-38
2540.8301 3592.3999 -110.176 1.8403113e-38
2536.0701 3608.1699 -116.098 1.8403113e-38
2623.6799 3634.77 -110.842 1.8403113e-38
2657.8701 3651.8101 -110.971 1.8403113e-38
-1938.95 1384.47 -101.445 1.8403113e-38
2550.02 3586.73 -106.859 1.8403113e-38
2569.8301 3588.99 -104.442 1.8403113e-38
2675.54 3632.26 -101.758 1.8403113e-38
2666.1899 3643.8101 -107.026 1.8403113e-38
-1327.37 1653.92 -92.172699 1.8403113e-38
-1324.0601 1677.77 -99.450699 1.8403113e-38
-1794.3 1401.6899 -84.032402 1.8403113e-38
-1657.5601 1411.36 -65.411102 1.8403113e-38
2536.24 3464.75 -69.135201 1.8403113e-38
-1581.02 1410.55 -52.949699 1.8403113e-38
2478.23 3354.9399 -42.446602 1.8403113e-38
2459.4399 3364.8799 -48.691799 1.8403113e-38
2473.0701 3366.1499 -46.936501 1.8403113e-38
2686.75 3464.98 -45.229 1.8403113e-38
2699.3701 3462.1299 -42.2887 1.8403113e-38
-1458.16 1419.8 -36.401402 1.8403113e-38
2498.29 3346.03 -36.332802 1.8403113e-38
2506.3101 3341.22 -33.482601 1.8403113e-38
2487.01 3351.02 -39.7644 1.8403113e-38
2714.03 3457.04 -38.2868 1.8403113e-38
2725.1599 3452.5901 -35.057301 1.8403113e-38
-1450.8101 1397.47 -27.9219 1.8403113e-38
2509.6499 3328.4299 -28.764 1.8403113e-38
2523.3301 3328.98 -26.7644 1.8403113e-38
2719.5 3429.54 -28.415899 1.8403113e-38
2726.6799 3421.74 -24.7197 1.8403113e-38
2797.25 3448.9099 -22.3643 1.8403113e-38
2802.8501 3468.1101 -27.757299 1.8403113e-38
2833.6201 3460.23 -20.274401 1.8403113e-38
-1448.7 1366.39 -17.414101 1.8403113e-38
2832.4399 3444.75 -15.3956 1.8403113e-38
-1440.92 1344.15 -8.8961201 1.8403113e-38
2834.6399 3414.0601 -5.0013399 1.8403113e-38
2834.6201 3428.2 -9.6333399 1.8403113e-38
-1436.35 1313.77 1.77223 1.8403113e-38
2836.8999 3384.1299 5.1496902 1.8403113e-38
2836.4099 3397.5901 0.66966802 1.8403113e-38
-1412.3 1297.79 10.8338 1.8403113e-38
2836.8201 3353.21 15.2581 1.8403113e-38
2830.23 3361.8501 11.3796 1.8403113e-38
-1434.14 1256.88 20.740499 1.8403113e-38
2830.26 3318.51 25.567301 1.8403113e-38
2830.46 3331.73 21.2715 1.8403113e-38
-1069.91 1379.5 38.6483 1.8403113e-38
2836.0901 3293.1699 34.7868 1.8403113e-38
2829.97 3301.8301 30.978399 1.8403113e-38
-999.97302 1379.78 49.700802 1.8403113e-38
2829.3999 3244.3501 49.699299 1.8403113e-38
2829.6299 3260.23 44.5359 1.8403113e-38
2829.6101 3272.71 40.4496 1.8403113e-38
2834.5 3219.8401 58.529701 1.8403113e-38
2835.0601 3235.6699 53.4398 1.8403113e-38
-966.36798 1343.64 66.884003 1.8403113e-38
2825.3 3187.22 67.739899 1.8403113e-38
2833.1101 3206.99 62.516102 1.8403113e-38
-952.75897 1327.41 74.361198 1.8403113e-38
2835.97 3155.28 79.893303 1.8403113e-38
2830.95 3163.99 76.242302 1.8403113e-38
2832.23 3179.5601 71.3508 1.8403113e-38
-928.55798 1310.01 83.913101 1.8403113e-38
2831.26 3126.77 88.471603 1.8403113e-38
2826.47 3135.46 84.864197 1.8403113e-38
-942.81 1281.08 91.107201 1.8403113e-38
2833.8999 3102.72 96.760902 1.8403113e-38
2829.3 3111.4399 93.174698 1.8403113e-38
-930.14398 1235.6899 107.979 1.8403113e-38
-931.77698 1257.5601 100.562 1.8403113e-38
2833.4399 3063.6101 109.485 1.8403113e-38
2827.97 3074.74 104.973 1.8403113e-38
2831.6201 3087.49 101.383 1.8403113e-38
