# .PCD v0.7 - Point Cloud Data file format
VERSION 0.7
FIELDS x y z rgb
SIZE 4 4 4 4
TYPE F F F F
COUNT 1 1 1 1
WIDTH 325
HEIGHT 1
VIEWPOINT 0 0 0 1 0 0 0
POINTS 325
DATA ascii
-161.1825 1125.83 -290.44598 1.8403113e-38
-164.05499 1166.26 -294.759 1.8403113e-38
-155.57401 1179.1 -292.797 1.8403113e-38
-159.142 1215.0601 -296.992 1.8403113e-38
-450.18701 -164.326 -287.85199 1.8403113e-38
-416.44501 -101.922 -280.96701 1.8403113e-38
-411.04999 -12.6133 -286.32901 1.8403113e-38
-381.09299 41.6427 -280.12299 1.8403113e-38
-376.02701 124.79 -285.10001 1.8403113e-38
-353.33401 237.815 -286.259 1.8403113e-38
-327.702 281.909 -280.759 1.8403113e-38
-328.04599 348.577 -286.31201 1.8403113e-38
-303.93799 388.92999 -281.048 1.8403113e-38
-310.57599 443.76999 -287.871 1.8403113e-38
-285.08701 484.36301 -282.13599 1.8403113e-38
-286.76401 542.34998 -287.45599 1.8403113e-38
-262.97699 579.30103 -282.02802 1.8403113e-38
-265.27899 633.44299 -287.25601 1.8403113e-38
-240.78101 669.85999 -281.53299 1.8403113e-38
-251.60899 711.284 -288.74899 1.8403113e-38
-223.851 750.151 -282.069 1.8403113e-38
-226.675 798.39801 -287.00101 1.8403113e-38
-210.681 822.729 -283.31 1.8403113e-38
-206.052 876.89203 -286.08099 1.8403113e-38
-190.91 899.396 -282.543 1.8403113e-38
-197.599 939.25299 -288.16299 1.8403113e-38
-182.711 960.70697 -284.63 1.8403113e-38
-188.938 999.46698 -289.99701 1.8403113e-38
-172.953 1021.28 -286.103 1.8403113e-38
-172.439 1065.11 -289.492 1.8403113e-38
-164.47099 1078.34 -287.74301 1.8403113e-38
-121.009 1253.5 -286.59698 1.8403113e-38
-116.605 1294.35 -288.362 1.8403113e-38
-97.1427 1315.54 -283.185 1.8403113e-38
-96.079697 1351.9 -285.771 1.8403113e-38
-86.039703 1364.62 -283.245 1.8403113e-38
-80.984497 1402.9301 -284.573 1.8403113e-38
-67.633598 1417.8199 -281.04999 1.8403113e-38
-70.060898 1448.95 -284.448 1.8403113e-38
-54.884899 1464.72 -280.349 1.8403113e-38
-56.484299 1495.4301 -283.41901 1.8403113e-38
-44.153 1508.5601 -280.11401 1.8403113e-38
-49.722801 1535.5 -284.285 1.8403113e-38
-38.739498 1547.24 -281.345 1.8403113e-38
-41.256599 1575.6 -284.54901 1.8403113e-38
-30.057899 1587.09 -281.51199 1.8403113e-38
-33.503601 1614.0699 -284.93201 1.8403113e-38
-21.2862 1625.84 -281.55801 1.8403113e-38
-24.8958 1652 -284.97 1.8403113e-38
-11.648 1664.02 -281.25 1.8403113e-38
-15.4491 1689.39 -284.664 1.8403113e-38
-8.5984802 1697.1 -282.862 1.8403113e-38
-6.0134301 1725.71 -284.27701 1.8403113e-38
1.81722 1733.74 -282.15302 1.8403113e-38
-1.67383 1758.16 -285.38101 1.8403113e-38
4.61695 1765.0601 -283.71201 1.8403113e-38
3.33757 1790.24 -286.21701 1.8403113e-38
16.5466 1800.66 -282.38 1.8403113e-38
16.555849 1827.465 -284.561 1.8403113e-38
22.2271 1856.6801 -284.92899 1.8403113e-38
34.068699 1865.6801 -281.46201 1.8403113e-38
29.237101 1887.46 -284.95099 1.8403113e-38
42.9725 1897.03 -280.858 1.8403113e-38
40.369598 1919.41 -283.604 1.8403113e-38
48.141201 1925.92 -281.37799 1.8403113e-38
49.5177 1949.64 -282.823 1.8403113e-38
56.613998 1978.3101 -282.64099 1.8403113e-38
55.739601 1980.85 -283.15799 1.8403113e-38
57.135201 2003.79 -284.53201 1.8403113e-38
66.198997 2032.11 -283.62399 1.8403113e-38
73.505898 2037.6 -281.479 1.8403113e-38
73.1064 2059.03 -283.367 1.8403113e-38
76.896202 2084.3799 -284.08801 1.8403113e-38
87.528503 2111.47 -282.52301 1.8403113e-38
94.196297 2116.1899 -280.543 1.8403113e-38
91.352699 2135.9399 -283.16101 1.8403113e-38
97.182999 2140.26 -281.444 1.8403113e-38
98.373802 2160.9299 -282.70599 1.8403113e-38
104.004 2185.1101 -282.67899 1.8403113e-38
111.823 2189.6299 -280.27399 1.8403113e-38
113.768 2209.8701 -281.233 1.8403113e-38
116.105 2212.9399 -280.65399 1.8403113e-38
121.194 2233.6101 -280.53299 1.8403113e-38
124.381 2256.1101 -281.23499 1.8403113e-38
127.021 2278.28 -282.10501 1.8403113e-38
135.98599 2302.4502 -280.89349 1.8403113e-38
136.24001 2322.5601 -282.44199 1.8403113e-38
156.14301 2387.6499 -280.685 1.8403113e-38
160.985 2408.6499 -280.67801 1.8403113e-38
161.856 2411.05 -280.565 1.8403113e-38
164.287 2429.3799 -281.19601 1.8403113e-38
176.174 2471.6499 -280.423 1.8403113e-38
180.93401 2490.75 -280.29001 1.8403113e-38
185.57401 2510.8501 -280.28299 1.8403113e-38
186.77699 2530.99 -281.49701 1.8403113e-38
193.10449 2551.9448 -280.95898 1.8403113e-38
194.866 2570.8201 -281.87201 1.8403113e-38
201.731 2590.3201 -281.026 1.8403113e-38
208.903 2609.6201 -280.05399 1.8403113e-38
201.743 2612.8 -282.853 1.8403113e-38
211.722 2629.3601 -280.66199 1.8403113e-38
212.994 2631.47 -280.383 1.8403113e-38
218.02699 2650.8401 -280.17599 1.8403113e-38
219.672 2670.76 -281.215 1.8403113e-38
230.821 2706.8 -280.19601 1.8403113e-38
226.08701 2728.3301 -283.63 1.8403113e-38
219.304 2732.3 -286.35999 1.8403113e-38
272.11899 2884.23 -280.00299 1.8403113e-38
280.142 2921.99 -280.23401 1.8403113e-38
283.02701 2945.4199 -281.11899 1.8403113e-38
282.59351 3013.2251 -286.797 1.8403113e-38
289.28601 3034.6399 -286.168 1.8403113e-38
290.66101 3031.1499 -285.39499 1.8403113e-38
313.992 3068.29 -280.14499 1.8403113e-38
328.18701 3130.8501 -280.20599 1.8403113e-38
338.224 3175.6699 -280.298 1.8403113e-38
349.28699 3224.3899 -280.34201 1.8403113e-38
414.47699 3510.6799 -280.543 1.8403113e-38
-346.13599 176.73801 -278.729 1.8403113e-38
61.813202 1957.88 -279.13199 1.8403113e-38
72.377197 2012.5601 -279.84 1.8403113e-38
87.729401 2066.8601 -278.81799 1.8403113e-38
92.552399 2092.23 -279.17401 1.8403113e-38
108.875 2166.3501 -279.422 1.8403113e-38
124.513 2236.8101 -279.616 1.8403113e-38
131.48 2259.95 -279.03 1.8403113e-38
134.17999 2281.98 -279.867 1.8403113e-38
144.451 2326.0901 -279.81699 1.8403113e-38
149.207 2347.7 -279.89001 1.8403113e-38
150.336 2345.45 -279.30701 1.8403113e-38
155.811 2368.0698 -279.20752 1.8403113e-38
159.8 2390.3 -279.604 1.8403113e-38
174.625 2432.1599 -277.755 1.8403113e-38
174.5325 2451.3149 -279.34851 1.8403113e-38
187.61099 2492.97 -278.103 1.8403113e-38
191.342 2512.97 -278.409 1.8403113e-38
191.63699 2533.05 -279.94101 1.8403113e-38
204.47099 2572.28 -278.58401 1.8403113e-38
208.547 2591.8999 -278.73599 1.8403113e-38
219.506 2648.3101 -279.44501 1.8403113e-38
222.957 2667.8601 -279.814 1.8403113e-38
232.02299 2687.46 -278.19452 1.8403113e-38
237.73199 2707.5901 -277.81 1.8403113e-38
246.606 2744.9102 -277.70148 1.8403113e-38
245.905 2764.4099 -279.54001 1.8403113e-38
252.836 2764.8301 -277.11499 1.8403113e-38
256.0755 2783.26 -277.46802 1.8403113e-38
261.28351 2802.325 -277.17349 1.8403113e-38
269.13 2819.3401 -275.776 1.8403113e-38
268.04501 2822.0801 -276.384 1.8403113e-38
266.88901 2842.28 -278.44 1.8403113e-38
274.00699 2859.6299 -277.328 1.8403113e-38
273.021 2862.4199 -277.90601 1.8403113e-38
273.052 2881.3899 -279.44101 1.8403113e-38
279.45001 2900.3999 -278.72 1.8403113e-38
280.298 2902.52 -278.59201 1.8403113e-38
288.76801 2920.6499 -277.064 1.8403113e-38
287.22 2940.9199 -279.26401 1.8403113e-38
293.39951 2961.6099 -278.758 1.8403113e-38
297.36401 2982.27 -279.03552 1.8403113e-38
313.177 3043.3901 -278.40552 1.8403113e-38
322.51901 3060.3301 -276.47198 1.8403113e-38
325.71851 3083.95 -277.26099 1.8403113e-38
325.24548 3109.0049 -279.47 1.8403113e-38
329.466 3132.8701 -279.918 1.8403113e-38
339.53601 3148.55 -277.62299 1.8403113e-38
339.30701 3151.6599 -277.957 1.8403113e-38
344.91 3173.71 -277.76599 1.8403113e-38
347.29999 3195.52 -278.69601 1.8403113e-38
350.95099 3195.77 -277.42001 1.8403113e-38
355.996 3215.8601 -277.26801 1.8403113e-38
362.14801 3238.55 -276.93399 1.8403113e-38
356.32501 3246.6101 -279.65601 1.8403113e-38
366.603 3263.1201 -277.35599 1.8403113e-38
361.651 3270.6899 -279.729 1.8403113e-38
369.45901 3289.6899 -278.50699 1.8403113e-38
371.034 3291.6399 -278.10699 1.8403113e-38
374.77753 3316.4099 -278.79749 1.8403113e-38
386.41101 3335.96 -276.26349 1.8403113e-38
392.479 3359.47 -276.026 1.8403113e-38
390.80701 3364.75 -277.04999 1.8403113e-38
397.79651 3388 -276.46451 1.8403113e-38
401.59698 3417.105 -277.48798 1.8403113e-38
410.93201 3439.03 -275.96301 1.8403113e-38
407.664 3446.6001 -277.73901 1.8403113e-38
416.617 3467.6101 -276.27499 1.8403113e-38
412.87299 3476 -278.28601 1.8403113e-38
424.832 3494.1001 -275.51801 1.8403113e-38
426.401 3529.5701 -277.85199 1.8403113e-38
424.203 3536.6499 -279.20801 1.8403113e-38
433.61899 3559.25 -277.70901 1.8403113e-38
435.108 3561.8401 -277.392 1.8403113e-38
445.02802 3584.3799 -275.70999 1.8403113e-38
437.91501 3598.53 -279.38599 1.8403113e-38
450.21201 3618.8201 -276.677 1.8403113e-38
447.888 3626.8799 -278.15799 1.8403113e-38
457.13348 3654.7251 -277.14648 1.8403113e-38
468.08899 3680.97 -275.39899 1.8403113e-38
465.01901 3690.77 -277.28601 1.8403113e-38
473.19101 3719.8301 -276.755 1.8403113e-38
471.37799 3728.0901 -278.07101 1.8403113e-38
485.47198 3749.02 -274.77701 1.8403113e-38
482.80301 3758.99 -276.53601 1.8403113e-38
497.46701 3779.8301 -273.03201 1.8403113e-38
490.52802 3797.3701 -276.923 1.8403113e-38
505.87601 3818.1799 -273.17401 1.8403113e-38
503.616 3828.3 -274.79999 1.8403113e-38
514.841 3857.5 -273.19699 1.8403113e-38
512.79602 3867.6899 -274.75299 1.8403113e-38
520.76599 3904.6599 -274.93701 1.8403113e-38
518.953 3914.9299 -276.41699 1.8403113e-38
1219.76 6906.6401 -271.56299 1.8403113e-38
1294.13 7231.0698 -271.612 1.8403113e-38
1380.74 7633.0698 -273.64499 1.8403113e-38
-396.32751 -171.841 -268.13348 1.8403113e-38
1213.5601 6759.8398 -261.80399 1.8403113e-38
1284.87 7068.3701 -261.64301 1.8403113e-38
1367.08 7418.6401 -261.01901 1.8403113e-38
1463.67 7850.25 -261.91901 1.8403113e-38
1479.87 8015.6299 -269.64801 1.8403113e-38
570.34003 3868.6899 -254.422 1.8403113e-38
570.35797 3875.47 -254.967 1.8403113e-38
-333.87201 -163.77499 -246.636 1.8403113e-38
-328.983 -167.01401 -244.63699 1.8403113e-38
602.66998 3863.75 -242.55 1.8403113e-38
601.49103 3873.1399 -243.733 1.8403113e-38
1562.4301 8046.8501 -242.90199 1.8403113e-38
1573.37 8055.5 -239.72701 1.8403113e-38
-275.98352 -172.38901 -225.3985 1.8403113e-38
-261.34 -244.21001 -214.353 1.8403113e-38
-257.26999 -249.026 -212.517 1.8403113e-38
867.51801 4712.9302 -217.786 1.8403113e-38
871.74298 4713.9102 -216.366 1.8403113e-38
1654.78 8052.3101 -210.59 1.8403113e-38
-254.85201 -340.86301 -204.17599 1.8403113e-38
-249.625 -343.92599 -202.073 1.8403113e-38
858.07098 4566.29 -209.189 1.8403113e-38
860.099 4576.98 -209.341 1.8403113e-38
911.125 4708.3999 -201.94701 1.8403113e-38
905.133 4718.25 -204.87601 1.8403113e-38
1665.52 8055.7798 -207.062 1.8403113e-38
-422.186 -1211.7 -192.58501 1.8403113e-38
-416.98999 -1218.6899 -190.172 1.8403113e-38
-379.41599 -984.45398 -195.92799 1.8403113e-38
-246.36499 -446.13898 -192.5885 1.8403113e-38
860.26001 4388.29 -193.91 1.8403113e-38
861.58398 4399.8901 -194.386 1.8403113e-38
944.51001 4711.1099 -190.325 1.8403113e-38
-438.168 -1414.23 -181.754 1.8403113e-38
-326.73001 -858.04498 -187.537 1.8403113e-38
-239.593 -561.724 -180.769 1.8403113e-38
-245.67599 -559.58398 -183.101 1.8403113e-38
858.91699 4250.6299 -183.172 1.8403113e-38
862.27301 4251.6001 -182.06 1.8403113e-38
948.72803 4711.9199 -188.895 1.8403113e-38
-430.53101 -1416.7 -178.843 1.8403113e-38
860.52899 4119.4199 -171.909 1.8403113e-38
863.638 4120.3799 -170.88499 1.8403113e-38
983.48303 4719.7852 -177.20749 1.8403113e-38
859.88898 4012.75 -163.44501 1.8403113e-38
857.93103 4031.79 -165.69099 1.8403113e-38
1019.15 4720.1499 -164.58299 1.8403113e-38
1022.94 4724.75 -163.61501 1.8403113e-38
859.08154 3924.1899 -156.51651 1.8403113e-38
1056.6899 4721.6499 -151.38901 1.8403113e-38
1705.48 7561.48 -152.61501 1.8403113e-38
863.10303 3747.1899 -140.66901 1.8403113e-38
862.79199 3825.29 -147.14249 1.8403113e-38
1061.12 4720.25 -149.70599 1.8403113e-38
1715.79 7569.79 -149.634 1.8403113e-38
-310.58401 -1472.37 -131.758 1.8403113e-38
815.57098 3471.395 -135.06 1.8403113e-38
830.68799 3481.05 -130.485 1.8403113e-38
861.23798 3623.04 -131.216 1.8403113e-38
861.20001 3679.3501 -135.817 1.8403113e-38
863.16302 3681.22 -135.27299 1.8403113e-38
1094.5699 4717.5 -137.614 1.8403113e-38
1098.3199 4723.9399 -136.808 1.8403113e-38
-302.491 -1473.64 -128.784 1.8403113e-38
832.59802 3482.04 -129.888 1.8403113e-38
850.9425 3484.2148 -123.5575 1.8403113e-38
862.31348 3506.0049 -121.299 1.8403113e-38
863.25299 3553.3201 -124.82 1.8403113e-38
862.151 3562.48 -125.958 1.8403113e-38
863.09698 3611.05 -129.57899 1.8403113e-38
1134.625 4707.875 -122.621 1.8403113e-38
1792.53 7588.9702 -123.975 1.8403113e-38
1802.11 7588.1499 -120.508 1.8403113e-38
-91.5448 -770.93799 -111.206 1.8403113e-38
1171.4301 4759.0898 -113.74 1.8403113e-38
1166.99 4761.73 -115.529 1.8403113e-38
1203.0801 4891.0098 -113.259 1.8403113e-38
-250.521 -1533.91 -105.438 1.8403113e-38
-239.07899 -1481.46 -105.652 1.8403113e-38
-74.327202 -746.93201 -107.054 1.8403113e-38
1878.66 7598.9302 -94.232597 1.8403113e-38
1889.33 7606.8599 -91.094299 1.8403113e-38
-167.77299 -1512.6 -77.820801 1.8403113e-38
-123.982 -1368.9399 -73.990601 1.8403113e-38
-184.48801 -1750.36 -64.378899 1.8403113e-38
1966.4 7616.1899 -64.515503 1.8403113e-38
1976.16 7616 -61.0368 1.8403113e-38
-148.98599 -1878.22 -41.368 1.8403113e-38
-46.551498 -1374.1801 -46.097 1.8403113e-38
-140.55299 -1880.02 -38.229401 1.8403113e-38
2055.1001 7633.7598 -34.479801 1.8403113e-38
2064.6101 7631.3999 -30.916401 1.8403113e-38
-65.479446 -1877.3049 -11.820049 1.8403113e-38
2144.3501 7648.6299 -4.0338302 1.8403113e-38
2155.7 7656.9302 -0.68266302 1.8403113e-38
2235.8701 7670.6299 26.639799 1.8403113e-38
308.46301 -868.01898 38.5998 1.8403113e-38
318.70001 -809.51898 37.465099 1.8403113e-38
2245.5801 7668.8799 30.2283 1.8403113e-38
302.83701 -1080.73 53.934399 1.8403113e-38
328.595 -1012.13 57.482601 1.8403113e-38
169.293 -1847.27 69.0149 1.8403113e-38
2090.3401 6512.6899 69.3591 1.8403113e-38
176.39301 -1853.23 72.019096 1.8403113e-38
2096.0901 6502.3599 72.238098 1.8403113e-38
491.20599 -812.47101 98.8993 1.8403113e-38
2093.3501 6178.0098 97.693398 1.8403113e-38
2089.4299 6193.2002 95.0653 1.8403113e-38
496.439 -817.83002 101.192 1.8403113e-38
2090.6599 5927.3101 117.164 1.8403113e-38
