# .PCD v0.7 - Point Cloud Data file format
VERSION 0.7
FIELDS x y z rgb
SIZE 4 4 4 4
TYPE F F F F
COUNT 1 1 1 1
WIDTH 360
HEIGHT 1
VIEWPOINT 0 0 0 1 0 0 0
POINTS 360
DATA ascii
2154.9299 15.7494 -302.05701 1.8403113e-38
2187.8101 15.9217 -301.16699 1.8403113e-38
1967.27 25.6028 -303.207 1.8403113e-38
2063.6101 29.565901 -299.341 1.8403113e-38
2219.6899 21.778799 -298.237 1.8403113e-38
2256.1201 20.7369 -297.69699 1.8403113e-38
2284.78 29.556999 -293.77301 1.8403113e-38
1987.11 36.4202 -298.78 1.8403113e-38
2013.61 38.5186 -297.35001 1.8403113e-38
2092.8301 30.869101 -298.13199 1.8403113e-38
1845.24 49.981998 -297.42999 1.8403113e-38
1875.17 47.595798 -297.54199 1.8403113e-38
1916.1899 41.9394 -298.56201 1.8403113e-38
1745.03 59.900799 -296.353 1.8403113e-38
1778.1899 57.558899 -296.367 1.8403113e-38
1805.46 56.141201 -296.19501 1.8403113e-38
1715.74 63.8815 -295.64499 1.8403113e-38
1550.3 77.154999 -294.99301 1.8403113e-38
1599.6801 75.758698 -294.25601 1.8403113e-38
1622.34 75.359703 -293.82999 1.8403113e-38
1654.75 71.243103 -294.508 1.8403113e-38
1678.4 70.840202 -294.05899 1.8403113e-38
1423.4 89.506699 -293.70499 1.8403113e-38
1496.38 84.4263 -293.711 1.8403113e-38
1513.53 87.448799 -292.18201 1.8403113e-38
1567.62 80.695503 -293.271 1.8403113e-38
1275.49 99.6325 -293.755 1.8403113e-38
1315.12 98.249298 -293.259 1.8403113e-38
1361.23 91.552002 -294.52899 1.8403113e-38
1371.79 99.444 -291.397 1.8403113e-38
1403.0601 90.803001 -293.74701 1.8403113e-38
1442.4399 93.761597 -291.681 1.8403113e-38
1465.0699 90.925598 -292.14001 1.8403113e-38
1210.98 108.155 -292.285 1.8403113e-38
1249.28 105.991 -292.10699 1.8403113e-38
1291.24 101.169 -292.79999 1.8403113e-38
1329.66 101.58 -291.68301 1.8403113e-38
1100.9 116.896 -291.88501 1.8403113e-38
1118.65 117.402 -291.254 1.8403113e-38
1138.61 111.38 -292.93799 1.8403113e-38
1156.55 112.324 -292.14301 1.8403113e-38
1171.84 112.698 -291.62201 1.8403113e-38
1189.89 114.042 -290.67899 1.8403113e-38
1228.5699 110.681 -290.92499 1.8403113e-38
956.14099 125.968 -292.23801 1.8403113e-38
968.97198 126.752 -291.63 1.8403113e-38
987.68103 123.318 -292.405 1.8403113e-38
1018.98 122.14 -292.04501 1.8403113e-38
1033.7 121.15 -292.03299 1.8403113e-38
1050.5601 121.639 -291.431 1.8403113e-38
1065.41 120.967 -291.30099 1.8403113e-38
1082.97 121.058 -290.82501 1.8403113e-38
835.32202 139.886 -290.228 1.8403113e-38
876.53497 137.061 -290.216 1.8403113e-38
894.073 133.28799 -291.14401 1.8403113e-38
908.17999 131.062 -291.59601 1.8403113e-38
935.57703 133.02901 -290.19199 1.8403113e-38
766.36603 143.825 -290.535 1.8403113e-38
781.80499 141.25 -291.08099 1.8403113e-38
820.50403 140.172 -290.49701 1.8403113e-38
534.56 159.23599 -290.77899 1.8403113e-38
580.56598 157.17599 -290.36801 1.8403113e-38
603.93298 156.32201 -290.08899 1.8403113e-38
401.397 169.47301 -290.41699 1.8403113e-38
411.784 165.384 -291.64001 1.8403113e-38
433.06 166.13 -290.83301 1.8403113e-38
466.79999 164.911 -290.42599 1.8403113e-38
489.62601 161.09599 -291.23599 1.8403113e-38
233.996 177.541 -291.70401 1.8403113e-38
295.832 176.59801 -290.48901 1.8403113e-38
326.259 173.439 -290.86899 1.8403113e-38
337.54099 174.556 -290.17999 1.8403113e-38
213.39799 181.979 -290.612 1.8403113e-38
919.81799 137.41299 -288.99701 1.8403113e-38
995.69 131.505 -289.23099 1.8403113e-38
790.88501 146.386 -288.987 1.8403113e-38
806.88599 143.25301 -289.72198 1.8403113e-38
844.84998 144.57201 -288.28699 1.8403113e-38
861.65198 141.24699 -289.07001 1.8403113e-38
567.34003 159.276 -289.939 1.8403113e-38
613.67499 158.40199 -289.08899 1.8403113e-38
627.10303 156.78 -289.33899 1.8403113e-38
636.51001 159.923 -287.961 1.8403113e-38
651.435 155.013 -289.36801 1.8403113e-38
662.302 154.819 -289.16501 1.8403113e-38
674.84302 156.33099 -288.29999 1.8403113e-38
687.27301 152.841 -289.254 1.8403113e-38
700.26599 153.726 -288.60501 1.8403113e-38
712.45099 151.342 -289.164 1.8403113e-38
723.909 155.93201 -287.20801 1.8403113e-38
737.41498 151.187 -288.591 1.8403113e-38
750.96503 151.718 -288.05701 1.8403113e-38
444.40302 168.207 -289.793 1.8403113e-38
476.155 166.86501 -289.48001 1.8403113e-38
498.27399 165.959 -289.25201 1.8403113e-38
510.63 164.979 -289.297 1.8403113e-38
520.76703 164.53101 -289.20401 1.8403113e-38
543.39697 163.502 -289.00699 1.8403113e-38
555.32898 164.767 -288.24701 1.8403113e-38
589.66199 160.869 -288.798 1.8403113e-38
316.25 179.14799 -289.04901 1.8403113e-38
346.953 174.619 -289.92001 1.8403113e-38
358.491 174.05701 -289.83301 1.8403113e-38
368.065 173.34599 -289.85001 1.8403113e-38
379.496 173.908 -289.358 1.8403113e-38
389.26401 172.42799 -289.64899 1.8403113e-38
422.39001 170.96899 -289.34399 1.8403113e-38
453.51999 170.916 -288.57999 1.8403113e-38
152.33299 189.783 -289.31699 1.8403113e-38
222.528 186.755 -288.64801 1.8403113e-38
242.95799 185.287 -288.66599 1.8403113e-38
254.27499 182.836 -289.271 1.8403113e-38
263.55701 182.27699 -289.23999 1.8403113e-38
274.56 185.645 -287.73999 1.8403113e-38
283.83301 185.237 -287.655 1.8403113e-38
304.46799 183.843 -287.64099 1.8403113e-38
112.261 198.82201 -287.04401 1.8403113e-38
121.367 198.149 -287.05899 1.8403113e-38
132.255 194.60899 -288.07001 1.8403113e-38
141.49001 195.961 -287.34698 1.8403113e-38
161.604 192.224 -288.19699 1.8403113e-38
172.759 193.739 -287.366 1.8403113e-38
181.86 190.69501 -288.242 1.8403113e-38
192.989 191.453 -287.686 1.8403113e-38
202.15199 190.438 -287.82401 1.8403113e-38
61.723 209.474 -284.45001 1.8403113e-38
72.021301 202.61099 -286.68201 1.8403113e-38
81.602097 206.311 -285.09698 1.8403113e-38
92.763199 207.09801 -284.53 1.8403113e-38
101.551 203.47301 -285.625 1.8403113e-38
-49.279999 214.517 -285.41501 1.8403113e-38
-39.474098 216.321 -284.513 1.8403113e-38
-27.608101 218.75101 -283.332 1.8403113e-38
-19.0299 215.198 -284.40601 1.8403113e-38
-7.0632901 218.75101 -282.814 1.8403113e-38
1.03775 212.569 -284.85501 1.8403113e-38
12.9254 216.32001 -283.19299 1.8403113e-38
22.504101 218.62199 -282.116 1.8403113e-38
33.078999 215.149 -283.11099 1.8403113e-38
42.190601 214.82001 -283.00101 1.8403113e-38
53.087898 213.382 -283.24799 1.8403113e-38
-194.836 228.897 -283.85999 1.8403113e-38
-185.631 226.836 -284.37701 1.8403113e-38
-174.827 223.349 -285.371 1.8403113e-38
-163.151 228.582 -283.177 1.8403113e-38
-153.256 222.61099 -285.095 1.8403113e-38
-142.015 227.151 -283.164 1.8403113e-38
-131.22 224.05701 -284.01501 1.8403113e-38
-120.399 227.896 -282.349 1.8403113e-38
-110.402 222.28101 -284.13599 1.8403113e-38
-100.451 223.586 -283.41101 1.8403113e-38
-84.916595 220.6915 -284.0705 1.8403113e-38
-67.751701 224.371 -282.302 1.8403113e-38
-58.4006 224.19501 -282.13101 1.8403113e-38
-316.867 239.79601 -282.97699 1.8403113e-38
-306.17801 235.12801 -284.40302 1.8403113e-38
-283.409 233.74699 -284.33099 1.8403113e-38
-257.724 239.728 -281.51199 1.8403113e-38
-237.847 233.13 -283.40701 1.8403113e-38
-225.09399 239.49899 -280.77301 1.8403113e-38
-215.45 233.019 -282.883 1.8403113e-38
-203.217 238.73599 -280.49899 1.8403113e-38
-487.30499 249.61099 -283.707 1.8403113e-38
-447.61801 247.69901 -283.40201 1.8403113e-38
-396.75699 247.453 -282.20999 1.8403113e-38
-372.31201 246.854 -281.81201 1.8403113e-38
-359.95801 249.274 -280.621 1.8403113e-38
-349.802 243.38 -282.50601 1.8403113e-38
-337.112 246.869 -280.91901 1.8403113e-38
-325.64001 243.713 -281.776 1.8403113e-38
-290.88699 245.065 -280.41 1.8403113e-38
-269.91299 240.504 -281.53699 1.8403113e-38
-520.02802 259.44901 -280.95999 1.8403113e-38
-495.46799 255.582 -281.745 1.8403113e-38
-470.99301 252.205 -282.354 1.8403113e-38
-458.185 253.638 -281.51199 1.8403113e-38
-434.39899 250.18401 -282.16599 1.8403113e-38
-420.383 250.174 -281.81699 1.8403113e-38
-407.806 252.114 -280.79599 1.8403113e-38
-383.81601 250.459 -280.79199 1.8403113e-38
-690.03699 268.55801 -281.935 1.8403113e-38
-677.05402 267.03299 -282.16199 1.8403113e-38
-661.02899 265.72601 -282.23199 1.8403113e-38
-645.05902 268.17899 -280.94 1.8403113e-38
-627.35797 269.48199 -280.021 1.8403113e-38
-617.57501 264.82401 -281.465 1.8403113e-38
-601.784 264.233 -281.28201 1.8403113e-38
-587.89697 265.09 -280.621 1.8403113e-38
-574.547 261.79999 -281.479 1.8403113e-38
-559.62903 264.48001 -280.13101 1.8403113e-38
-750.50201 274.05499 -281.46201 1.8403113e-38
-720.49902 270.60901 -281.95801 1.8403113e-38
-704.23798 272.371 -280.90799 1.8403113e-38
-958.94202 287.05301 -281.99399 1.8403113e-38
-1016.75 293.112 -281.25 1.8403113e-38
-245.95799 243.272 -279.92899 1.8403113e-38
-544.099 264.582 -279.702 1.8403113e-38
-530.47699 266.03699 -278.83099 1.8403113e-38
-506.49701 261.164 -279.996 1.8403113e-38
-760.146 283.41101 -278.30801 1.8403113e-38
-1028.13 299.78299 -279.11499 1.8403113e-38
-986.38501 298.89301 -278.38599 1.8403113e-38
-969.12598 297.58701 -278.42599 1.8403113e-38
-935.90002 291.198 -279.90799 1.8403113e-38
-767.896 291.30099 -275.63901 1.8403113e-38
-1106.36 309.45801 -277.573 1.8403113e-38
-1084.9 309.75299 -276.92499 1.8403113e-38
-1067.91 303.53299 -278.755 1.8403113e-38
-1044.3 306.13101 -277.21701 1.8403113e-38
-1146.5699 315.211 -276.49701 1.8403113e-38
-1121.04 317.86499 -274.89001 1.8403113e-38
-1234.01 325.45901 -274.979 1.8403113e-38
-1212.9301 323.59299 -275.125 1.8403113e-38
-1187.77 321.43399 -275.27499 1.8403113e-38
-1165.23 321.246 -274.776 1.8403113e-38
-1323.16 339.78699 -272.022 1.8403113e-38
-1274.79 334.42001 -272.75201 1.8403113e-38
-1251.98 333.108 -272.65399 1.8403113e-38
-1371.77 346.45599 -270.82501 1.8403113e-38
-1353.72 340.88501 -272.39301 1.8403113e-38
-1294.42 341.526 -270.66699 1.8403113e-38
-706.68298 305.14001 -269.07199 1.8403113e-38
-1415.51 357.366 -267.966 1.8403113e-38
-1391.52 354.76501 -268.306 1.8403113e-38
-1546.21 397.46899 -256.69699 1.8403113e-38
-1516.79 395.80399 -256.561 1.8403113e-38
-1384.8199 394.573 -253.683 1.8403113e-38
-1388.04 408.763 -248.612 1.8403113e-38
-1396.46 439.186 -237.77699 1.8403113e-38
-1376.27 434.32901 -239.032 1.8403113e-38
-1483.0601 449.13699 -236.34599 1.8403113e-38
-1460.9301 475.896 -226.07201 1.8403113e-38
-1451.4301 499.37701 -217.30701 1.8403113e-38
-1459.85 510.84799 -213.354 1.8403113e-38
-626.08502 466.40799 -208.485 1.8403113e-38
-613.039 466.431 -208.14799 1.8403113e-38
-628.89801 479.30899 -203.87199 1.8403113e-38
-647.34698 489.80899 -200.524 1.8403113e-38
-634.97601 486.18399 -201.52901 1.8403113e-38
-1459.71 529.53302 -206.56599 1.8403113e-38
-1457.99 545.50702 -200.722 1.8403113e-38
-667.81201 498.71701 -197.80499 1.8403113e-38
-656.164 494.18301 -199.158 1.8403113e-38
-672.98199 506.5 -195.10899 1.8403113e-38
-1457.42 564.03699 -193.98 1.8403113e-38
-1463.51 576.37799 -189.65199 1.8403113e-38
-1462.5699 594.81897 -182.933 1.8403113e-38
-1463.83 609.05298 -177.79601 1.8403113e-38
-1462.49 627.35699 -171.116 1.8403113e-38
-1457.91 643.64899 -165.08501 1.8403113e-38
1582.0699 466.065 -152.981 1.8403113e-38
-1464.49 658.62701 -159.812 1.8403113e-38
-1470.72 670.66998 -155.597 1.8403113e-38
-1466.76 689.41901 -148.689 1.8403113e-38
-1464.33 704.42297 -143.17999 1.8403113e-38
-1461.84 722.30701 -136.62399 1.8403113e-38
-1468.49 734.04401 -132.53 1.8403113e-38
1451.72 558.56097 -122.679 1.8403113e-38
-1462.8199 752.72699 -125.603 1.8403113e-38
-1473.01 763.32098 -122.013 1.8403113e-38
1446.51 574.17499 -117.141 1.8403113e-38
-1464.12 782.71301 -114.748 1.8403113e-38
-1466.48 795.64099 -110.113 1.8403113e-38
1436.3 594.98999 -109.841 1.8403113e-38
1435.01 607.93799 -105.172 1.8403113e-38
1445.22 617.18201 -101.558 1.8403113e-38
-1464.8199 812.57001 -103.925 1.8403113e-38
1444.55 629.62402 -97.057602 1.8403113e-38
1451.05 640.81897 -92.829102 1.8403113e-38
-1470.75 824.414 -99.773201 1.8403113e-38
-1466.84 841.77802 -93.370201 1.8403113e-38
1448.35 654.09399 -88.076698 1.8403113e-38
1547.1 659.966 -83.456802 1.8403113e-38
1460.8199 662.263 -84.796402 1.8403113e-38
1467.6899 670.74298 -81.544098 1.8403113e-38
-1470.61 854.16101 -88.968597 1.8403113e-38
-1475.04 869.22601 -83.610298 1.8403113e-38
1479.15 679.612 -78.0354 1.8403113e-38
1546.04 675.349 -77.898201 1.8403113e-38
1551.92 684.92102 -74.2743 1.8403113e-38
-1476.64 882.13202 -78.964798 1.8403113e-38
-1473.04 899.03198 -72.737503 1.8403113e-38
1555.1 698.26398 -69.349602 1.8403113e-38
1551.64 711.78302 -64.527802 1.8403113e-38
-1476.33 911.45599 -68.309196 1.8403113e-38
-1482.12 926.151 -63.119499 1.8403113e-38
1554.53 725.07898 -59.6273 1.8403113e-38
1555.4 736.60303 -55.421101 1.8403113e-38
1561.71 748.43597 -50.965401 1.8403113e-38
-1481.28 939.43903 -58.273499 1.8403113e-38
1556.78 762.09198 -46.131401 1.8403113e-38
1562.85 773.953 -41.6717 1.8403113e-38
-1396.91 971.78601 -44.402699 1.8403113e-38
1566.05 784.396 -37.799 1.8403113e-38
1566.27 798.35303 -32.725899 1.8403113e-38
-3156.0901 1133.26 -30.090599 1.8403113e-38
1558.91 812.39001 -27.8146 1.8403113e-38
1563.54 824.62 -23.257299 1.8403113e-38
-1484.84 1040.41 -21.7006 1.8403113e-38
-3192.4299 1156.83 -22.447399 1.8403113e-38
1541.6899 843.10602 -17.095501 1.8403113e-38
1539.36 857.29498 -12.0024 1.8403113e-38
1567.55 859.56403 -10.4683 1.8403113e-38
-1152.95 1029.96 -17.1334 1.8403113e-38
-1258.45 1048.54 -13.0449 1.8403113e-38
-1137.9301 1045.3 -11.1872 1.8403113e-38
-1489.9 1052.5 -17.437799 1.8403113e-38
-1320.5699 1050.12 -14.0383 1.8403113e-38
-1483.41 1068.85 -11.3374 1.8403113e-38
-3195.8401 1187.29 -11.473 1.8403113e-38
1814.86 869.43402 -0.65409702 1.8403113e-38
1577.42 870.15698 -6.3733501 1.8403113e-38
1581.71 880.091 -2.65804 1.8403113e-38
-1151.76 1053.21 -8.6626701 1.8403113e-38
-1485.27 1081.34 -6.8513899 1.8403113e-38
-1487.39 1096.5 -1.39742 1.8403113e-38
-2460.8301 1140.4301 -9.9729099 1.8403113e-38
-3215.76 1212.0601 -2.98107 1.8403113e-38
-4678.9399 1305.3199 -5.9790301 1.8403113e-38
1832.4301 880.625 3.8520501 1.8403113e-38
1580.84 893.88202 2.3273201 1.8403113e-38
1661.9301 896.96802 5.4906301 1.8403113e-38
1593.59 901.48798 5.4104199 1.8403113e-38
-1497.96 1108.09 2.5431499 1.8403113e-38
-1498.8101 1123.46 8.1032801 1.8403113e-38
-3220.6101 1242.73 8.0339899 1.8403113e-38
-4707.9302 1341.8199 6.54182 1.8403113e-38
1715.25 921.46301 15.728 1.8403113e-38
-1487.29 1137.1801 13.3741 1.8403113e-38
-3282.05 1267.8 15.5882 1.8403113e-38
-4867.4502 1389.28 19.757601 1.8403113e-38
2627.1001 892.79999 28.292299 1.8403113e-38
1698.3101 939.78601 21.9545 1.8403113e-38
1672.77 957.15698 27.6182 1.8403113e-38
-1452 1155.23 20.8155 1.8403113e-38
-1533.84 1161.79 21.137199 1.8403113e-38
2683.49 902.61902 33.278099 1.8403113e-38
1609.47 984.49402 35.949501 1.8403113e-38
-1408.52 1185.15 32.7757 1.8403113e-38
-4870.75 1426.9399 33.346298 1.8403113e-38
2695.95 923.68799 41.242199 1.8403113e-38
2690.8 943.27802 48.225498 1.8403113e-38
1593.24 998.74597 40.715401 1.8403113e-38
1584.1899 1013.58 45.875198 1.8403113e-38
1594.1801 1022.38 49.3218 1.8403113e-38
2703.8601 964.43402 56.236198 1.8403113e-38
1604.53 1033.54 53.633301 1.8403113e-38
1649.84 1036.59 55.880798 1.8403113e-38
2706.29 983.00201 63.039501 1.8403113e-38
-3533.5 1422.72 65.503998 1.8403113e-38
2716.98 1004.68 71.180603 1.8403113e-38
2718.0701 1023.45 78.023399 1.8403113e-38
2728.3601 1045.37 86.240898 1.8403113e-38
2739.0801 1063.34 93.037697 1.8403113e-38
-1461.62 1357.8 94.1287 1.8403113e-38
2740.99 1086.2 101.386 1.8403113e-38
2745.3899 1104.84 108.264 1.8403113e-38
-1349.09 1366.72 100.2 1.8403113e-38
-1347.45 1378.11 104.379 1.8403113e-38
-1354.52 1392.5601 109.448 1.8403113e-38
