# .PCD v0.7 - Point Cloud Data file format
VERSION 0.7
FIELDS x y z rgb
SIZE 4 4 4 4
TYPE F F F F
COUNT 1 1 1 1
WIDTH 358
HEIGHT 1
VIEWPOINT 0 0 0 1 0 0 0
POINTS 358
DATA ascii
2067.79 121.653 -292.16501 1.8403113e-38
1629.01 33.0373 -281.89099 1.8403113e-38
1658.74 44.649601 -280.616 1.8403113e-38
1674.42 50.2304 -280.13501 1.8403113e-38
1709.97 59.552299 -280.21399 1.8403113e-38
1733.24 61.445702 -281.746 1.8403113e-38
1747.29 68.865196 -280.46301 1.8403113e-38
1772.36 70.404404 -282.289 1.8403113e-38
1788.97 76.884499 -281.57901 1.8403113e-38
1804.7 84.030502 -280.55301 1.8403113e-38
1834.25 84.275398 -283.25601 1.8403113e-38
1849.15 92.375702 -281.81601 1.8403113e-38
1872.74 96.370201 -282.63901 1.8403113e-38
1895.51 101.12 -283.11801 1.8403113e-38
1917.4301 106.605 -283.259 1.8403113e-38
1943.79 110.359 -284.42899 1.8403113e-38
1965.77 116.493 -284.34799 1.8403113e-38
1994.01 120.188 -285.715 1.8403113e-38
2020.53 125.066 -286.504 1.8403113e-38
2080.9199 133.01601 -289.41 1.8403113e-38
2095.78 143.813 -287.017 1.8403113e-38
2118.78 151.61 -286.448 1.8403113e-38
2143.6001 159.03799 -286.17999 1.8403113e-38
2167.51 167.162 -285.582 1.8403113e-38
2208.9199 169.33299 -288.728 1.8403113e-38
2232.8799 178.287 -287.84201 1.8403113e-38
2252.1799 189.164 -285.841 1.8403113e-38
2290.98 193.836 -287.86099 1.8403113e-38
2320.51 202.103 -287.74301 1.8403113e-38
2352.8601 209.92999 -288.04599 1.8403113e-38
2385.22 218.242 -288.17999 1.8403113e-38
2417.6001 227.039 -288.14401 1.8403113e-38
2453.76 235.24699 -288.672 1.8403113e-38
2481.4099 246.353 -287.379 1.8403113e-38
2494.76 261.66199 -283.258 1.8403113e-38
198.78101 -330.58301 -274.69 1.8403113e-38
209.952 -328.21301 -274.91101 1.8403113e-38
222.60001 -316.38 -271.94601 1.8403113e-38
848.13 -144.834 -270.698 1.8403113e-38
888.44299 -137.88499 -272.061 1.8403113e-38
899.94202 -138.63699 -273.41101 1.8403113e-38
905.789 -128.43201 -270.375 1.8403113e-38
926.13397 -124.488 -270.91 1.8403113e-38
935.85602 -121.551 -270.79501 1.8403113e-38
947.448 -121.797 -271.97601 1.8403113e-38
958.61298 -121.109 -272.78799 1.8403113e-38
966.41498 -114.642 -271.25101 1.8403113e-38
977.59497 -113.757 -271.996 1.8403113e-38
988.80701 -112.758 -272.703 1.8403113e-38
999.034 -110.051 -272.71701 1.8403113e-38
1009.26 -107.248 -272.69699 1.8403113e-38
1016.35 -99.621803 -270.686 1.8403113e-38
1026.53 -96.6511 -270.60199 1.8403113e-38
1036.7 -93.583199 -270.48401 1.8403113e-38
1052.33 -98.154404 -273.56601 1.8403113e-38
1062.5699 -94.844299 -273.36899 1.8403113e-38
1073.92 -92.964203 -273.78 1.8403113e-38
1083.02 -87.929604 -272.87 1.8403113e-38
1092.09 -82.816299 -271.92899 1.8403113e-38
1105.1899 -82.869797 -273.18399 1.8403113e-38
1118.35 -82.774597 -274.39301 1.8403113e-38
1128.59 -78.8339 -273.974 1.8403113e-38
1141.83 -78.4645 -275.09399 1.8403113e-38
1163.54 -71.483002 -274.69 1.8403113e-38
1147.8101 -69.197899 -272.40201 1.8403113e-38
1173.15 -66.3909 -273.80701 1.8403113e-38
1185.87 -64.774498 -274.44 1.8403113e-38
1199.9 -64.430298 -275.64301 1.8403113e-38
1208.85 -58.305 -274.33499 1.8403113e-38
1222.9399 -57.673698 -275.44299 1.8403113e-38
1232.5 -52.0396 -274.366 1.8403113e-38
1249.97 -54.5396 -276.89401 1.8403113e-38
1277.17 -50.777401 -278.138 1.8403113e-38
1260.21 -49.339699 -276.03201 1.8403113e-38
1286.73 -44.6511 -276.88699 1.8403113e-38
1300.37 -42.408798 -277.38699 1.8403113e-38
1305.03 -31.4758 -273.98401 1.8403113e-38
1324.96 -34.844299 -277.04999 1.8403113e-38
1333.03 -26.991501 -275.05099 1.8403113e-38
1345.29 -22.9041 -274.772 1.8403113e-38
1362.59 -23.1052 -276.47601 1.8403113e-38
1381.4301 -24.3353 -278.686 1.8403113e-38
1389.41 -16.0187 -276.51599 1.8403113e-38
1415.27 -15.01305 -278.60449 1.8403113e-38
1432.34 -6.3168302 -277.159 1.8403113e-38
1447.7 -3.53088 -277.63 1.8403113e-38
1457.02 4.1512399 -275.80899 1.8403113e-38
1480.0601 1.44946 -278.93301 1.8403113e-38
1491.67 7.6979198 -277.83401 1.8403113e-38
1505.59 12.3672 -277.50601 1.8403113e-38
1519.51 17.202999 -277.121 1.8403113e-38
1533.4399 22.205601 -276.677 1.8403113e-38
1556.0699 21.338699 -279.11801 1.8403113e-38
1570.05 26.749599 -278.53601 1.8403113e-38
1584.02 32.328701 -277.89401 1.8403113e-38
1605.25 33.319599 -279.54999 1.8403113e-38
1635.7 43.8993 -278.70499 1.8403113e-38
1688.4399 56.997002 -279.07999 1.8403113e-38
2500.3701 279.10001 -277.65701 1.8403113e-38
2498.1699 298.47699 -270.638 1.8403113e-38
-174.634 -391.90399 -260.99301 1.8403113e-38
-158.29601 -385.01501 -260.11401 1.8403113e-38
-131.23801 -382.13101 -261.65399 1.8403113e-38
-114.904 -373.88501 -260.298 1.8403113e-38
-87.235901 -367.517 -260.67099 1.8403113e-38
-74.987999 -367.68701 -261.88699 1.8403113e-38
-60.996601 -363.28299 -261.66 1.8403113e-38
-46.077202 -356.05701 -260.52899 1.8403113e-38
-22.000299 -355.54901 -262.62299 1.8403113e-38
3.1985199 -350.98599 -263.39801 1.8403113e-38
-6.1515098 -344.30301 -260.16599 1.8403113e-38
17.5268 -343.08499 -261.97299 1.8403113e-38
27.8277 -346.86301 -264.27399 1.8403113e-38
41.347599 -340.53 -263.32401 1.8403113e-38
53.608398 -337.72101 -263.49399 1.8403113e-38
66.067802 -333.883 -263.32101 1.8403113e-38
77.119003 -334.517 -264.58701 1.8403113e-38
87.651802 -336.89499 -266.418 1.8403113e-38
100.429 -330.89401 -265.51401 1.8403113e-38
112.839 -325.69601 -264.858 1.8403113e-38
134.002 -328.853 -267.966 1.8403113e-38
146.198 -323.33801 -267.17899 1.8403113e-38
126.515 -314.83401 -262.332 1.8403113e-38
159.09599 -313.996 -265.11301 1.8403113e-38
170.633 -310.117 -264.83801 1.8403113e-38
180.02699 -316.39001 -267.92999 1.8403113e-38
190.41701 -317.922 -269.45001 1.8403113e-38
235.166 -303.49399 -268.60199 1.8403113e-38
246.672 -296.12701 -267.099 1.8403113e-38
258.03601 -288.659 -265.547 1.8403113e-38
268.42499 -287.67401 -266.181 1.8403113e-38
278.681 -287.543 -267.103 1.8403113e-38
289.53699 -281.677 -266.06601 1.8403113e-38
300.28101 -275.72 -264.987 1.8403113e-38
310.32501 -276.26999 -266.12799 1.8403113e-38
320.45099 -275.79401 -266.91699 1.8403113e-38
330.49899 -276.177 -268 1.8403113e-38
340.90201 -270.81601 -267.09698 1.8403113e-38
350.811 -272.91901 -268.772 1.8403113e-38
361.20499 -264.55701 -266.814 1.8403113e-38
371.16 -264.60599 -267.771 1.8403113e-38
381.14099 -263.63 -268.37 1.8403113e-38
391.22198 -255.021 -266.29599 1.8403113e-38
401.10199 -253.881 -266.828 1.8403113e-38
420.83301 -253.245 -268.46701 1.8403113e-38
430.71799 -253.74699 -269.577 1.8403113e-38
410.95099 -247.944 -265.67099 1.8403113e-38
440.29999 -243.80299 -266.98599 1.8403113e-38
455.05103 -244.7485 -268.71051 1.8403113e-38
479.151 -237.16701 -268.32101 1.8403113e-38
488.953 -237.187 -269.25299 1.8403113e-38
508.142 -232.299 -269.34601 1.8403113e-38
468.92099 -229.541 -264.67401 1.8403113e-38
498.11801 -229.623 -267.45999 1.8403113e-38
517.34198 -226.463 -268.164 1.8403113e-38
526.448 -220.558 -266.948 1.8403113e-38
536.61401 -223.922 -269.09 1.8403113e-38
544.86902 -212.27699 -265.776 1.8403113e-38
554.51703 -211.754 -266.50299 1.8403113e-38
563.74799 -208.36099 -266.181 1.8403113e-38
591.995 -202.37601 -266.74399 1.8403113e-38
572.03198 -199.327 -263.78799 1.8403113e-38
581.435 -197.65199 -264.08701 1.8403113e-38
600.552 -195.918 -265.28201 1.8403113e-38
614.80054 -193.936 -265.93051 1.8403113e-38
628.237 -188.123 -265.155 1.8403113e-38
637.13 -184.155 -264.60001 1.8403113e-38
647.06403 -184.688 -265.72501 1.8403113e-38
657.25702 -186.045 -267.16501 1.8403113e-38
665.85199 -180.94 -266.18201 1.8403113e-38
675.83899 -181.218 -267.22198 1.8403113e-38
686.35999 -183.216 -268.918 1.8403113e-38
693.03601 -171.57201 -265.45499 1.8403113e-38
703.82501 -174.308 -267.435 1.8403113e-38
722.77899 -170.509 -267.88901 1.8403113e-38
712.19598 -168.85699 -266.30899 1.8403113e-38
731.95203 -167.59599 -267.73099 1.8403113e-38
742.00702 -167.278 -268.569 1.8403113e-38
750.534 -162.433 -267.67001 1.8403113e-38
761.23199 -163.715 -269.13101 1.8403113e-38
769.04303 -156.96001 -267.49399 1.8403113e-38
778.77301 -155.42599 -267.87299 1.8403113e-38
807.98401 -150.30499 -268.83099 1.8403113e-38
786.44598 -148.552 -266.181 1.8403113e-38
796.83801 -148.60899 -267.18201 1.8403113e-38
817.72601 -148.42599 -269.09 1.8403113e-38
825.966 -143.009 -267.96399 1.8403113e-38
836.44397 -142.688 -268.84 1.8403113e-38
856.69598 -140.03999 -269.82101 1.8403113e-38
862.76501 -130.08701 -266.896 1.8403113e-38
872.42902 -127.719 -266.97501 1.8403113e-38
915.06299 -124.848 -269.991 1.8403113e-38
2506.3101 315.246 -265.51199 1.8403113e-38
-354.026 -414.022 -251.832 1.8403113e-38
-340.85001 -416.62601 -253.992 1.8403113e-38
-324.207 -413.27399 -254.384 1.8403113e-38
-294.13699 -411.078 -256.45099 1.8403113e-38
-307.186 -408.90601 -254.45599 1.8403113e-38
-277.785 -407.216 -256.63699 1.8403113e-38
-260.15399 -400.63599 -255.989 1.8403113e-38
-248.634 -404.93201 -258.58701 1.8403113e-38
-228.985 -393.737 -256.50601 1.8403113e-38
-217.09399 -396.91199 -258.745 1.8403113e-38
-203.017 -395.67099 -259.638 1.8403113e-38
-187.724 -391.69501 -259.68399 1.8403113e-38
-143.328 -380.577 -259.96701 1.8403113e-38
-99.510696 -367.23401 -259.41299 1.8403113e-38
-31.6569 -349.57599 -259.612 1.8403113e-38
2511.4199 332.76401 -259.83701 1.8403113e-38
2518.3 349.892 -254.466 1.8403113e-38
-1018.64 -583.79498 -248.76801 1.8403113e-38
-498.45801 -420.293 -240.40199 1.8403113e-38
-468.70901 -424.082 -244.54201 1.8403113e-38
-450.82401 -421.34799 -245.269 1.8403113e-38
-436.32999 -423.23999 -247.30299 1.8403113e-38
-421.319 -424.17899 -249.05 1.8403113e-38
-404.21701 -421.711 -249.797 1.8403113e-38
-480.44199 -417.91199 -241.26601 1.8403113e-38
-385.638 -416.60599 -249.757 1.8403113e-38
-366.68701 -410.47101 -249.38901 1.8403113e-38
2521.1699 367.909 -248.40401 1.8403113e-38
2525.8 385.53299 -242.646 1.8403113e-38
-992.14001 -534.69702 -234.011 1.8403113e-38
-566.677 -421.62 -234.42799 1.8403113e-38
-548.92297 -420.797 -235.815 1.8403113e-38
-533.61102 -422.88599 -237.995 1.8403113e-38
-517.15802 -423.25101 -239.67599 1.8403113e-38
2535.1201 402.246 -237.651 1.8403113e-38
2534.5901 420.879 -231.05 1.8403113e-38
2535.8101 439.117 -224.755 1.8403113e-38
-541.73901 -368.82401 -218.224 1.8403113e-38
2537.8501 457.17001 -218.601 1.8403113e-38
2551.4299 473.33899 -214.2 1.8403113e-38
-806.43201 -416.48199 -209.98801 1.8403113e-38
-809.76398 -399.07599 -203.55499 1.8403113e-38
-544.815 -331.73199 -204.895 1.8403113e-38
-515.91901 -316.509 -202.272 1.8403113e-38
2558.03 490.73599 -208.70799 1.8403113e-38
2558.6001 509.048 -202.325 1.8403113e-38
-864.11401 -390.46701 -195.39799 1.8403113e-38
-543.73999 -310.651 -197.586 1.8403113e-38
2562.9199 526.80603 -196.49001 1.8403113e-38
2565.1201 544.85101 -190.355 1.8403113e-38
-868.35999 -374.17401 -189.27 1.8403113e-38
-866.58899 -352.55899 -181.839 1.8403113e-38
-533.41602 -279.258 -187.526 1.8403113e-38
-553.61298 -264.84799 -180.554 1.8403113e-38
-539.35699 -267.29901 -182.761 1.8403113e-38
2576.99 561.74103 -185.53799 1.8403113e-38
-947.26599 -345.04099 -171.58 1.8403113e-38
-924.22601 -344.85501 -173.69 1.8403113e-38
-890.94501 -335.207 -173.44099 1.8403113e-38
-868.18103 -334.358 -175.291 1.8403113e-38
-640.17999 -265.798 -172.715 1.8403113e-38
-610.80902 -253.489 -171.161 1.8403113e-38
-588.43799 -247.957 -171.32899 1.8403113e-38
-572.88 -249.366 -173.293 1.8403113e-38
-552.758 -245.504 -173.83501 1.8403113e-38
2569.01 580.95203 -178.032 1.8403113e-38
2580.5701 598.01099 -173.127 1.8403113e-38
2583.1001 616.05499 -167.02299 1.8403113e-38
2595.3501 633.284 -162.123 1.8403113e-38
2598.54 651.36499 -156.069 1.8403113e-38
-857.82001 -250.00999 -146.62 1.8403113e-38
2599.5901 669.60901 -149.755 1.8403113e-38
2603.45 687.672 -143.77 1.8403113e-38
-845.94501 -222.12199 -137.938 1.8403113e-38
-855.13098 -211.994 -133.50999 1.8403113e-38
2613.0901 705.47601 -138.422 1.8403113e-38
2614.6399 723.75598 -132.142 1.8403113e-38
-845.68597 -186.94 -125.595 1.8403113e-38
2616.01 742.04401 -125.844 1.8403113e-38
2625.1799 760.13202 -120.35 1.8403113e-38
-842.10303 -167.007 -118.926 1.8403113e-38
-846.867 -153.866 -113.858 1.8403113e-38
2626.22 778.49597 -113.994 1.8403113e-38
-843.59601 -134.718 -107.436 1.8403113e-38
-844.83301 -119.248 -101.881 1.8403113e-38
2639.04 796.75299 -108.786 1.8403113e-38
2624.8101 815.23199 -100.947 1.8403113e-38
-847.47803 -104.995 -96.621201 1.8403113e-38
-845.79102 -71.961197 -85.168503 1.8403113e-38
-834.677 -79.734398 -88.950203 1.8403113e-38
-853.59302 -61.798401 -80.859596 1.8403113e-38
-5282.5801 -1224.03 -71.286003 1.8403113e-38
-4946.2002 -1153.12 -78.115898 1.8403113e-38
-867.26099 -40.1646 -71.964798 1.8403113e-38
-854.745 -47.0825 -75.578003 1.8403113e-38
-871.44702 -27.627001 -67.162399 1.8403113e-38
-5304.3398 -1179.08 -53.430801 1.8403113e-38
-1615.38 -184.06599 -51.922199 1.8403113e-38
-867.67297 4.9538698 -56.066101 1.8403113e-38
-847.98199 2.7645099 -58.694599 1.8403113e-38
-870.54401 17.9513 -51.226299 1.8403113e-38
-1576.4 -144.502 -41.695499 1.8403113e-38
-1063.65 -20.127199 -46.381699 1.8403113e-38
-1076.99 -11.5479 -42.106098 1.8403113e-38
-1010.63 -5.5685201 -46.2687 1.8403113e-38
-949.409 14.8581 -44.868301 1.8403113e-38
-900.57202 29.034401 -44.495602 1.8403113e-38
-880.05298 26.7791 -47.225399 1.8403113e-38
-1563.9 -118.473 -33.725101 1.8403113e-38
-1106.89 -11.8951 -39.405701 1.8403113e-38
-1153.75 -4.32939 -32.322399 1.8403113e-38
-1129.86 -8.0400696 -35.881699 1.8403113e-38
-4946.1802 -1004.76 -25.9664 1.8403113e-38
-1559.24 -96.494003 -26.439501 1.8403113e-38
-1201.62 4.09831 -24.8405 1.8403113e-38
-1173.24 2.0007801 -28.257299 1.8403113e-38
1838.6801 827.71997 -22.3433 1.8403113e-38
1748.28 838.13202 -10.1499 1.8403113e-38
1899.8 852.84601 -19.281401 1.8403113e-38
-1392.5601 -1.13354 -8.6541996 1.8403113e-38
-1407.75 9.9189901 -3.3350101 1.8403113e-38
1787.27 861.54999 -5.5980701 1.8403113e-38
1777.22 872.54602 -0.78432602 1.8403113e-38
-1403.64 29.528 3.1693101 1.8403113e-38
-1397.46 49.799099 9.7120504 1.8403113e-38
1760.1 883.034 4.5183001 1.8403113e-38
1743.88 893.29303 9.6559801 1.8403113e-38
-1408.58 62.638802 15.2753 1.8403113e-38
1734.53 903.73798 14.2102 1.8403113e-38
1725.09 914.03003 18.719101 1.8403113e-38
-5212.6602 -942.35199 21.1278 1.8403113e-38
-1405.71 81.245399 21.544901 1.8403113e-38
-1371.0601 112.27 29.1791 1.8403113e-38
1712.5699 923.92102 23.378 1.8403113e-38
1705.9301 934.14502 27.599199 1.8403113e-38
2856.8701 1222.1801 20.1945 1.8403113e-38
2871.4299 1245.4 26.9811 1.8403113e-38
-5346.71 -932.625 37.2019 1.8403113e-38
-1372.34 128.62399 35.048698 1.8403113e-38
-1397.77 135.78101 39.964802 1.8403113e-38
1693.23 943.67499 32.147598 1.8403113e-38
1688.39 953.84698 36.179798 1.8403113e-38
1704.3 966.34198 39.0704 1.8403113e-38
1713.14 978.24597 42.420502 1.8403113e-38
1702.05 987.69098 46.786598 1.8403113e-38
1690.89 996.95898 51.0984 1.8403113e-38
1710.29 1010.6 54.063202 1.8403113e-38
1712.76 1021.94 57.814899 1.8403113e-38
2182.6699 1140.6899 55.194401 1.8403113e-38
2482.3201 1230.61 58.5159 1.8403113e-38
-1516.08 179.995 66.676201 1.8403113e-38
-4906.75 -704.08801 76.0019 1.8403113e-38
-1512.79 198.521 72.877502 1.8403113e-38
1811.88 1085.01 70.626297 1.8403113e-38
2167.72 1182.9399 71.457802 1.8403113e-38
2466.71 1262.74 71.284401 1.8403113e-38
2865.97 1370.3101 71.404404 1.8403113e-38
-1915.12 131.54201 87.3153 1.8403113e-38
1724.5601 1136.21 96.868401 1.8403113e-38
1900.41 1165.89 90.701302 1.8403113e-38
-4854.7798 -596.26001 108.999 1.8403113e-38
-1691.98 234.658 102.496 1.8403113e-38
1624.9399 1122.66 101.509 1.8403113e-38
1682.42 1148.22 105.069 1.8403113e-38
1691.25 1161.78 109 1.8403113e-38
