# .PCD v0.7 - Point Cloud Data file format
VERSION 0.7
FIELDS x y z rgb
SIZE 4 4 4 4
TYPE F F F F
COUNT 1 1 1 1
WIDTH 353
HEIGHT 1
VIEWPOINT 0 0 0 1 0 0 0
POINTS 353
DATA ascii
1604.9399 -753.80298 -280.53299 1.8403113e-38
1877.46 -685.10699 -280.073 1.8403113e-38
1899.4 -680.453 -280.345 1.8403113e-38
1923.12 -676.35797 -280.97101 1.8403113e-38
1946 -671.505 -281.25601 1.8403113e-38
2039.64 -649.67102 -281.72299 1.8403113e-38
2084.8 -636.013 -280.84299 1.8403113e-38
2107.8401 -628.896 -280.341 1.8403113e-38
2139.05 -624.73798 -281.599 1.8403113e-38
2161.22 -616.54498 -280.642 1.8403113e-38
2192.52 -611.53802 -281.60699 1.8403113e-38
2215.6101 -602.98901 -280.60501 1.8403113e-38
2246.0601 -596.78802 -281.07401 1.8403113e-38
2278.3999 -590.789 -281.78 1.8403113e-38
2316.3401 -586.22198 -283.48199 1.8403113e-38
2339.46 -576.10199 -281.92599 1.8403113e-38
2371.8899 -568.68597 -282.13901 1.8403113e-38
2395.8999 -558.12598 -280.50601 1.8403113e-38
2435.8601 -552.11298 -281.87299 1.8403113e-38
2466.45 -542.69098 -281.216 1.8403113e-38
114.118 -1094.35 -270.59601 1.8403113e-38
150.08 -1084.45 -270.23999 1.8403113e-38
173.015 -1080.09 -270.70401 1.8403113e-38
195.92101 -1074.4 -270.69501 1.8403113e-38
218.56 -1068.3101 -270.51999 1.8403113e-38
240.43401 -1064.63 -271.13 1.8403113e-38
262.41901 -1058.7 -270.95599 1.8403113e-38
294.974 -1048.63 -270.245 1.8403113e-38
347.10699 -1038.83 -271.33801 1.8403113e-38
357.49301 -1035.48 -271.06201 1.8403113e-38
367.39999 -1038.65 -273.04501 1.8403113e-38
377.771 -1034.1801 -272.37399 1.8403113e-38
388.14301 -1027.75 -271.00699 1.8403113e-38
398.263 -1025 -270.92099 1.8403113e-38
408.28601 -1024.0601 -271.46399 1.8403113e-38
428.327 -1016.27 -270.46201 1.8403113e-38
448.18399 -1016.64 -272.328 1.8403113e-38
458.00201 -1010.58 -271.04401 1.8403113e-38
477.827 -1011.4 -273.06799 1.8403113e-38
467.82401 -1008.21 -271.064 1.8403113e-38
487.401 -1004.17 -271.34698 1.8403113e-38
497.065 -1000.62 -270.93701 1.8403113e-38
506.73401 -997.92999 -270.83301 1.8403113e-38
516.64697 -998.91998 -272.04901 1.8403113e-38
526.42999 -997.95001 -272.561 1.8403113e-38
545.48798 -991.091 -271.80301 1.8403113e-38
583.508 -980.203 -271.27802 1.8403113e-38
621.43201 -970.88702 -271.29999 1.8403113e-38
630.28003 -965.36603 -270.12201 1.8403113e-38
650.026 -965.16998 -271.77802 1.8403113e-38
669.84302 -964.63397 -273.32001 1.8403113e-38
687.46899 -954.63202 -271.32599 1.8403113e-38
696.177 -949.53302 -270.28601 1.8403113e-38
705.54303 -947.09497 -270.242 1.8403113e-38
715.38898 -946.39099 -270.854 1.8403113e-38
725.76703 -947.40698 -272.12 1.8403113e-38
736.45801 -949.229 -273.698 1.8403113e-38
745.82898 -946.45801 -273.53699 1.8403113e-38
756.88397 -948.98499 -275.396 1.8403113e-38
765.37903 -943.36499 -274.15302 1.8403113e-38
773.49799 -936.79401 -272.54099 1.8403113e-38
783.69 -936.38397 -273.28601 1.8403113e-38
791.68298 -929.68597 -271.61801 1.8403113e-38
802.18903 -929.992 -272.64401 1.8403113e-38
812.39899 -929.32098 -273.29901 1.8403113e-38
820.57703 -923.29901 -271.88599 1.8403113e-38
832.53003 -926.82501 -274.17599 1.8403113e-38
841.71503 -923.26599 -273.72101 1.8403113e-38
849.40302 -916.16602 -271.884 1.8403113e-38
869.466 -913.00201 -272.51999 1.8403113e-38
890.35498 -911.18103 -273.70099 1.8403113e-38
856.995 -909.01703 -270.022 1.8403113e-38
878.922 -909.99902 -272.285 1.8403113e-38
899.40802 -907.14899 -273.06799 1.8403113e-38
920.78802 -905.604 -274.39001 1.8403113e-38
906.76801 -899.659 -271.064 1.8403113e-38
926.784 -895.45099 -271.327 1.8403113e-38
937.453 -894.46198 -271.909 1.8403113e-38
947.70099 -892.539 -272.125 1.8403113e-38
960.67798 -895.48199 -274.29901 1.8403113e-38
967.29401 -886.758 -271.79501 1.8403113e-38
978.95398 -887.01202 -272.90302 1.8403113e-38
986.84998 -880.625 -271.336 1.8403113e-38
999.51801 -882.28998 -273.03201 1.8403113e-38
1008.82 -878.17102 -272.38901 1.8403113e-38
1018.59 -874.77399 -272.043 1.8403113e-38
1030.38 -874.47998 -272.96899 1.8403113e-38
1064.95 -871.28302 -274.85999 1.8403113e-38
1039.13 -869.302 -271.90302 1.8403113e-38
1051.48 -869.57501 -273.07901 1.8403113e-38
1073.13 -865.03998 -273.36899 1.8403113e-38
1084.52 -863.38702 -273.78 1.8403113e-38
1091.52 -855.45398 -271.58801 1.8403113e-38
1106.8101 -858.96301 -274.164 1.8403113e-38
1113.16 -850.11499 -271.59299 1.8403113e-38
1129.72 -854.841 -274.70999 1.8403113e-38
1137.72 -848.09698 -273.026 1.8403113e-38
1155.2051 -844.92603 -273.43298 1.8403113e-38
1174.55 -843.69702 -274.69 1.8403113e-38
1187.3 -842.45001 -275.36301 1.8403113e-38
1196.4 -836.71002 -274.13 1.8403113e-38
1209.8 -835.93103 -275.026 1.8403113e-38
1222.63 -834.284 -275.564 1.8403113e-38
1231.04 -827.52899 -273.91299 1.8403113e-38
1242.61 -824.22498 -273.75601 1.8403113e-38
1262.61 -829.87701 -277.5 1.8403113e-38
1272.3 -824.17902 -276.33401 1.8403113e-38
1277.99 -814.26801 -273.32901 1.8403113e-38
1295.58 -816.60101 -275.69101 1.8403113e-38
1305.87 -811.276 -274.70801 1.8403113e-38
1318.86 -808.52899 -274.87299 1.8403113e-38
1335.3 -808.95599 -276.45999 1.8403113e-38
1342.8101 -800.62 -274.17099 1.8403113e-38
1356.54 -798.09998 -274.48001 1.8403113e-38
1370.3 -795.41998 -274.73499 1.8403113e-38
1384.79 -793.21899 -275.224 1.8403113e-38
1400.04 -791.479 -275.94199 1.8403113e-38
1414.62 -788.92401 -276.31299 1.8403113e-38
1433.61 -789.92603 -278.32599 1.8403113e-38
1442.39 -782.05701 -276.31299 1.8403113e-38
1456.3101 -778.37701 -276.229 1.8403113e-38
1470.98 -775.13702 -276.366 1.8403113e-38
1481.92 -768.73401 -275.06 1.8403113e-38
1502.6801 -769.89398 -277.284 1.8403113e-38
1515.92 -764.93201 -276.68701 1.8403113e-38
1533 -762.70502 -277.392 1.8403113e-38
1552.45 -761.97198 -278.83301 1.8403113e-38
1567.3 -757.59302 -278.58301 1.8403113e-38
1580.58 -751.91699 -277.73801 1.8403113e-38
1611.9 -743.36798 -277.45401 1.8403113e-38
1633.1899 -742.56403 -279.03101 1.8403113e-38
1648.11 -737.22198 -278.44699 1.8403113e-38
1663.03 -731.69702 -277.798 1.8403113e-38
1677.95 -725.98798 -277.08499 1.8403113e-38
1700.27 -724.68903 -278.57599 1.8403113e-38
1708.6 -714.52301 -275.71201 1.8403113e-38
1732.65 -713.716 -277.52802 1.8403113e-38
1754.29 -711.10199 -278.495 1.8403113e-38
1768.41 -703.849 -277.16699 1.8403113e-38
1791.8199 -701.65198 -278.435 1.8403113e-38
1814.4399 -698.659 -279.35501 1.8403113e-38
1829.4301 -691.203 -278.02899 1.8403113e-38
1850.4 -686.73602 -278.284 1.8403113e-38
1962.76 -663.40997 -279.85999 1.8403113e-38
1985.6801 -657.96698 -279.94 1.8403113e-38
2006.86 -651.39801 -279.46799 1.8403113e-38
2053.7 -639.31897 -279.293 1.8403113e-38
-130.69299 -1138.03 -264.63901 1.8403113e-38
-116.938 -1136.26 -265.215 1.8403113e-38
-103.253 -1134.35 -265.737 1.8403113e-38
-87.309402 -1127.04 -264.54501 1.8403113e-38
-73.814697 -1124.85 -264.95001 1.8403113e-38
-61.881699 -1126.0699 -266.423 1.8403113e-38
-47.7756 -1121.85 -266.16599 1.8403113e-38
-32.355099 -1113.9301 -264.716 1.8403113e-38
-20.934601 -1115.6801 -266.33099 1.8403113e-38
-7.1352401 -1111.05 -265.90302 1.8403113e-38
5.5567598 -1108.99 -266.28201 1.8403113e-38
19.1525 -1104.1 -265.74399 1.8403113e-38
29.7981 -1107.21 -267.77301 1.8403113e-38
46.300201 -1093.03 -264.203 1.8403113e-38
103.832 -1091.02 -268.51999 1.8403113e-38
94.407501 -1084.86 -265.51999 1.8403113e-38
127.424 -1086.5601 -269.00601 1.8403113e-38
138.89 -1085.09 -269.48999 1.8403113e-38
162.8 -1077.23 -268.80099 1.8403113e-38
185.73599 -1071.73 -268.85999 1.8403113e-38
208.218 -1066.75 -269.06601 1.8403113e-38
230.12 -1063.25 -269.742 1.8403113e-38
252.308 -1056.5601 -269.319 1.8403113e-38
273.93399 -1051.37 -269.37399 1.8403113e-38
284.405 -1050.52 -269.987 1.8403113e-38
316.397 -1040.84 -269.362 1.8403113e-38
306.392 -1039.14 -267.888 1.8403113e-38
326.806 -1038.6899 -269.51099 1.8403113e-38
337.08499 -1037.39 -269.952 1.8403113e-38
418.388 -1017.38 -269.98499 1.8403113e-38
438.242 -1010.37 -269.24301 1.8403113e-38
535.32202 -987.53302 -269.65701 1.8403113e-38
554.25403 -981.47302 -269.17001 1.8403113e-38
563.88397 -980.198 -269.561 1.8403113e-38
572.27502 -969.52002 -266.522 1.8403113e-38
591.31 -966.60101 -267.15302 1.8403113e-38
600.81 -965.02399 -267.42599 1.8403113e-38
610.77002 -966.14899 -268.694 1.8403113e-38
638.49597 -957.01398 -267.88901 1.8403113e-38
657.92499 -955.763 -269.14499 1.8403113e-38
676.302 -949.60901 -268.57599 1.8403113e-38
2434.6201 -514.86499 -268.604 1.8403113e-38
-137.377 -1124.9399 -259.42801 1.8403113e-38
93.526604 -1051.27 -253.573 1.8403113e-38
82.2071 -1018.75 -241.097 1.8403113e-38
94.1091 -1015 -240.81 1.8403113e-38
2351.21 -473.36801 -246.65401 1.8403113e-38
2355.5901 -457.13699 -241.30099 1.8403113e-38
-112.205 -1047.9301 -234.418 1.8403113e-38
2359.8101 -440.88199 -235.927 1.8403113e-38
-115.293 -1029.87 -227.76801 1.8403113e-38
2358.1499 -423.16299 -229.522 1.8403113e-38
2372.6001 -409.46799 -225.946 1.8403113e-38
2405.21 -399.83899 -225.39301 1.8403113e-38
2419.5 -385.60199 -221.61099 1.8403113e-38
2567.3999 -362.677 -226.43401 1.8403113e-38
2570.79 -344.763 -220.39999 1.8403113e-38
-129.616 -1010.9 -219.813 1.8403113e-38
-114.984 -1005.84 -219.30499 1.8403113e-38
-146.66 -997.69098 -213.657 1.8403113e-38
-135.655 -999.65399 -215.312 1.8403113e-38
2444.3101 -373.46201 -219.489 1.8403113e-38
2467.1201 -360.55099 -216.92 1.8403113e-38
2582.76 -328.42001 -215.672 1.8403113e-38
-151.976 -985.51801 -208.892 1.8403113e-38
2586.8 -310.573 -209.72 1.8403113e-38
2589.71 -292.539 -203.601 1.8403113e-38
-133.494 -932.24402 -191.68401 1.8403113e-38
2594.3999 -274.797 -197.742 1.8403113e-38
2597.95 -256.87 -191.71899 1.8403113e-38
-130.73 -907.71301 -183.258 1.8403113e-38
2601.3301 -238.91901 -185.672 1.8403113e-38
2612.4199 -221.964 -180.64999 1.8403113e-38
-132.033 -890.77002 -177.158 1.8403113e-38
2616.47 -204.02299 -174.66499 1.8403113e-38
-128.02 -865.60199 -168.616 1.8403113e-38
-128.198 -847.96899 -162.37 1.8403113e-38
2617.3999 -185.71201 -168.276 1.8403113e-38
2621.1201 -167.724 -162.246 1.8403113e-38
-128.61301 -831.21301 -156.41299 1.8403113e-38
-127.709 -812.883 -150.01601 1.8403113e-38
2624.6799 -149.702 -156.189 1.8403113e-38
-129.717 -799.49103 -145.10899 1.8403113e-38
-127.729 -780.48199 -138.56599 1.8403113e-38
-126.533 -763.16699 -132.552 1.8403113e-38
-124.505 -745.13 -126.356 1.8403113e-38
-130.076 -738.28601 -123.452 1.8403113e-38
2414.3601 -112.984 -124.839 1.8403113e-38
-124.722 -716.422 -116.194 1.8403113e-38
-128.252 -707.245 -112.644 1.8403113e-38
2411.4299 -96.200302 -118.653 1.8403113e-38
2409.3301 -79.557297 -112.588 1.8403113e-38
-131.07001 -697.28497 -108.878 1.8403113e-38
-127.238 -678.80798 -102.684 1.8403113e-38
2396.1599 -62.2896 -105.336 1.8403113e-38
2421.53 -47.3484 -102.275 1.8403113e-38
2642.2 -4.3334398 -106.357 1.8403113e-38
2647.25 13.827 -100.382 1.8403113e-38
-129.097 -668.14502 -98.754799 1.8403113e-38
-134.01649 -655.24402 -93.766449 1.8403113e-38
2440.8301 -31.7325 -98.443497 1.8403113e-38
2455.03 -15.628 -93.994202 1.8403113e-38
2653.1299 32.0443 -94.458702 1.8403113e-38
-130.65401 -632.51001 -86.027901 1.8403113e-38
-133.118 -623.46698 -82.6175 1.8403113e-38
2653.8601 50.367001 -88.048698 1.8403113e-38
2666.3799 68.738701 -82.651398 1.8403113e-38
-136.09 -615.17798 -79.428902 1.8403113e-38
-133.19501 -600.22101 -74.397102 1.8403113e-38
-141.701 -598.59698 -73.080002 1.8403113e-38
2672.75 87.233803 -76.673698 1.8403113e-38
2672.98 105.703 -70.167999 1.8403113e-38
-138.467 -583.73401 -68.111298 1.8403113e-38
-143.576 -578.396 -65.778702 1.8403113e-38
-141.96899 -565.82001 -61.4758 1.8403113e-38
2685 124.513 -64.571999 1.8403113e-38
-1834.4399 -962.89203 -53.890598 1.8403113e-38
-144.882 -558.31598 -58.569901 1.8403113e-38
-147.01099 -544.935 -53.656097 1.8403113e-38
2678.8999 142.85001 -57.560398 1.8403113e-38
2695.5601 162.121 -52.2066 1.8403113e-38
-1572.64 -864.98499 -42.172798 1.8403113e-38
-147.517 -530.19702 -48.404499 1.8403113e-38
-153.48599 -526.19 -46.467201 1.8403113e-38
-153.089 -515.94397 -42.881699 1.8403113e-38
2692.1101 180.597 -45.377602 1.8403113e-38
-155.429 -503.7095 -38.354347 1.8403113e-38
-158.261 -492.19 -34.0368 1.8403113e-38
-157.355 -482.08099 -30.5443 1.8403113e-38
2699.45 199.69099 -39.272202 1.8403113e-38
2695.6599 218.138 -32.4231 1.8403113e-38
-156.31 -472.02499 -27.082399 1.8403113e-38
-162.64001 -464.181 -23.75795 1.8403113e-38
2702.6499 237.383 -26.233999 1.8403113e-38
2714.4299 257.17599 -20.269899 1.8403113e-38
-1438.58 -766.13501 -18.9601 1.8403113e-38
-165.11099 -453.069 -19.615601 1.8403113e-38
-193.883 -442.01001 -13.1944 1.8403113e-38
-182.478 -441.47699 -14.0026 1.8403113e-38
-173.06149 -446.702 -16.6714 1.8403113e-38
-200.66499 -438.737 -11.4452 1.8403113e-38
2720.05 276.60001 -13.8984 1.8403113e-38
-1393.6801 -710.651 -3.2785599 1.8403113e-38
-1362.22 -714.89001 -7.5257702 1.8403113e-38
-274.55499 -432.32401 -2.72333 1.8403113e-38
-258.82199 -430.065 -3.2997799 1.8403113e-38
-243.8165 -432.34998 -5.4181948 1.8403113e-38
-224.6725 -435.56049 -8.2252846 1.8403113e-38
-206.647 -434.784 -9.5261097 1.8403113e-38
-283.81 -429.89999 -1.05808 1.8403113e-38
2670.8601 290.48001 -4.6958299 1.8403113e-38
-1386.4 -689.99597 3.3833301 1.8403113e-38
-1389.08 -673.60498 9.40872 1.8403113e-38
-450.89499 -441.254 9.5295801 1.8403113e-38
-430.07901 -439.01199 8.5028896 1.8403113e-38
-403.358 -432.94299 8.3122501 1.8403113e-38
-393.01901 -436.16901 6.2691798 1.8403113e-38
-375.888 -435.12299 5.14187 1.8403113e-38
-358.83099 -433.83301 4.1073899 1.8403113e-38
-348.57101 -436.54599 2.2521999 1.8403113e-38
-327.461 -432.138 1.96524 1.8403113e-38
-313.125 -431.776 0.84039801 1.8403113e-38
-293.89499 -427.91 0.52630103 1.8403113e-38
2628.51 304.33301 3.89885 1.8403113e-38
2640.6101 324.03799 9.8038197 1.8403113e-38
-1391.59 -657.21802 15.4181 1.8403113e-38
-743.13599 -495.043 16.059099 1.8403113e-38
-661.86401 -467.92599 18.5392 1.8403113e-38
-624.11298 -460.60199 17.8286 1.8403113e-38
-594.586 -456.716 16.6215 1.8403113e-38
-573.18402 -456.46701 14.8393 1.8403113e-38
-538.60602 -448.99301 14.4588 1.8403113e-38
-520.05402 -449.41501 12.6887 1.8403113e-38
-492.80899 -444.819 11.9321 1.8403113e-38
-468.32199 -441.26099 11.0497 1.8403113e-38
2644.5901 342.935 16.1327 1.8403113e-38
-1390.21 -639.40997 21.5895 1.8403113e-38
-1381.15 -618.87402 28.053699 1.8403113e-38
2661.27 363.66599 22.000799 1.8403113e-38
2727.1899 391.854 26.200701 1.8403113e-38
-1392.52 -606.05103 33.577499 1.8403113e-38
-1402.83 -592.75098 39.178299 1.8403113e-38
2743.3899 413.56299 32.455601 1.8403113e-38
2748.51 433.798 39.157101 1.8403113e-38
-1386.59 -570.185 45.731998 1.8403113e-38
2755.4099 454.46899 45.8578 1.8403113e-38
-1392.8199 -555.57397 51.438499 1.8403113e-38
-1393.21 -539.03601 57.316299 1.8403113e-38
2761.1299 475.09698 52.646702 1.8403113e-38
2766.6399 495.83801 59.4935 1.8403113e-38
-1390.58 -521.62 63.239799 1.8403113e-38
-1392.54 -505.76099 69.014801 1.8403113e-38
2769.99 516.30798 66.433502 1.8403113e-38
-1394.35 -489.90601 74.775002 1.8403113e-38
2777.0601 537.65601 73.358803 1.8403113e-38
-1389.29 -472.099 80.624298 1.8403113e-38
-1388.85 -455.76801 86.3564 1.8403113e-38
2790.76 560.60101 80.268799 1.8403113e-38
2794.45 581.63599 87.377998 1.8403113e-38
-1395.01 -441.323 91.997803 1.8403113e-38
-1399.09 -426.29599 97.664398 1.8403113e-38
2797.9399 602.75897 94.536499 1.8403113e-38
-1399.17 -410.23999 103.344 1.8403113e-38
-1383.55 -390.371 109 1.8403113e-38
2800.25 623.737 101.747 1.8403113e-38
2806.24 645.74402 109 1.8403113e-38
