# .PCD v0.7 - Point Cloud Data file format
VERSION 0.7
FIELDS x y z rgb
SIZE 4 4 4 4
TYPE F F F F
COUNT 1 1 1 1
WIDTH 356
HEIGHT 1
VIEWPOINT 0 0 0 1 0 0 0
POINTS 356
DATA ascii
1698.16 -837.05402 -290.875 1.8403113e-38
1745.95 -800.94501 -291.353 1.8403113e-38
1912.9399 -664.51501 -290.103 1.8403113e-38
1924.79 -655.58801 -290.228 1.8403113e-38
2081.45 -534.73602 -291.09299 1.8403113e-38
2094.3601 -523.836 -290.896 1.8403113e-38
2105 -513.573 -290.367 1.8403113e-38
2118.72 -502.483 -290.298 1.8403113e-38
2148.51 -481.366 -290.99399 1.8403113e-38
2161.74 -470.866 -290.983 1.8403113e-38
2174.22 -458.78299 -290.35001 1.8403113e-38
2206.3401 -436.30399 -291.18399 1.8403113e-38
2217.3701 -424.755 -290.37601 1.8403113e-38
2248.0801 -400.784 -290.46701 1.8403113e-38
2280.4099 -376.02701 -290.69601 1.8403113e-38
2298.96 -362.78 -291.10101 1.8403113e-38
2310.45 -350.12399 -290.08301 1.8403113e-38
2331.72 -336.508 -290.99701 1.8403113e-38
2363.1299 -309.159 -290.28101 1.8403113e-38
2379.1101 -295.83301 -290.08301 1.8403113e-38
2493.5701 -205.95799 -290.263 1.8403113e-38
596.23199 -1682.91 -283.603 1.8403113e-38
609.85797 -1678.02 -285.28299 1.8403113e-38
622.711 -1660.52 -283.186 1.8403113e-38
635.992 -1657.33 -285.27499 1.8403113e-38
648.18402 -1647.33 -285.17099 1.8403113e-38
661.50098 -1631.41 -283.633 1.8403113e-38
767.19598 -1548.65 -283.866 1.8403113e-38
779.13501 -1543.29 -285.03201 1.8403113e-38
789.40802 -1532.27 -284.20401 1.8403113e-38
940.12799 -1400.65 -280.65399 1.8403113e-38
951.33301 -1403.48 -283.98901 1.8403113e-38
964.29303 -1408.67 -288.39801 1.8403113e-38
970.39502 -1390.08 -284.46899 1.8403113e-38
980.76703 -1384.97 -285.35001 1.8403113e-38
990.82703 -1382.83 -287.01001 1.8403113e-38
1001.62 -1379.37 -288.45901 1.8403113e-38
1009.03 -1367.95 -286.87201 1.8403113e-38
1019.97 -1365.24 -288.56799 1.8403113e-38
1024.33 -1344.6801 -283.68301 1.8403113e-38
1037.66 -1349.96 -288.20001 1.8403113e-38
1043.96 -1336.5699 -285.797 1.8403113e-38
1053.4301 -1329.97 -286.05301 1.8403113e-38
1061.5699 -1322.78 -285.836 1.8403113e-38
1071.2 -1316.9399 -286.34299 1.8403113e-38
1079.17 -1309.63 -286.056 1.8403113e-38
1086.98 -1299.24 -284.85101 1.8403113e-38
1096.8 -1297.11 -286.46301 1.8403113e-38
1105.09 -1288.37 -285.83801 1.8403113e-38
1113.4301 -1282.6 -286.073 1.8403113e-38
1121.51 -1273.75 -285.371 1.8403113e-38
1129.7 -1267.87 -285.54099 1.8403113e-38
1139.88 -1264.08 -286.758 1.8403113e-38
1147.1899 -1256.36 -286.20099 1.8403113e-38
1155.6801 -1249 -286.01901 1.8403113e-38
1163.62 -1242.88 -286.064 1.8403113e-38
1173.61 -1238.79 -287.15201 1.8403113e-38
1179.75 -1229.1801 -285.793 1.8403113e-38
1188.78 -1223.27 -286.14401 1.8403113e-38
1197.76 -1219.4301 -287.07599 1.8403113e-38
1203.14 -1206.73 -284.66299 1.8403113e-38
1212 -1202.77 -285.535 1.8403113e-38
1217.09 -1190.03 -283.047 1.8403113e-38
1229.11 -1191.6801 -286.23001 1.8403113e-38
1237.77 -1185.37 -286.384 1.8403113e-38
1245.54 -1179.5 -286.46301 1.8403113e-38
1253.59 -1172.26 -286.21201 1.8403113e-38
1259.75 -1163.89 -285.21201 1.8403113e-38
1268.64 -1158.13 -285.57599 1.8403113e-38
1275.65 -1151.26 -285.19699 1.8403113e-38
1280.28 -1139.1 -282.76999 1.8403113e-38
1295.645 -1135.38 -285.17801 1.8403113e-38
1305.66 -1123.75 -284.117 1.8403113e-38
1315.3 -1119.13 -284.974 1.8403113e-38
1324.6899 -1115.74 -286.12799 1.8403113e-38
1334.86 -1111.6899 -287.26501 1.8403113e-38
1342.53 -1105.87 -287.33801 1.8403113e-38
1345.74 -1092.72 -284.30801 1.8403113e-38
1357.92 -1092.73 -287.05899 1.8403113e-38
1363.84 -1083.2 -285.67599 1.8403113e-38
1371.29 -1077.16 -285.634 1.8403113e-38
1376.42 -1066.85 -283.84601 1.8403113e-38
1389.22 -1067.15 -286.82401 1.8403113e-38
1394.8199 -1057.45 -285.315 1.8403113e-38
1404.55 -1053.99 -286.52499 1.8403113e-38
1412.5 -1046.99 -286.32001 1.8403113e-38
1423.47 -1044.72 -288.15302 1.8403113e-38
1428.77 -1034.8101 -286.51999 1.8403113e-38
1435.1899 -1027.59 -285.90701 1.8403113e-38
1447.5 -1025.05 -287.95901 1.8403113e-38
1454.49 -1018.36 -287.62799 1.8403113e-38
1460.8 -1009.6 -286.552 1.8403113e-38
1474.41 -1009.38 -289.55899 1.8403113e-38
1482.65 -1002.42 -289.435 1.8403113e-38
1488.1 -994.16602 -288.30899 1.8403113e-38
1497.61 -988.35699 -288.798 1.8403113e-38
1498.04 -975.59399 -285.25 1.8403113e-38
1510.9399 -972.79199 -287.362 1.8403113e-38
1518.9399 -966.84698 -287.47101 1.8403113e-38
1531.15 -963.14697 -289.17099 1.8403113e-38
1534.77 -953.38098 -287.20099 1.8403113e-38
1544.03 -947.06 -287.487 1.8403113e-38
1547.48 -937.25 -285.465 1.8403113e-38
1564.02 -936.638 -289.02399 1.8403113e-38
1570.33 -929.039 -288.27701 1.8403113e-38
1580.95 -923.47498 -289.086 1.8403113e-38
1584.12 -913.48297 -286.95099 1.8403113e-38
1591.62 -905.50098 -286.36401 1.8403113e-38
1604.5601 -902.659 -288.47501 1.8403113e-38
1608.89 -892.30798 -286.49701 1.8403113e-38
1621.05 -888.66901 -288.203 1.8403113e-38
1627.5699 -879.81 -287.146 1.8403113e-38
1639.72 -875.91199 -288.77499 1.8403113e-38
1654.97 -866.61548 -289.56299 1.8403113e-38
1662.15 -852.05103 -287.026 1.8403113e-38
1674.23 -847.65601 -288.49899 1.8403113e-38
1684.45 -840.78003 -288.84399 1.8403113e-38
1699.3199 -824.69098 -287.60699 1.8403113e-38
1712.16 -820.23901 -289.23499 1.8403113e-38
1718.1 -810.59802 -287.82199 1.8403113e-38
1731.75 -806.31799 -289.68201 1.8403113e-38
1744.45 -788.435 -287.44299 1.8403113e-38
1756.88 -781.95099 -288.39801 1.8403113e-38
1767.92 -775.80402 -289.13699 1.8403113e-38
1777.75 -767.75403 -289.05701 1.8403113e-38
1787.88 -760.93103 -289.397 1.8403113e-38
1797.62 -752.633 -289.22601 1.8403113e-38
1804.21 -743.99902 -288.25 1.8403113e-38
1815.59 -736.25201 -288.60501 1.8403113e-38
1821.1899 -727.07397 -287.25 1.8403113e-38
1831.59 -718.70801 -287.20801 1.8403113e-38
1843.24 -711.91199 -287.89801 1.8403113e-38
1851.77 -702.55902 -287.155 1.8403113e-38
1864.24 -695.82599 -288.048 1.8403113e-38
1878.03 -688.24597 -288.99701 1.8403113e-38
1889.5601 -680.83502 -289.483 1.8403113e-38
1901.49 -672.237 -289.72198 1.8403113e-38
1932.52 -646.36902 -289.34299 1.8403113e-38
1943.34 -636.85999 -289.07001 1.8403113e-38
1953.7 -628.276 -288.95901 1.8403113e-38
1961.65 -617.65698 -287.72101 1.8403113e-38
1979.27 -610.93799 -289.78101 1.8403113e-38
1988.02 -600.28998 -288.715 1.8403113e-38
2000.95 -591.87903 -289.23401 1.8403113e-38
2013.28 -581.92499 -289.17499 1.8403113e-38
2024.26 -572.68903 -289.01599 1.8403113e-38
2036.46 -562.38898 -288.83099 1.8403113e-38
2050.1399 -553.48999 -289.37799 1.8403113e-38
2062.22 -542.82001 -289.06 1.8403113e-38
2130.1699 -492.065 -289.909 1.8403113e-38
2183.48 -447.36801 -289.18201 1.8403113e-38
2228.55 -411.755 -289.189 1.8403113e-38
2260.05 -387.46201 -289.36401 1.8403113e-38
2342.0601 -323.38 -289.58301 1.8403113e-38
2390.24 -280.71899 -288.28101 1.8403113e-38
2410.8799 -267.01401 -289.02802 1.8403113e-38
2426.6499 -251.496 -288.15799 1.8403113e-38
2447.0901 -237.172 -288.68201 1.8403113e-38
2466.52 -221.054 -288.46701 1.8403113e-38
2511.77 -189.146 -289.57199 1.8403113e-38
673.46198 -1601.02 -277.65701 1.8403113e-38
754.82098 -1526.98 -274.88699 1.8403113e-38
797.479 -1486.72 -273.022 1.8403113e-38
2617.4299 -4.2142301 -260.62799 1.8403113e-38
2370.55 -179.187 -254.84801 1.8403113e-38
2554.9399 -27.143299 -253.06799 1.8403113e-38
2625.01 14.262 -257.065 1.8403113e-38
2620.8601 29.6469 -251.735 1.8403113e-38
799.784 -1402.35 -249.45399 1.8403113e-38
2358.1599 -164.54401 -247.87 1.8403113e-38
2359.29 -150.795 -244.201 1.8403113e-38
2379.76 -120.585 -240.198 1.8403113e-38
2625.2 47.852699 -247.517 1.8403113e-38
2632.4399 64.9907 -244.259 1.8403113e-38
2359.3301 -135.70799 -239.90199 1.8403113e-38
2389.3 -104.561 -237.77699 1.8403113e-38
2408.51 -88.943001 -237.653 1.8403113e-38
2415.8101 -72.697998 -234.66299 1.8403113e-38
2459.1499 -54.004002 -239.11 1.8403113e-38
2633.53 82.898598 -239.392 1.8403113e-38
2628.8201 98.217003 -233.95399 1.8403113e-38
2632.5 116.653 -229.522 1.8403113e-38
2643.97 135.035 -226.864 1.8403113e-38
2643.4299 152.911 -221.63901 1.8403113e-38
799.10699 -1295.16 -218.7 1.8403113e-38
2642.98 169.17999 -216.89101 1.8403113e-38
2645.98 187.899 -212.224 1.8403113e-38
879.69897 -1169.14 -200.91499 1.8403113e-38
2651.97 205.726 -208.487 1.8403113e-38
2658.46 225.508 -204.306 1.8403113e-38
799.55402 -1221.5601 -197.787 1.8403113e-38
853.26099 -1165.91 -194.02499 1.8403113e-38
2655.47 241.459 -199.076 1.8403113e-38
2660.6399 261.17099 -194.616 1.8403113e-38
2663.0901 278.62201 -190.187 1.8403113e-38
531.49402 -1396.9399 -187.34399 1.8403113e-38
805.73401 -1164.7351 -182.959 1.8403113e-38
824.65698 -1150.8101 -183.257 1.8403113e-38
841.93701 -1152.91 -187.755 1.8403113e-38
857.75299 -1146.26 -189.429 1.8403113e-38
865.71301 -1141.35 -189.82401 1.8403113e-38
831.34998 -1137.71 -181.02699 1.8403113e-38
2666.9399 298.26801 -185.446 1.8403113e-38
2670.97 316.38101 -181.18401 1.8403113e-38
-46.264301 -1793.63 -170.168 1.8403113e-38
-32.183899 -1799.3 -174.964 1.8403113e-38
-7.6360798 -1778.24 -174.493 1.8403113e-38
610.979 -1291.77 -175.261 1.8403113e-38
814.953 -1139.1899 -177.74699 1.8403113e-38
2672.53 335.655 -176.035 1.8403113e-38
2678.1101 354.48801 -171.918 1.8403113e-38
-58.995399 -1788.38 -165.79401 1.8403113e-38
534.94098 -1302.11 -161.048 1.8403113e-38
2681.2 374.483 -166.907 1.8403113e-38
2684.53 392.92801 -162.39101 1.8403113e-38
-99.421898 -1770.83 -151.65601 1.8403113e-38
54.5965 -1673.42 -158.618 1.8403113e-38
153.709 -1567.8 -150.83701 1.8403113e-38
2688.1699 413.39301 -157.371 1.8403113e-38
2692.0701 432.31699 -152.849 1.8403113e-38
-112.846 -1766.88 -147.498 1.8403113e-38
-125.647 -1758.72 -142.27901 1.8403113e-38
106.79 -1583.63 -144.765 1.8403113e-38
119.377 -1587.13 -148.605 1.8403113e-38
135.336 -1579.1899 -149.94 1.8403113e-38
178.94701 -1534.77 -147.105 1.8403113e-38
195.614 -1525.6899 -148.274 1.8403113e-38
214.42599 -1506.88 -147.15199 1.8403113e-38
231.957 -1493.73 -147.355 1.8403113e-38
521.24298 -1268.87 -148.465 1.8403113e-38
513.68201 -1256.4301 -143.207 1.8403113e-38
532.57703 -1251.41 -146.039 1.8403113e-38
716.02698 -1107.52 -146.37199 1.8403113e-38
723.37402 -1106.78 -147.821 1.8403113e-38
703.96149 -1096.5601 -140.521 1.8403113e-38
2701.8799 455.229 -148.52299 1.8403113e-38
2706.3401 474.716 -143.965 1.8403113e-38
-138.985 -1754.54 -138.07401 1.8403113e-38
-152.586 -1747.88 -133.104 1.8403113e-38
280.06 -1422.91 -137.996 1.8403113e-38
274.48901 -1405.05 -131.64 1.8403113e-38
295.112 -1409.76 -137.63901 1.8403113e-38
685.12701 -1108.99 -139.81599 1.8403113e-38
692.33099 -1095.05 -137.464 1.8403113e-38
2711.01 496.29199 -138.86 1.8403113e-38
2713.21 515.297 -133.92999 1.8403113e-38
-163.89999 -1740.01 -128.302 1.8403113e-38
-177.35001 -1733.12 -123.299 1.8403113e-38
334.91199 -1322.0699 -121.589 1.8403113e-38
345.061 -1320.61 -123.462 1.8403113e-38
360.905 -1303.34 -122.109 1.8403113e-38
374.70901 -1288.51 -120.993 1.8403113e-38
616.112 -1100.9399 -121.938 1.8403113e-38
608.95502 -1099.83 -120.005 1.8403113e-38
2714.6699 536.02002 -128.343 1.8403113e-38
2719.27 556.24402 -123.608 1.8403113e-38
-194.015 -1734.46 -119.919 1.8403113e-38
-207.396 -1727.3 -114.854 1.8403113e-38
28.435499 -1548.92 -117.166 1.8403113e-38
424.03299 -1214.3 -110.939 1.8403113e-38
578.85498 -1096.64 -112.299 1.8403113e-38
593.97498 -1097.4 -115.93 1.8403113e-38
601.17999 -1097.67 -117.634 1.8403113e-38
586.91901 -1089.34 -112.035 1.8403113e-38
2721.23 577.49103 -117.985 1.8403113e-38
2732.79 600.93597 -113.9 1.8403113e-38
-234.814 -1716.67 -105.628 1.8403113e-38
-218.448 -1719 -109.988 1.8403113e-38
-246.79401 -1709.83 -100.971 1.8403113e-38
71.786697 -1487.05 -109.29 1.8403113e-38
2732.45 621.64697 -107.912 1.8403113e-38
2739.8701 643.88202 -103.238 1.8403113e-38
-297.91199 -1735 -96.617996 1.8403113e-38
-311.23599 -1726.9 -91.297798 1.8403113e-38
-271.75299 -1720.54 -98.3955 1.8403113e-38
535.04901 -1085.12 -99.121101 1.8403113e-38
2743.6599 666.74402 -97.566299 1.8403113e-38
2754.24 690.90698 -93.057404 1.8403113e-38
-550.91199 -1900.34 -86.7071 1.8403113e-38
435.66699 -1110.04 -83.801201 1.8403113e-38
443.164 -1110.66 -85.670998 1.8403113e-38
466.435 -1082.54 -82.894501 1.8403113e-38
517.29797 -1058.4301 -87.495499 1.8403113e-38
525.01703 -1058.49 -89.254204 1.8403113e-38
514.495 -1038.4 -81.142097 1.8403113e-38
536.62903 -1033.53 -84.749199 1.8403113e-38
2754.8101 712.80499 -86.933197 1.8403113e-38
2757.6699 733.93903 -81.545799 1.8403113e-38
-571.60303 -1871.09 -73.686302 1.8403113e-38
-541.46802 -1860.8 -77.5495 1.8403113e-38
482.37601 -1050.83 -77.441704 1.8403113e-38
494.97498 -1043.66 -78.237701 1.8403113e-38
506.53299 -1040.14 -79.841003 1.8403113e-38
2759.5801 756.84003 -75.437698 1.8403113e-38
2772.74 783.41302 -70.823601 1.8403113e-38
-569.36798 -1841.9399 -65.866898 1.8403113e-38
2771.45 805.24701 -64.296799 1.8403113e-38
2784.9399 832.68701 -59.508598 1.8403113e-38
2776.9399 851.495 -52.332802 1.8403113e-38
2764.3101 865.742 -45.4142 1.8403113e-38
-365.758 -1557.6899 -30.680901 1.8403113e-38
2749.8401 881.03003 -37.783298 1.8403113e-38
2736.1101 894.48297 -30.843399 1.8403113e-38
-358.15302 -1527.23 -23.699301 1.8403113e-38
-13.6158 -1264.01 -26.330299 1.8403113e-38
2733.5901 916.27301 -24.052099 1.8403113e-38
-326.43201 -1466.12 -13.4153 1.8403113e-38
2714.3999 926.505 -16.8002 1.8403113e-38
2720.1201 953.23999 -10.459 1.8403113e-38
-306.82401 -1423.22 -5.5935502 1.8403113e-38
-11.7106 -1191.67 -6.1098099 1.8403113e-38
2711.8701 969.81702 -3.86392 1.8403113e-38
-380.392 -1448.15 3.89749 1.8403113e-38
-328.59 -1409.49 3.2404301 1.8403113e-38
-293.328 -1386.77 1.76548 1.8403113e-38
104.806 -1060.1899 5.12397 1.8403113e-38
112.034 -1063.6801 2.49686 1.8403113e-38
106.796 -1042.45 9.7397699 1.8403113e-38
2752.05 1018.03 0.83063197 1.8403113e-38
2819.74 1082.14 3.8522601 1.8403113e-38
2915.9099 1168.3199 6.7459202 1.8403113e-38
-382.422 -1410.97 14.9711 1.8403113e-38
-350.12399 -1395.34 12.1417 1.8403113e-38
2987.52 1238.74 10.6857 1.8403113e-38
2982.49 1263.6 18.916901 1.8403113e-38
-361.57401 -1350.73 27.4634 1.8403113e-38
-344.99799 -1352.17 23.309299 1.8403113e-38
2985.8701 1291.61 26.1509 1.8403113e-38
-380.052 -1352.79 31.045799 1.8403113e-38
-367.504 -1320.83 37.3391 1.8403113e-38
2980.27 1316.54 34.533501 1.8403113e-38
-362.741 -1299.2 42.437698 1.8403113e-38
2983.04 1344.75 41.962502 1.8403113e-38
2984.23 1374.92 50.306301 1.8403113e-38
-53.461601 -972.961 65.757896 1.8403113e-38
-42.854099 -951.16803 69.585098 1.8403113e-38
2838.1799 1297.72 61.237701 1.8403113e-38
-47.604401 -943.58502 72.822502 1.8403113e-38
-50.260201 -935.16803 75.825302 1.8403113e-38
-49.718201 -922.76001 79.2453 1.8403113e-38
2655.2 1216.61 79.3908 1.8403113e-38
2705.26 1229.3199 71.717697 1.8403113e-38
-49.206699 -911.65802 82.2994 1.8403113e-38
-48.345901 -899.35602 85.617401 1.8403113e-38
-46.801399 -887.68701 88.600197 1.8403113e-38
2636.28 1228.75 87.127296 1.8403113e-38
-47.126499 -876.81897 91.776398 1.8403113e-38
-48.327499 -867.867 94.603302 1.8403113e-38
-50.683701 -858.99799 97.667297 1.8403113e-38
2595.3999 1221.52 94.291496 1.8403113e-38
-47.834702 -846.87402 100.485 1.8403113e-38
-46.856499 -835.51801 103.507 1.8403113e-38
-46.824501 -826.04797 106.203 1.8403113e-38
-45.570999 -814.79303 109.134 1.8403113e-38
2589.1201 1242.84 101.795 1.8403113e-38
2575.9399 1256.4301 108.652 1.8403113e-38
