# .PCD v0.7 - Point Cloud Data file format
VERSION 0.7
FIELDS x y z rgb
SIZE 4 4 4 4
TYPE F F F F
COUNT 1 1 1 1
WIDTH 357
HEIGHT 1
VIEWPOINT 0 0 0 1 0 0 0
POINTS 357
DATA ascii
1541.97 -1159.36 -290.082 1.8403113e-38
1553.51 -1156.88 -292.987 1.8403113e-38
1556.61 -1144.12 -291.224 1.8403113e-38
1562.61 -1134.99 -291.082 1.8403113e-38
1569.13 -1126.53 -291.23801 1.8403113e-38
1579.4 -1106.6899 -290.11301 1.8403113e-38
1610.47 -1064.21 -290.39801 1.8403113e-38
1617.64 -1056.79 -290.966 1.8403113e-38
1624.08 -1048.66 -291.16501 1.8403113e-38
1630.4399 -1040.48 -291.33301 1.8403113e-38
1634 -1029.67 -290.11401 1.8403113e-38
1652.36 -1004.79 -290.332 1.8403113e-38
1699.54 -937.77802 -290.23599 1.8403113e-38
1704.91 -929.07098 -290.00101 1.8403113e-38
1731.0601 -897.64099 -291.14801 1.8403113e-38
1734.53 -887.65198 -290.077 1.8403113e-38
1747.47 -871.78003 -290.578 1.8403113e-38
1753.84 -863.75299 -290.78299 1.8403113e-38
1832.7 -754.97998 -291.30399 1.8403113e-38
1845.84 -749.76202 -294.10901 1.8403113e-38
1850.4301 -740.41699 -293.505 1.8403113e-38
1854.08 -730.651 -292.534 1.8403113e-38
1855.92 -720.10999 -290.862 1.8403113e-38
1868.9301 -714.39001 -293.51999 1.8403113e-38
1873.22 -704.85901 -292.79001 1.8403113e-38
1878.3101 -695.64801 -292.36301 1.8403113e-38
1890.35 -689.15698 -294.57101 1.8403113e-38
1896.4451 -674.57446 -293.3125 1.8403113e-38
1897.0601 -658.008 -290.00699 1.8403113e-38
1915.13 -653.276 -294.37701 1.8403113e-38
1918.92 -643.36603 -293.418 1.8403113e-38
1921.74 -633.13 -292.10001 1.8403113e-38
1924.47 -622.883 -290.75299 1.8403113e-38
1930.71 -613.75 -290.686 1.8403113e-38
1940.51 -605.633 -291.888 1.8403113e-38
1951.1801 -597.64001 -293.37201 1.8403113e-38
1960.89 -589.23401 -294.48599 1.8403113e-38
1965.98 -579.448 -293.939 1.8403113e-38
1970.09 -569.36401 -293.03601 1.8403113e-38
1975.03 -559.47302 -292.42099 1.8403113e-38
1982.65 -550.19702 -292.73199 1.8403113e-38
1986.52 -539.95599 -291.72601 1.8403113e-38
1999.55 -531.74402 -293.86801 1.8403113e-38
2009.77 -522.73297 -295.005 1.8403113e-38
2014.35 -512.42999 -294.19699 1.8403113e-38
2016.0601 -501.53101 -292.41 1.8403113e-38
2027.9399 -492.534 -294.04401 1.8403113e-38
2036.02 -482.69299 -294.37399 1.8403113e-38
2040.29 -472.11099 -293.414 1.8403113e-38
2051.99 -462.66 -294.89801 1.8403113e-38
2057.98 -452.19101 -294.474 1.8403113e-38
2061.0601 -441.24799 -293.08701 1.8403113e-38
2072.55 -431.375 -294.42099 1.8403113e-38
2072.6299 -419.95499 -292.04099 1.8403113e-38
2077.3501 -409.08401 -291.15201 1.8403113e-38
2088.6101 -398.82901 -292.33899 1.8403113e-38
2096.01 -388.04001 -292.26501 1.8403113e-38
2112.8301 -377.93799 -295.13501 1.8403113e-38
2116.27 -366.55801 -293.76001 1.8403113e-38
2125.3301 -355.51199 -294.12601 1.8403113e-38
2134.3101 -344.323 -294.43701 1.8403113e-38
2143.2 -332.992 -294.69299 1.8403113e-38
2149.1399 -321.409 -294.01901 1.8403113e-38
2155.95 -309.76401 -293.58899 1.8403113e-38
2167.4399 -298.11401 -294.55099 1.8403113e-38
2175.98 -286.23901 -294.58701 1.8403113e-38
2178.6699 -274.20901 -292.85501 1.8403113e-38
2184.1399 -262.12701 -291.936 1.8403113e-38
2201.03 -249.789 -294.353 1.8403113e-38
2201.5 -237.55 -291.918 1.8403113e-38
2217.23 -224.812 -293.90799 1.8403113e-38
2229.03 -211.963 -294.70499 1.8403113e-38
2228.23 -199.543 -291.85599 1.8403113e-38
2239.8101 -186.405 -292.53 1.8403113e-38
2246.49 -173.396 -291.77301 1.8403113e-38
2261.6899 -159.608 -293.38699 1.8403113e-38
2271.02 -146.05099 -293.30499 1.8403113e-38
2285.04 -131.877 -294.48401 1.8403113e-38
2299.8999 -117.359 -295.84 1.8403113e-38
2308.8799 -103.229 -295.53201 1.8403113e-38
2315.8201 -89.175003 -294.63501 1.8403113e-38
2336.05 -73.246803 -297.29001 1.8403113e-38
2337.95 -59.499401 -294.961 1.8403113e-38
2346.4299 -44.722401 -294.36899 1.8403113e-38
2354.77 -29.793301 -293.70499 1.8403113e-38
2363.95 -14.5545 -293.22101 1.8403113e-38
2376.8 1.52029 -293.65399 1.8403113e-38
2385.6899 17.1238 -293.01099 1.8403113e-38
2400.1499 33.996201 -293.755 1.8403113e-38
2409.71 50.167801 -293.18799 1.8403113e-38
2425.76 67.9235 -294.21799 1.8403113e-38
2438.8 85.343498 -294.423 1.8403113e-38
2445.99 101.697 -293.116 1.8403113e-38
2464.3799 120.903 -294.535 1.8403113e-38
2475.02 138.569 -293.978 1.8403113e-38
2489.27 157.408 -294.245 1.8403113e-38
2494.8701 174.25301 -292.36099 1.8403113e-38
2517.22 195.88 -294.44501 1.8403113e-38
2530.8999 215.50999 -294.37799 1.8403113e-38
2545.3301 235.675 -294.418 1.8403113e-38
2557.6899 255.545 -293.90601 1.8403113e-38
2570.78 275.94601 -293.49899 1.8403113e-38
2590.1699 298.70099 -294.46899 1.8403113e-38
2598.2 318.11899 -292.76501 1.8403113e-38
2603.25 336.754 -290.34399 1.8403113e-38
1512.08 -1172 -283.867 1.8403113e-38
1518.39 -1163.16 -283.88101 1.8403113e-38
1533.96 -1166.15 -289.134 1.8403113e-38
1572.45 -1114.5 -289.69199 1.8403113e-38
1581.83 -1093.97 -288.15701 1.8403113e-38
1589.89 -1087.48 -289.18301 1.8403113e-38
1592.71 -1075.45 -287.48901 1.8403113e-38
1599.3101 -1067.51 -287.77899 1.8403113e-38
1639.5 -1020.78 -289.87799 1.8403113e-38
1644.92 -1011.86 -289.61099 1.8403113e-38
1651.97 -990.84399 -287.27802 1.8403113e-38
1662.8101 -986.771 -289.64099 1.8403113e-38
1667.9 -977.71698 -289.24799 1.8403113e-38
1672.91 -968.63702 -288.82401 1.8403113e-38
1674.91 -957.16199 -287.00299 1.8403113e-38
1686.34 -953.32599 -289.59 1.8403113e-38
1692.6 -945.29199 -289.75699 1.8403113e-38
1707.95 -918.65503 -288.70901 1.8403113e-38
1715.4399 -911.54901 -289.43799 1.8403113e-38
1722.12 -903.82202 -289.79501 1.8403113e-38
1739.46 -878.703 -289.659 1.8403113e-38
1756.98 -853.66699 -289.59 1.8403113e-38
1756.8101 -841.60999 -287.00299 1.8403113e-38
1754.09 -828.15802 -283.36499 1.8403113e-38
1752.83 -815.76703 -280.383 1.8403113e-38
1787.65 -777.888 -282.74899 1.8403113e-38
1797.47 -771.64001 -284.349 1.8403113e-38
1806.42 -764.83801 -285.57599 1.8403113e-38
1820.4 -760.422 -288.798 1.8403113e-38
2613.6699 357.452 -289.08099 1.8403113e-38
2616.51 375.69901 -286.08301 1.8403113e-38
2615.5 392.664 -282.21301 1.8403113e-38
1496.08 -1167.91 -278.25699 1.8403113e-38
1475.77 -1157.5 -270.03299 1.8403113e-38
1748.99 -802.04401 -276.353 1.8403113e-38
1753.16 -793.07202 -275.703 1.8403113e-38
1761.37 -786.34998 -276.72601 1.8403113e-38
1774.5 -782.21503 -279.75601 1.8403113e-38
2616.1699 410.34 -278.69101 1.8403113e-38
2622.1499 430.19901 -276.28699 1.8403113e-38
2622.46 448.009 -272.633 1.8403113e-38
2628.0601 468.095 -270.06799 1.8403113e-38
780.43903 -2100.3999 -262.00699 1.8403113e-38
1441.03 -1160.3101 -260.30701 1.8403113e-38
1456.55 -1165.1899 -265.944 1.8403113e-38
1467.26 -1162.9301 -268.651 1.8403113e-38
2630.74 487.173 -266.84799 1.8403113e-38
2632.3301 505.94699 -263.36899 1.8403113e-38
765.87903 -2069.48 -251.177 1.8403113e-38
1416.1801 -1158.6 -252.56799 1.8403113e-38
1425.12 -1154.4301 -254.347 1.8403113e-38
2631.9399 523.995 -259.453 1.8403113e-38
2641.23 546.52002 -257.474 1.8403113e-38
2643.1399 565.95398 -253.95 1.8403113e-38
2643.97 585.04498 -250.177 1.8403113e-38
734.58099 -2080.72 -244.248 1.8403113e-38
750.84399 -2061.9399 -245.12399 1.8403113e-38
1394.6801 -1161.0699 -246.70399 1.8403113e-38
1379.72 -1155.28 -241.04401 1.8403113e-38
1400.51 -1152.34 -246.60001 1.8403113e-38
2651.7 607.61102 -247.724 1.8403113e-38
2653.8899 627.74799 -244.136 1.8403113e-38
668.45099 -2130.9399 -235.181 1.8403113e-38
721.66699 -2038.6 -231.548 1.8403113e-38
1335.24 -1173.02 -231.571 1.8403113e-38
1340.38 -1163.0601 -231 1.8403113e-38
1360.5 -1160.2 -236.37199 1.8403113e-38
1370.35 -1158.1899 -238.87601 1.8403113e-38
2653.23 646.64301 -239.964 1.8403113e-38
2651.51 665.12402 -235.563 1.8403113e-38
2660.1001 689.11798 -233.063 1.8403113e-38
690.82501 -2047.0601 -224.17 1.8403113e-38
706.24597 -2043.39 -227.976 1.8403113e-38
1343.47 -1149.8101 -229.129 1.8403113e-38
2659.72 708.65802 -228.83701 1.8403113e-38
2665.21 731.55402 -225.64799 1.8403113e-38
2671.3101 755.078 -222.50999 1.8403113e-38
1234.2 -1246.03 -216.93201 1.8403113e-38
1243.12 -1242.75 -218.89101 1.8403113e-38
1246.67 -1227.14 -216.661 1.8403113e-38
1301.14 -1130.51 -212.495 1.8403113e-38
2671.1399 775.34998 -218.19299 1.8403113e-38
2679.3201 800.62598 -215.30299 1.8403113e-38
2677.8501 820.57397 -210.666 1.8403113e-38
1268.13 -1124.73 -201.48 1.8403113e-38
1287.2 -1123.41 -206.86501 1.8403113e-38
1274.77 -1118.66 -202.172 1.8403113e-38
2684.6499 845.65399 -207.407 1.8403113e-38
2682.73 865.742 -202.608 1.8403113e-38
1226.1899 -1158.4399 -196.12 1.8403113e-38
1225.63 -1136.2 -191.27299 1.8403113e-38
1232.83 -1131.3101 -192.382 1.8403113e-38
1237.92 -1122.0699 -191.948 1.8403113e-38
1242.04 -1111.11 -190.866 1.8403113e-38
1251.58 -1111.21 -193.71899 1.8403113e-38
2689 891.10303 -199.134 1.8403113e-38
2693.3101 915.57202 -195.26401 1.8403113e-38
2698.1799 940.71997 -191.418 1.8403113e-38
802.914 -1710.98 -186.722 1.8403113e-38
1192.5601 -1168.61 -188.27299 1.8403113e-38
1179.39 -1158.9399 -182.328 1.8403113e-38
2693.6699 960.01398 -186.01601 1.8403113e-38
2698.8401 985.935 -182.09599 1.8403113e-38
3005.99 1383.88 -189.55099 1.8403113e-38
3004.6599 1411.52 -183.339 1.8403113e-38
1165.74 -1147.3101 -175.82899 1.8403113e-38
2706.1699 1013.69 -178.42999 1.8403113e-38
2708.28 1038.25 -173.89 1.8403113e-38
2997.55 1434.9301 -176.299 1.8403113e-38
425.211 -2142.8 -165.448 1.8403113e-38
442.45599 -2138.5801 -169.681 1.8403113e-38
1142.78 -1133.4 -166.082 1.8403113e-38
1152.34 -1135.5 -169.36099 1.8403113e-38
1132.66 -1129.39 -162.231 1.8403113e-38
2711.74 1064.0601 -169.48399 1.8403113e-38
2718.1201 1092.33 -165.42999 1.8403113e-38
2720.97 1118.4399 -160.78101 1.8403113e-38
1099.25 -1131.41 -152.737 1.8403113e-38
1108.24 -1133.09 -155.757 1.8403113e-38
1113.9301 -1124.65 -155.674 1.8403113e-38
1121.38 -1121.63 -157.25101 1.8403113e-38
2724.3101 1145.26 -156.127 1.8403113e-38
927.59802 -1321.1899 -141.70599 1.8403113e-38
1064.6801 -1126.5601 -141.44901 1.8403113e-38
1072.13 -1123.97 -143.117 1.8403113e-38
1084.79 -1125.03 -147.0995 1.8403113e-38
546.82599 -1830.28 -135.784 1.8403113e-38
1025.26 -1130.02 -130.47 1.8403113e-38
1049.5 -1130.59 -137.78999 1.8403113e-38
1032.71 -1127.78 -132.215 1.8403113e-38
1040.15 -1125.49 -133.94099 1.8403113e-38
1057.22 -1129.0699 -139.763 1.8403113e-38
2756.28 1271.3 -139.093 1.8403113e-38
928.44897 -1240.4 -124.957 1.8403113e-38
1008.51 -1125.78 -124.604 1.8403113e-38
1015.92 -1123.7 -126.367 1.8403113e-38
999.16998 -1118.3101 -120.261 1.8403113e-38
2707.7 1258.14 -127.437 1.8403113e-38
242.216 -2140.3101 -110.584 1.8403113e-38
260.26501 -2136.9099 -115.227 1.8403113e-38
929.54999 -1174.26 -111.364 1.8403113e-38
949.56299 -1145.8199 -111.321 1.8403113e-38
956.97699 -1143.3 -112.991 1.8403113e-38
963.16699 -1133.05 -112.672 1.8403113e-38
974.58545 -1131.9299 -115.827 1.8403113e-38
984.44397 -1122.11 -116.686 1.8403113e-38
991.99597 -1121.1899 -118.737 1.8403113e-38
2664.8701 1274.5 -111.276 1.8403113e-38
2690.8999 1270.26 -119.896 1.8403113e-38
206.495 -2144.7 -100.901 1.8403113e-38
224.998 -2140.7 -105.553 1.8403113e-38
617.79498 -1560.58 -100.096 1.8403113e-38
905.22101 -1167.39 -102.692 1.8403113e-38
935.35699 -1156.47 -109.343 1.8403113e-38
941.87299 -1146.36 -109.15 1.8403113e-38
2641.9199 1280.98 -103.097 1.8403113e-38
193.674 -2131.5701 -94.329597 1.8403113e-38
819.53998 -1232.64 -90.982903 1.8403113e-38
887.50201 -1136.49 -90.927399 1.8403113e-38
895.24799 -1139.37 -93.833298 1.8403113e-38
2609.95 1279.3101 -93.955299 1.8403113e-38
175.12399 -2135.24 -89.594299 1.8403113e-38
827.80402 -1172.5 -80.777901 1.8403113e-38
835.51398 -1170.05 -82.552002 1.8403113e-38
842.96198 -1153.85 -81.354103 1.8403113e-38
857.81 -1143.76 -83.639999 1.8403113e-38
865.38702 -1144.96 -86.143799 1.8403113e-38
872.69598 -1140.25 -87.3228 1.8403113e-38
880.284 -1141.3199 -89.8013 1.8403113e-38
850.19 -1139.55 -80.492203 1.8403113e-38
2600.51 1296.99 -87.430199 1.8403113e-38
605.61298 -1447.6801 -72.7174 1.8403113e-38
627.591 -1438.59 -77.328796 1.8403113e-38
2579.78 1304.61 -79.669403 1.8403113e-38
2567.1201 1319.38 -72.804298 1.8403113e-38
2547.03 1327.23 -65.185204 1.8403113e-38
50.089802 -2138.1699 -53.0816 1.8403113e-38
68.721603 -2136.7 -58.304901 1.8403113e-38
620.78802 -1319.14 -50.1703 1.8403113e-38
2537.0601 1344.4301 -58.606602 1.8403113e-38
2519.73 1354.64 -51.310001 1.8403113e-38
12.2386 -2141.45 -42.532902 1.8403113e-38
31.003401 -2140.3701 -47.8764 1.8403113e-38
583.41199 -1363.16 -48.335899 1.8403113e-38
746.922 -1131.26 -48.081799 1.8403113e-38
2510.1899 1372.33 -44.754101 1.8403113e-38
-6.5861301 -2142.3501 -37.131302 1.8403113e-38
691.11298 -1157.91 -37.117599 1.8403113e-38
747.35498 -1055.55 -32.275101 1.8403113e-38
2494.0901 1383.62 -37.596298 1.8403113e-38
2487.74 1404.66 -31.282301 1.8403113e-38
-40.193901 -2134.51 -25.502199 1.8403113e-38
713.88202 -1054.1801 -22.048 1.8403113e-38
727.71198 -1051.39 -25.566601 1.8403113e-38
721.47998 -1047.9301 -22.988501 1.8403113e-38
734.70599 -1048.92 -27.1241 1.8403113e-38
741.43903 -1048.35 -29.0028 1.8403113e-38
2476.28 1420.7 -24.5037 1.8403113e-38
-79.390297 -2137.7 -14.5339 1.8403113e-38
2472.9399 1445.28 -18.3393 1.8403113e-38
2469.3101 1469.91 -12.0767 1.8403113e-38
3008.6001 2199.54 -18.653 1.8403113e-38
3013.3799 2246.3101 -10.2296 1.8403113e-38
-96.657799 -2134.0601 -8.6412897 1.8403113e-38
67.831398 -1868.1 -1.50819 1.8403113e-38
642.01501 -1070.11 -4.0592699 1.8403113e-38
2467.4199 1496.78 -5.85918 1.8403113e-38
2473.9399 1533.3101 -0.106865 1.8403113e-38
3014.28 2289.5 -1.40756 1.8403113e-38
-65.184097 -2034.05 3.0623 1.8403113e-38
-80.713898 -2028.6899 8.8020697 1.8403113e-38
225.29401 -1592.92 9.6500998 1.8403113e-38
614.52454 -1053.8049 7.5352449 1.8403113e-38
624.30701 -1056.48 4.0671902 1.8403113e-38
633.83398 -1046.33 3.37538 1.8403113e-38
640.15503 -1048.6 1.0204999 1.8403113e-38
2491.97 1583.4399 5.0869498 1.8403113e-38
3013.3301 2331.3301 7.6785698 1.8403113e-38
-91.078598 -2013.46 15.0849 1.8403113e-38
512.039 -1149.6899 17.7864 1.8403113e-38
594.26703 -1062.72 11.6744 1.8403113e-38
603.67401 -1054.83 10.5424 1.8403113e-38
3015.01 2377.1399 16.822599 1.8403113e-38
-105.501 -2006.09 20.919901 1.8403113e-38
-119.851 -1998.58 26.7616 1.8403113e-38
477.242 -1153.5699 27.3041 1.8403113e-38
3007.8701 2413.04 26.497999 1.8403113e-38
-161.69901 -2006.61 37.498001 1.8403113e-38
-135.106 -1992.6801 32.532101 1.8403113e-38
536.49902 -1022.48 37.2976 1.8403113e-38
543.50702 -1022.81 35.147999 1.8403113e-38
551.539 -1020.26 33.298302 1.8403113e-38
3009.01 2459.9199 36.024399 1.8403113e-38
-272.76801 -2129.8 44.552502 1.8403113e-38
-223.222 -2079.8301 40.3559 1.8403113e-38
3007.6699 2504.6101 45.830399 1.8403113e-38
-317.97299 -2135.6201 56.750301 1.8403113e-38
-298.92899 -2138.8301 50.419701 1.8403113e-38
3011.22 2556.5601 55.709702 1.8403113e-38
-359.31799 -2133.6599 69.440697 1.8403113e-38
-339.151 -2135.6001 63.043098 1.8403113e-38
3009.8101 2603.1499 65.933098 1.8403113e-38
-384.96301 -2139.8799 75.745796 1.8403113e-38
3009.5701 2652.29 76.347603 1.8403113e-38
-425.59799 -2134.8 88.882103 1.8403113e-38
-405.26599 -2137.45 82.286102 1.8403113e-38
3005.6899 2697.5601 87.027199 1.8403113e-38
-445.39401 -2131.1001 95.539299 1.8403113e-38
3008.21 2752.6699 97.875504 1.8403113e-38
-491.37701 -2132.02 109 1.8403113e-38
-470.91599 -2135.3899 102.215 1.8403113e-38
3008.8101 2806.3501 108.999 1.8403113e-38
