# .PCD v0.7 - Point Cloud Data file format
VERSION 0.7
FIELDS x y z rgb
SIZE 4 4 4 4
TYPE F F F F
COUNT 1 1 1 1
WIDTH 342
HEIGHT 1
VIEWPOINT 0 0 0 1 0 0 0
POINTS 342
DATA ascii
2313.95 -1262.0601 -281.52301 1.8403113e-38
2319.5 -1189.26 -280.06699 1.8403113e-38
2326.8401 -1183.85 -282.45801 1.8403113e-38
2330.1399 -1169.09 -282.94699 1.8403113e-38
2332.0601 -1159.54 -283.185 1.8403113e-38
2374.1101 -824.435 -282.435 1.8403113e-38
2378.3501 -795.612 -282.595 1.8403113e-38
2375.01 -772.84198 -280.31 1.8403113e-38
2384.1001 -762.935 -283.117 1.8403113e-38
2381.03 -740.65198 -280.953 1.8403113e-38
2385.04 -733.638 -282.065 1.8403113e-38
2384.77 -720.74701 -281.35599 1.8403113e-38
2386.8501 -713.15198 -281.745 1.8403113e-38
2386.3601 -700.31299 -280.95801 1.8403113e-38
2387.3999 -692.46503 -280.95999 1.8403113e-38
2389.4199 -680.39398 -281.11499 1.8403113e-38
2389.4199 -672.31598 -280.729 1.8403113e-38
2390.3101 -660.026 -280.47 1.8403113e-38
2397.9399 -633.25201 -281.948 1.8403113e-38
2402.9299 -601.46899 -282.23999 1.8403113e-38
2402.48 -581.15997 -281.11099 1.8403113e-38
2410.1599 -574.448 -283.56601 1.8403113e-38
2405.3999 -561.46198 -281.23001 1.8403113e-38
2403.6599 -553.36499 -280.21799 1.8403113e-38
2408.9299 -541.83197 -281.57199 1.8403113e-38
2407.0601 -533.76501 -280.51401 1.8403113e-38
2411.21 -522.03198 -281.453 1.8403113e-38
2412.95 -514.362 -281.716 1.8403113e-38
2412.23 -502.11899 -280.87299 1.8403113e-38
2419.46 -494.862 -283.13901 1.8403113e-38
2420.4199 -482.70801 -282.90701 1.8403113e-38
2423.79 -475.052 -283.75699 1.8403113e-38
2427.3601 -462.987 -284.474 1.8403113e-38
2419.3301 -454.77899 -281.18701 1.8403113e-38
2428.3501 -442.88 -283.87399 1.8403113e-38
2430.52 -435.04599 -284.28699 1.8403113e-38
2429.9399 -422.772 -283.49399 1.8403113e-38
2425.3999 -414.875 -281.48099 1.8403113e-38
2432.1399 -402.61801 -283.332 1.8403113e-38
2429.3601 -394.76599 -281.953 1.8403113e-38
2434.02 -382.39801 -283.047 1.8403113e-38
2433.9299 -374.491 -282.638 1.8403113e-38
2432.74 -362.24399 -281.62701 1.8403113e-38
2431.5801 -354.39899 -280.83499 1.8403113e-38
2438.6499 -341.66 -282.78101 1.8403113e-38
2441.1101 -333.52399 -283.284 1.8403113e-38
2440.46 -321.16299 -282.45999 1.8403113e-38
2444.6599 -312.797 -283.57999 1.8403113e-38
2442.8601 -300.495 -282.34601 1.8403113e-38
2445.99 -292.129 -283.078 1.8403113e-38
2439.3 -280.39499 -280.10699 1.8403113e-38
2440.4299 -272.22501 -280.12399 1.8403113e-38
2447.1299 -254.72299 -281.7095 1.8403113e-38
2449.77 -229.437 -281.46201 1.8403113e-38
2449.01 -216.838 -280.58701 1.8403113e-38
2452.5 -207.991 -281.42599 1.8403113e-38
2459.49 -185.46201 -282.87799 1.8403113e-38
2457.3501 -172.927 -281.51199 1.8403113e-38
2460.95 -150.66701 -281.75201 1.8403113e-38
2457.52 -143.03999 -280.15399 1.8403113e-38
2462.365 -124.39999 -281.01599 1.8403113e-38
2463.29 -106.572 -280.50299 1.8403113e-38
2482.22 36.468899 -280.534 1.8403113e-38
2493.5901 50.355099 -283.97601 1.8403113e-38
2488.22 62.855701 -281.444 1.8403113e-38
2491.0701 88.440498 -281.25699 1.8403113e-38
2494.9299 99.800201 -282.112 1.8403113e-38
2496.8999 115.85 -282.06 1.8403113e-38
2501.3201 143.19701 -282.354 1.8403113e-38
2501.29 153.2 -281.86801 1.8403113e-38
2500.9099 168.705 -280.99399 1.8403113e-38
2504.1001 180.506 -281.58499 1.8403113e-38
2501.7 195.241 -280.021 1.8403113e-38
2509.75 209.875 -282.22699 1.8403113e-38
2513.9399 239.149 -282.35001 1.8403113e-38
2514.24 256.008 -281.65701 1.8403113e-38
2512.54 265.85699 -280.57501 1.8403113e-38
2521.3201 299.15701 -282.16101 1.8403113e-38
2520.0801 315.82199 -280.92001 1.8403113e-38
2524.47 329.89301 -281.836 1.8403113e-38
2525.29 348.255 -281.26001 1.8403113e-38
2528.5701 361.99701 -281.79199 1.8403113e-38
2526.5901 378.93799 -280.26901 1.8403113e-38
2530.3899 393.37299 -280.95401 1.8403113e-38
2533.5701 414.285 -281.11099 1.8403113e-38
2535.47 427.814 -281.15302 1.8403113e-38
2535.05 446.71701 -280.104 1.8403113e-38
2545.25 466.659 -282.83499 1.8403113e-38
2543.5801 485.22699 -281.349 1.8403113e-38
2543.3101 497.90799 -280.651 1.8403113e-38
2547.3701 521.32098 -281.00201 1.8403113e-38
2548.3301 535.32001 -280.68201 1.8403113e-38
2553.3601 560.23401 -281.314 1.8403113e-38
2554.73 575.00897 -281.10699 1.8403113e-38
2566.1299 620.20697 -283.073 1.8403113e-38
2563.3101 640.10901 -281.10901 1.8403113e-38
2569.0901 659.69598 -282.26501 1.8403113e-38
2577.6201 705.46198 -283.16699 1.8403113e-38
2572.3101 724.41602 -280.349 1.8403113e-38
2580.74 747.83801 -282.28101 1.8403113e-38
2584.78 776.36102 -282.383 1.8403113e-38
2589.1499 796.75403 -282.98901 1.8403113e-38
2593.1499 826.328 -283.02802 1.8403113e-38
2596.3201 846.29901 -283.22198 1.8403113e-38
2601.6101 878.33099 -283.61099 1.8403113e-38
2607.6599 902.07703 -284.66199 1.8403113e-38
2606.0601 928.138 -282.849 1.8403113e-38
2611.54 952.16699 -283.68399 1.8403113e-38
2613.21 982.81 -282.828 1.8403113e-38
2620.05 1009.32 -284.039 1.8403113e-38
2622.8101 1042.53 -283.45801 1.8403113e-38
2631.5601 1072.35 -285.19699 1.8403113e-38
2637.8301 1111.21 -285.612 1.8403113e-38
2645.8 1141.46 -287.05099 1.8403113e-38
2647.8601 1177.04 -286.103 1.8403113e-38
2653.21 1205.38 -286.686 1.8403113e-38
2655.5 1242.89 -285.73199 1.8403113e-38
2658.9099 1270 -285.67099 1.8403113e-38
2648.8201 1293.05 -280.93399 1.8403113e-38
2757.5 2064.3 -283.50201 1.8403113e-38
2771.8101 2127.78 -285.64899 1.8403113e-38
2772.3401 2190.24 -282.871 1.8403113e-38
2793.9199 2270.9199 -286.82599 1.8403113e-38
2800.5901 2349.8401 -285.479 1.8403113e-38
2815.4099 2422.5801 -287.37399 1.8403113e-38
2819.53 2502.3 -285.07001 1.8403113e-38
2837.6699 2586.3899 -287.62 1.8403113e-38
2844.3101 2677.6299 -285.681 1.8403113e-38
2863.98 2770.5901 -288.35901 1.8403113e-38
2869.23 2866.3301 -285.70401 1.8403113e-38
2892.53 2973.71 -289.01099 1.8403113e-38
2898.9099 3080.3701 -286.24301 1.8403113e-38
2909.28 3165.9299 -285.92099 1.8403113e-38
2285.3701 -1267.26 -271.457 1.8403113e-38
2306.9099 -1267.9 -279.263 1.8403113e-38
2310.22 -1240.33 -279.146 1.8403113e-38
2309.8 -1228.27 -278.42001 1.8403113e-38
2315.8701 -1215.36 -279.99701 1.8403113e-38
2310.76 -1199.75 -277.41101 1.8403113e-38
2316.6699 -1131.22 -276.28699 1.8403113e-38
2363.3999 -842.11902 -279.41101 1.8403113e-38
2361.03 -832.49902 -278.09799 1.8403113e-38
2367.2 -813.11603 -279.40399 1.8403113e-38
2369.5701 -800.81097 -279.67401 1.8403113e-38
2371.6599 -780.03802 -279.44299 1.8403113e-38
2376.6101 -752.09698 -279.901 1.8403113e-38
2384.6699 -650.716 -277.991 1.8403113e-38
2387.1799 -638.91901 -278.33701 1.8403113e-38
2394.075 -616.11353 -279.74051 1.8403113e-38
2395.9099 -592.32703 -279.272 1.8403113e-38
2441.47 -238.914 -278.91699 1.8403113e-38
2449.6599 -195.711 -279.819 1.8403113e-38
2453.1399 -165.494 -279.64001 1.8403113e-38
2478.4299 20.6266 -279.92099 1.8403113e-38
2485.26 71.096298 -279.987 1.8403113e-38
2491.01 122.935 -279.59601 1.8403113e-38
2505.3501 223.808 -279.97699 1.8403113e-38
2512.51 282.81699 -279.758 1.8403113e-38
2551.71 594.03497 -279.11499 1.8403113e-38
2565.05 679.10797 -279.883 1.8403113e-38
2637.3701 1301.51 -276.40201 1.8403113e-38
2902.9099 3251.46 -279.556 1.8403113e-38
2907.8899 3330.25 -277.608 1.8403113e-38
2260.4199 -1274.96 -262.82101 1.8403113e-38
2263.52 -1259.23 -263.19299 1.8403113e-38
2429.47 -107.443 -268.33801 1.8403113e-38
2428.4299 -7.19069 -263.20001 1.8403113e-38
2615.1101 1308.58 -268.034 1.8403113e-38
2608.22 1323.15 -264.853 1.8403113e-38
2603.6001 1354.67 -261.69 1.8403113e-38
2226.9199 -1304.8 -252.14799 1.8403113e-38
2234.5901 -1293.28 -254.369 1.8403113e-38
2241.71 -1288.04 -256.69101 1.8403113e-38
2242.95 -1270.4301 -256.30099 1.8403113e-38
2403.78 -101.916 -258.80701 1.8403113e-38
2401.8799 -94.266197 -257.758 1.8403113e-38
2404.27 -80.705101 -257.974 1.8403113e-38
2394.0901 -75.6586 -254.061 1.8403113e-38
2393.55 -62.987999 -253.26601 1.8403113e-38
2389.6001 -56.0294 -251.509 1.8403113e-38
2401.4199 -38.938999 -254.96001 1.8403113e-38
2413.4299 -26.153799 -258.689 1.8403113e-38
2593.48 1365.1899 -257.53799 1.8403113e-38
2576.97 1380.51 -250.85201 1.8403113e-38
2632.03 1792.1801 -251.157 1.8403113e-38
2210.98 -1300.96 -246.216 1.8403113e-38
2268.8601 -814.47601 -243.981 1.8403113e-38
2568.3101 1393.3 -247.121 1.8403113e-38
2848.1399 3550.6001 -245.577 1.8403113e-38
2541.6599 1393.54 -237.493 1.8403113e-38
2549.6201 1431.75 -238.548 1.8403113e-38
2529.72 1442.4399 -230.86 1.8403113e-38
2844.8501 3664.8899 -238.95599 1.8403113e-38
2851.9199 3767.1399 -236.649 1.8403113e-38
2528.97 1468.36 -229.356 1.8403113e-38
2518.6001 1494.77 -224.35899 1.8403113e-38
2514.6499 1516.5699 -221.899 1.8403113e-38
2517.22 1565.95 -220.479 1.8403113e-38
2723.72 2985.3799 -227.539 1.8403113e-38
2849.46 3895.22 -229.673 1.8403113e-38
2849.3401 3985.78 -225.327 1.8403113e-38
2696.0801 2980.1399 -217.814 1.8403113e-38
2848.8101 4132.46 -218.166 1.8403113e-38
2664.1001 2999.27 -205.367 1.8403113e-38
2057.0901 -1159.12 -183.94299 1.8403113e-38
2040.97 -1152.4399 -177.80901 1.8403113e-38
2021.01 -1146.9301 -170.342 1.8403113e-38
1993.25 -1142.29 -160.10699 1.8403113e-38
2005.8199 -1140.5 -164.556 1.8403113e-38
2632.98 3566.6001 -167.173 1.8403113e-38
1984.65 -1142.71 -157.022 1.8403113e-38
1968.39 -1139.77 -151.01601 1.8403113e-38
2020.39 -904.71399 -158.60899 1.8403113e-38
2026.26 -714.698 -151.69901 1.8403113e-38
1948.14 -1141.76 -143.804 1.8403113e-38
1963 -1143.63 -149.254 1.8403113e-38
2013.63 -718.10999 -147.30099 1.8403113e-38
2579.3201 3535.47 -149.289 1.8403113e-38
1915.46 -1137.66 -131.81599 1.8403113e-38
1924.41 -1138.7 -135.09399 1.8403113e-38
1935.42 -1136.48 -138.961 1.8403113e-38
1977.3199 -707.02802 -133.672 1.8403113e-38
2543.22 3508.5901 -137.541 1.8403113e-38
1893.3199 -1135.23 -123.711 1.8403113e-38
1903.34 -1138.05 -127.461 1.8403113e-38
1945.5699 -716.87048 -122.6835 1.8403113e-38
1960.3 -712.99799 -127.814 1.8403113e-38
1957.1801 -706.03101 -126.357 1.8403113e-38
2504.1399 3521.23 -122.839 1.8403113e-38
1862.99 -1136.67 -112.834 1.8403113e-38
1872.59 -1133.78 -116.162 1.8403113e-38
1882.49 -1136.85 -119.879 1.8403113e-38
1914.5 -818.00598 -116.279 1.8403113e-38
1915.12 -735.11951 -112.5615 1.8403113e-38
1924.6801 -726.62146 -115.60899 1.8403113e-38
1931.71 -720.82501 -117.869 1.8403113e-38
2480.05 3532.96 -113.586 1.8403113e-38
1832.39 -1130.04 -101.475 1.8403113e-38
1842.02 -1133.59 -105.12 1.8403113e-38
1854.34 -1134.95 -109.629 1.8403113e-38
1893.79 -797.41699 -107.827 1.8403113e-38
1891.4399 -786.823 -106.474 1.8403113e-38
1884.4399 -776.41803 -103.455 1.8403113e-38
1884.16 -764.85248 -102.805 1.8403113e-38
1894.46 -757.46399 -106.1685 1.8403113e-38
1896.5549 -744.90955 -106.3285 1.8403113e-38
1902.27 -737.27002 -108.027 1.8403113e-38
1814.5 -1130.24 -95.0308 1.8403113e-38
1803.53 -1129.89 -91.055702 1.8403113e-38
1819.7 -1127.53 -96.779999 1.8403113e-38
2440.72 3544.8799 -98.827301 1.8403113e-38
1786.41 -1130.21 -84.893799 1.8403113e-38
1797.8101 -1131.64 -89.074097 1.8403113e-38
1776.17 -1124.3101 -80.916298 1.8403113e-38
2413.01 3543.6299 -88.888199 1.8403113e-38
2437.26 3914.3201 -80.024002 1.8403113e-38
1752.61 -1129.61 -72.666801 1.8403113e-38
1762.885 -1124.54 -76.135452 1.8403113e-38
2387.3799 3607.98 -76.579903 1.8403113e-38
2474.8301 4393.7998 -70.793701 1.8403113e-38
1719.4301 -1127.4 -60.590099 1.8403113e-38
1728.49 -1126.4399 -63.813202 1.8403113e-38
1731.25 -1120.12 -64.5075 1.8403113e-38
1745.0699 -1127.52 -69.846497 1.8403113e-38
2478.8601 4636.5698 -60.709 1.8403113e-38
1702.22 -1123.95 -54.214901 1.8403113e-38
1710.28 -1121.49 -57.008202 1.8403113e-38
1693.24 -1117.83 -50.6842 1.8403113e-38
2521.03 4985.9302 -59.323502 1.8403113e-38
1686.1 -1121.85 -48.297401 1.8403113e-38
1663.9399 -1118.23 -40.1311 1.8403113e-38
1670.16 -1119.38 -42.429798 1.8403113e-38
1673.5 -1107.5601 -43.072102 1.8403113e-38
2513.1101 5219.1802 -45.380402 1.8403113e-38
1644.925 -1117.4451 -33.22995 1.8403113e-38
1655.22 -1118.33 -36.986698 1.8403113e-38
2521.6899 5449.3999 -37.538601 1.8403113e-38
1610.5601 -1111.33 -20.540899 1.8403113e-38
1626.13 -1116.13 -26.3857 1.8403113e-38
1633.58 -1113.7 -28.9603 1.8403113e-38
1617.59 -1108.16 -22.9272 1.8403113e-38
2519.1699 5755 -22.105499 1.8403113e-38
1592.4 -1112.7 -14.0513 1.8403113e-38
1606.03 -1113.33 -18.998301 1.8403113e-38
1582.13 -1106.25 -10.0372 1.8403113e-38
1596.6 -1109.87 -15.4314 1.8403113e-38
2532.0601 6047.8701 -12.8373 1.8403113e-38
1566.67 -1114.35 -4.8460999 1.8403113e-38
1556.99 -1108.4301 -1.07025 1.8403113e-38
1568.47 -1104.1801 -5.0111098 1.8403113e-38
1578.25 -1109.91 -8.8138304 1.8403113e-38
1527.26 -1110.08 9.5787601 1.8403113e-38
1553.04 -1111.9399 0.187024 1.8403113e-38
1535.265 -1107.52 6.8111849 1.8403113e-38
1542.7 -1102.97 4.3436999 1.8403113e-38
2648.46 7398.54 9.3457003 1.8403113e-38
1520.23 -1112.23 12.013 1.8403113e-38
1503.6899 -1104.62 18.344 1.8403113e-38
1513.11 -1102.98 15.0242 1.8403113e-38
1474.9451 -1111.855 28.37265 1.8403113e-38
1486.275 -1108.145 24.45945 1.8403113e-38
1494.6801 -1108.0699 21.429899 1.8403113e-38
1313.48 -2105.8999 39.398602 1.8403113e-38
1331.03 -2027.9399 36.768002 1.8403113e-38
1445.25 -1112.84 39.041298 1.8403113e-38
1454.38 -1110.12 35.875401 1.8403113e-38
1458.89 -1109.22 34.292702 1.8403113e-38
1466.22 -1109.73 31.621901 1.8403113e-38
2565.3701 7378.8799 38.394901 1.8403113e-38
1285.64 -2105.5601 49.459599 1.8403113e-38
1302.58 -2105.8301 43.3344 1.8403113e-38
1436.08 -1115.4301 42.2272 1.8403113e-38
1418.85 -1107.98 48.7985 1.8403113e-38
1423.5699 -1109.3199 47.033798 1.8403113e-38
1430.55 -1108.26 44.562302 1.8403113e-38
1257.8199 -2104.7 59.5387 1.8403113e-38
1274.67 -2107.28 53.337299 1.8403113e-38
1341.95 -1665.22 50.067402 1.8403113e-38
1353.24 -1519.14 52.935699 1.8403113e-38
1358.98 -1427.0601 55.237701 1.8403113e-38
1366.97 -1339.83 56.501701 1.8403113e-38
1371.47 -1292.64 57.121101 1.8403113e-38
1378.13 -1240.27 57.205101 1.8403113e-38
1381.79 -1205.02 57.558998 1.8403113e-38
1387.54 -1166.5699 57.313499 1.8403113e-38
1390.35 -1134.29 57.8344 1.8403113e-38
1404.3301 -1115.325 53.68845 1.8403113e-38
1395.28 -1102.77 57.5513 1.8403113e-38
1411.67 -1106.92 51.438599 1.8403113e-38
2513.72 7375.8301 56.889099 1.8403113e-38
1247.74 -2090.25 63.863899 1.8403113e-38
1218.4301 -2112.6201 73.3787 1.8403113e-38
1202.11 -2103.4299 79.704597 1.8403113e-38
1174.36 -2101.02 89.831703 1.8403113e-38
1191.0601 -2104.54 83.637901 1.8403113e-38
1264.76 -1586.63 81.656601 1.8403113e-38
2433.04 7366.46 85.557098 1.8403113e-38
1163.51 -2099.9399 93.797401 1.8403113e-38
1135.84 -2096.8201 103.932 1.8403113e-38
1147.59 -2090.1599 100.007 1.8403113e-38
2380.5701 7354.4902 103.921 1.8403113e-38
1119.29 -2092.6799 110.099 1.8403113e-38
