# .PCD v0.7 - Point Cloud Data file format
VERSION 0.7
FIELDS x y z rgb
SIZE 4 4 4 4
TYPE F F F F
COUNT 1 1 1 1
WIDTH 359
HEIGHT 1
VIEWPOINT 0 0 0 1 0 0 0
POINTS 359
DATA ascii
-299.79099 1668.08 -291.32501 1.8403113e-38
-256.263 1667.4 -291.44299 1.8403113e-38
-214.63 1667.0699 -291.668 1.8403113e-38
-165.467 1661.73 -290.138 1.8403113e-38
-556.216 1679.73 -293.41699 1.8403113e-38
-506.46301 1679.87 -293.88699 1.8403113e-38
-445.43701 1673.49 -292.073 1.8403113e-38
-403.121 1675.72 -293.241 1.8403113e-38
-351.33899 1672.28 -292.422 1.8403113e-38
-736.17999 1688.45 -295.08401 1.8403113e-38
-672.36603 1684.76 -294.27802 1.8403113e-38
-614.17603 1682.6801 -294.00601 1.8403113e-38
-999.31097 1695.83 -295.56699 1.8403113e-38
-935.46002 1696.4399 -296.32401 1.8403113e-38
-869.08899 1694.91 -296.32199 1.8403113e-38
-801.14899 1691.5699 -295.677 1.8403113e-38
2235.6799 1580.14 -280.539 1.8403113e-38
2259.24 1582.9301 -281.75201 1.8403113e-38
916.71198 1609.72 -280.26901 1.8403113e-38
932.97601 1609.7 -280.396 1.8403113e-38
651.68402 1619.42 -281.57999 1.8403113e-38
675.297 1616.3 -280.64301 1.8403113e-38
770.90002 1617.14 -281.746 1.8403113e-38
844.53699 1615.15 -281.64099 1.8403113e-38
193.75999 1629.85 -281.54401 1.8403113e-38
533.76099 1628.51 -283.89899 1.8403113e-38
557.302 1627.55 -283.74899 1.8403113e-38
581.45398 1625.65 -283.259 1.8403113e-38
604.75299 1624.09 -282.88699 1.8403113e-38
627.927 1622.24 -282.40601 1.8403113e-38
690.388 1620.98 -282.47101 1.8403113e-38
783.10999 1623.64 -284.216 1.8403113e-38
797.33899 1627.91 -285.888 1.8403113e-38
455.66101 1635.08 -285.63901 1.8403113e-38
479.57901 1635.1 -285.84399 1.8403113e-38
504.13901 1634.1801 -285.715 1.8403113e-38
73.390297 1647.17 -286.84 1.8403113e-38
203.291 1643.76 -286.68399 1.8403113e-38
228.18201 1646.87 -288.026 1.8403113e-38
257.784 1646.24 -288.043 1.8403113e-38
290.41501 1642.9 -287.10001 1.8403113e-38
321.293 1640.28 -286.405 1.8403113e-38
345.76599 1641.96 -287.22101 1.8403113e-38
369.38 1643.92 -288.13199 1.8403113e-38
399.83899 1640.16 -287.017 1.8403113e-38
418.66599 1645.11 -288.979 1.8403113e-38
-118.26 1656.67 -288.69101 1.8403113e-38
-77.219597 1654.45 -288.22601 1.8403113e-38
-37.2108 1652.15 -287.72501 1.8403113e-38
-2.4082699 1652.39 -288.104 1.8403113e-38
32.256401 1652.15 -288.30499 1.8403113e-38
98.681503 1651.83 -288.746 1.8403113e-38
130.46001 1651.8 -289.00201 1.8403113e-38
-1247.22 1680.25 -287.82501 1.8403113e-38
2508.6499 1548.0699 -271.15601 1.8403113e-38
1892.73 1559.25 -270.069 1.8403113e-38
1970.8199 1559.86 -270.944 1.8403113e-38
2000.23 1558.75 -270.785 1.8403113e-38
2121.1101 1557.8199 -271.45999 1.8403113e-38
2142.28 1559.16 -272.12601 1.8403113e-38
2173.24 1557.33 -271.71701 1.8403113e-38
2271.9199 1559.11 -273.19 1.8403113e-38
2317.5701 1559.34 -273.65799 1.8403113e-38
2327.6299 1556.14 -272.57501 1.8403113e-38
2350.6799 1555.41 -272.50299 1.8403113e-38
2374.3 1555.08 -272.57999 1.8403113e-38
2387.0601 1556.41 -273.173 1.8403113e-38
2410.9299 1555.37 -272.995 1.8403113e-38
2425.27 1558.8101 -274.366 1.8403113e-38
2434.9199 1553.86 -272.646 1.8403113e-38
2447.46 1553.75 -272.70999 1.8403113e-38
2459.54 1552.7 -272.427 1.8403113e-38
2475.6799 1558.01 -274.49399 1.8403113e-38
2487.3601 1555.87 -273.815 1.8403113e-38
2496.98 1550.42 -271.91101 1.8403113e-38
1776.36 1565.65 -271.423 1.8403113e-38
1795.78 1567.26 -272.17099 1.8403113e-38
1805.49 1568.41 -272.673 1.8403113e-38
1815.3 1563.85 -271.095 1.8403113e-38
1834.7 1562.9399 -270.92599 1.8403113e-38
1844.48 1568.47 -273.022 1.8403113e-38
1873.71 1567.6801 -272.978 1.8403113e-38
1883.4 1566.3199 -272.564 1.8403113e-38
1902.84 1565.23 -272.33099 1.8403113e-38
1912.5601 1564.5699 -272.17099 1.8403113e-38
1922.35 1564.76 -272.32401 1.8403113e-38
1941.86 1563.97 -272.20001 1.8403113e-38
1951.24 1560.1899 -270.901 1.8403113e-38
1961.38 1562.86 -271.95801 1.8403113e-38
1981.15 1563.29 -272.28 1.8403113e-38
1991.5699 1566.63 -273.58301 1.8403113e-38
2010.6899 1561.92 -272.02802 1.8403113e-38
2020.71 1562.22 -272.22299 1.8403113e-38
2030.39 1560.6 -271.711 1.8403113e-38
2041.74 1567.1899 -274.20599 1.8403113e-38
2052.0601 1568.15 -274.64301 1.8403113e-38
2061.3899 1564.4301 -273.36499 1.8403113e-38
2072.5801 1568.89 -275.082 1.8403113e-38
2081.8799 1565 -273.746 1.8403113e-38
2091.8201 1563.79 -273.38599 1.8403113e-38
2101.29 1560.66 -272.328 1.8403113e-38
2111.45 1560.1899 -272.24301 1.8403113e-38
2132.3301 1560.8 -272.64001 1.8403113e-38
2154.45 1564.65 -274.22501 1.8403113e-38
2163.5801 1560.13 -272.655 1.8403113e-38
2185.3201 1561.6 -273.37299 1.8403113e-38
2195.6201 1560.4 -273.02399 1.8403113e-38
2207.54 1563.5699 -274.27399 1.8403113e-38
2284.98 1563.24 -274.802 1.8403113e-38
2297.76 1566.37 -276.048 1.8403113e-38
2307.0901 1561.6 -274.39301 1.8403113e-38
2344.3701 1566.48 -276.479 1.8403113e-38
2367.25 1564.6 -275.98499 1.8403113e-38
2401.27 1560.12 -274.642 1.8403113e-38
1533 1579.28 -274.34698 1.8403113e-38
1646.29 1578.59 -275.04599 1.8403113e-38
1656.29 1579.11 -275.31601 1.8403113e-38
1666.5601 1577.67 -274.88101 1.8403113e-38
1676.8 1576.15 -274.41299 1.8403113e-38
1696.5699 1577.52 -275.07599 1.8403113e-38
1716.24 1579.5 -275.95999 1.8403113e-38
1746.11 1578.1 -275.703 1.8403113e-38
1756.34 1573.1 -273.96799 1.8403113e-38
1765.96 1576.45 -275.26801 1.8403113e-38
1785.6899 1575.41 -275.05499 1.8403113e-38
1854.33 1572.99 -274.746 1.8403113e-38
2221.1899 1571.04 -277.108 1.8403113e-38
2244.49 1574.1 -278.41699 1.8403113e-38
2267.6699 1575.84 -279.24399 1.8403113e-38
1305.29 1589.55 -276.17899 1.8403113e-38
1398.6899 1589.46 -276.92999 1.8403113e-38
1421.3199 1589.24 -277.03799 1.8403113e-38
1489.5 1582.5 -275.15601 1.8403113e-38
1500.5 1581.62 -274.92599 1.8403113e-38
1520.27 1586.8101 -276.98001 1.8403113e-38
1541.62 1586.2 -276.939 1.8403113e-38
1551.77 1587.59 -277.52802 1.8403113e-38
1563.99 1580.65 -275.10599 1.8403113e-38
1572.53 1588.27 -277.94901 1.8403113e-38
1584.16 1582.96 -276.116 1.8403113e-38
1594.86 1581.23 -275.57501 1.8403113e-38
1604.53 1584.01 -276.66901 1.8403113e-38
1614.24 1586.72 -277.73499 1.8403113e-38
1625.4 1581.95 -276.09201 1.8403113e-38
1635.45 1582.63 -276.42499 1.8403113e-38
1685.74 1583.87 -277.297 1.8403113e-38
1705.86 1583.22 -277.228 1.8403113e-38
1726.09 1580.36 -276.358 1.8403113e-38
1735.54 1585.83 -278.427 1.8403113e-38
974.27197 1597.79 -276.40701 1.8403113e-38
988.44202 1599.42 -277.121 1.8403113e-38
1018.99 1599.17 -277.284 1.8403113e-38
1049.26 1598.25 -277.202 1.8403113e-38
1063.1899 1599.1 -277.63 1.8403113e-38
1079.26 1596.66 -276.87701 1.8403113e-38
1094.15 1595.63 -276.625 1.8403113e-38
1108.4301 1595.23 -276.59799 1.8403113e-38
1122.11 1595.47 -276.80301 1.8403113e-38
1136.79 1593.97 -276.37799 1.8403113e-38
1148.83 1596.35 -277.34601 1.8403113e-38
1162.87 1595.37 -277.10501 1.8403113e-38
1177.84 1592.6 -276.22299 1.8403113e-38
1187.8199 1597.88 -278.229 1.8403113e-38
1200.74 1598.13 -278.427 1.8403113e-38
1215.03 1595.76 -277.685 1.8403113e-38
1226.4301 1598.24 -278.68201 1.8403113e-38
1240.13 1596.4301 -278.138 1.8403113e-38
1253.74 1594.48 -277.54199 1.8403113e-38
1264.1801 1598.29 -279.017 1.8403113e-38
1278.12 1595.24 -278.022 1.8403113e-38
1291.11 1593.74 -277.586 1.8403113e-38
1316.47 1591.21 -276.87799 1.8403113e-38
1325.22 1597.9399 -279.39899 1.8403113e-38
1340.38 1590.78 -276.91901 1.8403113e-38
1351.89 1591.25 -277.189 1.8403113e-38
1360.72 1597.72 -279.616 1.8403113e-38
1373.34 1595.38 -278.87201 1.8403113e-38
1385.51 1593.8 -278.39801 1.8403113e-38
1409.6801 1590.29 -277.32101 1.8403113e-38
1431.9301 1590.75 -277.67499 1.8403113e-38
1441.24 1595.73 -279.565 1.8403113e-38
1453.4399 1592.6 -278.52802 1.8403113e-38
1465.24 1590.24 -277.76999 1.8403113e-38
1475.79 1591.37 -278.26901 1.8403113e-38
1508.2 1591.49 -278.58401 1.8403113e-38
759.41101 1609.8199 -278.987 1.8403113e-38
835.073 1606.34 -278.35599 1.8403113e-38
870.08002 1605.79 -278.44699 1.8403113e-38
886.513 1606.3 -278.771 1.8403113e-38
901.005 1608.83 -279.81201 1.8403113e-38
954.01501 1603.5 -278.315 1.8403113e-38
1001.41 1602.4399 -278.32599 1.8403113e-38
1030.17 1604.21 -279.20999 1.8403113e-38
720.69397 1610.52 -278.91901 1.8403113e-38
737.69897 1612.6899 -279.85001 1.8403113e-38
-920.01501 1636.03 -274.47198 1.8403113e-38
2507 1525.78 -263.03101 1.8403113e-38
2517.4199 1521.74 -261.64899 1.8403113e-38
1930.6899 1549.91 -266.98801 1.8403113e-38
1825.04 1556.39 -268.461 1.8403113e-38
1863.6899 1559.5699 -269.944 1.8403113e-38
-917.30298 1608.34 -264.42001 1.8403113e-38
2658.5701 1487.1899 -250.258 1.8403113e-38
2719.5601 1487.04 -250.711 1.8403113e-38
2575.9399 1490.98 -250.94501 1.8403113e-38
2589.6799 1490.86 -251.01401 1.8403113e-38
2608.8701 1497.34 -253.534 1.8403113e-38
2622.78 1496.86 -253.47701 1.8403113e-38
2530.98 1503.25 -255.032 1.8403113e-38
2557.1599 1502.34 -254.922 1.8403113e-38
2570.3201 1501.6801 -254.791 1.8403113e-38
2525.6299 1514.48 -259.073 1.8403113e-38
2550.24 1511.4 -258.15799 1.8403113e-38
-930.94897 1587.23 -256.62399 1.8403113e-38
-1082.58 1590.53 -256.556 1.8403113e-38
2630.96 1471.88 -244.455 1.8403113e-38
2693.72 1475.71 -246.37399 1.8403113e-38
2754.3501 1473.08 -245.923 1.8403113e-38
2623.8999 1480.66 -247.591 1.8403113e-38
2669.45 1482.52 -248.647 1.8403113e-38
2685.4199 1483.5 -249.13901 1.8403113e-38
2732.49 1483.91 -249.68201 1.8403113e-38
2746.76 1482.04 -249.12199 1.8403113e-38
-962.35901 1520.03 -231.908 1.8403113e-38
-945.20801 1487.9399 -220.37601 1.8403113e-38
2677.01 1378.02 -210.685 1.8403113e-38
-944.62 1461.97 -210.931 1.8403113e-38
-1134.87 1472.0699 -213.01601 1.8403113e-38
-1349.12 1483.14 -215.25 1.8403113e-38
-1270.8 1487.5 -217.491 1.8403113e-38
2681.1299 1352.4399 -201.41299 1.8403113e-38
2678.8201 1364.87 -205.91701 1.8403113e-38
-946.59302 1437.02 -201.83501 1.8403113e-38
-1300.5699 1440.1899 -200.02901 1.8403113e-38
2685.96 1328.33 -192.681 1.8403113e-38
2682.5801 1339.37 -196.668 1.8403113e-38
2697.45 1297.22 -181.45599 1.8403113e-38
2690.1699 1304.3199 -183.979 1.8403113e-38
2690.6299 1318.62 -189.187 1.8403113e-38
2704.47 1276.47 -173.966 1.8403113e-38
2695.9299 1282.35 -176.033 1.8403113e-38
2712.5601 1244.15 -162.271 1.8403113e-38
2707.26 1252.62 -165.31 1.8403113e-38
2702.6101 1261.6899 -168.573 1.8403113e-38
2719.46 1211.95 -150.614 1.8403113e-38
2719.0701 1224.08 -155.02299 1.8403113e-38
2713.98 1232.58 -158.075 1.8403113e-38
-939.29498 1309.05 -155.332 1.8403113e-38
-1158.42 1318.39 -156.897 1.8403113e-38
-1300.73 1328.8101 -159.49899 1.8403113e-38
2717.3601 1198.1 -145.554 1.8403113e-38
2725.22 1191.95 -143.384 1.8403113e-38
-940.69702 1284.74 -146.47301 1.8403113e-38
-1291.61 1299.02 -148.73399 1.8403113e-38
2734.1799 1162.85 -132.869 1.8403113e-38
2728.9299 1170.8199 -135.728 1.8403113e-38
2728.3201 1182.25 -139.879 1.8403113e-38
-1290.9 1271.54 -138.74001 1.8403113e-38
2737.27 1130.49 -121.121 1.8403113e-38
2732.1299 1149.79 -128.10001 1.8403113e-38
2741.2 1144.5699 -126.276 1.8403113e-38
-1287.98 1243.6801 -128.62601 1.8403113e-38
2754.8799 1108.4399 -113.247 1.8403113e-38
2741.96 1111.22 -114.148 1.8403113e-38
2746.2 1125.17 -119.261 1.8403113e-38
-1286.73 1216.35 -118.695 1.8403113e-38
2755.9199 1076.34 -101.572 1.8403113e-38
2758.21 1088.54 -106.032 1.8403113e-38
2750.3701 1094.58 -108.165 1.8403113e-38
-1285.2 1189.1 -108.792 1.8403113e-38
2760.23 1057.59 -94.787598 1.8403113e-38
2772.9099 1054.3 -93.695396 1.8403113e-38
2764.47 1070.71 -99.594803 1.8403113e-38
-1285.37 1162.34 -99.051003 1.8403113e-38
2783.5901 1018.43 -80.732101 1.8403113e-38
2781.49 1027.63 -84.064201 1.8403113e-38
2771.53 1032.6 -85.788498 1.8403113e-38
2770.1299 1042.23 -89.279999 1.8403113e-38
-1291.15 1136.78 -89.702797 1.8403113e-38
2786.6001 999.59003 -73.902802 1.8403113e-38
2791.9399 992.15002 -71.240601 1.8403113e-38
2777.6899 1005.18 -75.8619 1.8403113e-38
-1287.86 1109.5 -79.805 1.8403113e-38
2796.79 964.57098 -61.245701 1.8403113e-38
2795.27 973.755 -64.574898 1.8403113e-38
2790.98 981.664 -67.417 1.8403113e-38
-1289.34 1056.78 -60.6073 1.8403113e-38
-1282.34 1081.97 -69.832802 1.8403113e-38
2806.22 939.43103 -52.176701 1.8403113e-38
2801.3501 947.03198 -54.901798 1.8403113e-38
2796.4099 954.58502 -57.609001 1.8403113e-38
-1285.27 1029.73 -50.800999 1.8403113e-38
2802.97 909.34399 -41.201698 1.8403113e-38
2805.6899 919.95001 -45.0839 1.8403113e-38
2809.2 931.01501 -49.139599 1.8403113e-38
-1279.9399 1002.64 -40.988098 1.8403113e-38
2797.1699 888.35901 -33.517399 1.8403113e-38
2797.3601 897.72998 -36.928699 1.8403113e-38
-1275.34 975.823 -31.2675 1.8403113e-38
2772.6001 852.18201 -20.1481 1.8403113e-38
2780.6299 863.96698 -24.503201 1.8403113e-38
2788.51 875.90802 -28.9144 1.8403113e-38
-1280.38 950.487 -22.0063 1.8403113e-38
2759.335 834.4895 -13.59925 1.8403113e-38
-1275.27 923.81 -12.342 1.8403113e-38
2741.71 799.17603 -0.60202003 1.8403113e-38
2755.1499 811.74402 -5.2873902 1.8403113e-38
2758.98 821.47803 -8.8616304 1.8403113e-38
-1270.9 897.37 -2.7576399 1.8403113e-38
2728.21 770.72803 9.8626404 1.8403113e-38
2732.5 780.02399 6.44417 1.8403113e-38
2741.4399 790.83002 2.43712 1.8403113e-38
-1274.22 871.93402 6.5255198 1.8403113e-38
2739.53 757.71503 14.5027 1.8403113e-38
2741.74 750.242 17.2036 1.8403113e-38
2739.1699 765.69202 11.6034 1.8403113e-38
-1268.36 845.52899 16.084801 1.8403113e-38
2743.05 718.68799 28.6742 1.8403113e-38
2741.1399 726.17297 25.9669 1.8403113e-38
2739.1499 733.64099 23.2658 1.8403113e-38
2735.1699 740.62 20.759899 1.8403113e-38
-1270.2 820.01801 25.3829 1.8403113e-38
2854.71 699.19702 34.8321 1.8403113e-38
2867.2 692.59601 37.129902 1.8403113e-38
2758.3899 706.03802 33.148998 1.8403113e-38
2795.3601 705.21503 33.139198 1.8403113e-38
2854.9399 707.95898 31.642 1.8403113e-38
2744.8899 711.18903 31.387699 1.8403113e-38
-1272.8 794.58899 34.6576 1.8403113e-38
2874.1101 658.591 49.445499 1.8403113e-38
2870.77 666.87 46.460899 1.8403113e-38
2866.3701 674.95599 43.555199 1.8403113e-38
2868.8 684.08002 40.215302 1.8403113e-38
-1267.1899 768.49701 44.1049 1.8403113e-38
2886.6599 633.82098 58.353401 1.8403113e-38
2883.54 642.25201 55.311699 1.8403113e-38
2876.3799 650.14398 52.499901 1.8403113e-38
-1269.3101 743.09302 53.366402 1.8403113e-38
2890.5701 607.86499 67.765404 1.8403113e-38
2888.6799 616.46899 64.650398 1.8403113e-38
2887.71 625.15002 61.500099 1.8403113e-38
-1284.17 718.50403 62.438202 1.8403113e-38
2895.76 581.91699 77.163803 1.8403113e-38
2894.74 595.01855 72.405197 1.8403113e-38
-1175.01 686.77197 73.071098 1.8403113e-38
-3792.4399 740.52899 75.411003 1.8403113e-38
2901.55 547.02698 89.811096 1.8403113e-38
2903.22 555.88202 86.574898 1.8403113e-38
2895.8201 564.38397 83.543198 1.8403113e-38
2896.3301 573.17401 80.3405 1.8403113e-38
-1185.37 662.55402 81.9702 1.8403113e-38
2898.96 529.41901 96.239899 1.8403113e-38
2906.05 520.664 99.366302 1.8403113e-38
2901.8 538.23798 93.007004 1.8403113e-38
-1716.17 629.58002 98.409798 1.8403113e-38
2909.8101 494.103 109 1.8403113e-38
2909.97 502.957 105.776 1.8403113e-38
2911.05 511.80701 102.547 1.8403113e-38
-1646.99 598.88702 108.999 1.8403113e-38
