# .PCD v0.7 - Point Cloud Data file format
VERSION 0.7
FIELDS x y z rgb
SIZE 4 4 4 4
TYPE F F F F
COUNT 1 1 1 1
WIDTH 346
HEIGHT 1
VIEWPOINT 0 0 0 1 0 0 0
POINTS 346
DATA ascii
641.646 2738.3401 -290.48599 1.8403113e-38
418.673 2757.29 -290.01901 1.8403113e-38
505.82999 2750.8701 -290.55899 1.8403113e-38
320.04999 2767.9299 -290.634 1.8403113e-38
385.724 2761.48 -290.45599 1.8403113e-38
212.672 2779.6899 -291.366 1.8403113e-38
253.69099 2772.6001 -290.14301 1.8403113e-38
286.55899 2770.78 -290.565 1.8403113e-38
140.41299 2784.8799 -290.86801 1.8403113e-38
179.44901 2780.55 -290.58499 1.8403113e-38
17.1411 2797.8 -291.5 1.8403113e-38
58.447201 2794.0701 -291.50601 1.8403113e-38
97.9104 2790.8701 -291.642 1.8403113e-38
-111.335 2807.5801 -290.81601 1.8403113e-38
-68.583 2805.1001 -291.32501 1.8403113e-38
-25.200001 2801.49 -291.44299 1.8403113e-38
-255.214 2819.8401 -290.53 1.8403113e-38
-163.564 2815.0801 -291.82001 1.8403113e-38
-358.84698 2828.27 -290.177 1.8403113e-38
-307.33801 2824.6799 -290.56799 1.8403113e-38
-213.533 2820.3101 -292.073 1.8403113e-38
-597.83899 2851.1101 -290.59399 1.8403113e-38
-732.685 2864.0601 -290.85501 1.8403113e-38
3009.97 2495.27 -280.26901 1.8403113e-38
2948.3101 2504.1499 -281.46201 1.8403113e-38
2770.28 2517.1399 -280.31299 1.8403113e-38
2840.8601 2511.51 -280.59399 1.8403113e-38
2859.03 2514.3799 -282.23199 1.8403113e-38
2653.46 2528.1399 -280.45999 1.8403113e-38
2680.97 2529.26 -281.76999 1.8403113e-38
2693.1799 2527.25 -281.444 1.8403113e-38
2729.8899 2520.5 -280.20401 1.8403113e-38
2744.47 2521.05 -280.88101 1.8403113e-38
2570.3101 2538.55 -281.49799 1.8403113e-38
2582.25 2537.6499 -281.564 1.8403113e-38
2603.74 2531.4399 -280.01901 1.8403113e-38
2617.26 2532.6201 -280.89099 1.8403113e-38
2629.8101 2532.05 -281.09799 1.8403113e-38
2642.9299 2532.1499 -281.565 1.8403113e-38
2668.26 2530.3501 -281.74799 1.8403113e-38
2433.98 2549.8899 -281.12399 1.8403113e-38
2443.99 2546.8701 -280.36099 1.8403113e-38
2456.3701 2548.9299 -281.51199 1.8403113e-38
2466.3999 2545.72 -280.67999 1.8403113e-38
2477.23 2544.1399 -280.46201 1.8403113e-38
2513.26 2545.52 -282.146 1.8403113e-38
2525.96 2546.8501 -283.04901 1.8403113e-38
2536.47 2543.8899 -282.32001 1.8403113e-38
2549.73 2545.8101 -283.45401 1.8403113e-38
2359.8201 2558.8501 -281.93201 1.8403113e-38
2381.25 2557.51 -282.15302 1.8403113e-38
2391.99 2556.7 -282.21301 1.8403113e-38
2401.6799 2553.1699 -281.25101 1.8403113e-38
2411.7 2550.4299 -280.58701 1.8403113e-38
2492.6899 2551.79 -283.74301 1.8403113e-38
2214.6201 2566.78 -280.03299 1.8403113e-38
2256.24 2568.01 -281.845 1.8403113e-38
2265.53 2563.77 -280.61499 1.8403113e-38
2277.0701 2567.6201 -282.38901 1.8403113e-38
2286.8601 2565.03 -281.772 1.8403113e-38
2296.0701 2560.55 -280.45401 1.8403113e-38
2307.48 2563.2 -281.789 1.8403113e-38
2317.8101 2562.1599 -281.75 1.8403113e-38
2329.6299 2565.49 -283.34799 1.8403113e-38
2340.01 2564.25 -283.23999 1.8403113e-38
2372.1799 2562.6399 -283.715 1.8403113e-38
2135.5801 2578.6499 -281.73499 1.8403113e-38
2145.46 2577.22 -281.54099 1.8403113e-38
2165.1799 2574.1201 -281.065 1.8403113e-38
2175.3601 2574.29 -281.46301 1.8403113e-38
2184.8401 2570.6899 -280.47 1.8403113e-38
2205.6201 2572.46 -281.79501 1.8403113e-38
2026.17 2586.2 -280.87299 1.8403113e-38
2036.0699 2584.73 -280.66501 1.8403113e-38
2095.8501 2582.6201 -281.86899 1.8403113e-38
2116.3899 2585.9299 -283.742 1.8403113e-38
1896.02 2596.96 -280.49399 1.8403113e-38
1926.1801 2597.3799 -281.63599 1.8403113e-38
1936.4399 2592.02 -280.03299 1.8403113e-38
1946.2 2599.75 -283.15399 1.8403113e-38
1956.42 2592.3501 -280.80801 1.8403113e-38
1966.34 2598.97 -283.534 1.8403113e-38
1976.42 2591.3999 -281.12299 1.8403113e-38
1986.4399 2595.98 -283.11099 1.8403113e-38
1996.38 2590.1299 -281.31799 1.8403113e-38
2006.38 2590.78 -281.88199 1.8403113e-38
2016.39 2591.3501 -282.418 1.8403113e-38
2076.8501 2593.95 -285.349 1.8403113e-38
2087.4299 2598.6101 -287.38599 1.8403113e-38
2107.4299 2595.52 -286.923 1.8403113e-38
1813.35 2607.4399 -281.57401 1.8403113e-38
1823.74 2606.79 -281.67801 1.8403113e-38
1834.61 2602.3101 -280.41199 1.8403113e-38
1844.5699 2604.28 -281.45401 1.8403113e-38
1854.78 2604.3 -281.797 1.8403113e-38
1865.37 2600.49 -280.763 1.8403113e-38
1875.34 2602.21 -281.716 1.8403113e-38
1885.34 2603.8501 -282.63901 1.8403113e-38
1905.73 2602.1899 -282.70901 1.8403113e-38
1915.8199 2602.6399 -283.20499 1.8403113e-38
2057.47 2604.98 -288.70901 1.8403113e-38
2067.3601 2601.3701 -287.728 1.8403113e-38
1717.41 2615.8101 -281.45001 1.8403113e-38
1729.08 2611.3501 -280.22 1.8403113e-38
1738.03 2618.79 -283.211 1.8403113e-38
1749.8 2613.22 -281.57999 1.8403113e-38
1760.34 2613.1001 -281.883 1.8403113e-38
1770.6899 2613.8201 -282.48401 1.8403113e-38
1781.38 2612.6001 -282.39099 1.8403113e-38
1792.03 2611.28 -282.26401 1.8403113e-38
1802.1899 2612.6699 -283.10001 1.8403113e-38
1592.41 2629.5901 -282.33499 1.8403113e-38
1638.5699 2625.76 -282.466 1.8403113e-38
1659.6899 2629.1399 -284.38599 1.8403113e-38
1672.28 2623.3999 -282.71899 1.8403113e-38
1683.52 2622.1101 -282.621 1.8403113e-38
1693.78 2624.3899 -283.78299 1.8403113e-38
1531.0699 2638.8401 -283.66901 1.8403113e-38
1545.25 2632.6101 -281.879 1.8403113e-38
1555.59 2636.02 -283.45499 1.8403113e-38
1569.24 2630.4299 -281.87601 1.8403113e-38
1580.21 2631.8501 -282.75299 1.8403113e-38
1603.03 2631.71 -283.45401 1.8403113e-38
1612.78 2636.45 -285.492 1.8403113e-38
1625.74 2631.1699 -284.004 1.8403113e-38
1646.98 2634.76 -286.005 1.8403113e-38
1392.23 2646.26 -281.79401 1.8403113e-38
1418.29 2645.23 -282.27802 1.8403113e-38
1431.66 2643.6699 -282.14999 1.8403113e-38
1442.51 2647.1399 -283.76801 1.8403113e-38
1456.59 2643.6001 -282.94699 1.8403113e-38
1469.77 2641.6599 -282.67599 1.8403113e-38
1480.97 2643.9399 -283.871 1.8403113e-38
1494.42 2640.8701 -283.203 1.8403113e-38
1505.58 2642.9399 -284.32001 1.8403113e-38
1518.54 2640.51 -283.86401 1.8403113e-38
1305.62 2658.6299 -283.42999 1.8403113e-38
1320.98 2655.7 -282.87299 1.8403113e-38
1335.29 2654.27 -282.82599 1.8403113e-38
1346.29 2658.5701 -284.74399 1.8403113e-38
1360.96 2656.03 -284.30701 1.8403113e-38
1375.54 2653.3401 -283.81201 1.8403113e-38
1403.13 2650.0701 -283.53299 1.8403113e-38
1200.77 2666.46 -282.819 1.8403113e-38
1242.67 2669.5 -285.298 1.8403113e-38
1260.98 2663.1699 -283.60599 1.8403113e-38
1271.59 2668.9099 -286.035 1.8403113e-38
1287.1899 2666.3301 -285.61499 1.8403113e-38
1115.13 2678.9399 -284.52802 1.8403113e-38
1132.13 2677.3 -284.491 1.8403113e-38
1148.47 2676.25 -284.64899 1.8403113e-38
1165.28 2674.24 -284.47198 1.8403113e-38
1180.36 2674.4199 -285.03201 1.8403113e-38
1211.41 2672.6899 -285.42801 1.8403113e-38
1226.8199 2671.5801 -285.53201 1.8403113e-38
1008.24 2688.47 -284.46701 1.8403113e-38
1025.17 2688.77 -285.13199 1.8403113e-38
1046.86 2682.8401 -283.69299 1.8403113e-38
1062.41 2684.24 -284.715 1.8403113e-38
1078.51 2684.72 -285.41599 1.8403113e-38
1095.72 2683.48 -285.53201 1.8403113e-38
928.948 2697.71 -285.207 1.8403113e-38
952.60901 2691.55 -283.75299 1.8403113e-38
969.771 2692.46 -284.646 1.8403113e-38
986.25201 2693.9099 -285.715 1.8403113e-38
825.51898 2705.8 -284.73599 1.8403113e-38
842.53302 2708.76 -286.371 1.8403113e-38
883.70001 2706.27 -286.82001 1.8403113e-38
901.84698 2707.1699 -287.745 1.8403113e-38
755.53101 2714.1699 -285.47 1.8403113e-38
778.30798 2712.3601 -285.56201 1.8403113e-38
796.17798 2715.1201 -287.14999 1.8403113e-38
860.84497 2710.1201 -287.466 1.8403113e-38
676.49402 2727.21 -287.59698 1.8403113e-38
701.12097 2724.99 -287.603 1.8403113e-38
725.61298 2722.46 -287.492 1.8403113e-38
596.703 2736.51 -288.34299 1.8403113e-38
624.664 2732.6599 -287.86899 1.8403113e-38
543.258 2740.55 -288.052 1.8403113e-38
567.83502 2740.6299 -288.88699 1.8403113e-38
359.59 2759.8401 -289.00201 1.8403113e-38
450.66599 2753.27 -289.61499 1.8403113e-38
480.203 2750.6899 -289.651 1.8403113e-38
-467.763 2836.04 -289.41 1.8403113e-38
-410.58301 2831.1201 -289.508 1.8403113e-38
-526.07703 2840.5801 -289.13901 1.8403113e-38
-656.71399 2853.8201 -289.642 1.8403113e-38
-791.19598 2864.47 -289.078 1.8403113e-38
-942.97803 2878.6499 -289.22699 1.8403113e-38
-868.71198 2872.98 -289.616 1.8403113e-38
-1096.03 2888.25 -287.672 1.8403113e-38
-1020.26 2884.4399 -288.78299 1.8403113e-38
-1182.1 2895.29 -287.39401 1.8403113e-38
-1441.37 2908.1599 -283.53299 1.8403113e-38
-1272.17 2902.5801 -287.07501 1.8403113e-38
-1551.8101 2919.1299 -283.87799 1.8403113e-38
-1366.26 2910.03 -286.681 1.8403113e-38
-1665.46 2929.48 -283.88901 1.8403113e-38
-1787.92 2941.23 -284.12201 1.8403113e-38
-1922.99 2955.5701 -284.875 1.8403113e-38
-2045.45 2963.0701 -283.56699 1.8403113e-38
-2174.8999 2970.98 -282.17599 1.8403113e-38
-2316.0801 2980.73 -281.06799 1.8403113e-38
3044.3701 2475.73 -274.31699 1.8403113e-38
2858.75 2496.3 -275.66901 1.8403113e-38
2876.97 2498.8701 -277.202 1.8403113e-38
2890.73 2496.3 -276.72 1.8403113e-38
2908.48 2497.76 -277.83401 1.8403113e-38
2920.99 2493.46 -276.68701 1.8403113e-38
2958.23 2496.74 -279.10199 1.8403113e-38
2976.3201 2497.3601 -279.92099 1.8403113e-38
2991.73 2495.0701 -279.599 1.8403113e-38
3024.77 2491.9399 -279.54999 1.8403113e-38
3042.4299 2491.0601 -279.811 1.8403113e-38
2778.4299 2509.01 -277.63599 1.8403113e-38
2808.5701 2509.52 -278.811 1.8403113e-38
2823.4299 2509.1499 -279.16501 1.8403113e-38
2715.3799 2519.8 -279.47101 1.8403113e-38
2755.02 2516.1399 -279.448 1.8403113e-38
2795.5901 2511.9399 -279.263 1.8403113e-38
2589.8201 2529.3 -278.78601 1.8403113e-38
2703.1699 2522.03 -279.879 1.8403113e-38
2495.9199 2534.75 -277.67499 1.8403113e-38
2556.0601 2535.21 -279.81601 1.8403113e-38
2421.3301 2546.74 -279.56601 1.8403113e-38
2346.9299 2553.1499 -279.44199 1.8403113e-38
2194.0801 2566.0901 -279.10699 1.8403113e-38
2224.6101 2565.6201 -279.94101 1.8403113e-38
2233.9299 2561.6299 -278.802 1.8403113e-38
2244.1201 2561.22 -278.98801 1.8403113e-38
2045.17 2570.98 -275.983 1.8403113e-38
2124.79 2573.48 -279.50699 1.8403113e-38
2154.3999 2570.1399 -279.271 1.8403113e-38
1707.6899 2611.8899 -279.70999 1.8403113e-38
-2464.3401 2990.47 -279.72299 1.8403113e-38
-2633 3004.3201 -279.19699 1.8403113e-38
-2814.5601 3019.3999 -278.69 1.8403113e-38
-3011.98 3036.26 -278.30801 1.8403113e-38
-3180.3701 3041.22 -274.56799 1.8403113e-38
-3385.6201 3053.98 -272.444 1.8403113e-38
-3619.3401 3071.24 -271.013 1.8403113e-38
3035.26 2450.8201 -264.991 1.8403113e-38
-3856.6101 3085.5601 -268.39801 1.8403113e-38
-4109.96 3100.1201 -265.34299 1.8403113e-38
-4390.1099 3117.21 -262.32599 1.8403113e-38
3046.4299 2411.76 -251.198 1.8403113e-38
3046.0601 2427.5 -256.88901 1.8403113e-38
3033.8 2433.1299 -258.53101 1.8403113e-38
-4702.98 3137.6001 -259.42801 1.8403113e-38
-5039 3158.22 -255.84801 1.8403113e-38
-5379.71 3174.3101 -250.476 1.8403113e-38
3048.0901 2397.3301 -246.021 1.8403113e-38
3041 2360.74 -232.524 1.8403113e-38
3039.78 2375 -237.65401 1.8403113e-38
-5558.1299 3149.5801 -235.642 1.8403113e-38
3035.95 2327.04 -220.14301 1.8403113e-38
3042.03 2346.52 -227.40601 1.8403113e-38
3036.5701 2312.98 -215.069 1.8403113e-38
3035.7 2283.8999 -204.498 1.8403113e-38
3035.45 2297.8301 -209.53799 1.8403113e-38
-5497.9302 3072.3201 -209.617 1.8403113e-38
3035.6699 2256.22 -194.463 1.8403113e-38
3035.77 2270.03 -199.472 1.8403113e-38
3028.1699 2237.5 -187.431 1.8403113e-38
-5310.4902 2970.9099 -179.02299 1.8403113e-38
-5202.27 2888.0701 -152.554 1.8403113e-38
-5216.9902 2829.74 -130.927 1.8403113e-38
-5219.3398 2769.2 -108.905 1.8403113e-38
2691.01 1996.29 -88.907898 1.8403113e-38
2538.9299 1879.5601 -41.5947 1.8403113e-38
2551.72 1894.96 -47.597599 1.8403113e-38
-5196.2798 2583.9199 -42.505299 1.8403113e-38
2514.28 1850.53 -30.260401 1.8403113e-38
2525.75 1851.21 -30.8836 1.8403113e-38
2523.4299 1862.83 -35.0191 1.8403113e-38
2513.0701 1824.76 -20.880501 1.8403113e-38
2512.6499 1830.66 -23.004299 1.8403113e-38
2530.5701 1847.6801 -29.7647 1.8403113e-38
2510.6201 1799.51 -11.6475 1.8403113e-38
2508.76 1804.36 -13.3451 1.8403113e-38
2507.165 1812.345 -16.185249 1.8403113e-38
2507.8401 1775.26 -2.7665401 1.8403113e-38
2502.8201 1783.96 -5.75316 1.8403113e-38
2511.49 1782.71 -5.5855799 1.8403113e-38
2506.3401 1791.46 -8.5894804 1.8403113e-38
-4546.7998 2432.51 -8.9797401 1.8403113e-38
2506.3301 1744.67 8.3720798 1.8403113e-38
2507.2651 1755.78 4.3154597 1.8403113e-38
2504.3901 1765.3 0.95943797 1.8403113e-38
-1911.52 2159.97 3.1368699 1.8403113e-38
-4629.7598 2388.95 9.53578 1.8403113e-38
2505.75 1715.89 18.8235 1.8403113e-38
2512.27 1713.26 19.562201 1.8403113e-38
2504.5801 1725.65 15.3244 1.8403113e-38
2510.24 1722.75 16.1912 1.8403113e-38
2504.1201 1735.8199 11.6539 1.8403113e-38
2515.3201 1735.22 11.5009 1.8403113e-38
-1901.17 2125.5801 15.2608 1.8403113e-38
2518.1699 1685.13 29.5669 1.8403113e-38
2507.47 1696.47 25.8074 1.8403113e-38
2518.02 1692.5449 26.88195 1.8403113e-38
2513.6548 1706.165 22.089251 1.8403113e-38
-4865.21 2363.04 26.673901 1.8403113e-38
2515.4368 1664.7533 37.041203 1.8403113e-38
2509.3601 1677.48 32.626999 1.8403113e-38
2512.8 1673.67 33.895401 1.8403113e-38
2528.9199 1629.75 49.285099 1.8403113e-38
2526.7051 1636.4351 46.93655 1.8403113e-38
2526.1951 1645.875 43.5298 1.8403113e-38
2518.5701 1655.99 40.1161 1.8403113e-38
2524.73 1652.75 41.0858 1.8403113e-38
-4581.1001 2273.26 49.872898 1.8403113e-38
2572.05 1598.29 59.2719 1.8403113e-38
2552.5901 1605.24 57.391998 1.8403113e-38
2565.29 1602.28 58.0471 1.8403113e-38
2549.71 1619.36 52.367901 1.8403113e-38
2556.105 1613.145 54.411652 1.8403113e-38
2528.5952 1622.5701 51.8992 1.8403113e-38
3041.01 1532.09 67.842796 1.8403113e-38
2585.1699 1569.73 69.191002 1.8403113e-38
2594.51 1575.6899 66.723396 1.8403113e-38
2579.5601 1589.26 62.298698 1.8403113e-38
2591.5352 1583.05 64.154099 1.8403113e-38
2575.8301 1593.8 60.7747 1.8403113e-38
-4606.1401 2221.48 69.465599 1.8403113e-38
3041.4399 1505.9301 77.312798 1.8403113e-38
3041.3701 1514.65 74.153397 1.8403113e-38
3043.23 1523.39 70.925201 1.8403113e-38
2651.9199 1536.86 78.910797 1.8403113e-38
2849.9299 1536.16 72.653397 1.8403113e-38
2617.3601 1546.25 76.6455 1.8403113e-38
2630.6599 1541.53 77.917099 1.8403113e-38
2623.25 1554.505 73.459702 1.8403113e-38
2595.9199 1563.02 71.271301 1.8403113e-38
3041.1299 1479.77 86.804604 1.8403113e-38
3041.3201 1488.49 83.638603 1.8403113e-38
3039.4199 1497.24 80.528297 1.8403113e-38
-4383.9102 2144.8999 89.914902 1.8403113e-38
3037.6001 1445.0699 99.500603 1.8403113e-38
3038.1101 1453.75 96.335403 1.8403113e-38
3042.52 1462.25 93.111397 1.8403113e-38
3031.8799 1471.4301 90.133301 1.8403113e-38
3035.6101 1419.04 109 1.8403113e-38
3038.3401 1427.54 105.827 1.8403113e-38
3037.02 1436.38 102.667 1.8403113e-38
-4445.6602 2097.8501 108.999 1.8403113e-38
