# .PCD v0.7 - Point Cloud Data file format
VERSION 0.7
FIELDS x y z rgb
SIZE 4 4 4 4
TYPE F F F F
COUNT 1 1 1 1
WIDTH 326
HEIGHT 1
VIEWPOINT 0 0 0 1 0 0 0
POINTS 326
DATA ascii
-741.55499 -122.65399 139.629 9.2197031e-39
-761.62402 -117.65302 136.963 9.2197031e-39
-779.20502 -109.995 133.77901 9.2197031e-39
373.56799 171.92899 139.43201 9.2197031e-39
635.37 241.16599 139.366 9.2197031e-39
645.04834 244.65967 139.12166 9.2197031e-39
658.62598 248.914 138.946 9.2197031e-39
2993.8401 860.914 139.80299 9.2197031e-39
2989.79 880.58704 134.429 9.2197031e-39
-685.19 -140.323 148.056 9.2197031e-39
-706.70099 -134.99597 145.207 9.2197031e-39
-711.43298 -126.09497 142.577 9.2197031e-39
-233.12199 -14.28302 146.261 9.2197031e-39
-175.274 -1.2189941 146.826 9.2197031e-39
-107.961 15.231995 147.159 9.2197031e-39
-71.401802 22.848022 147.681 9.2197031e-39
-37.569199 29.322998 148.314 9.2197031e-39
-16.316799 32.46698 148.95 9.2197031e-39
6.0290599 35.669006 149.646 9.2197031e-39
39.194099 44.242981 149.688 9.2197031e-39
170.797 89.510986 146.944 9.2197031e-39
363.267 136.93201 147.797 9.2197031e-39
372.70767 146.161 146.05034 9.2197031e-39
378.353 154.047 144.392 9.2197031e-39
383.13751 156.74599 144.02 9.2197031e-39
361.72699 164.15601 140.638 9.2197031e-39
375.67499 163.29343 141.81386 9.2197031e-39
386.14035 164.57933 142.19501 9.2197031e-39
384.17001 170.423 140.54601 9.2197031e-39
628.50897 205.45499 148.151 9.2197031e-39
635.63062 205.69267 148.57567 9.2197031e-39
642.2713 207.021 148.68434 9.2197031e-39
653.33099 208.888 148.95599 9.2197031e-39
667.54303 209.948 149.651 9.2197031e-39
649.495 219.323 145.99001 9.2197031e-39
654.52051 214.487 147.58675 9.2197031e-39
663.89551 212.9935 148.61349 9.2197031e-39
638.87646 226.68149 143.35901 9.2197031e-39
641.44031 224.40332 144.12416 9.2197031e-39
636.88702 232.30801 141.765 9.2197031e-39
645.79718 233.94302 141.9498 9.2197031e-39
657.69202 237.09 141.946 9.2197031e-39
660.61499 238.50601 141.77901 9.2197031e-39
654.91003 241.32851 140.658 9.2197031e-39
2989.74 835.96899 145.98599 9.2197031e-39
-676.53497 -147.77301 150.577 9.2197031e-39
64.073402 49.414978 150.047 9.2197031e-39
2997.6201 793.51898 157.52299 9.2197031e-39
2994.3899 816.53796 151.338 9.2197031e-39
232.983 50.356995 161.334 9.2197031e-39
2999.8301 749.93799 168.966 9.2197031e-39
3003.8701 774.45001 162.89 9.2197031e-39
129.33 -22.172974 173.05099 9.2197031e-39
3005.72 730.81403 174.323 9.2197031e-39
64.554497 -70.299988 181.09801 9.2197031e-39
3036.27 692.67737 186.28999 9.2197031e-39
3014 708.87793 180.57201 9.2197031e-39
3032.6499 648.05652 197.605 9.2197031e-39
3041.23 669.8775 192.537 9.2197031e-39
-96.5354 -187.39001 200.439 9.2197031e-39
3040.1499 625.73315 203.901 9.2197031e-39
-422.38 -423.16003 239.283 9.2197031e-39
-405.17999 -434.45996 243.38499 9.2197031e-39
-385.30701 -432.52002 244.23801 9.2197031e-39
-372.755 -433.98999 245.47701 9.2197031e-39
-351.48401 -430.31006 245.976 9.2197031e-39
-338.259 -430.79004 247.00301 9.2197031e-39
-411.34799 -427.97998 241.284 9.2197031e-39
-317.22101 -426.55005 247.341 9.2197031e-39
-304.905 -427.26001 248.364 9.2197031e-39
-289.474 -426.90002 249.32401 9.2197031e-39
-276.491 -426.63 250.142 9.2197031e-39
-261.95401 -426.5 251.101 9.2197031e-39
-249.83501 -426.54004 251.94 9.2197031e-39
-228.72501 -420.12 251.717 9.2197031e-39
-218.237 -421.12 252.69099 9.2197031e-39
-198.875 -415.5 252.558 9.2197031e-39
-187.77901 -415.51001 253.31599 9.2197031e-39
-174.446 -414.84998 254.05701 9.2197031e-39
-164.164 -415.25 254.86301 9.2197031e-39
-150.952 -414.26001 255.509 9.2197031e-39
-138.64999 -412.30005 255.84 9.2197031e-39
-129.763 -415.19995 257.19699 9.2197031e-39
-117.576 -412.94995 257.448 9.2197031e-39
-105.997 -412.73999 258.18399 9.2197031e-39
-99.374397 -415.97998 259.47299 9.2197031e-39
-97.253998 -425.69995 262.138 9.2197031e-39
-85.8964 -423.70996 262.397 9.2197031e-39
-73.758797 -422.29004 262.85901 9.2197031e-39
-62.544899 -420.02002 263.035 9.2197031e-39
-52.4921 -420.54004 263.85699 9.2197031e-39
3.84761 -420.02002 267.56699 9.2197031e-39
-42.686501 -419.51001 264.26001 9.2197031e-39
-5.5485802 -414.36499 265.461 9.2197031e-39
-21.9907 -406.85999 262.396 9.2197031e-39
-14.8888 -408.58997 263.327 9.2197031e-39
5.2729101 -466.59998 279.73401 9.2197031e-39
11.5 -444.64001 274.47101 9.2197031e-39
4.4107499 -430.10999 270.22198 9.2197031e-39
10.7029 -434.52002 271.79501 9.2197031e-39
7.9555101 -501.21997 288.88901 9.2197031e-39
8.1435404 -488.5 285.60501 9.2197031e-39
7.0192199 -476.02002 282.29599 9.2197031e-39
11.5554 -539.19995 298.97501 9.2197031e-39
13.9703 -520 294.164 9.2197031e-39
11.1082 -511.31995 291.72 9.2197031e-39
15.8557 -576.88 309.03 9.2197031e-39
13.8942 -565.59998 305.97501 9.2197031e-39
12.1123 -552.08997 302.35199 9.2197031e-39
15.8891 -609.39001 317.45801 9.2197031e-39
13.522 -598.05005 314.35699 9.2197031e-39
13.6849 -631.56995 323.05499 9.2197031e-39
20.788601 -635.28003 324.49899 9.2197031e-39
15.788 -681.09998 336.03201 9.2197031e-39
91.1632 -670.29004 338.37701 9.2197031e-39
14.9091 -665.31995 331.88199 9.2197031e-39
104.628 -659.98999 336.62601 9.2197031e-39
114.725 -659.85999 337.28201 9.2197031e-39
58.758801 -717.14001 348.30301 9.2197031e-39
21.2771 -709.89001 343.866 9.2197031e-39
17.2031 -699.26001 340.832 9.2197031e-39
18.5536 -757.19995 355.939 9.2197031e-39
17.047501 -740.35999 351.47198 9.2197031e-39
39.486698 -737.57996 352.284 9.2197031e-39
97.757896 -719.40002 351.552 9.2197031e-39
56.289902 -843.82996 380.95901 9.2197031e-39
2693.5601 -196.41998 393.263 9.2197031e-39
2606.74 -275.14697 407.73401 9.2197031e-39
2613.77 -256.36798 403.349 9.2197031e-39
2631.5901 -242.73798 401.034 9.2197031e-39
2571.79 -321.95398 417.47601 9.2197031e-39
2586.1899 -308.11298 414.87299 9.2197031e-39
2589.6799 -288.59399 410.05399 9.2197031e-39
-7.6989498 -1025.48 423.659 9.2197031e-39
174.032 -994.15002 427.94699 9.2197031e-39
186.037 -995.95996 429.23599 9.2197031e-39
2559.0701 -356.50897 425.56201 9.2197031e-39
2564.1499 -340.29303 421.707 9.2197031e-39
2581.77 -401.72998 438.827 9.2197031e-39
2560.6201 -377.49902 431.10599 9.2197031e-39
3034.5 -286.539 439.89001 9.2197031e-39
182.90601 -1051.12 443.315 9.2197031e-39
2999.6799 -300.07501 441.01999 9.2197031e-39
587.01099 -987.41003 454.397 9.2197031e-39
597.21301 -987.52002 455.121 9.2197031e-39
2549.46 -490.82996 459.707 9.2197031e-39
2559.4399 -473.04004 455.78 9.2197031e-39
2562.6799 -455.85999 451.55099 9.2197031e-39
2595.8999 -445.48999 451.13101 9.2197031e-39
2556.1499 -511.63 465.55499 9.2197031e-39
2702.8201 -460.59998 462.34601 9.2197031e-39
649.70203 -1060.71 477.66699 9.2197031e-39
673.27197 -1060.54 479.23199 9.2197031e-39
661.68903 -1055.28 477.08099 9.2197031e-39
685.19098 -1054.91 478.58801 9.2197031e-39
2565.02 -555.26001 477.466 9.2197031e-39
2564.3501 -536.21997 472.48499 9.2197031e-39
782.45801 -1062.5601 487.20999 9.2197031e-39
793.23297 -1060.15 487.323 9.2197031e-39
767.99701 -1055.77 484.466 9.2197031e-39
1913.6 -770.63 488.79501 9.2197031e-39
1922.6 -757.05005 485.89099 9.2197031e-39
1939.86 -751.82996 485.71701 9.2197031e-39
1956.8199 -743.47998 484.711 9.2197031e-39
1976.54 -739.45996 485.01501 9.2197031e-39
1986.87 -726.40002 482.33801 9.2197031e-39
2008.25 -723 482.91501 9.2197031e-39
2572.9399 -599.43994 489.453 9.2197031e-39
2567.1699 -578.05005 483.51501 9.2197031e-39
763.60699 -1090.21 493.08701 9.2197031e-39
850.09998 -1088.98 498.67599 9.2197031e-39
872.25598 -1076.96 497.07199 9.2197031e-39
884.62598 -1072.42 496.73999 9.2197031e-39
897.72699 -1076.61 498.72101 9.2197031e-39
920.65002 -1067.52 497.92999 9.2197031e-39
932.90002 -1062.55 497.479 9.2197031e-39
970.841 -1061.85 499.88699 9.2197031e-39
905.46997 -1057.09 494.19199 9.2197031e-39
943.69098 -1058.97 497.28699 9.2197031e-39
956.16699 -1054.71 497.03601 9.2197031e-39
1859.33 -823.22998 498.71799 9.2197031e-39
1870.5601 -814.19995 497.14499 9.2197031e-39
1884.7 -804.48999 495.595 9.2197031e-39
1893.4399 -793.48999 493.34 9.2197031e-39
1901.87 -779.5 490.29199 9.2197031e-39
864.63702 -1092.09 500.474 9.2197031e-39
1019.98 -1082.8199 508.67499 9.2197031e-39
988.07501 -1070.01 503.17999 9.2197031e-39
1070.1899 -1070.86 509.005 9.2197031e-39
1026.25 -1066.89 504.978 9.2197031e-39
1082.64 -1069.73 509.56201 9.2197031e-39
1107.7 -1062.85 509.491 9.2197031e-39
996.172 -1058.78 500.82101 9.2197031e-39
1868.85 -851.43994 506.677 9.2197031e-39
2622.0701 -641.96997 503.82599 9.2197031e-39
728.69098 -1179.12 513.74298 9.2197031e-39
1047.33 -1082.42 510.439 9.2197031e-39
1106.1 -1087.9399 515.883 9.2197031e-39
1058.67 -1078.8199 510.28299 9.2197031e-39
1131.11 -1079.77 515.47302 9.2197031e-39
1140.36 -1071.16 513.87299 9.2197031e-39
1156.88 -1072.89 515.44897 9.2197031e-39
1172.63 -1077.02 517.59497 9.2197031e-39
1212.95 -1066.1899 517.54199 9.2197031e-39
1256.33 -1063.54 519.81598 9.2197031e-39
1239.6801 -1059.49 517.63 9.2197031e-39
656.63098 -1231.2 522.31598 9.2197031e-39
1191.16 -1081.8101 520.10101 9.2197031e-39
1237.96 -1085.76 524.32001 9.2197031e-39
1317.11 -1083.24 529.07202 9.2197031e-39
1203.96 -1079.61 520.40503 9.2197031e-39
1295.24 -1075.89 525.672 9.2197031e-39
1325.01 -1071.73 526.62799 9.2197031e-39
1345.01 -1075.4 528.94397 9.2197031e-39
1274.34 -1065.59 521.57703 9.2197031e-39
1352.23 -1062.91 526.20099 9.2197031e-39
1370.73 -1063.79 527.69202 9.2197031e-39
1387.05 -1064.78 529.06299 9.2197031e-39
1399.63 -1056.49 527.77301 9.2197031e-39
635.89398 -1298.53 538.34698 9.2197031e-39
756.138 -1270.5 539.29199 9.2197031e-39
778.86102 -1242.77 533.65802 9.2197031e-39
875.67499 -1236.02 538.51898 9.2197031e-39
1421.65 -1065.0699 531.49902 9.2197031e-39
1441.0699 -1065.89 533.03699 9.2197031e-39
1459.4301 -1068.47 534.96002 9.2197031e-39
1492.9 -1064.8199 536.29901 9.2197031e-39
1513.27 -1065.51 537.87 9.2197031e-39
1532.6 -1068.03 539.841 9.2197031e-39
1472.05 -1059.52 533.50299 9.2197031e-39
1557.29 -1051.53 537.25098 9.2197031e-39
2298.28 -862.81006 538.94098 9.2197031e-39
2688.8999 -759.13 538.745 9.2197031e-39
2707.71 -743.03003 535.85999 9.2197031e-39
2731.4299 -732.21997 534.67798 9.2197031e-39
2760.0601 -719.80005 533.41302 9.2197031e-39
774.70203 -1290.73 545.802 9.2197031e-39
1638.0699 -1075.14 548.88501 9.2197031e-39
1552.5699 -1067.47 541.06 9.2197031e-39
1603.8 -1060.47 542.74298 9.2197031e-39
1649.04 -1066.02 547.27197 9.2197031e-39
1582.26 -1056.5699 540.26398 9.2197031e-39
2008.2 -981.68005 549.93903 9.2197031e-39
2308.9299 -889.39001 546.55603 9.2197031e-39
2336.8799 -862.83997 541.58502 9.2197031e-39
2695.52 -783.39001 545.48297 9.2197031e-39
863.08801 -1301.77 554.69501 9.2197031e-39
872.66498 -1285.55 551.14801 9.2197031e-39
1679.92 -1075.5699 551.85303 9.2197031e-39
1699.45 -1075.45 553.15503 9.2197031e-39
1766.76 -1075.4399 557.74799 9.2197031e-39
1714.17 -1066.45 551.82703 9.2197031e-39
1733.79 -1065.91 553.02698 9.2197031e-39
1780.48 -1068.09 556.78003 9.2197031e-39
1973.54 -1020.95 557.74597 9.2197031e-39
1992.53 -1012.96 556.97302 9.2197031e-39
2004.53 -1002.3199 555.034 9.2197031e-39
2686.1201 -825.34998 555.71503 9.2197031e-39
2695.1101 -808.06006 551.849 9.2197031e-39
657.099 -1386.75 562.65198 9.2197031e-39
1813.16 -1076.16 561.10199 9.2197031e-39
1826.9399 -1068.4 560.03198 9.2197031e-39
1850.86 -1066.91 561.27899 9.2197031e-39
1869.5699 -1063.5 561.67297 9.2197031e-39
1890.78 -1058.78 561.89697 9.2197031e-39
1914.62 -1059.52 563.71698 9.2197031e-39
1934.48 -1052.9399 563.36798 9.2197031e-39
1991.71 -1057.5 568.45697 9.2197031e-39
1950.4301 -1046.02 562.66302 9.2197031e-39
2677.6201 -868.21997 566.24298 9.2197031e-39
2679.9199 -847.5 561.03003 9.2197031e-39
-10.0339 -1614.8 576.19397 9.2197031e-39
603.25299 -1467.22 579.82599 9.2197031e-39
2642.96 -923.5 578.20001 9.2197031e-39
2650.8401 -901.98999 573.16302 9.2197031e-39
2670.97 -890.37 571.52802 9.2197031e-39
755.68597 -1452.74 586.47998 9.2197031e-39
2667.5 -959.31995 589.15399 9.2197031e-39
2675.8899 -1013.6801 603.81403 9.2197031e-39
2695.8899 -1001.73 602.08197 9.2197031e-39
2681.28 -1043.98 612.03198 9.2197031e-39
-379.22501 -1994.5801 649.39301 9.2197031e-39
11.2909 -1892.8799 649.70398 9.2197031e-39
-4.4626498 -1881.6699 645.72302 9.2197031e-39
53.223598 -1882.21 649.79999 9.2197031e-39
35.5149 -1879.8401 647.97803 9.2197031e-39
77.236504 -1867.77 647.70001 9.2197031e-39
94.832001 -1869.8101 649.42902 9.2197031e-39
118.051 -1856.8601 647.659 9.2197031e-39
137.065 -1849.97 647.16998 9.2197031e-39
158.366 -1845.22 647.39398 9.2197031e-39
177.267 -1837.02 646.56097 9.2197031e-39
198.453 -1830.9299 646.42902 9.2197031e-39
216.78 -1824.3201 645.96802 9.2197031e-39
237.94299 -1815.9299 645.23901 9.2197031e-39
254.937 -1817.6699 646.84998 9.2197031e-39
275.74301 -1809.8799 646.25098 9.2197031e-39
292.89099 -1809.3899 647.29602 9.2197031e-39
312.811 -1808 648.29602 9.2197031e-39
330.492 -1800.46 647.54901 9.2197031e-39
350.867 -1791 646.487 9.2197031e-39
367.60001 -1792.8201 648.10303 9.2197031e-39
387.71301 -1783.01 646.93402 9.2197031e-39
404.401 -1784.55 648.47101 9.2197031e-39
424.09299 -1778.27 648.18903 9.2197031e-39
441.03799 -1770.8101 647.41302 9.2197031e-39
460.33099 -1770.98 648.77399 9.2197031e-39
477.10599 -1761.3 647.41101 9.2197031e-39
496.34601 -1752.4299 646.42603 9.2197031e-39
512.84198 -1753.1201 647.73102 9.2197031e-39
531.83698 -1742.96 646.396 9.2197031e-39
548.23297 -1741.4399 647.12097 9.2197031e-39
567.00598 -1732.8999 646.19 9.2197031e-39
583.34399 -1732.0701 647.091 9.2197031e-39
601.79498 -1721.29 645.55798 9.2197031e-39
-360.10001 -1999.3101 651.92401 9.2197031e-39
-332.48499 -1990.26 651.46503 9.2197031e-39
-313.76099 -1995.53 654.10797 9.2197031e-39
-288.444 -1991.48 654.78699 9.2197031e-39
-268.117 -1991.78 656.25403 9.2197031e-39
-241.468 -1982.6399 655.703 9.2197031e-39
-219.179 -1976.0601 655.52002 9.2197031e-39
-193.55 -1968.24 655.245 9.2197031e-39
-169.00301 -1952.8401 652.93103 9.2197031e-39
-144.67799 -1947.3101 653.15802 9.2197031e-39
-123.648 -1941.73 653.14801 9.2197031e-39
