# .PCD v0.7 - Point Cloud Data file format
VERSION 0.7
FIELDS x y z rgb
SIZE 4 4 4 4
TYPE F F F F
COUNT 1 1 1 1
WIDTH 285
HEIGHT 1
VIEWPOINT 0 0 0 1 0 0 0
POINTS 285
DATA ascii
1460.39 -1113.05 132.996 9.2197031e-39
1471.0601 -1113.115 135.856 9.2197031e-39
1482.79 -1112.985 138.99951 9.2197031e-39
1486.47 -278.15503 138.10201 9.2197031e-39
1491.3101 -276.328 139.3945 9.2197031e-39
1490.525 -264.07852 139.15649 9.2197031e-39
1507.65 2311.6201 137.936 9.2197031e-39
1494.1851 -1103.1499 142.02951 9.2197031e-39
1503.3101 -1075.2 144.41299 9.2197031e-39
1503.6 -1043.13 144.418 9.2197031e-39
1508.54 -987.69995 145.616 9.2197031e-39
1509.29 -973.60999 145.785 9.2197031e-39
1514.87 -948.06006 147.222 9.2197031e-39
1513.61 -915.05005 146.81 9.2197031e-39
1519.67 -906.39001 148.41499 9.2197031e-39
1518.04 -876.40002 147.911 9.2197031e-39
1522.15 -856.79004 148.966 9.2197031e-39
1518.41 -814.94995 147.871 9.2197031e-39
1518.12 -771.60999 147.696 9.2197031e-39
1508.48 -694.25 144.938 9.2197031e-39
1504.45 -642.29004 143.74001 9.2197031e-39
1503.28 -630.32996 143.401 9.2197031e-39
1501.6899 -603.22998 142.914 9.2197031e-39
1521.65 -603.56995 148.261 9.2197031e-39
1498.85 -583.43994 142.10699 9.2197031e-39
1497.34 -560.32996 141.64999 9.2197031e-39
1497.1234 -552.54999 141.575 9.2197031e-39
1503.415 -554.97504 143.26616 9.2197031e-39
1514.03 -323.62 145.588 9.2197031e-39
1523.755 -304.61148 148.1515 9.2197031e-39
1522.0699 -290.06 147.668 9.2197031e-39
1497.49 -281.052 141.061 9.2197031e-39
1507.12 -281.43903 143.642 9.2197031e-39
1528.0601 -284.59399 149.2605 9.2197031e-39
1495.27 -272.79935 140.44734 9.2197031e-39
1504.9816 -272.61465 143.0495 9.2197031e-39
1511.91 -273.51202 144.909 9.2197031e-39
1525.71 -274.30103 148.608 9.2197031e-39
1497.1899 -269.771 140.95399 9.2197031e-39
1504.38 -268.8205 142.8795 9.2197031e-39
1516.52 -263.47452 146.12149 9.2197031e-39
1525.6567 -266.41367 148.57567 9.2197031e-39
1519.84 -258.26398 146.99699 9.2197031e-39
1525.5834 -257.49869 148.53467 9.2197031e-39
1525.65 -249.72998 148.536 9.2197031e-39
1515.8 2301.49 140.142 9.2197031e-39
1552.74 -694.13 156.79601 9.2197031e-39
1535.8 -639.90002 152.134 9.2197031e-39
1528.9399 -627.41003 150.27 9.2197031e-39
1531.8 -264.99799 150.218 9.2197031e-39
1553.09 2292.5601 150.155 9.2197031e-39
1561.28 2290.28 152.354 9.2197031e-39
1588.74 -791.38 166.662 9.2197031e-39
1572.08 -742.31995 162.08701 9.2197031e-39
1605.29 2256.29 164.222 9.2197031e-39
1597.67 2267.7 162.15401 9.2197031e-39
1614.66 -851.96997 173.742 9.2197031e-39
1643.1 2268 174.327 9.2197031e-39
1651.01 2263.4399 176.45599 9.2197031e-39
1648.99 -949.69995 183.161 9.2197031e-39
1694.99 2346.21 188.054 9.2197031e-39
1710.26 -1093.71 199.903 9.2197031e-39
1701.59 -1075.7 197.539 9.2197031e-39
1709.05 2412.21 191.67101 9.2197031e-39
1747.51 -1121.63 209.94701 9.2197031e-39
1729.66 -1110.7 205.13901 9.2197031e-39
1742.47 -1115.12 208.582 9.2197031e-39
1723.73 -1101.28 203.53101 9.2197031e-39
1778.7151 -1131.73 218.33 9.2197031e-39
1762.01 -1122.9399 213.83501 9.2197031e-39
1751.9301 -1104.5601 211.093 9.2197031e-39
1794.1951 -1133.735 222.48349 9.2197031e-39
1807.48 -1133.25 226.041 9.2197031e-39
1810.51 -1133.9399 226.855 9.2197031e-39
1823.01 -1134.16 230.205 9.2197031e-39
1836.86 -1131.2 233.91 9.2197031e-39
1853.0601 -1132.3199 238.25301 9.2197031e-39
1823.4301 -1129.45 230.30701 9.2197031e-39
1838.58 -1129.11 234.36501 9.2197031e-39
1853.36 -1127.5699 238.321 9.2197031e-39
1872.6799 -1136.3101 243.51901 9.2197031e-39
1887.74 -1134.0601 247.54849 9.2197031e-39
1883.77 -813.80005 245.761 9.2197031e-39
1878.4399 -797.59998 244.297 9.2197031e-39
1882.9199 -793.875 245.4895 9.2197031e-39
1880.8101 -784.22998 244.903 9.2197031e-39
1894.175 -784.15997 248.48351 9.2197031e-39
1903.105 -1131.9 251.66 9.2197031e-39
1917.99 -1128.5601 255.64151 9.2197031e-39
1921.41 -852.64001 255.935 9.2197031e-39
1907.0649 -782.08502 251.933 9.2197031e-39
1915.28 -777.01001 254.121 9.2197031e-39
1908.74 -769.42004 252.353 9.2197031e-39
1910.48 -760.47998 252.799 9.2197031e-39
1909.98 -757.84998 252.658 9.2197031e-39
1916.4399 -750.43005 254.373 9.2197031e-39
1907.61 -746.01001 251.99699 9.2197031e-39
1918.63 -742.06006 254.94099 9.2197031e-39
1917.24 -738.88 254.561 9.2197031e-39
1928.535 -735.94995 257.58051 9.2197031e-39
1936.61 -730.54004 259.733 9.2197031e-39
1934.3199 -726.84998 259.10999 9.2197031e-39
1933.275 -715.48499 258.80402 9.2197031e-39
1939.125 -1134.425 261.31702 9.2197031e-39
1956.985 -1134.4199 266.103 9.2197031e-39
1946.105 -711.94 262.2355 9.2197031e-39
1953.105 -704.52997 264.09351 9.2197031e-39
1970.985 -703.24005 268.88202 9.2197031e-39
1984.96 -1150.58 273.634 9.2197031e-39
1992.89 -1156.96 275.77499 9.2197031e-39
2014.075 -1161.8201 281.46201 9.2197031e-39
2026.5601 -1151.865 284.78351 9.2197031e-39
2045.05 -1151.9399 289.73901 9.2197031e-39
2046.71 -993.32996 289.82501 9.2197031e-39
2033.13 -976.21997 286.14801 9.2197031e-39
2057.05 -1162.46 292.978 9.2197031e-39
2158.26 -795.56006 319.267 9.2197031e-39
2228.72 7291.3999 319.90701 9.2197031e-39
2253.6101 7302.8198 326.55099 9.2197031e-39
2231.21 -1355.8199 340.078 9.2197031e-39
2363.8201 7322.27 356.03601 9.2197031e-39
2368.71 -907.52002 375.90799 9.2197031e-39
2449.1499 -722.93994 397.04599 9.2197031e-39
2438.3701 -700.57996 394.10699 9.2197031e-39
2440.29 -704.56006 394.629 9.2197031e-39
2434.665 -682.44 393.07401 9.2197031e-39
2436.1948 -664.245 393.4415 9.2197031e-39
2466.6899 -731.96997 401.76501 9.2197031e-39
2472.3401 -656.06995 403.108 9.2197031e-39
2482.49 -655.01001 405.82401 9.2197031e-39
2499.01 -90.784973 408.98001 9.2197031e-39
2533.04 -770.21997 419.629 9.2197031e-39
2529.49 -647.81 418.40201 9.2197031e-39
2531.8799 -142.36902 417.901 9.2197031e-39
2530.1001 -139.14899 417.418 9.2197031e-39
2525.2451 -121.89499 416.07849 9.2197031e-39
2511.77 -105.37448 412.4295 9.2197031e-39
2505.3999 -85.059998 410.67801 9.2197031e-39
2503.47 -68.840027 410.125 9.2197031e-39
2524.4299 -57.966003 415.716 9.2197031e-39
2553.55 -988.02002 425.617 9.2197031e-39
2558.6001 -782.63 426.505 9.2197031e-39
2565.115 -152.81952 426.83002 9.2197031e-39
2556.8201 -29.025024 424.328 9.2197031e-39
2570.23 -20.213989 427.90201 9.2197031e-39
2570.8101 -992.58997 430.25 9.2197031e-39
2601.2251 -985.33502 438.383 9.2197031e-39
2602.49 -820.13 438.35101 9.2197031e-39
2605.54 -817.06995 439.16199 9.2197031e-39
2577.335 -637.40002 431.19702 9.2197031e-39
2602.9399 -623.23999 438.026 9.2197031e-39
2597.8501 -618.52002 436.65201 9.2197031e-39
2581.72 -596.87 432.28149 9.2197031e-39
2587.9399 -577.22998 433.90448 9.2197031e-39
2585.6851 -556.41003 433.25351 9.2197031e-39
2590.76 -536.53003 434.5675 9.2197031e-39
2577.55 -516.75 430.98199 9.2197031e-39
2583.6201 -513.64001 432.603 9.2197031e-39
2587.3799 -495.48999 433.569 9.2197031e-39
2586.22 -473.33997 433.20801 9.2197031e-39
2595.6899 -477.5 435.754 9.2197031e-39
2575.365 -454.59503 430.25751 9.2197031e-39
2585.0149 -434.755 432.79852 9.2197031e-39
2584.4702 -394.47 432.56152 9.2197031e-39
2591.72 -375.87598 434.461 9.2197031e-39
2608 -371.55603 438.814 9.2197031e-39
2598.5801 -355.19202 436.25299 9.2197031e-39
2602.24 -351.28302 437.22699 9.2197031e-39
2596.7651 -333.00549 435.71753 9.2197031e-39
2597.4299 -310.59698 435.84601 9.2197031e-39
2600.6399 -314.01599 436.71201 9.2197031e-39
2612.1899 -292.13202 439.758 9.2197031e-39
2594.51 -165.13202 434.73499 9.2197031e-39
2606.6101 -166.30298 437.979 9.2197031e-39
2626.4399 -974.68005 445.116 9.2197031e-39
2618.49 -966.29004 442.96701 9.2197031e-39
2643.1101 -954.83002 449.53851 9.2197031e-39
2644.55 -932.55005 449.87399 9.2197031e-39
2636.3301 -924.44995 447.65201 9.2197031e-39
2641.4299 -906.38 448.979 9.2197031e-39
2632.1599 -898.09998 446.47601 9.2197031e-39
2633.0801 -876.44 446.67352 9.2197031e-39
2630.9099 -853.84998 446.04199 9.2197031e-39
2618.6101 -844.97998 442.72501 9.2197031e-39
2620.45 -287.42902 441.95999 9.2197031e-39
2626.4648 -267.487 443.52899 9.2197031e-39
2639.8201 -246.19098 447.05899 9.2197031e-39
2642.1699 -241.94397 447.677 9.2197031e-39
2877.8601 -2142.1499 515.11499 9.2197031e-39
2919.9299 -2143 526.38898 9.2197031e-39
2918.4399 -2081.6101 525.85101 9.2197031e-39
2927.3999 -2081.3101 528.25098 9.2197031e-39
2933.45 -2148.03 530.02301 9.2197031e-39
2946.3 -2055.1699 533.255 9.2197031e-39
2949.96 -2048.8799 534.22198 9.2197031e-39
2964.47 -2008.26 538.01801 9.2197031e-39
2971.28 -1970.4099 539.75702 9.2197031e-39
2960.24 -1949.3 536.75299 9.2197031e-39
2971.04 -411.29004 536.17603 9.2197031e-39
2984.4399 -2039.73 543.43903 9.2197031e-39
3033.8301 -416.16003 553.01202 9.2197031e-39
3047.5649 -154.82849 556.10303 9.2197031e-39
3051.4751 -124.78751 557.08398 9.2197031e-39
3048.6948 -95.778473 556.27246 9.2197031e-39
3049.3401 178.96701 555.82599 9.2197031e-39
3056.5901 187.57501 557.74799 9.2197031e-39
3054.335 216.452 557.07898 9.2197031e-39
3052.5 245.78299 556.521 9.2197031e-39
3049.5801 250.56799 555.72803 9.2197031e-39
3056.925 284.293 557.62 9.2197031e-39
3051.0449 315.71399 555.974 9.2197031e-39
3055.085 352.22549 556.97498 9.2197031e-39
3053.52 383.44299 556.48602 9.2197031e-39
3058.8799 392.58301 557.901 9.2197031e-39
3057.4551 424.5195 557.44653 9.2197031e-39
3053.75 455.66199 556.383 9.2197031e-39
3051.0901 460.828 555.65802 9.2197031e-39
3054.3149 496.4295 556.44299 9.2197031e-39
3056.8601 532.35547 557.04199 9.2197031e-39
3059.8 541.05298 557.81201 9.2197031e-39
3062.98 574.79242 558.58698 9.2197031e-39
3061.6001 581.02338 558.20502 9.2197031e-39
3058.45 618.68109 557.27502 9.2197031e-39
3061.5901 613.49127 558.12903 9.2197031e-39
3059.3899 652.43848 557.45001 9.2197031e-39
3064.21 663.09857 558.71698 9.2197031e-39
3064.3501 697.21271 558.67902 9.2197031e-39
3060.95 702.41089 557.75702 9.2197031e-39
3060.3701 736.74597 557.52399 9.2197031e-39
3064.75 747.69702 558.672 9.2197031e-39
3062.5801 781.76501 558.013 9.2197031e-39
3065.9399 792.27399 558.88898 9.2197031e-39
3064.51 827.81104 558.427 9.2197031e-39
3067.6399 838.45203 559.242 9.2197031e-39
3066.1299 874.90198 558.755 9.2197031e-39
3069.02 885.67297 559.50598 9.2197031e-39
3065.8899 921.79504 558.586 9.2197031e-39
3068.55 932.68701 559.27301 9.2197031e-39
3071.21 974.85498 559.89099 9.2197031e-39
3066.97 980.07397 558.742 9.2197031e-39
3067.9299 1021.942 558.90601 9.2197031e-39
3070.8101 1033.739 559.651 9.2197031e-39
3064.26 1069.998 557.81403 9.2197031e-39
3066.1699 1081.24 558.29999 9.2197031e-39
3072.1699 1130.636 559.79602 9.2197031e-39
3072.25 1185.745 559.69397 9.2197031e-39
3072.9099 1196.5449 559.84497 9.2197031e-39
3069.5901 1239.905 558.85901 9.2197031e-39
3070.95 1300.207 559.08801 9.2197031e-39
3072.0801 1362.515 559.24902 9.2197031e-39
3075.1499 1495.543 559.771 9.2197031e-39
3074.96 1564.089 559.56598 9.2197031e-39
3075.98 1637.0801 559.67499 9.2197031e-39
3077.8701 1792.89 559.83002 9.2197031e-39
3078.0801 1807.74 559.85199 9.2197031e-39
3077.96 2051.9102 559.27002 9.2197031e-39
3080.6499 2072.9302 559.94299 9.2197031e-39
3080.3 2151.04 559.67297 9.2197031e-39
3081.3701 2170.5698 559.91602 9.2197031e-39
3077.21 2246.73 558.63 9.2197031e-39
3078.26 2267.26 558.86401 9.2197031e-39
3078.8401 2355.9399 558.82001 9.2197031e-39
3079.6799 2470.3301 558.78601 9.2197031e-39
3081.8101 2594.3101 559.07898 9.2197031e-39
3085.21 2623.21 559.92297 9.2197031e-39
3084.78 2728.04 559.573 9.2197031e-39
3085.47 2866.3301 559.44501 9.2197031e-39
3073.79 1142.019 560.20398 9.2197031e-39
3077.47 1258.6021 560.92902 9.2197031e-39
3077.0901 1317.6951 560.69202 9.2197031e-39
3077.8101 1380.21 560.745 9.2197031e-39
3076.1001 1430.5801 560.17401 9.2197031e-39
3076.27 1442.522 560.19098 9.2197031e-39
3080.05 1513.6431 561.04303 9.2197031e-39
3080.05 1583.1479 560.888 9.2197031e-39
3081.8301 1657.9 561.19501 9.2197031e-39
3079.1799 1716.22 560.35498 9.2197031e-39
3082.75 1734.9 561.26801 9.2197031e-39
3079.5601 1877.4301 560.09198 9.2197031e-39
3083.3 1898.08 561.04901 9.2197031e-39
3081.0901 1965.96 560.30298 9.2197031e-39
3083.76 1985.99 560.97198 9.2197031e-39
3088.2 2392.1001 561.24701 9.2197031e-39
3085.28 2501.6001 560.21802 9.2197031e-39
3087.3701 2757.1799 560.20001 9.2197031e-39
