# .PCD v0.7 - Point Cloud Data file format
VERSION 0.7
FIELDS x y z rgb
SIZE 4 4 4 4
TYPE F F F F
COUNT 1 1 1 1
WIDTH 316
HEIGHT 1
VIEWPOINT 0 0 0 1 0 0 0
POINTS 316
DATA ascii
3033.3052 -46.344513 136.85049 9.2197031e-39
2797.74 48.067017 133.315 9.2197031e-39
2023.0601 428.478 138.696 9.2197031e-39
2011.65 434.74701 138.937 9.2197031e-39
2023.8033 431.42969 139.49767 9.2197031e-39
1974.74 454.88901 139.68401 9.2197031e-39
3041.27 -34.421997 140.647 9.2197031e-39
3040.3999 -28.822021 141.91 9.2197031e-39
3028.26 -11.166016 144.838 9.2197031e-39
2967.96 18.427002 145.254 9.2197031e-39
2787.6101 100.71997 144.981 9.2197031e-39
2726.3601 128.08099 144.746 9.2197031e-39
2686.8501 150.85001 145.839 9.2197031e-39
2661.55 163.19901 145.99699 9.2197031e-39
2595.75 196.05899 146.58701 9.2197031e-39
2601.5701 191.487 146.131 9.2197031e-39
2566.3 212.01599 147.155 9.2197031e-39
2544.2 221.62701 147.007 9.2197031e-39
2523.8 233.418 147.58099 9.2197031e-39
2503.3899 241.841 147.332 9.2197031e-39
2447.21 263.33701 146.242 9.2197031e-39
2375.54 289.008 144.423 9.2197031e-39
2392.98 280.85599 144.403 9.2197031e-39
2346.9399 298.103 143.41901 9.2197031e-39
2335.98 303.62 143.528 9.2197031e-39
2309.1299 311.53299 142.43201 9.2197031e-39
2275.5867 324.75436 141.87466 9.2197031e-39
2282.998 324.91159 142.7462 9.2197031e-39
2328.01 325.55899 147.967 9.2197031e-39
2282.385 330.56049 144.05099 9.2197031e-39
2017.47 438.966 140.61801 9.2197031e-39
2028.22 439.263 141.899 9.2197031e-39
2017.4 444.78925 142.02625 9.2197031e-39
2026.5439 446.341 143.43198 9.2197031e-39
2032.155 441.75851 142.9485 9.2197031e-39
2022.865 457.703 145.78149 9.2197031e-39
2048.23 456.08899 148.242 9.2197031e-39
2054.78 451.22998 147.797 9.2197031e-39
2018.665 465.63 147.23749 9.2197031e-39
2027 464.63065 147.93117 9.2197031e-39
2032.6466 467.51065 149.26701 9.2197031e-39
2043.52 462.51752 149.276 9.2197031e-39
-4470.4199 3440.74 140.895 9.2197031e-39
2402.6299 319.78699 154.95599 9.2197031e-39
2361.6599 321.43201 150.748 9.2197031e-39
2381.75 321.36301 152.99001 9.2197031e-39
2046.38 464.91348 150.17999 9.2197031e-39
2051.8501 461.65601 150.00301 9.2197031e-39
-4560.0698 3522.6899 150.742 9.2197031e-39
2454.4199 316.71399 160.033 9.2197031e-39
2517.9199 310.90601 165.76401 9.2197031e-39
-3269.51 2992.1499 166.875 9.2197031e-39
2585.71 308.45401 172.79201 9.2197031e-39
-3264.54 3022.6001 174.841 9.2197031e-39
2703.8501 298.978 183.77499 9.2197031e-39
2879.9299 290.53 201.52699 9.2197031e-39
2991.3101 285.09201 212.73199 9.2197031e-39
3037.53 292.186 219.65601 9.2197031e-39
-4954.1499 3962.6599 213.418 9.2197031e-39
3056.6001 295.40799 222.584 9.2197031e-39
3065.9199 306.01001 226.21201 9.2197031e-39
3066.04 310.59698 227.34 9.2197031e-39
-4956.7202 4007.8799 224.125 9.2197031e-39
3077.1599 321.39899 231.218 9.2197031e-39
3081.1699 325.922 232.769 9.2197031e-39
3081.1599 337.29999 235.535 9.2197031e-39
3083.1001 341.94 236.881 9.2197031e-39
-2452.54 2888.98 233.677 9.2197031e-39
3086.72 358.03601 241.20399 9.2197031e-39
3092.8201 353.32999 240.745 9.2197031e-39
3088.28 369.52002 244.172 9.2197031e-39
3095.02 374.36902 246.10899 9.2197031e-39
3094.3899 385.927 248.849 9.2197031e-39
3093.0901 390.62799 249.84599 9.2197031e-39
-2422.48 2901.6699 240.144 9.2197031e-39
3091.0701 404.48151 252.98801 9.2197031e-39
3088.8401 418.28998 256.09601 9.2197031e-39
3097.28 423.646 258.34698 9.2197031e-39
-2175.47 2831.97 250.97701 9.2197031e-39
-2149.3 2845.01 257.091 9.2197031e-39
-4949.3501 4112 250.276 9.2197031e-39
3097.99 435.41 261.28799 9.2197031e-39
3097.4299 440.172 262.384 9.2197031e-39
3093.99 451.57501 264.76999 9.2197031e-39
3100.24 457.05499 266.806 9.2197031e-39
3100.53 468.931 269.72601 9.2197031e-39
-4959.7798 4162.2402 261.32199 9.2197031e-39
3102.74 474.07501 271.22601 9.2197031e-39
3110.6499 487.09 275.28 9.2197031e-39
3117.6599 493.03101 277.51401 9.2197031e-39
-2076.77 2870.8501 271.53299 9.2197031e-39
3126.27 506.54901 281.76999 9.2197031e-39
3132.1699 512.54901 283.89301 9.2197031e-39
3125.3601 526.37671 286.48999 9.2197031e-39
3131.3999 545.10217 291.72247 9.2197031e-39
3127.03 559.40802 294.70999 9.2197031e-39
3126.78 564.53479 295.92999 9.2197031e-39
3133.3601 578.69702 300.11301 9.2197031e-39
3131.0901 583.42999 301.009 9.2197031e-39
3128.75 595.71039 303.733 9.2197031e-39
3126.3999 600.40613 304.60999 9.2197031e-39
3131.2 617.25427 309.2475 9.2197031e-39
3126.375 634.37592 312.86951 9.2197031e-39
3130.6699 654.28271 318.19348 9.2197031e-39
3123.3601 673.58429 322.065 9.2197031e-39
3134.51 671.64899 322.849 9.2197031e-39
3129.1699 689.02588 326.47501 9.2197031e-39
3127.29 693.97363 327.466 9.2197031e-39
3130.9299 708.98169 331.52499 9.2197031e-39
3128.9399 713.94049 332.508 9.2197031e-39
3133.1799 729.46399 336.76001 9.2197031e-39
3139.3401 737.59998 339.43201 9.2197031e-39
3134.0901 749.78601 341.80499 9.2197031e-39
3131.8999 754.76501 342.76801 9.2197031e-39
3134.3301 773.14148 347.51099 9.2197031e-39
3134.3149 793.80005 352.534 9.2197031e-39
3132.98 814.19 357.3425 9.2197031e-39
3133.865 835.96851 362.73798 9.2197031e-39
3131.6401 856.60547 367.50751 9.2197031e-39
3132.1499 875.755 372.22101 9.2197031e-39
3129.29 880.73999 373.11301 9.2197031e-39
3130.8101 897.54004 377.36801 9.2197031e-39
3135.53 906.789 380.14999 9.2197031e-39
3133.385 925.34851 384.42102 9.2197031e-39
3138.55 955.52399 392.34201 9.2197031e-39
3141.79 950.48199 391.48001 9.2197031e-39
3135.0898 974.117 396.474 9.2197031e-39
3132.9299 993.81897 401.022 9.2197031e-39
3137.6399 1004.145 404.06299 9.2197031e-39
3136.3 1021.258 408.07401 9.2197031e-39
3140.76 1031.745 411.12701 9.2197031e-39
3139.79 1049.585 415.35501 9.2197031e-39
3136.03 1054.629 416.16 9.2197031e-39
3133.0801 1071.415 419.91 9.2197031e-39
3137.8601 1082.744 423.203 9.2197031e-39
3134.4102 1103.6455 427.89801 9.2197031e-39
3134.99 1132.2224 434.91299 9.2197031e-39
3136.6201 1158.246 441.42599 9.2197031e-39
3132.3 1163.287 442.16599 9.2197031e-39
3135.8301 1187.344 448.41299 9.2197031e-39
3138.78 1198.6599 451.49701 9.2197031e-39
3135.03 1217.319 455.61301 9.2197031e-39
3136.97 1228.123 458.45901 9.2197031e-39
3139.23 1252.74 464.70001 9.2197031e-39
3140.8799 1263.682 467.547 9.2197031e-39
3137.49 1283.96 472.09698 9.2197031e-39
3138.8799 1295.01 474.94 9.2197031e-39
3138.4299 1318.79 480.673 9.2197031e-39
3138.8301 1329.282 483.26901 9.2197031e-39
3138.4199 1353.963 489.22501 9.2197031e-39
3138.53 1364.5549 491.815 9.2197031e-39
3137.45 1389.4551 497.74799 9.2197031e-39
3143.3 1406.4561 502.54099 9.2197031e-39
3142.77 1433.0549 508.95001 9.2197031e-39
3140.96 1442.4399 511.02899 9.2197031e-39
3138.27 1479.416 519.71997 9.2197031e-39
3145.53 1475.741 519.64203 9.2197031e-39
3147.0601 1518.881 530.30603 9.2197031e-39
3141.5 1524.754 531.10797 9.2197031e-39
3142.3899 1556.498 538.92902 9.2197031e-39
3141.55 1568.338 541.71399 9.2197031e-39
-122.594 3103.8899 548.01202 9.2197031e-39
3145.1699 1604.902 551.013 9.2197031e-39
3142.1499 1614.585 553.02802 9.2197031e-39
308.897 2919.0601 551.59497 9.2197031e-39
-85.862396 3127.0901 557.78497 9.2197031e-39
3144.1499 1650.74 562.047 9.2197031e-39
3145.51 1666.63 566.06403 9.2197031e-39
338.07901 2944.27 561.00897 9.2197031e-39
335.57001 2975.6899 568.367 9.2197031e-39
24.999599 3111.6101 566.48901 9.2197031e-39
-72.353996 3138.51 562.08301 9.2197031e-39
-13.3317 3132.8101 567.33398 9.2197031e-39
3149.3101 1707.04 576.31897 9.2197031e-39
53.435699 3144.05 577.578 9.2197031e-39
3150.1799 1723.11 580.32397 9.2197031e-39
3146.55 1755.3101 587.74701 9.2197031e-39
131.61099 3137.78 584.84601 9.2197031e-39
71.208603 3149.22 580.83502 9.2197031e-39
3143.6001 1766.78 590.20599 9.2197031e-39
3145.6599 1808.7 600.63202 9.2197031e-39
3148.3201 1829.04 605.87701 9.2197031e-39
3145.3 1865.75 614.46698 9.2197031e-39
3147.9299 1887.08 619.94897 9.2197031e-39
3152.0601 1937.12 632.58301 9.2197031e-39
3148.3401 1949.6899 635.22101 9.2197031e-39
3151.5 2000.99 648.05298 9.2197031e-39
3151.8301 2021.08 652.97498 9.2197031e-39
3149.9399 2067.03 663.94 9.2197031e-39
3148.6799 2085.6099 668.31598 9.2197031e-39
3143.95 2129.3701 678.42499 9.2197031e-39
3147.3 2157.3398 685.604 9.2197031e-39
3147.54 2213.3 699.23999 9.2197031e-39
3148.6699 2238.96 705.60999 9.2197031e-39
3146.6399 2294.52 718.89099 9.2197031e-39
3145.6599 2317.8 724.44501 9.2197031e-39
3148.29 2386.71 741.49902 9.2197031e-39
3147.3601 2411.9199 747.52301 9.2197031e-39
1302.42 3288.0901 753.091 9.2197031e-39
1259.71 3298.3999 750.79498 9.2197031e-39
1315.7 3298.4199 757.099 9.2197031e-39
3147.77 2481.3599 764.45898 9.2197031e-39
1347.72 3326.1499 767.44299 9.2197031e-39
3148.02 2511.1201 771.72601 9.2197031e-39
3147.3401 2583.72 789.30499 9.2197031e-39
3149.77 2620.76 798.58398 9.2197031e-39
1324.16 3478.3999 801.82001 9.2197031e-39
-145.33 4174.46 805.81403 9.2197031e-39
3150.05 2701.8701 818.34198 9.2197031e-39
-125.772 4185.2402 810.63702 9.2197031e-39
-258.08499 4253.8896 812.45001 9.2197031e-39
3149.02 2733.8401 826.00299 9.2197031e-39
-75.863899 4207.71 821.71503 9.2197031e-39
-58.078701 4221.5898 827.09003 9.2197031e-39
-641.54199 4501.6001 829.56201 9.2197031e-39
1333.5699 3607.6799 834.31897 9.2197031e-39
1117.87 3709.9099 834.91998 9.2197031e-39
4.18748 4221.5801 834.091 9.2197031e-39
30.16 4220.3501 836.71301 9.2197031e-39
-604.46399 4490.8799 831.125 9.2197031e-39
3150.6499 2825.3301 848.43597 9.2197031e-39
1050.1899 3778.76 844.05103 9.2197031e-39
91.526901 4219.9199 843.51202 9.2197031e-39
117.76 4217.29 845.82202 9.2197031e-39
-537.73199 4499.1699 840.646 9.2197031e-39
-504.80899 4493.5098 842.974 9.2197031e-39
3151.02 2863.8 857.83398 9.2197031e-39
1335.13 3673.98 850.61902 9.2197031e-39
206.00999 4209.7803 853.92297 9.2197031e-39
179.125 4214.7197 852.099 9.2197031e-39
-437.384 4498.6699 851.81201 9.2197031e-39
3153.0701 2964.9299 882.65802 9.2197031e-39
3114.8401 3007.5 888.71198 9.2197031e-39
3064.3401 3017.6499 885.49902 9.2197031e-39
3102.5601 3017.21 889.69 9.2197031e-39
3055.0601 3036.28 888.98499 9.2197031e-39
3155.9099 3013.5901 894.81201 9.2197031e-39
1340.1899 3842.5801 892.19098 9.2197031e-39
1340.02 3927.1699 912.74402 9.2197031e-39
248.57201 4421.3896 910.17297 9.2197031e-39
269.048 4431.0801 914.83398 9.2197031e-39
133.55299 4479.8896 911.46198 9.2197031e-39
162.414 4473.25 913.09497 9.2197031e-39
312.99899 4468.2998 928.82703 9.2197031e-39
880.69501 4242.3203 937.724 9.2197031e-39
337.69601 4468.6499 931.69098 9.2197031e-39
395.86401 4473.4102 939.39203 9.2197031e-39
482.84201 4466.0098 947.375 9.2197031e-39
420.832 4472.3896 941.95203 9.2197031e-39
3080.4399 3282.76 951.784 9.2197031e-39
3100.26 3291.4399 956.125 9.2197031e-39
3000.8799 3349.27 959.01099 9.2197031e-39
2927.21 3354.28 951.94299 9.2197031e-39
2945.1299 3358.3401 954.94598 9.2197031e-39
2985.2 3353.8999 958.37402 9.2197031e-39
506.89499 4466.3301 950.15802 9.2197031e-39
564.88 4467.9297 957.06799 9.2197031e-39
589.16998 4466.8701 959.54401 9.2197031e-39
3044.3101 3355.23 965.34601 9.2197031e-39
3062.8301 3359.55 968.479 9.2197031e-39
1344.27 4128.6602 962.22498 9.2197031e-39
649.90802 4459.0601 964.47699 9.2197031e-39
672.69299 4461.2402 967.56897 9.2197031e-39
754.35999 4457.7402 975.90399 9.2197031e-39
729.42902 4462.5 974.25702 9.2197031e-39
1345.85 4219.2002 984.41998 9.2197031e-39
1354.46 4435.4697 1037.99 9.2197031e-39
1367.1 4483.9102 1051.1899 9.2197031e-39
1416.51 4507 1062.36 9.2197031e-39
1438.15 4509.02 1065.29 9.2197031e-39
1592.9301 4476.3701 1074.76 9.2197031e-39
1491.9301 4507.1797 1070.89 9.2197031e-39
1513.41 4509.79 1073.9399 9.2197031e-39
1567.0699 4507.0098 1079.3 9.2197031e-39
1642.3101 4503.6104 1086.9301 9.2197031e-39
1651.4399 4612.9697 1114.5601 9.2197031e-39
1702.27 4646.2598 1128.37 9.2197031e-39
2937.4399 4137.0898 1143.47 9.2197031e-39
2922.9299 4167.1001 1149.14 9.2197031e-39
1716.3199 4732.1699 1150.84 9.2197031e-39
2601.8301 4437.0303 1178.67 9.2197031e-39
3086.47 4246.3999 1186.8199 9.2197031e-39
3107.5 4243.9399 1188.59 9.2197031e-39
3015.1399 4258.0801 1181.63 9.2197031e-39
3034.8701 4250.3398 1181.97 9.2197031e-39
2902.25 4322.9502 1184.71 9.2197031e-39
2552.8401 4472.5703 1181.8 9.2197031e-39
2627.52 4471.6699 1189.98 9.2197031e-39
2531.95 4480.9102 1181.48 9.2197031e-39
2891.6399 4381.4399 1197.75 9.2197031e-39
2679.52 4462.2002 1193.53 9.2197031e-39
2702.3601 4469.48 1197.87 9.2197031e-39
2754.3101 4459.1001 1201.1899 9.2197031e-39
2775.7 4455.4502 1202.7 9.2197031e-39
2852.0901 4459.27 1212.22 9.2197031e-39
2830.6699 4463.2998 1210.79 9.2197031e-39
1724.3 5297.46 1289.22 9.2197031e-39
1573.47 7530.5801 1815.34 9.2197031e-39
2298.99 7264.3398 1832.2 9.2197031e-39
2335.1599 7272.2402 1838.1899 9.2197031e-39
2586.1699 7316.98 1877.3 9.2197031e-39
2426.8 7365.0601 1871.0699 9.2197031e-39
2463.3201 7364.54 1875.05 9.2197031e-39
2213.45 7466.1401 1871.66 9.2197031e-39
2675.77 7326.1802 1889.62 9.2197031e-39
2551.8799 7352.9702 1882.2 9.2197031e-39
1649.04 7762.7998 1880.3199 9.2197031e-39
1687.45 7764.1602 1884.97 9.2197031e-39
2712.75 7331.2002 1895 9.2197031e-39
1781.63 7756.9399 1893.8101 9.2197031e-39
1820.0699 7756.6602 1898.0601 9.2197031e-39
1913.98 7748.8101 1906.72 9.2197031e-39
2046.04 7739.3999 1919.28 9.2197031e-39
1952.35 7748.8501 1911.04 9.2197031e-39
2084.3799 7738.7798 1923.4399 9.2197031e-39
2177.8701 7736.48 1933.4 9.2197031e-39
