# .PCD v0.7 - Point Cloud Data file format
VERSION 0.7
FIELDS x y z rgb
SIZE 4 4 4 4
TYPE F F F F
COUNT 1 1 1 1
WIDTH 327
HEIGHT 1
VIEWPOINT 0 0 0 1 0 0 0
POINTS 327
DATA ascii
3028.5 379.92599 133.33299 9.2197031e-39
3024.145 393.6785 136.77499 9.2197031e-39
1975.7051 578.35388 139.26601 9.2197031e-39
1982.91 577.31122 139.30865 9.2197031e-39
1956.9399 580.18988 138.922 9.2197031e-39
-1158.48 1091.407 136.40199 9.2197031e-39
3034.4299 405.172 140.267 9.2197031e-39
3021.28 412.30499 141.571 9.2197031e-39
3009.6499 423.961 144.138 9.2197031e-39
2966.5601 434.242 144.952 9.2197031e-39
2807.53 460.819 144.95 9.2197031e-39
2708.4399 474.84198 144.27901 9.2197031e-39
2679.1599 484.10199 145.433 9.2197031e-39
2617.0701 498.155 146.403 9.2197031e-39
2647.55 490.004 145.59599 9.2197031e-39
2579.6201 508.70001 147.536 9.2197031e-39
2601.29 502.09 146.746 9.2197031e-39
2526 518.59802 147.783 9.2197031e-39
2554.79 512.60303 147.47 9.2197031e-39
2462.21 526.90271 147.16 9.2197031e-39
2487.1101 522.23901 147.028 9.2197031e-39
2255.27 539.22589 141.27499 9.2197031e-39
2262.3 538.63892 141.42999 9.2197031e-39
2284.3201 537.4151 142.08 9.2197031e-39
2319.3101 536.8656 143.48 9.2197031e-39
2331.3401 534.63171 143.42101 9.2197031e-39
2361.3201 533.2486 144.38 9.2197031e-39
2380.3 530.229 144.42101 9.2197031e-39
2257.4048 544.20557 142.6855 9.2197031e-39
2263.0325 545.84845 143.3685 9.2197031e-39
2307.8101 556.04053 148.03999 9.2197031e-39
1965.2 589.27448 141.688 9.2197031e-39
1976.78 588.7619 142.064 9.2197031e-39
1984.7601 583.43713 141.00932 9.2197031e-39
1995.01 585.83557 142.09599 9.2197031e-39
1985.1167 593.79401 143.76233 9.2197031e-39
1993.545 591.04541 143.40851 9.2197031e-39
1976.7832 604.71588 146.28065 9.2197031e-39
1986.2075 605.99762 147.03575 9.2197031e-39
1999.51 608.75702 148.353 9.2197031e-39
2005.85 605.71692 147.82899 9.2197031e-39
1967.66 611.66125 147.713 9.2197031e-39
1975.905 613.12878 148.465 9.2197031e-39
1987.095 612.42035 148.77249 9.2197031e-39
1996.0468 612.49091 149.18666 9.2197031e-39
2004.33 612.2467 149.48801 9.2197031e-39
-1150.3 1109.316 141.49699 9.2197031e-39
2345.105 562.91272 151.504 9.2197031e-39
2378.3101 570.03931 154.854 9.2197031e-39
1993.97 618.24573 150.61501 9.2197031e-39
1993.02 622.02478 151.573 9.2197031e-39
-1157.4301 1148.2209 151.464 9.2197031e-39
-1152.84 1166.7949 156.575 9.2197031e-39
2435.01 581.40253 160.362 9.2197031e-39
2489.8501 591.71332 165.50999 9.2197031e-39
-583.22699 1087.962 160.90401 9.2197031e-39
-612.25403 1110.24 165.509 9.2197031e-39
2554.95 606.7511 172.36 9.2197031e-39
-613.38397 1142.306 173.93401 9.2197031e-39
-619.539 1160.173 178.384 9.2197031e-39
2654.6201 626.42426 181.96201 9.2197031e-39
-620.04303 1192.442 186.89 9.2197031e-39
2825.8401 663.94879 199.442 9.2197031e-39
-621.96802 1209.55 191.326 9.2197031e-39
-622.82001 1242.217 199.922 9.2197031e-39
-586.71997 1249.474 203.43401 9.2197031e-39
2972.73 695.93091 214.384 9.2197031e-39
-629.45001 1293.5959 213.207 9.2197031e-39
3034.0801 718.18848 222.976 9.2197031e-39
3052.3701 727.48401 226.241 9.2197031e-39
3056.7 739.39197 229.57899 9.2197031e-39
3066.04 747.18701 232.052 9.2197031e-39
3075.6599 763.60797 236.817 9.2197031e-39
3082.0901 779.612 241.33099 9.2197031e-39
3077.6201 784.40698 242.39999 9.2197031e-39
3085.01 797.98901 246.31599 9.2197031e-39
3083.3101 803.55298 247.711 9.2197031e-39
3093.27 818.21002 252.02499 9.2197031e-39
3090.5 823.53998 253.311 9.2197031e-39
3087.8201 834.68701 256.13901 9.2197031e-39
3085.8899 840.26898 257.52899 9.2197031e-39
3088.51 859.45703 262.716 9.2197031e-39
3099.98 856.95599 262.561 9.2197031e-39
3089.79 878.50403 267.806 9.2197031e-39
3091.01 872.57001 266.29199 9.2197031e-39
3089.75 897.35199 272.785 9.2197031e-39
3092.02 891.74304 271.40302 9.2197031e-39
3107.4199 916.77399 278.69901 9.2197031e-39
3104.0701 922.11096 279.961 9.2197031e-39
3106.6001 936.104 283.771 9.2197031e-39
3130.5901 952.76501 289.23401 9.2197031e-39
3133.6101 967.56799 293.28 9.2197031e-39
3133.5901 974.60101 295.138 9.2197031e-39
3128.1499 985.94397 297.89499 9.2197031e-39
3132.5 995.03699 300.48999 9.2197031e-39
3128.6101 1007.207 303.535 9.2197031e-39
3132.77 1016.425 306.155 9.2197031e-39
3126.8401 1027.762 308.88901 9.2197031e-39
3125.5 1034.4561 310.599 9.2197031e-39
3134.4248 1057.1799 316.9985 9.2197031e-39
3134.1699 1075.6331 321.86401 9.2197031e-39
3130.77 1081.494 323.263 9.2197031e-39
3140.4399 1101.9089 329.086 9.2197031e-39
3136.8799 1107.806 330.487 9.2197031e-39
3129.8501 1119.1951 333.186 9.2197031e-39
3133.8401 1129.517 336.09 9.2197031e-39
3135 1145.9509 340.48401 9.2197031e-39
3131.1599 1151.819 341.866 9.2197031e-39
3131.96 1168.3669 346.27499 9.2197031e-39
3135.47 1178.9609 349.23001 9.2197031e-39
3136.6799 1196.2371 353.849 9.2197031e-39
3139.9299 1206.9861 356.83301 9.2197031e-39
3131.73 1218.415 359.491 9.2197031e-39
595.11401 1609.3979 350.76401 9.2197031e-39
606.20099 1627.3301 355.99399 9.2197031e-39
3135.5601 1229.817 362.67401 9.2197031e-39
3135.1399 1246.838 367.15302 9.2197031e-39
596 1648.24 361.06799 9.2197031e-39
600.42102 1671.54 367.42099 9.2197031e-39
3137.8999 1257.829 370.17999 9.2197031e-39
3137.8301 1275.592 374.871 9.2197031e-39
3133.1899 1281.4829 376.224 9.2197031e-39
2822.05 1347.689 379.97601 9.2197031e-39
3135.4199 1306.1295 382.83551 9.2197031e-39
3137.8999 1331.614 389.67999 9.2197031e-39
2802.77 1354.3721 380.89001 9.2197031e-39
2762.3701 1364.2329 381.71201 9.2197031e-39
2785.3 1362.931 382.38 9.2197031e-39
2803.26 1365.1069 383.74899 9.2197031e-39
2828.3999 1365.106 384.85901 9.2197031e-39
2850.52 1360.856 384.71301 9.2197031e-39
2743.1201 1375.022 383.71249 9.2197031e-39
2760.1899 1371.834 383.62399 9.2197031e-39
2784.3999 1372.136 384.77399 9.2197031e-39
2873.8601 1376.915 389.98801 9.2197031e-39
2727.75 1385.6085 385.83151 9.2197031e-39
3132.9199 1337.5081 391.01801 9.2197031e-39
3137.6399 1360.5969 397.328 9.2197031e-39
3137.03 1370.2219 399.845 9.2197031e-39
2895.1499 1380.5491 391.88901 9.2197031e-39
2911.6699 1388.1699 394.633 9.2197031e-39
2730.0801 1416.1599 394.009 9.2197031e-39
2729.5701 1426.932 396.83301 9.2197031e-39
2711.6499 1434.859 398.13699 9.2197031e-39
2720.4399 1436.224 398.88501 9.2197031e-39
2633.46 1453.116 399.50699 9.2197031e-39
3136.6399 1389.822 405.008 9.2197031e-39
3143.25 1405.865 409.54001 9.2197031e-39
2702.3999 1443.98 400.138 9.2197031e-39
2688.3401 1458.012 403.22501 9.2197031e-39
2703.52 1458.04 403.90302 9.2197031e-39
2627.0701 1467.426 403.00699 9.2197031e-39
2649.6699 1468.6279 404.323 9.2197031e-39
2625.8899 1478.932 405.995 9.2197031e-39
2669.1399 1476.761 407.332 9.2197031e-39
2688.1799 1470.448 406.505 9.2197031e-39
3140.0601 1423.7729 414.13199 9.2197031e-39
3139.6699 1434.2151 416.87399 9.2197031e-39
2681.8701 1485.204 410.12601 9.2197031e-39
3142.5701 1458.109 423.31699 9.2197031e-39
3142.6001 1469.314 426.27899 9.2197031e-39
3139.8501 1488.802 431.30801 9.2197031e-39
3137.46 1498.075 433.65399 9.2197031e-39
3137.73 1521.052 439.73801 9.2197031e-39
3072.5901 1537.614 441.237 9.2197031e-39
3138.5801 1533.7939 443.14301 9.2197031e-39
3138.21 1556.989 449.25699 9.2197031e-39
3140.77 1571.9409 453.32101 9.2197031e-39
3129.5701 1584.8091 456.22699 9.2197031e-39
2726.22 1698.55 468.46799 9.2197031e-39
2724.3501 1712.4399 472.056 9.2197031e-39
2714.1101 1727.0601 475.46899 9.2197031e-39
-477.08099 3016.71 675.32703 9.2197031e-39
-1411.6 3210.6299 685.29401 9.2197031e-39
-238.564 3034.8601 690.65997 9.2197031e-39
-222.673 3047.46 694.69299 9.2197031e-39
-1341.5699 3219.6599 690.77301 9.2197031e-39
-1294.86 3215.4099 691.71503 9.2197031e-39
-191.58299 3071.6101 702.448 9.2197031e-39
-184.05499 3093.46 708.55603 9.2197031e-39
-372.06601 3116.78 706.41199 9.2197031e-39
-557.19299 3123.53 700.01898 9.2197031e-39
-146.58099 3110.48 714.71002 9.2197031e-39
-1331.17 3307.6001 714.47601 9.2197031e-39
-139.94701 3133.6899 721.13702 9.2197031e-39
-97.0354 3144.0901 725.77899 9.2197031e-39
-74.175598 3148.29 727.90002 9.2197031e-39
-21.979799 3146.3201 729.68597 9.2197031e-39
-1328.9399 3339.0701 722.89001 9.2197031e-39
6.32444 3143.0901 730.08301 9.2197031e-39
145.24699 3152.9199 738.81598 9.2197031e-39
64.786598 3163.1299 737.96002 9.2197031e-39
113.843 3162.04 739.841 9.2197031e-39
28.6919 3176.9299 740.01501 9.2197031e-39
169.879 3183.1101 747.88397 9.2197031e-39
3154.47 2705.5701 753.52399 9.2197031e-39
3155.0601 2741.4199 763.026 9.2197031e-39
-778.69397 3402.4399 763.94501 9.2197031e-39
-771.72101 3429.3301 771.35901 9.2197031e-39
3158.6799 2819.2 783.74103 9.2197031e-39
-750.55499 3474.4099 784.20801 9.2197031e-39
3160.01 2859.74 794.51398 9.2197031e-39
56.0364 3372.97 793.03198 9.2197031e-39
3160.24 2936.3101 814.76099 9.2197031e-39
1274.88 3270.4399 819.77802 9.2197031e-39
3158.3301 2972.6799 824.28802 9.2197031e-39
3085.98 3005.21 829.68799 9.2197031e-39
3038.05 3013.5 829.76202 9.2197031e-39
1292.1801 3273.1899 821.26898 9.2197031e-39
3071.79 3013.5901 831.27802 9.2197031e-39
1318.79 3302.4099 830.16699 9.2197031e-39
-1337.89 3765.4199 835.172 9.2197031e-39
1320.15 3361.95 845.96301 9.2197031e-39
3164.1499 3069.3999 850.10602 9.2197031e-39
3157.24 3097.05 857.10797 9.2197031e-39
1335.79 3436.8999 866.461 9.2197031e-39
-1532.55 3907.53 864.12903 9.2197031e-39
-2116.04 4059.8101 878.59802 9.2197031e-39
1337.72 3501.27 883.55902 9.2197031e-39
3078.1101 3271.8501 899.80798 9.2197031e-39
-2124.1799 4108.73 891.16699 9.2197031e-39
-2038.4 4117.8203 897.35901 9.2197031e-39
3114.3899 3270.6101 901.08398 9.2197031e-39
3081.03 3335.0901 916.65302 9.2197031e-39
2935.74 3344.3 912.66602 9.2197031e-39
2992.1799 3347.97 916.13098 9.2197031e-39
3027.8101 3344.1201 916.68701 9.2197031e-39
3047.8101 3346.9199 918.31097 9.2197031e-39
2974.01 3350.3501 915.95801 9.2197031e-39
1342.3 3631.8601 918.27197 9.2197031e-39
1349.51 3684.1599 932.41302 9.2197031e-39
2954.8899 3477.3999 948.69 9.2197031e-39
1348.38 3858.55 978.45203 9.2197031e-39
1032.6899 3914.1599 979.203 9.2197031e-39
2951.3301 3603.48 981.85199 9.2197031e-39
2945.79 3658.8501 996.24103 9.2197031e-39
-2500.22 4563.2002 994.66302 9.2197031e-39
1349.3199 3948.8601 1002.36 9.2197031e-39
-176.461 4208.1899 1003.5 9.2197031e-39
-118.611 4209.6201 1006.43 9.2197031e-39
-90.632896 4212.9199 1008.53 9.2197031e-39
-214.532 4220.0498 1004.95 9.2197031e-39
-2434.8301 4598.0801 1006.77 9.2197031e-39
-2375.6101 4592.71 1007.97 9.2197031e-39
-31.1653 4209.77 1010.33 9.2197031e-39
0.566329 4205.6899 1010.65 9.2197031e-39
57.549198 4204.6797 1012.9 9.2197031e-39
85.645203 4205.9297 1014.48 9.2197031e-39
169.198 4206.1602 1018.23 9.2197031e-39
138.03101 4211.5098 1018.26 9.2197031e-39
215.467 4221.9502 1024.45 9.2197031e-39
1351.92 4135.1797 1051.72 9.2197031e-39
-680.36499 4481.25 1053.4 9.2197031e-39
-646.15698 4482.5098 1055.24 9.2197031e-39
-577.185 4480.1299 1057.66 9.2197031e-39
-543.789 4481.4399 1059.48 9.2197031e-39
-476.48599 4479.2002 1061.86 9.2197031e-39
-441.73599 4477.3101 1062.9 9.2197031e-39
1353.17 4239.9902 1079.47 9.2197031e-39
143.606 4418.1699 1073.13 9.2197031e-39
265.883 4458.2803 1089.13 9.2197031e-39
176.72301 4465.71 1087.15 9.2197031e-39
208.42999 4460.7197 1087.24 9.2197031e-39
518.27197 4449.6602 1098 9.2197031e-39
351.405 4455.27 1092.11 9.2197031e-39
378.133 4458.8501 1094.24 9.2197031e-39
435.129 4453.2803 1095.28 9.2197031e-39
462.875 4453.6299 1096.6 9.2197031e-39
293.14801 4461.5 1091.1899 9.2197031e-39
628.17499 4443.7197 1101.29 9.2197031e-39
678.98199 4447.6797 1104.58 9.2197031e-39
705.224 4449.21 1106.14 9.2197031e-39
544.38397 4453.0898 1100.0601 9.2197031e-39
597.979 4451.7002 1102.0601 9.2197031e-39
756.52698 4450.3999 1108.72 9.2197031e-39
781.41803 4455.1299 1111.0699 9.2197031e-39
1364.48 4416.3203 1126.5699 9.2197031e-39
816.47601 4504.3999 1125.64 9.2197031e-39
1380.1899 4463.21 1139.66 9.2197031e-39
1646.01 4450.8701 1148.14 9.2197031e-39
1448.42 4489.6001 1149.65 9.2197031e-39
2963.9399 4267.4399 1157.88 9.2197031e-39
1521.17 4489.96 1152.96 9.2197031e-39
1593.76 4489.0703 1155.9301 9.2197031e-39
1422.55 4495.5 1150.0601 9.2197031e-39
1495.46 4496.2998 1153.49 9.2197031e-39
1568.21 4495.8398 1156.59 9.2197031e-39
3035.9099 4270.6201 1161.9 9.2197031e-39
3060.99 4273.46 1163.76 9.2197031e-39
2992.1399 4284.8398 1163.73 9.2197031e-39
1664.83 4498.4697 1161.55 9.2197031e-39
2587.95 4412.7197 1179.67 9.2197031e-39
2807.23 4437.46 1195.89 9.2197031e-39
2855.52 4438.5098 1198.3 9.2197031e-39
2735.7 4443.54 1194.34 9.2197031e-39
2783.24 4441.6104 1195.9301 9.2197031e-39
2640.8999 4457.4697 1193.83 9.2197031e-39
2664.98 4454.1396 1194.02 9.2197031e-39
2712.6899 4453.9697 1196.08 9.2197031e-39
2571.29 4477.9902 1196.1801 9.2197031e-39
1700.83 4611.5898 1193.04 9.2197031e-39
2953.9099 4438.6201 1202.6801 9.2197031e-39
2881.1699 4442.48 1200.49 9.2197031e-39
2929.6899 4442.6699 1202.6801 9.2197031e-39
1723.5 4637.7402 1200.95 9.2197031e-39
1742.8 4991.4399 1295.28 9.2197031e-39
1747.72 5279.79 1371.7 9.2197031e-39
2279.5901 7236.75 1912.39 9.2197031e-39
2320.99 7244.9199 1916.38 9.2197031e-39
2401.53 7256.7998 1923.0699 9.2197031e-39
2444.49 7290.3198 1933.83 9.2197031e-39
2648.21 7295.3999 1944.17 9.2197031e-39
2690.1001 7296.6001 1946.34 9.2197031e-39
2772.95 7312.9399 1954.3199 9.2197031e-39
2814.8501 7311.4902 1955.79 9.2197031e-39
2528.1799 7339.3701 1950.49 9.2197031e-39
2570.76 7348.98 1954.91 9.2197031e-39
1650.76 7600.25 1980.6801 9.2197031e-39
1686.59 7726.9302 2015.74 9.2197031e-39
1772.22 7729.3701 2020.16 9.2197031e-39
1902.1899 7724.9702 2024.74 9.2197031e-39
1946.3 7724.6401 2026.61 9.2197031e-39
1816.33 7730.75 2022.48 9.2197031e-39
2076.02 7716.3398 2030.14 9.2197031e-39
2161.5 7715.3999 2033.67 9.2197031e-39
2205.53 7713.5801 2035.13 9.2197031e-39
2031.87 7726.1099 2030.77 9.2197031e-39
