# .PCD v0.7 - Point Cloud Data file format
VERSION 0.7
FIELDS x y z rgb
SIZE 4 4 4 4
TYPE F F F F
COUNT 1 1 1 1
WIDTH 322
HEIGHT 1
VIEWPOINT 0 0 0 1 0 0 0
POINTS 322
DATA ascii
3049.76 1088.192 134.321 9.2197031e-39
3053.8799 1095.048 136.18401 9.2197031e-39
3053.97 1104.402 138.69099 9.2197031e-39
1965.28 1127.16 137.839 9.2197031e-39
1947.2599 1132.5751 139.17467 9.2197031e-39
1950.75 1134.1035 139.60651 9.2197031e-39
-700.28802 1172.863 133.071 9.2197031e-39
3048.98 1111.342 140.51801 9.2197031e-39
3038.78 1127.376 144.748 9.2197031e-39
3049.8999 1120.66 143.02 9.2197031e-39
1945.915 1137.978 140.61349 9.2197031e-39
2218.96 1137.235 142.157 9.2197031e-39
2225.2935 1136.2413 141.93132 9.2197031e-39
2233.6499 1135.137 141.688 9.2197031e-39
2268.3401 1139.756 143.147 9.2197031e-39
2659.1101 1139.7371 145.636 9.2197031e-39
2686.3 1136.8359 145.032 9.2197031e-39
2755.5 1133.464 144.571 9.2197031e-39
2923.5901 1133.363 145.616 9.2197031e-39
1935.53 1141.923 141.604 9.2197031e-39
1944.0933 1145.3119 142.56616 9.2197031e-39
1954.5433 1146.2762 142.89134 9.2197031e-39
2226.79 1142.0483 143.496 9.2197031e-39
2233.02 1146.845 144.821 9.2197031e-39
2287.3999 1140.8979 143.575 9.2197031e-39
2299.49 1141.202 143.733 9.2197031e-39
2318.6201 1141.7261 143.996 9.2197031e-39
2347.5901 1143.7949 144.735 9.2197031e-39
2550.0901 1149.756 147.62399 9.2197031e-39
2583.28 1149.0181 147.638 9.2197031e-39
2596.6299 1145.109 146.67599 9.2197031e-39
2619.8501 1142.865 146.22301 9.2197031e-39
1937.72 1157.109 145.6855 9.2197031e-39
1947.5699 1151.959 144.369 9.2197031e-39
2422.3401 1150.2109 146.931 9.2197031e-39
2462.3701 1152.281 147.741 9.2197031e-39
2500.5801 1152.5391 148.054 9.2197031e-39
2516.8201 1151.0911 147.769 9.2197031e-39
1925.1432 1166.3715 148.08633 9.2197031e-39
1934.282 1166.7412 148.24399 9.2197031e-39
1944.9434 1169.2147 148.97432 9.2197031e-39
1955.4 1168.928 148.965 9.2197031e-39
1964.8501 1164.475 147.832 9.2197031e-39
2292.5601 1163.4819 149.657 9.2197031e-39
1958.0649 1170.9675 149.5275 9.2197031e-39
1962.0601 1171.1389 149.599 9.2197031e-39
-585.60101 1196.147 140.03999 9.2197031e-39
-601.883 1216.016 145.258 9.2197031e-39
1950.98 1177.802 151.313 9.2197031e-39
2312.21 1170.9451 151.782 9.2197031e-39
2361.6699 1186.48 156.259 9.2197031e-39
-610.67999 1242.5129 152.3 9.2197031e-39
-615.60797 1262.228 157.55 9.2197031e-39
2419.26 1206.0281 161.86301 9.2197031e-39
2475.8301 1225.443 167.425 9.2197031e-39
-617.92902 1288.627 164.606 9.2197031e-39
-613.52002 1307.835 169.78 9.2197031e-39
2534.6101 1247.6631 173.752 9.2197031e-39
2587.6799 1267.9709 179.53101 9.2197031e-39
-634.29498 1335.85 177.15199 9.2197031e-39
-642.47198 1356.292 182.575 9.2197031e-39
-655.74298 1384.2729 189.98599 9.2197031e-39
2692.0601 1307.425 190.765 9.2197031e-39
-663.52899 1405.0349 195.498 9.2197031e-39
2858.6299 1367.994 208.05299 9.2197031e-39
-676.263 1433.484 203.037 9.2197031e-39
-672.737 1453.202 208.342 9.2197031e-39
2758.05 1386.436 212.351 9.2197031e-39
2776.8101 1384.416 211.92999 9.2197031e-39
2815.6548 1385.562 212.485 9.2197031e-39
2744.8999 1391.3976 213.59601 9.2197031e-39
2734.9399 1403.172 216.687 9.2197031e-39
2742.6399 1400.923 216.134 9.2197031e-39
2735.46 1411.103 218.815 9.2197031e-39
2734.9099 1416.6069 220.286 9.2197031e-39
2705.77 1429.1851 223.46899 9.2197031e-39
2718.71 1426.1565 222.74051 9.2197031e-39
2727.22 1420.698 221.332 9.2197031e-39
2698.1399 1438.6379 225.952 9.2197031e-39
2705.05 1436.55 225.437 9.2197031e-39
2975.3301 1433.71 226.401 9.2197031e-39
2686.04 1445.51 227.716 9.2197031e-39
2697.3 1445.973 227.912 9.2197031e-39
2677.3101 1454.071 229.95399 9.2197031e-39
2673.7 1459.77 231.457 9.2197031e-39
2690.26 1455.7271 230.48 9.2197031e-39
2672.6699 1465.0071 232.853 9.2197031e-39
3105.3 1461.575 234.69501 9.2197031e-39
2659.8401 1478.821 236.472 9.2197031e-39
2668.8049 1473.5396 235.1145 9.2197031e-39
2655.4299 1485.9561 238.3555 9.2197031e-39
3134.46 1480.165 239.86099 9.2197031e-39
2647.6799 1490.828 239.61099 9.2197031e-39
2630.2 1492.8359 240.037 9.2197031e-39
2640.45 1493.9861 240.411 9.2197031e-39
2623.115 1506.005 243.5195 9.2197031e-39
2631 1501.5391 242.37399 9.2197031e-39
2619.1499 1513.321 245.45399 9.2197031e-39
2614.9102 1521.5525 247.63251 9.2197031e-39
2605.8799 1541.062 252.80099 9.2197031e-39
2624.6101 1544.35 253.80051 9.2197031e-39
2610.8201 1551.7671 255.7 9.2197031e-39
2612.1699 1561.9561 258.43799 9.2197031e-39
2614.0352 1575.0754 261.96399 9.2197031e-39
2616.425 1593.85 267.008 9.2197031e-39
2620.54 1609.9399 271.34399 9.2197031e-39
2616.3401 1623.6599 274.99301 9.2197031e-39
2622.4199 1621.87 274.55301 9.2197031e-39
2621.45 1639.13 279.16901 9.2197031e-39
2624.97 1650.61 282.26801 9.2197031e-39
2626.8601 1663.53 285.73999 9.2197031e-39
2640.9299 1686.5 291.983 9.2197031e-39
2752.5601 1816.79 327.59601 9.2197031e-39
3162.48 2269.3799 451.45099 9.2197031e-39
3172.8 2304.4102 460.89801 9.2197031e-39
3175.98 2326.0601 466.71899 9.2197031e-39
3176.22 2351.28 473.47601 9.2197031e-39
3178.1399 2372.4199 479.15201 9.2197031e-39
3176.3701 2396.3799 485.55899 9.2197031e-39
3178.3301 2418.47 491.48801 9.2197031e-39
3175.8301 2442.6201 497.94199 9.2197031e-39
3181.47 2470.24 505.375 9.2197031e-39
3182.4199 2499.98 513.349 9.2197031e-39
3177.6699 2515.55 517.48999 9.2197031e-39
3181.9399 2550.96 527 9.2197031e-39
3180.1599 2571.3198 532.44299 9.2197031e-39
3181.1001 2603.9102 541.17902 9.2197031e-39
3186.1101 2634.72 549.46399 9.2197031e-39
3182.04 2662.05 556.75897 9.2197031e-39
3185.0701 2691.54 564.67798 9.2197031e-39
3185.6001 2727.1201 574.21399 9.2197031e-39
-272.14499 2819.6201 576.92499 9.2197031e-39
-243.02299 2824.79 578.495 9.2197031e-39
3188.28 2757.7 582.42102 9.2197031e-39
-225.166 2847.21 584.61603 9.2197031e-39
-212.53799 2864.3501 589.289 9.2197031e-39
3184.46 2788.7 590.70099 9.2197031e-39
3184.6699 2817.0601 598.29797 9.2197031e-39
3185.05 2856.49 608.86499 9.2197031e-39
3187.95 2890.8701 618.09399 9.2197031e-39
3186.54 2929.8101 628.51398 9.2197031e-39
329.08899 2986.6499 625.505 9.2197031e-39
3188.3899 2964.47 637.81201 9.2197031e-39
-376.586 3028.46 632.20203 9.2197031e-39
248.65199 3033.51 637.54401 9.2197031e-39
-234.019 3050.1399 638.91803 9.2197031e-39
3188.1399 3007.9099 649.44501 9.2197031e-39
-225.058 3071.8401 644.78802 9.2197031e-39
-186.008 3077.95 646.67297 9.2197031e-39
3071.3201 3036.8999 656.46503 9.2197031e-39
3057.75 3046.55 658.96301 9.2197031e-39
3190.8401 3046.23 659.72699 9.2197031e-39
-176.00101 3098.75 652.31 9.2197031e-39
237.017 3114.6699 659.21002 9.2197031e-39
-161.173 3125.77 659.64301 9.2197031e-39
3024.27 3066.1799 664.008 9.2197031e-39
3041.8701 3064.6001 663.69897 9.2197031e-39
-147.802 3143.8401 664.56702 9.2197031e-39
3191.04 3093.3999 672.36499 9.2197031e-39
-125.918 3164.6499 670.28198 9.2197031e-39
-100.749 3171.6899 672.32898 9.2197031e-39
-32.953602 3178.6599 674.62701 9.2197031e-39
10.1707 3177.52 674.59802 9.2197031e-39
82.682503 3176.1799 674.70203 9.2197031e-39
-70.0783 3183.8501 675.78198 9.2197031e-39
31.655899 3186.77 677.21198 9.2197031e-39
203.87199 3192.1299 679.74902 9.2197031e-39
-2044.1 3222.0901 673.42798 9.2197031e-39
3191.1201 3129.47 682.02698 9.2197031e-39
3152.1699 3143.53 685.54401 9.2197031e-39
205.57201 3221.7 687.67999 9.2197031e-39
-1320.73 3238.23 682.36798 9.2197031e-39
-2027.77 3251.6899 681.461 9.2197031e-39
-1431.37 3259.45 687.34497 9.2197031e-39
-1295.09 3256.79 687.50299 9.2197031e-39
3187.96 3173.55 693.81403 9.2197031e-39
-2015.9399 3296.96 693.66199 9.2197031e-39
-1299.3 3306.6101 700.82202 9.2197031e-39
-2005.15 3329.6599 702.492 9.2197031e-39
-1950.76 3351.76 708.75897 9.2197031e-39
-1311.27 3349.9299 712.34802 9.2197031e-39
-1937.76 3383.1201 717.24298 9.2197031e-39
1290.25 3323.5701 721.88898 9.2197031e-39
1309.23 3323.71 722.04901 9.2197031e-39
1334.08 3325.5801 722.70801 9.2197031e-39
114.62 3369.0901 726.58099 9.2197031e-39
-773.77698 3371.8401 721.64899 9.2197031e-39
-1908.9 3418.9299 727.01898 9.2197031e-39
3100.6101 3326.3401 734.185 9.2197031e-39
3121.3601 3326.8899 734.46503 9.2197031e-39
1364.46 3368.3401 734.35602 9.2197031e-39
1334.38 3381.52 737.69598 9.2197031e-39
-762.51801 3409.28 731.75 9.2197031e-39
-1913.29 3460.6101 738.15503 9.2197031e-39
-762.32501 3444.05 741.06299 9.2197031e-39
3032.1201 3388.8601 750.49597 9.2197031e-39
3100.8501 3388.3999 750.81 9.2197031e-39
2959.6599 3394.1599 751.45203 9.2197031e-39
2987.5801 3396.3899 752.229 9.2197031e-39
3005.8999 3391.6299 751.07001 9.2197031e-39
3053.4399 3390.9099 751.18201 9.2197031e-39
3081.3301 3391.2 751.43597 9.2197031e-39
1355.05 3459.5 758.716 9.2197031e-39
-1473.46 3507.6001 753.54797 9.2197031e-39
2970.8601 3477.5901 773.87299 9.2197031e-39
1355.75 3545.3201 781.70801 9.2197031e-39
1359.58 3601.6299 796.81702 9.2197031e-39
2969.8501 3610.99 809.60101 9.2197031e-39
2992.72 3614.5701 810.70697 9.2197031e-39
2950.4399 3638.7 816.90002 9.2197031e-39
1367.63 3671.9199 815.698 9.2197031e-39
1119.64 3713.29 825.198 9.2197031e-39
1370.8101 3737.73 833.34601 9.2197031e-39
2984.48 3805.71 861.85498 9.2197031e-39
1371.62 3845.6699 862.26501 9.2197031e-39
-2616.98 3936.76 861.21198 9.2197031e-39
1375.34 3919.22 881.99103 9.2197031e-39
-2163.8301 4018.05 885.87903 9.2197031e-39
-2065.4199 4011.3799 884.72198 9.2197031e-39
-2077.6899 4065.71 899.19702 9.2197031e-39
1378.49 4033.1699 912.53601 9.2197031e-39
1378.05 4136.1602 940.12201 9.2197031e-39
-157.91701 4238.75 957.80103 9.2197031e-39
-27.7113 4237.1001 958.18903 9.2197031e-39
6.1396399 4237.5303 958.521 9.2197031e-39
83.429298 4239.98 959.66998 9.2197031e-39
130.963 4235.1602 958.68298 9.2197031e-39
165.285 4232.4697 958.18201 9.2197031e-39
-113.042 4242.6602 959.13501 9.2197031e-39
204.763 4239.1602 960.224 9.2197031e-39
236.33099 4239.96 960.64203 9.2197031e-39
-82.218102 4248.7002 960.948 9.2197031e-39
44.4949 4248.4502 961.69098 9.2197031e-39
-204.966 4254.1899 961.63702 9.2197031e-39
1382.23 4264.6602 974.57001 9.2197031e-39
2987.8101 4301.3701 994.65002 9.2197031e-39
3024.96 4306.3799 996.22803 9.2197031e-39
3051.79 4306.9297 996.547 9.2197031e-39
3088.3799 4308.4697 997.19397 9.2197031e-39
3115.6599 4309.4502 997.62903 9.2197031e-39
-720.409 4374.4102 990.55103 9.2197031e-39
1381.88 4384.0703 1006.55 9.2197031e-39
-721.216 4442.5898 1008.81 9.2197031e-39
2980.3301 4370.3301 1013.08 9.2197031e-39
806.73499 4476.5 1027.64 9.2197031e-39
135.25101 4488.9502 1026.6899 9.2197031e-39
-721.177 4493.5601 1022.46 9.2197031e-39
-447.18201 4513.6602 1029.6 9.2197031e-39
2625.54 4462.3203 1035.45 9.2197031e-39
1397.62 4479.77 1032.29 9.2197031e-39
1672.7 4489.02 1036.52 9.2197031e-39
544.17102 4498.5 1031.86 9.2197031e-39
586.047 4498.0898 1032.02 9.2197031e-39
659.90698 4493.25 1031.1899 9.2197031e-39
688.94501 4496.1797 1032.16 9.2197031e-39
730.24298 4494.1602 1031.89 9.2197031e-39
1645.45 4495.5801 1038.11 9.2197031e-39
161.3 4502.8398 1030.58 9.2197031e-39
205.987 4504.2002 1031.23 9.2197031e-39
240.069 4503.0303 1031.13 9.2197031e-39
283.07599 4506.0498 1032.22 9.2197031e-39
316.90799 4504.2002 1031.9399 9.2197031e-39
359.659 4506.3501 1032.79 9.2197031e-39
393.66 4502.96 1032.09 9.2197031e-39
436.55399 4503.3604 1032.48 9.2197031e-39
467.31601 4505.4297 1033.23 9.2197031e-39
509.53799 4505.8799 1033.62 9.2197031e-39
615.25403 4501.6104 1033.15 9.2197031e-39
757.74103 4500.1602 1033.67 9.2197031e-39
-544.72198 4517.7803 1030.08 9.2197031e-39
-691.565 4527.3398 1031.7 9.2197031e-39
-646.22699 4523.4697 1030.95 9.2197031e-39
-587.77899 4520.3999 1030.5 9.2197031e-39
-492.771 4521.1602 1031.3101 9.2197031e-39
2908.3301 4479.4199 1041.84 9.2197031e-39
2692.1799 4486.8896 1042.46 9.2197031e-39
2754.99 4485.5601 1042.5 9.2197031e-39
2782.54 4488.2002 1043.39 9.2197031e-39
2817.54 4481.25 1041.75 9.2197031e-39
2845.3899 4484.3604 1042.76 9.2197031e-39
2882.3501 4485.27 1043.24 9.2197031e-39
2945.6299 4480.6299 1042.4 9.2197031e-39
2973.78 4482.75 1043.15 9.2197031e-39
2657.6101 4495.4902 1044.54 9.2197031e-39
2719.77 4490.96 1043.73 9.2197031e-39
1417.42 4515.9199 1042.1 9.2197031e-39
2597.2 4510.4297 1048.16 9.2197031e-39
1478.87 4527.54 1045.61 9.2197031e-39
1542.0699 4528.5801 1046.29 9.2197031e-39
1578.95 4524.0601 1045.3101 9.2197031e-39
1605.25 4527.5703 1046.42 9.2197031e-39
1450.8101 4532.6299 1046.79 9.2197031e-39
1514.33 4533.2002 1047.35 9.2197031e-39
1700.86 4554.2803 1054.1801 9.2197031e-39
1717.26 4654 1081 9.2197031e-39
1752.75 4670.8101 1085.73 9.2197031e-39
1754.48 4971.52 1166.3 9.2197031e-39
1779.4301 5173.9199 1220.67 9.2197031e-39
1726.6899 6412.75 1552.1801 9.2197031e-39
2337.05 7272.3501 1786.34 9.2197031e-39
2401.8201 7286.8901 1790.65 9.2197031e-39
2450.1101 7296.9102 1793.64 9.2197031e-39
2677.5601 7323.8301 1802.3 9.2197031e-39
2744.1899 7338.8398 1806.75 9.2197031e-39
2793.8899 7349.23 1809.85 9.2197031e-39
2860.45 7357.3101 1812.4399 9.2197031e-39
2567.99 7369.6201 1813.87 9.2197031e-39
2519.9099 7374.8999 1814.98 9.2197031e-39
2633.3799 7370.3198 1814.48 9.2197031e-39
2911.0701 7370.6699 1816.34 9.2197031e-39
2977.72 7374.7202 1817.85 9.2197031e-39
2304.4099 7724.8999 1907.36 9.2197031e-39
1705.04 7747.9199 1909.7 9.2197031e-39
2065.2 7749.8301 1912.51 9.2197031e-39
2116.3201 7748.7598 1912.55 9.2197031e-39
2185.1699 7749 1913.05 9.2197031e-39
2236.26 7747.0601 1912.86 9.2197031e-39
1996.25 7757.1201 1914.03 9.2197031e-39
1755.1899 7769.7002 1915.85 9.2197031e-39
1824.67 7761.8398 1914.1899 9.2197031e-39
1875.9 7763.46 1914.96 9.2197031e-39
1944.89 7765.0601 1915.8199 9.2197031e-39
