# .PCD v0.7 - Point Cloud Data file format
VERSION 0.7
FIELDS x y z rgb
SIZE 4 4 4 4
TYPE F F F F
COUNT 1 1 1 1
WIDTH 327
HEIGHT 1
VIEWPOINT 0 0 0 1 0 0 0
POINTS 327
DATA ascii
-2107.1399 1420.037 137.918 9.2197031e-39
1898.52 1931.13 139.274 9.2197031e-39
1929.53 1935.91 139.504 9.2197031e-39
1936.025 1935.335 139.134 9.2197031e-39
1949.49 1933.48 138.188 9.2197031e-39
3170.22 2068.0801 132.978 9.2197031e-39
3168.1699 2083.7651 137.216 9.2197031e-39
-2227.8101 1426.895 143.79401 9.2197031e-39
1933.125 1938.6851 140.1205 9.2197031e-39
1919.8101 1942.1899 141.49899 9.2197031e-39
1925.5649 1945.3875 142.157 9.2197031e-39
1930.73 1940.89 140.787 9.2197031e-39
1946.7233 1947.8267 142.09499 9.2197031e-39
1936.8566 1955.8984 144.57201 9.2197031e-39
1941.67 1953.5901 143.7955 9.2197031e-39
1927.62 1967.09 147.856 9.2197031e-39
1933.7318 1965.4066 147.20433 9.2197031e-39
1974.1801 1966.95 146.257 9.2197031e-39
1929.92 1971.92 149.064 9.2197031e-39
1934.9399 1971.4 148.758 9.2197031e-39
1944.5376 1972.2151 148.65149 9.2197031e-39
2205.1768 1978.8101 141.65167 9.2197031e-39
2208.825 1984.14 142.9465 9.2197031e-39
2212.6138 1984.718 142.97281 9.2197031e-39
2262.1299 1992.41 143.355 9.2197031e-39
2285.3201 1998.65 144.235 9.2197031e-39
2308.1101 2002.78 144.567 9.2197031e-39
2274.6299 2017.97 149.731 9.2197031e-39
2369.8101 2019.67 146.98599 9.2197031e-39
2428.5701 2032.4301 148.40401 9.2197031e-39
2573.54 2055.3 149.616 9.2197031e-39
2593.6001 2057.5 149.52901 9.2197031e-39
2613.6001 2055.5801 148.345 9.2197031e-39
2640.5601 2058.77 148.289 9.2197031e-39
2664.5601 2056.8 146.95799 9.2197031e-39
2696.52 2060.29 146.814 9.2197031e-39
2765.77 2065.9399 145.989 9.2197031e-39
2798.8701 2068.5898 145.582 9.2197031e-39
3011.25 2096.8 145.94901 9.2197031e-39
3167.02 2105.1201 142.931 9.2197031e-39
3175.77 2100.9199 141.521 9.2197031e-39
3155.01 2116.3799 146.328 9.2197031e-39
-1009.33 1607.582 150.91 9.2197031e-39
-1013.87 1622.61 155.05701 9.2197031e-39
1938.825 1978.6599 150.55701 9.2197031e-39
2302.55 2031.25 152.32201 9.2197031e-39
2348.6299 2055.1001 157.11501 9.2197031e-39
2501.3201 2050.6099 150.79401 9.2197031e-39
2538.49 2054.98 150.70799 9.2197031e-39
2565.24 2059.4302 150.993 9.2197031e-39
2399.73 2079.9302 162 9.2197031e-39
2459.25 2112.49 168.657 9.2197031e-39
2502.4199 2135.3101 173.274 9.2197031e-39
2557.1399 2168.3599 180.222 9.2197031e-39
2653.1899 2218.95 190.44501 9.2197031e-39
-5101.04 1297.203 205.8 9.2197031e-39
-5094.04 1333.682 215.263 9.2197031e-39
2876.6201 2341.71 215.576 9.2197031e-39
-5092.3999 1419.657 238.063 9.2197031e-39
-5093.73 1455.3301 247.591 9.2197031e-39
3178.75 2502.99 248.304 9.2197031e-39
-3194.3401 1734.2 257.944 9.2197031e-39
3188.24 2524.8799 253.80499 9.2197031e-39
3185.1299 2530.3599 255.366 9.2197031e-39
-3190.1001 1760.55 264.806 9.2197031e-39
3186.27 2548.25 260.08499 9.2197031e-39
3191.72 2558.5898 262.64999 9.2197031e-39
3192.4199 2576.7 267.44299 9.2197031e-39
3189.04 2582.2 269.017 9.2197031e-39
-5090.5298 1541.1699 270.30301 9.2197031e-39
-5083.2202 1577.219 279.64099 9.2197031e-39
3197.01 2605.03 274.81799 9.2197031e-39
3192.6299 2610.03 276.29501 9.2197031e-39
3197.24 2639.23 283.901 9.2197031e-39
3200.9199 2633.6899 282.306 9.2197031e-39
3194.96 2656.74 288.634 9.2197031e-39
3198.6399 2667.1401 291.27499 9.2197031e-39
3203.4102 2693.925 298.2345 9.2197031e-39
3199.47 2715.3301 304.056 9.2197031e-39
3201.03 2724.8501 306.53601 9.2197031e-39
3198.23 2743.3101 311.53601 9.2197031e-39
3201.1699 2754.0901 314.30301 9.2197031e-39
3197.8999 2772.6599 319.35001 9.2197031e-39
3200.5901 2783.5601 322.15601 9.2197031e-39
3204.6799 2808.3101 328.60001 9.2197031e-39
-5083.2002 1783.55 334.48901 9.2197031e-39
3200.0701 2813.8501 330.228 9.2197031e-39
3203.5601 2838.8401 336.754 9.2197031e-39
3204.1599 2848.75 339.36801 9.2197031e-39
3200.9099 2868.96 344.849 9.2197031e-39
3202.04 2879.5801 347.63501 9.2197031e-39
3205.8501 2916.45 357.30801 9.2197031e-39
3210.25 2910.23 355.508 9.2197031e-39
3203.98 2944.3252 364.78052 9.2197031e-39
3208.77 2979.0701 373.85599 9.2197031e-39
3209.03 2990.02 376.759 9.2197031e-39
3209.1699 3016.26 383.73099 9.2197031e-39
3209.8401 3028 386.827 9.2197031e-39
3208.9199 3065.6101 396.85699 9.2197031e-39
3214.8701 3060.03 395.173 9.2197031e-39
3026.3301 3063.78 402.50299 9.2197031e-39
3006.7749 3074.4849 406.005 9.2197031e-39
3214.51 3099.3501 405.638 9.2197031e-39
3209.73 3106.3401 407.659 9.2197031e-39
2980.4199 3088.55 410.629 9.2197031e-39
2990.76 3089.5 410.535 9.2197031e-39
3071.73 3105.6399 412.10699 9.2197031e-39
3101.3201 3110.9399 412.51999 9.2197031e-39
3125.71 3126.6101 415.867 9.2197031e-39
3216.45 3142.5701 417.06299 9.2197031e-39
2987.76 3127.99 420.86801 9.2197031e-39
3217.46 3156.0801 420.62201 9.2197031e-39
3215.8501 3184.73 428.29199 9.2197031e-39
3216.49 3198.3601 431.89401 9.2197031e-39
-241.242 2878.29 462.91901 9.2197031e-39
-217.76601 2882.28 463.19 9.2197031e-39
3084.875 3311.9951 466.521 9.2197031e-39
3117.96 3313.6201 465.841 9.2197031e-39
3089.47 3362.5901 479.81799 9.2197031e-39
-289.96399 2960.02 486.28101 9.2197031e-39
-251.153 2976.9299 489.47198 9.2197031e-39
329.811 3027.9399 483.52399 9.2197031e-39
3083.04 3369.1399 481.77399 9.2197031e-39
-242.77299 2987.3 491.94901 9.2197031e-39
3079.6001 3418.99 495.14001 9.2197031e-39
3009.6201 3425.6799 499.26801 9.2197031e-39
3018.54 3422.75 498.19199 9.2197031e-39
3047.46 3427.22 498.40701 9.2197031e-39
3055.3401 3422.45 496.875 9.2197031e-39
3095.1599 3425.3999 496.323 9.2197031e-39
-277.34 3037.6599 506.496 9.2197031e-39
-238.259 3033.6899 504.129 9.2197031e-39
-198.951 3049.1299 506.914 9.2197031e-39
-175.172 3051.6899 506.79599 9.2197031e-39
237.42599 3098.8501 505.478 9.2197031e-39
308.40302 3097.45 502.72198 9.2197031e-39
2976.6499 3430.8701 501.75699 9.2197031e-39
2987.0901 3430.6399 501.34399 9.2197031e-39
-174.61301 3085.76 515.83502 9.2197031e-39
-160.463 3092.8999 517.25702 9.2197031e-39
311.30099 3126.8301 510.435 9.2197031e-39
-142.67799 3118.21 523.38702 9.2197031e-39
-131.04201 3126.46 525.19098 9.2197031e-39
277.89001 3162.8401 521.13 9.2197031e-39
-124.949 3158.0901 533.39398 9.2197031e-39
-99.382004 3158.4199 532.62402 9.2197031e-39
-68.864403 3176 536.271 9.2197031e-39
35.2589 3177.6899 533.22601 9.2197031e-39
-51.921101 3180.72 536.95801 9.2197031e-39
-5.2236099 3187.8201 537.27698 9.2197031e-39
150.153 3187.3999 531.948 9.2197031e-39
270.495 3200.7 531.44299 9.2197031e-39
289.37299 3201.1899 530.93903 9.2197031e-39
1332.08 3359.51 538.01001 9.2197031e-39
1337.91 3366.7 539.72803 9.2197031e-39
1305.6 3365.72 540.55298 9.2197031e-39
1347.17 3393.77 546.612 9.2197031e-39
1382.4301 3407.8999 549.185 9.2197031e-39
234.235 3274.5901 552.302 9.2197031e-39
1347.67 3412.22 551.5 9.2197031e-39
1255.16 3440.1299 562.02698 9.2197031e-39
1353.24 3448.9399 561.07501 9.2197031e-39
159.839 3343.77 573.19 9.2197031e-39
1365.91 3493.78 572.57001 9.2197031e-39
1369.46 3507.97 576.22198 9.2197031e-39
145.177 3391.51 586.375 9.2197031e-39
1377.27 3544.8799 585.77197 9.2197031e-39
-1286.29 3256.49 598.54999 9.2197031e-39
138.179 3412.48 592.18402 9.2197031e-39
1372.89 3578.6699 594.90198 9.2197031e-39
1382.85 3613.96 603.948 9.2197031e-39
-1439.58 3296.3 614.28003 9.2197031e-39
1380.85 3644.3601 612.09698 9.2197031e-39
3214.3799 3881.48 613.56299 9.2197031e-39
1386.8199 3693.25 624.89398 9.2197031e-39
3217.25 3909.8899 621.01801 9.2197031e-39
-2010.34 3303.3401 635.31799 9.2197031e-39
1388.1801 3717.5 631.29602 9.2197031e-39
3218.8601 3970.8601 637.172 9.2197031e-39
-2000.59 3355.02 648.729 9.2197031e-39
-1401.79 3420.8301 646.117 9.2197031e-39
1390.41 3781.0901 648.12402 9.2197031e-39
3220.8501 3999.5 644.71899 9.2197031e-39
-2011.52 3381.95 656.25598 9.2197031e-39
591.35303 3713.1499 656.89697 9.2197031e-39
744.08197 3715.0701 652.27698 9.2197031e-39
759.99902 3713.1499 651.23199 9.2197031e-39
697.00598 3730.52 657.96503 9.2197031e-39
1394.27 3800.9199 653.26501 9.2197031e-39
3052.9199 4034.02 659.53497 9.2197031e-39
3067.76 4037.1899 659.87903 9.2197031e-39
3148.6001 4041.3999 658.28302 9.2197031e-39
3164.2 4044.8301 658.672 9.2197031e-39
3213.0601 4047.1599 657.65002 9.2197031e-39
3200.5 4050.0901 658.84998 9.2197031e-39
-1940.17 3411.52 661.72198 9.2197031e-39
-1920.9399 3427.3701 665.28802 9.2197031e-39
589.70203 3734.1299 662.52698 9.2197031e-39
677.85101 3735.8601 660.02899 9.2197031e-39
504.91901 3750.22 669.65399 9.2197031e-39
610.453 3754.95 667.36499 9.2197031e-39
752.70502 3770.74 666.78601 9.2197031e-39
3008.3101 4034.6799 661.20898 9.2197031e-39
3020.21 4031.9099 660.07098 9.2197031e-39
3105.8701 4049.1699 661.78302 9.2197031e-39
3120.0701 4050.26 661.59698 9.2197031e-39
504.496 3769.95 674.91199 9.2197031e-39
611.70203 3772.97 672.11298 9.2197031e-39
743.87799 3803.52 675.79797 9.2197031e-39
1396.97 3869.3501 671.36499 9.2197031e-39
1397.49 3901.1299 679.797 9.2197031e-39
-234.278 3741.76 692.22699 9.2197031e-39
739.61298 3860.22 691.013 9.2197031e-39
754.33099 3860.51 690.59698 9.2197031e-39
787.21997 3864.22 690.47699 9.2197031e-39
787.35797 3886.1001 696.28998 9.2197031e-39
789.315 3937.5 709.88898 9.2197031e-39
1398.9 3980.8899 700.95398 9.2197031e-39
1399.92 4014.6699 709.90002 9.2197031e-39
3066.26 4243.3398 714.73199 9.2197031e-39
769.78101 3991.53 724.90802 9.2197031e-39
274.20901 3964.74 734.427 9.2197031e-39
1403.78 4095.74 731.31897 9.2197031e-39
1407.66 4124.1104 738.73297 9.2197031e-39
3001.2 4322.7002 738.01202 9.2197031e-39
3045.22 4346.1201 742.76099 9.2197031e-39
3061.28 4349.5098 743.12299 9.2197031e-39
3095.6499 4346.8604 741.263 9.2197031e-39
2999.26 4355.3398 746.755 9.2197031e-39
731.32397 4112.1201 758.25598 9.2197031e-39
172.677 4056.6699 762.27399 9.2197031e-39
1409.09 4223.1001 765 9.2197031e-39
1410.37 4264.6001 775.98798 9.2197031e-39
679.13898 4223.3101 789.56799 9.2197031e-39
2917.46 4507.3398 789.90997 9.2197031e-39
2952.8999 4505.71 788.28601 9.2197031e-39
3005.3101 4508.3398 787.224 9.2197031e-39
3020.9399 4509.29 786.95398 9.2197031e-39
2970 4511.5601 789.26501 9.2197031e-39
2652.6499 4496.3301 795.87299 9.2197031e-39
2666.01 4492.6104 794.43597 9.2197031e-39
2865.6001 4503.0801 790.51703 9.2197031e-39
2705.8301 4515.8501 799.27802 9.2197031e-39
2719.51 4512.8101 798.01202 9.2197031e-39
2754.45 4513.71 797.07501 9.2197031e-39
2768.1201 4510.4297 795.745 9.2197031e-39
2803.1699 4510.7002 794.64099 9.2197031e-39
2818.96 4514.6499 795.15997 9.2197031e-39
2854.77 4516.1396 794.354 9.2197031e-39
2903.8101 4511.3604 791.43701 9.2197031e-39
1412.6899 4373.3301 804.815 9.2197031e-39
2627.4299 4537.79 807.74402 9.2197031e-39
-717.04102 4142.3701 814.935 9.2197031e-39
1418.95 4401.9297 812.20599 9.2197031e-39
2615.96 4551.77 811.84399 9.2197031e-39
-709.76398 4193.04 828.15997 9.2197031e-39
-71.284401 4244.9399 820.51599 9.2197031e-39
-709.755 4216.9102 834.505 9.2197031e-39
1713.12 4526.0801 835.33197 9.2197031e-39
1678.48 4531.7598 838.005 9.2197031e-39
-709.47699 4274.79 849.883 9.2197031e-39
1423.9 4514.77 842.039 9.2197031e-39
1433.6899 4534.0498 846.83398 9.2197031e-39
1661.63 4548.7002 843.07501 9.2197031e-39
1562.35 4557.8501 848.841 9.2197031e-39
1611.39 4557.9902 847.23199 9.2197031e-39
1576.3199 4560.4902 849.07501 9.2197031e-39
1625.35 4560.3896 847.40198 9.2197031e-39
1720.6899 4573.9199 847.79602 9.2197031e-39
-703.61298 4294.4297 854.90601 9.2197031e-39
-154.16901 4359.1899 853.67297 9.2197031e-39
1463.1801 4557.7998 852.15802 9.2197031e-39
1512.96 4557.79 850.48297 9.2197031e-39
1475.4301 4568.4697 854.58398 9.2197031e-39
1526.73 4561.6201 851.04102 9.2197031e-39
-698.93701 4350.1602 869.56403 9.2197031e-39
-698.45898 4375.04 876.16101 9.2197031e-39
529.01202 4542.29 879.40399 9.2197031e-39
546.89001 4543.3701 879.09003 9.2197031e-39
588.57703 4547.3501 878.74902 9.2197031e-39
610.64203 4540.4502 876.17603 9.2197031e-39
1754.73 4696.9902 879.37 9.2197031e-39
1738.28 4709.6104 883.276 9.2197031e-39
1785.98 4739.3599 889.58398 9.2197031e-39
-698.16699 4436.3896 892.46301 9.2197031e-39
-699.92603 4464.1201 899.89203 9.2197031e-39
-355.13599 4485.6001 894.026 9.2197031e-39
-692.25299 4520.6797 914.66998 9.2197031e-39
-451.539 4559.2598 916.84302 9.2197031e-39
-517.36401 4561.3501 919.60999 9.2197031e-39
-703.28302 4558.04 924.97302 9.2197031e-39
-641.91199 4564.71 924.685 9.2197031e-39
-618.67999 4569.4199 925.15503 9.2197031e-39
-545.22601 4562.1499 920.758 9.2197031e-39
1786.74 4884.1299 928.04303 9.2197031e-39
2672.79 5026.8501 936.22998 9.2197031e-39
2671.1399 5108.6802 958.03998 9.2197031e-39
1796.22 5214.9199 1015.66 9.2197031e-39
1801.79 5363.7402 1055.04 9.2197031e-39
2394.1699 7314.8901 1553.83 9.2197031e-39
2422.74 7313.4902 1552.5 9.2197031e-39
2492.45 7325.9502 1553.47 9.2197031e-39
2521.71 7331.77 1554.04 9.2197031e-39
2721.9299 7364.1602 1555.92 9.2197031e-39
2793.5 7375.8599 1556.63 9.2197031e-39
2823.55 7381.1099 1557.02 9.2197031e-39
2895.52 7390.5898 1557.12 9.2197031e-39
2925.8 7395.3198 1557.36 9.2197031e-39
2999.3799 7410.23 1558.85 9.2197031e-39
3029.4199 7411.5498 1558.1899 9.2197031e-39
2694.52 7379.5498 1560.9301 9.2197031e-39
2597.3301 7399.8501 1569.6 9.2197031e-39
2627.3 7407.0698 1570.51 9.2197031e-39
1696.4399 7564.6401 1643.65 9.2197031e-39
1725.6 7579.25 1646.5601 9.2197031e-39
2315.76 7779.3799 1679.9399 9.2197031e-39
2346.76 7777.4199 1678.38 9.2197031e-39
2241.26 7779.21 1682.4 9.2197031e-39
2135.78 7782.1201 1686.72 9.2197031e-39
2210.28 7782.5801 1684.34 9.2197031e-39
1893.3 7788.2598 1696.49 9.2197031e-39
1924.41 7789.3599 1695.74 9.2197031e-39
1999.03 7790.4102 1693.51 9.2197031e-39
2030.14 7791.9502 1692.88 9.2197031e-39
2104.75 7790.77 1690.0601 9.2197031e-39
1786.8199 7799.77 1703.12 9.2197031e-39
1818.38 7792.71 1700.1899 9.2197031e-39
