# .PCD v0.7 - Point Cloud Data file format
VERSION 0.7
FIELDS x y z rgb
SIZE 4 4 4 4
TYPE F F F F
COUNT 1 1 1 1
WIDTH 333
HEIGHT 1
VIEWPOINT 0 0 0 1 0 0 0
POINTS 333
DATA ascii
-729.80402 1448.2419 134.313 9.2197031e-39
1817.42 2095.9399 139.508 9.2197031e-39
1853.665 2104.6201 139.44101 9.2197031e-39
1862.59 2105.6299 139.131 9.2197031e-39
1870.78 2104.23 138.241 9.2197031e-39
3157.3101 2404.47 133.868 9.2197031e-39
3154.75 2414.6602 136.683 9.2197031e-39
3152.3501 2423.8701 139.23399 9.2197031e-39
-656.29102 1488.891 140.175 9.2197031e-39
-678.32703 1508.6641 146.73199 9.2197031e-39
1855.87 2108.03 140.18701 9.2197031e-39
1848.2 2110.6401 141.358 9.2197031e-39
1854.7401 2113.6233 141.71466 9.2197031e-39
1865.2825 2115.8374 141.61575 9.2197031e-39
1862.4199 2125.7422 144.375 9.2197031e-39
1872.0575 2123.3525 143.13625 9.2197031e-39
1845.75 2137.395 148.4765 9.2197031e-39
1856.8066 2136.1599 147.44667 9.2197031e-39
1863.5901 2131.28 145.741 9.2197031e-39
1842.86 2141.8501 149.821 9.2197031e-39
1854.515 2142.2249 149.1705 9.2197031e-39
1865.14 2147.3701 149.8275 9.2197031e-39
1874.21 2142.1851 147.89749 9.2197031e-39
2126.96 2183.3743 142.40944 9.2197031e-39
2133.48 2185.7449 142.608 9.2197031e-39
2133.3101 2193.4199 144.614 9.2197031e-39
2130.47 2205.22 147.868 9.2197031e-39
2180.99 2201.3 143.60899 9.2197031e-39
2215.4199 2214.9102 144.94299 9.2197031e-39
2249.25 2227.3799 146.01601 9.2197031e-39
2312.6499 2251.99 148.353 9.2197031e-39
2365.52 2270.6899 149.828 9.2197031e-39
2513.3301 2307.4199 149.91 9.2197031e-39
2532.8899 2309.29 149.142 9.2197031e-39
2542.9099 2308.01 148.16499 9.2197031e-39
2577.73 2314.4302 147.603 9.2197031e-39
2622.04 2323.8701 147.22 9.2197031e-39
2654.3201 2328.1201 146.255 9.2197031e-39
2719.02 2342.45 145.83501 9.2197031e-39
2889.52 2386.75 146.427 9.2197031e-39
3158.29 2436.3901 142.11 9.2197031e-39
3156.6599 2445.8999 144.688 9.2197031e-39
3154.6799 2456.3501 147.536 9.2197031e-39
-684.08899 1529.9719 152.645 9.2197031e-39
-680.35199 1555.6321 159.082 9.2197031e-39
1854.6 2145.5 150.017 9.2197031e-39
1833.9 2153.3599 153.388 9.2197031e-39
2196.6699 2231.24 150.392 9.2197031e-39
2229.3301 2252.3799 153.798 9.2197031e-39
2276.9299 2283.4399 158.827 9.2197031e-39
2420.46 2289.55 151.215 9.2197031e-39
2454.5 2298.72 151.41701 9.2197031e-39
2482.0601 2305.1802 151.33099 9.2197031e-39
2493.0701 2304.47 150.439 9.2197031e-39
-698.45697 1574.401 165.12601 9.2197031e-39
2319.8799 2312.5 163.633 9.2197031e-39
2357.0801 2339.3999 168.246 9.2197031e-39
-1086 1524.45 176.978 9.2197031e-39
2400.77 2370.8901 173.63901 9.2197031e-39
2468.8501 2419.6099 181.95 9.2197031e-39
-1627.4399 1450.113 192.35201 9.2197031e-39
2546.3601 2475.6499 191.55901 9.2197031e-39
-1885.1899 1438.0349 205.735 9.2197031e-39
-1868.6801 1472.891 213.745 9.2197031e-39
-1372.48 1614.2791 218.715 9.2197031e-39
-1042.05 1691.37 217.586 9.2197031e-39
-1975.77 1491.121 225.354 9.2197031e-39
3171.95 2913.55 265.37601 9.2197031e-39
3181.78 2935.6699 270.5 9.2197031e-39
3181.4399 2949.6001 274.14499 9.2197031e-39
3185.0601 2968.02 278.70599 9.2197031e-39
3185.1599 2982.6599 282.509 9.2197031e-39
3184.3301 2998.3301 286.63901 9.2197031e-39
3184.0701 3013.0801 290.492 9.2197031e-39
3183.6499 3029.46 294.78101 9.2197031e-39
3183.03 3044.3201 298.686 9.2197031e-39
3188.4199 3065.77 303.922 9.2197031e-39
3185.8501 3079.53 307.66599 9.2197031e-39
3183.8101 3095.54 311.96201 9.2197031e-39
3181.6699 3109.98 315.85599 9.2197031e-39
3186.79 3132.51 321.39099 9.2197031e-39
3191.73 3153.5901 326.556 9.2197031e-39
3188.79 3169.8601 330.979 9.2197031e-39
3193.21 3191.1699 336.23901 9.2197031e-39
2969.0701 3152.47 340.543 9.2197031e-39
2962.1001 3163.76 343.927 9.2197031e-39
2946.73 3183.23 349.97699 9.2197031e-39
2961.23 3180.1001 348.23401 9.2197031e-39
3019.3401 3188.55 346.70599 9.2197031e-39
3191.27 3208.8999 340.97699 9.2197031e-39
3195.1299 3230.4399 346.332 9.2197031e-39
2938.3799 3191.3899 352.634 9.2197031e-39
3072.6201 3224.45 352.63 9.2197031e-39
3090.9199 3225.1299 351.634 9.2197031e-39
3194.1299 3249.6799 351.40201 9.2197031e-39
3196.72 3270.76 356.72101 9.2197031e-39
2959.24 3235.49 362.772 9.2197031e-39
3160.75 3275.0601 360.147 9.2197031e-39
3195.8899 3290.8501 362.00201 9.2197031e-39
3074.5801 3391.03 395.841 9.2197031e-39
3051.23 3407.8401 401.71201 9.2197031e-39
3070.8799 3410.1899 401.06299 9.2197031e-39
3049.6599 3430 407.57901 9.2197031e-39
3057.45 3462.25 415.47 9.2197031e-39
3082.8301 3520.5701 429.01501 9.2197031e-39
2974.8 3526.0801 437.37399 9.2197031e-39
3010.01 3524.24 434.63699 9.2197031e-39
3028.8899 3523.3999 433.20999 9.2197031e-39
3044.8401 3520.8301 431.51801 9.2197031e-39
2998.1001 3532.1001 437.44601 9.2197031e-39
3072.75 3531.3799 432.474 9.2197031e-39
2962.8701 3533.6599 440.11099 9.2197031e-39
2953.99 3548.46 444.53201 9.2197031e-39
-244.2 2971.0901 499.37201 9.2197031e-39
309.25601 3106.3799 499.08401 9.2197031e-39
250.343 3160.21 516.86603 9.2197031e-39
-274.88199 3051.96 522.37799 9.2197031e-39
-282.017 3076.8701 529.31598 9.2197031e-39
292.70401 3197.6899 523.901 9.2197031e-39
290.63901 3218.98 529.573 9.2197031e-39
1336.0601 3444.0901 521.112 9.2197031e-39
1283.4301 3458.8201 528.31799 9.2197031e-39
1298.16 3458.75 527.35699 9.2197031e-39
1314.91 3457.4199 525.935 9.2197031e-39
3189.47 3934.6299 529.90302 9.2197031e-39
-280.72 3100.77 535.45099 9.2197031e-39
-235.994 3127.8301 539.62402 9.2197031e-39
1328.16 3491.8101 534.034 9.2197031e-39
-274.66101 3120.4399 540.17999 9.2197031e-39
-214.452 3140.1899 541.45697 9.2197031e-39
-196.37601 3156.21 544.46802 9.2197031e-39
-191.58701 3176.1599 549.349 9.2197031e-39
169.492 3251.8999 545.90302 9.2197031e-39
258.89499 3282.9299 548.245 9.2197031e-39
1326.14 3526.1399 543.09399 9.2197031e-39
1352.54 3536.03 543.97498 9.2197031e-39
1331.72 3548.9299 548.66699 9.2197031e-39
3192.0901 3975.46 540.35498 9.2197031e-39
-171.479 3190.98 551.91602 9.2197031e-39
-158.433 3206.8201 555.20099 9.2197031e-39
-147.76801 3226.1299 559.54199 9.2197031e-39
204.431 3297.7 555.58002 9.2197031e-39
270.20001 3298.54 551.58301 9.2197031e-39
265.25 3323.21 558.31702 9.2197031e-39
1347.03 3584.3101 556.88898 9.2197031e-39
3196.23 4016.3301 550.724 9.2197031e-39
-141.435 3245.3899 564.14502 9.2197031e-39
-106.985 3252 563.65698 9.2197031e-39
-89.1791 3264.8501 565.85797 9.2197031e-39
-11.2793 3268.3 561.76202 9.2197031e-39
-65.096901 3276.3601 567.30902 9.2197031e-39
57.089001 3299.02 565.36902 9.2197031e-39
1349.96 3611.8799 563.87402 9.2197031e-39
3202.7 4065.8799 563.20099 9.2197031e-39
1351.63 3647.1799 572.95099 9.2197031e-39
1358.1 3668.6399 578.11798 9.2197031e-39
3199.8999 4097.8999 571.711 9.2197031e-39
-1472.78 3009.78 588.20599 9.2197031e-39
1359.39 3707.6699 588.19098 9.2197031e-39
3196.3799 4133.5 581.198 9.2197031e-39
3107.4199 4141.3799 588.95203 9.2197031e-39
3136.3401 4149.79 589.28497 9.2197031e-39
3157.3899 4147.7002 587.39203 9.2197031e-39
3186.6799 4155.5 587.54199 9.2197031e-39
-1453.08 3034.8 593.45203 9.2197031e-39
143.18201 3433.1299 594.73999 9.2197031e-39
1368.09 3725.6001 592.29602 9.2197031e-39
3015.3101 4137.8301 593.935 9.2197031e-39
2975.75 4147.02 598.86102 9.2197031e-39
2998.5801 4146.52 597.26599 9.2197031e-39
3040.8799 4142.1499 593.41699 9.2197031e-39
3062.1001 4141.8203 591.97101 9.2197031e-39
3088.8501 4147.3301 591.69 9.2197031e-39
123.683 3470.52 605.71802 9.2197031e-39
1365.65 3777.4099 605.93103 9.2197031e-39
119.397 3500.0801 613.685 9.2197031e-39
1370.77 3807.1299 613.33698 9.2197031e-39
110.313 3531.1799 622.35699 9.2197031e-39
1372.25 3852.8799 625.14301 9.2197031e-39
-2143.8101 3031.4199 636.85999 9.2197031e-39
-2076.28 3051.4199 637.73199 9.2197031e-39
1376.1899 3889.0901 634.31201 9.2197031e-39
-2058.99 3085.9099 645.59802 9.2197031e-39
682.61499 3777.6201 649.78101 9.2197031e-39
729.58099 3778.6399 647.03302 9.2197031e-39
755.099 3774.3301 644.27698 9.2197031e-39
776.14899 3778.5701 644.03101 9.2197031e-39
701.80798 3782.3 649.76703 9.2197031e-39
1384.52 3919.52 641.69397 9.2197031e-39
-2052.9399 3119.4099 653.92603 9.2197031e-39
-1281.52 3332.8401 659.99298 9.2197031e-39
552.64203 3781.3999 659.09601 9.2197031e-39
574.92902 3787.0801 659.14398 9.2197031e-39
603.21399 3782.3799 656.10999 9.2197031e-39
654.57001 3780.6599 652.36902 9.2197031e-39
779.12402 3804.3101 650.53699 9.2197031e-39
1381.62 3979.6499 657.52502 9.2197031e-39
524.06702 3785.4399 661.97998 9.2197031e-39
598.72699 3819.72 666.10999 9.2197031e-39
760.888 3863.5601 667.12 9.2197031e-39
-1419.01 3348.53 672.89001 9.2197031e-39
-1270.26 3393.26 674.98999 9.2197031e-39
750.40997 3910.29 679.94897 9.2197031e-39
1380.23 4044.1899 674.40503 9.2197031e-39
2996.27 4444.3203 674.89203 9.2197031e-39
3101.6201 4459.3501 672.04901 9.2197031e-39
3028.1299 4464.3501 678.06 9.2197031e-39
3056.0701 4468.8896 677.45001 9.2197031e-39
3075.98 4460.6499 674.03101 9.2197031e-39
405.52802 3855.6201 687.83899 9.2197031e-39
426.522 3862.1599 688.19501 9.2197031e-39
751.07898 3945.6001 689.09302 9.2197031e-39
769.61401 3951.8401 689.52802 9.2197031e-39
1381.42 4098.2402 688.39001 9.2197031e-39
374.31601 3856.72 690.12598 9.2197031e-39
3007.49 4532.1104 697.013 9.2197031e-39
-2082.55 3316.3999 707.073 9.2197031e-39
-1412.12 3480.77 706.85303 9.2197031e-39
764.16498 3997.78 701.83002 9.2197031e-39
766.72601 4029.0901 709.81201 9.2197031e-39
1386.72 4148.3301 701.08301 9.2197031e-39
3003.1499 4579.6201 709.65198 9.2197031e-39
-2050.76 3343.1101 711.98401 9.2197031e-39
-2027.1 3375.71 718.94897 9.2197031e-39
768.87701 4065.6499 719.18402 9.2197031e-39
1390.24 4200.75 714.49597 9.2197031e-39
2987.5801 4607.1104 717.80103 9.2197031e-39
-2007.2 3405.55 725.43701 9.2197031e-39
774.96698 4093.05 725.922 9.2197031e-39
2841.0701 4616.4102 729.61401 9.2197031e-39
2864.8 4610.1602 726.466 9.2197031e-39
2888.5701 4610.8301 725.11798 9.2197031e-39
2915.6101 4613.3203 724.03198 9.2197031e-39
2939.8701 4614.46 722.77197 9.2197031e-39
2966.76 4615.52 721.32397 9.2197031e-39
-2349.9199 3352.2 733.53003 9.2197031e-39
-2016.87 3448.76 737.297 9.2197031e-39
-1962.65 3466.9299 738.54901 9.2197031e-39
214.69901 3994.8 736.28302 9.2197031e-39
1392.54 4267.7402 731.77502 9.2197031e-39
2642.4199 4594.4399 736.63501 9.2197031e-39
2743.73 4616.6104 735.90698 9.2197031e-39
2769.73 4618.6797 734.78003 9.2197031e-39
2790.6799 4611.8398 731.65601 9.2197031e-39
2817.0801 4614.3799 730.62598 9.2197031e-39
2696.8201 4620.54 739.93903 9.2197031e-39
2722.98 4624.0098 739.164 9.2197031e-39
-1950.12 3502.6201 747.03101 9.2197031e-39
754.46997 4168.6899 746.91498 9.2197031e-39
1395.11 4330.6104 747.96698 9.2197031e-39
2622.26 4602.9399 740.13898 9.2197031e-39
2675.5 4625.7002 742.64801 9.2197031e-39
2608.8501 4649.5898 753.13599 9.2197031e-39
1396.78 4409.0703 768.27301 9.2197031e-39
56.881699 4122.4399 779.60797 9.2197031e-39
1399.6899 4479.6899 786.45801 9.2197031e-39
649.85101 4383.4399 809.49402 9.2197031e-39
1403.63 4560.3398 807.18799 9.2197031e-39
1667.85 4634.9102 809.64697 9.2197031e-39
1690.38 4630.1899 806.97498 9.2197031e-39
1595.29 4646.21 817.23999 9.2197031e-39
1619.36 4649.1396 816.461 9.2197031e-39
1572.1801 4651.0703 819.98602 9.2197031e-39
1640.37 4657.27 817.22803 9.2197031e-39
1709.38 4674.52 817.29102 9.2197031e-39
1409.91 4627.4399 824.24402 9.2197031e-39
1432.62 4637.6899 825.45398 9.2197031e-39
1548.41 4645.7998 820.14099 9.2197031e-39
1451.58 4654.8101 828.69098 9.2197031e-39
1475.8101 4659.0303 828.23602 9.2197031e-39
1499.13 4655.9502 825.94 9.2197031e-39
1525.14 4650.2598 822.79199 9.2197031e-39
1744.46 4793.3501 845.95898 9.2197031e-39
1766.35 4807.2598 848.17297 9.2197031e-39
2670.8899 5017.0298 844.75299 9.2197031e-39
-733.612 4199.4102 850.31598 9.2197031e-39
-729.30499 4232.4199 858.62701 9.2197031e-39
-3374.5801 3594.79 862.341 9.2197031e-39
-728.06299 4272.04 868.85699 9.2197031e-39
1713.66 4842.4399 860.70502 9.2197031e-39
-729.80499 4310.75 879.039 9.2197031e-39
620.362 4633.5498 876.45398 9.2197031e-39
2667.8999 5132.5498 874.99902 9.2197031e-39
-722.99799 4347.0098 888.03497 9.2197031e-39
529.04999 4638.9199 883.70502 9.2197031e-39
559.52502 4635.9199 880.96997 9.2197031e-39
588.76501 4639.7197 880.086 9.2197031e-39
-725.297 4387.2803 898.66101 9.2197031e-39
-723.51801 4428.7998 909.349 9.2197031e-39
2667.96 5259.1201 907.92499 9.2197031e-39
-715.89697 4461.8203 917.44897 9.2197031e-39
1771.63 5065.0601 914.90399 9.2197031e-39
-720.44299 4510.04 930.28802 9.2197031e-39
-711.927 4543.25 938.38202 9.2197031e-39
-710.92999 4587.98 949.953 9.2197031e-39
-541.94598 4646.8604 954.43903 9.2197031e-39
-495.67899 4647.5601 951.65503 9.2197031e-39
-593.823 4655.23 959.94299 9.2197031e-39
-713.72699 4632.5898 961.73901 9.2197031e-39
-637.75299 4650.5801 961.54797 9.2197031e-39
2679.3601 5467.3398 961.36499 9.2197031e-39
-705.828 4672.3701 971.58301 9.2197031e-39
1778.72 5325.7002 982.26001 9.2197031e-39
-5373.2998 3671.3701 1010.41 9.2197031e-39
1825.84 5534.6699 1033.6 9.2197031e-39
1793.04 5591.54 1050.5 9.2197031e-39
3024.8899 7409.8599 1444.59 9.2197031e-39
2688.01 7450.7002 1476.8101 9.2197031e-39
2742.0601 7473.0601 1479.16 9.2197031e-39
2789 7476.29 1477 9.2197031e-39
2841.8201 7485.23 1475.9301 9.2197031e-39
2889.1599 7488.6001 1473.78 9.2197031e-39
2942.8601 7499.48 1473.16 9.2197031e-39
2990.6499 7502.9702 1471.01 9.2197031e-39
2396.1001 7421.4502 1487.92 9.2197031e-39
2446.73 7426.25 1485.92 9.2197031e-39
2492.5 7428.04 1483.45 9.2197031e-39
2546.4399 7462.8398 1489.05 9.2197031e-39
2593.97 7476.3599 1489.52 9.2197031e-39
2645.5901 7481.3101 1487.5 9.2197031e-39
2350.53 7419.8501 1490.42 9.2197031e-39
2325.8201 7873.6099 1610.0601 9.2197031e-39
2222.6499 7885.2798 1619.71 9.2197031e-39
2277.1299 7885.8799 1616.37 9.2197031e-39
2118.96 7888.4199 1627.1801 9.2197031e-39
2173.2 7881.23 1621.83 9.2197031e-39
1965.8 7888.9302 1637.13 9.2197031e-39
2069.6299 7889.3501 1630.58 9.2197031e-39
2015.17 7890.77 1634.4399 9.2197031e-39
1807.0601 7896.9702 1649.4 9.2197031e-39
1861.6899 7897.3901 1646.01 9.2197031e-39
1911.1801 7897.1699 1642.78 9.2197031e-39
1757.58 7895.3799 1652.16 9.2197031e-39
