# .PCD v0.7 - Point Cloud Data file format
VERSION 0.7
FIELDS x y z rgb
SIZE 4 4 4 4
TYPE F F F F
COUNT 1 1 1 1
WIDTH 332
HEIGHT 1
VIEWPOINT 0 0 0 1 0 0 0
POINTS 332
DATA ascii
-849.06097 1152.463 135.564 9.2197031e-39
1733.73 2318.125 138.77499 9.2197031e-39
1735.1951 2322.0352 139.5715 9.2197031e-39
1741.42 2325.8398 139.823 9.2197031e-39
1750.35 2323.5801 138.29601 9.2197031e-39
1997.71 2426.0801 136.367 9.2197031e-39
2020.3 2436.8198 136.528 9.2197031e-39
3181.6699 2941.6799 133.25301 9.2197031e-39
3183.77 2958.9199 137.241 9.2197031e-39
3180.79 2967.78 139.73399 9.2197031e-39
-688.17999 1243.708 140.32401 9.2197031e-39
-633.34998 1298.531 147.752 9.2197031e-39
1726.405 2328.5752 142.1315 9.2197031e-39
1735.8376 2327.635 140.87225 9.2197031e-39
1737.79 2338.29 143.267 9.2197031e-39
1743.5299 2336.3435 142.16301 9.2197031e-39
1755.83 2339.3398 141.55299 9.2197031e-39
1734.6801 2347.2302 145.79333 9.2197031e-39
1743.245 2342.365 143.66751 9.2197031e-39
1751.62 2343.625 143.062 9.2197031e-39
1723.6768 2352.3367 148.24367 9.2197031e-39
1731.8433 2356.4065 148.34801 9.2197031e-39
1740.1 2357.72 147.767 9.2197031e-39
1734.635 2361.9399 149.397 9.2197031e-39
1744.1133 2362.9001 148.597 9.2197031e-39
1987.7825 2445.0625 142.09625 9.2197031e-39
1993.5349 2445.75 141.63651 9.2197031e-39
1975.4399 2454.6802 145.79601 9.2197031e-39
1985.7151 2450.8149 143.729 9.2197031e-39
1991.605 2451.52 143.258 9.2197031e-39
1983.78 2464.6499 147.32401 9.2197031e-39
2007.39 2471.5 146.423 9.2197031e-39
2038.6899 2473.6401 143.53 9.2197031e-39
2073.5552 2494.355 144.7915 9.2197031e-39
2345.0701 2636.1899 149.851 9.2197031e-39
2364.4099 2640.77 148.858 9.2197031e-39
2389.74 2650.8599 148.562 9.2197031e-39
2424.29 2662.8701 147.728 9.2197031e-39
2450.8701 2672.6499 147.22 9.2197031e-39
3182.54 2985.1399 143.78999 9.2197031e-39
3186.5701 2997.49 146.37199 9.2197031e-39
-620.77698 1322.8931 152.341 9.2197031e-39
-637.87799 1346.304 159.936 9.2197031e-39
1731.3101 2366.4399 150.862 9.2197031e-39
2084.8999 2538.8701 154.446 9.2197031e-39
2201.73 2575.01 150.532 9.2197031e-39
2238.45 2593.75 151.10699 9.2197031e-39
2281.3701 2617.5601 152.248 9.2197031e-39
2302.75 2624.9302 151.715 9.2197031e-39
2323.25 2633.6099 151.601 9.2197031e-39
2333.8101 2633.5801 150.442 9.2197031e-39
3180.77 3011.47 150.42599 9.2197031e-39
3177.4099 3020.3201 152.96001 9.2197031e-39
-626.70203 1369.6379 164.42599 9.2197031e-39
2134.9399 2586.1001 160.53999 9.2197031e-39
2144.3701 2602.3398 163.483 9.2197031e-39
2161.8799 2612.77 164.123 9.2197031e-39
2176.6499 2634.9102 167.92599 9.2197031e-39
-659.19501 1387.129 172.254 9.2197031e-39
-656.04102 1407.1331 176.804 9.2197031e-39
2257.6101 2715.99 178.92599 9.2197031e-39
-675.104 1430.125 184.511 9.2197031e-39
-671.59399 1450.0811 189.011 9.2197031e-39
-681.73297 1476.35 196.54601 9.2197031e-39
-686.37 1493.307 201.202 9.2197031e-39
-702.68402 1517.578 208.922 9.2197031e-39
2988.6001 3468.76 283.306 9.2197031e-39
3013.23 3469.8501 280.883 9.2197031e-39
2953.9299 3471.3301 287.71899 9.2197031e-39
2979.78 3474.4099 285.64999 9.2197031e-39
2947.1799 3478.8701 290.30301 9.2197031e-39
3097.6101 3708.1799 329.98599 9.2197031e-39
3133.8401 3701.5601 324.41101 9.2197031e-39
3145.79 3732.1499 330.59 9.2197031e-39
3120.3799 3751.46 338.091 9.2197031e-39
3157.76 3823.8501 351.724 9.2197031e-39
3192.76 3883.8201 362.57401 9.2197031e-39
3196.2 3920.6299 371.20499 9.2197031e-39
3200.3601 3946.49 377.07999 9.2197031e-39
3207.72 3989.8301 386.88199 9.2197031e-39
3201.1201 4003.6299 390.979 9.2197031e-39
3206.1001 4045.8101 400.755 9.2197031e-39
3206.9399 4069.8301 406.54199 9.2197031e-39
3197.1001 4118.4297 419.50699 9.2197031e-39
3208.8799 4110.0498 416.17099 9.2197031e-39
3095.6101 4104.7402 427.23999 9.2197031e-39
3111.3301 4102.6899 425.021 9.2197031e-39
3143.4399 4108.5703 422.95401 9.2197031e-39
3165.1499 4114.1201 421.94299 9.2197031e-39
3054.8999 4109.6699 432.89301 9.2197031e-39
3032.1201 4115.6699 436.84601 9.2197031e-39
3073.3601 4112.04 431.457 9.2197031e-39
3019.73 4122.0498 439.76099 9.2197031e-39
1303.1 3396.4099 449.64401 9.2197031e-39
1312.16 3396.95 448.78601 9.2197031e-39
1326.91 3397.1599 447.22601 9.2197031e-39
1352.3 3393.96 443.672 9.2197031e-39
1334.5601 3400.0701 447.103 9.2197031e-39
2995.3301 4125.1001 443.173 9.2197031e-39
2995.98 4152.21 449.733 9.2197031e-39
1345.62 3425.2 452.04401 9.2197031e-39
1352.41 3441.45 455.27899 9.2197031e-39
1354.9 3455.51 458.448 9.2197031e-39
1352.83 3491.8999 467.578 9.2197031e-39
3021.3301 4236.7803 467.659 9.2197031e-39
314.84299 3074.6001 478.80701 9.2197031e-39
1356.26 3505.1699 470.452 9.2197031e-39
1361.17 3528.5701 475.64001 9.2197031e-39
1365.8 3540.1001 477.957 9.2197031e-39
3000.1899 4275.6001 479.46701 9.2197031e-39
3026.98 4274.3999 476.24799 9.2197031e-39
1369.53 3567.99 484.37399 9.2197031e-39
1374.9399 3578.6499 486.39099 9.2197031e-39
2988.23 4284.29 482.89899 9.2197031e-39
299.673 3149.53 498.79999 9.2197031e-39
1379.86 3605.72 492.478 9.2197031e-39
1381.0601 3628.05 497.81201 9.2197031e-39
2990.1201 4335.7402 495.28299 9.2197031e-39
2979.1499 4346.9502 499.22501 9.2197031e-39
-269.53799 2917.8101 504.25101 9.2197031e-39
-226.537 2930.75 502.72101 9.2197031e-39
290.55801 3175.6599 506.18799 9.2197031e-39
1383.13 3665.1599 506.66501 9.2197031e-39
199.91701 3185.1399 518.40399 9.2197031e-39
1387.1 3682.1799 510.396 9.2197031e-39
-274.82001 2999.6201 524.84601 9.2197031e-39
-265.20999 3021.8 529.22498 9.2197031e-39
290.80499 3261.5701 527.18201 9.2197031e-39
1388.37 3724.8999 520.711 9.2197031e-39
1392.36 3743.8101 524.90198 9.2197031e-39
-260.272 3035.9399 532.146 9.2197031e-39
-184.78799 3092.0601 537.63397 9.2197031e-39
50.0867 3180.26 533.57202 9.2197031e-39
86.203697 3202.1399 534.97998 9.2197031e-39
193.127 3239.9399 532.55499 9.2197031e-39
223.19099 3247.24 531.05902 9.2197031e-39
221.84399 3262.4099 534.91901 9.2197031e-39
245.964 3272.4099 534.72998 9.2197031e-39
285.168 3287.77 534.20898 9.2197031e-39
1394.98 3786.73 535.11798 9.2197031e-39
3051.48 4531.46 536.474 9.2197031e-39
-278.34698 3067.1201 541.74799 9.2197031e-39
-273.09601 3081.3501 544.65698 9.2197031e-39
-223.56599 3089.97 541.35901 9.2197031e-39
-185.306 3117.27 543.86102 9.2197031e-39
-175.125 3129.1799 545.664 9.2197031e-39
-155.92 3147.05 547.93799 9.2197031e-39
-144.66 3158.3301 549.46997 9.2197031e-39
60.464802 3229.1699 544.40601 9.2197031e-39
1395.41 3818.54 542.85498 9.2197031e-39
3001.3899 4563.3203 549.73901 9.2197031e-39
3021.27 4565.9297 548.20697 9.2197031e-39
3050.6899 4564.8501 544.72998 9.2197031e-39
-134.319 3179.3999 553.495 9.2197031e-39
-137.397 3196.46 558.005 9.2197031e-39
-93.245201 3203.2 554.836 9.2197031e-39
-83.496597 3214.6799 556.58002 9.2197031e-39
1396.01 3872.72 556.047 9.2197031e-39
2926.3899 4566.8896 558.802 9.2197031e-39
2954.1899 4564.3301 555.14001 9.2197031e-39
2973.04 4565.5601 553.383 9.2197031e-39
1397.25 3905.6299 563.96399 9.2197031e-39
2833.8701 4566.8203 568.88702 9.2197031e-39
2880 4567.3101 563.96997 9.2197031e-39
2908.1001 4566.1899 560.62799 9.2197031e-39
2865.03 4573.4399 567.10498 9.2197031e-39
143.696 3385.6599 573.60999 9.2197031e-39
148.009 3408.6599 578.76703 9.2197031e-39
2787.6499 4564.52 573.37201 9.2197031e-39
2815.4299 4564.5 570.33398 9.2197031e-39
2745.71 4571.3896 579.63098 9.2197031e-39
2772.6799 4570.0498 576.35797 9.2197031e-39
137.211 3431.3899 585.50702 9.2197031e-39
773.47699 3725.6799 588.04199 9.2197031e-39
1395.8 3973.05 580.61902 9.2197031e-39
1397.73 4007.99 588.96002 9.2197031e-39
2650.0801 4549.5098 584.71997 9.2197031e-39
2635.1899 4554.1396 587.47803 9.2197031e-39
2685.6699 4574.1602 586.86603 9.2197031e-39
2703.0801 4575.6499 585.32898 9.2197031e-39
2730.6899 4576.6396 582.55603 9.2197031e-39
123.109 3466.54 595.64899 9.2197031e-39
718.25897 3742.3201 598.14398 9.2197031e-39
739.97803 3747.3401 597 9.2197031e-39
108.811 3492.3799 603.53302 9.2197031e-39
677.35101 3739.95 602.03101 9.2197031e-39
614.74298 3741.0601 609.138 9.2197031e-39
628.34302 3745.23 608.67297 9.2197031e-39
655.52899 3745.6001 605.797 9.2197031e-39
699.19397 3745.51 601.005 9.2197031e-39
1394.09 4091.5901 609.81299 9.2197031e-39
2626.1399 4606.0303 601.164 9.2197031e-39
2616.6299 4628.21 607.62799 9.2197031e-39
501.98999 3729.47 618.61499 9.2197031e-39
526.34003 3735.25 617.37097 9.2197031e-39
545.47998 3734.5801 615.11603 9.2197031e-39
575.71802 3733.4299 611.53198 9.2197031e-39
589.35303 3737.9199 611.14301 9.2197031e-39
764.72302 3821.1799 612.36603 9.2197031e-39
769.70599 3835.6499 615.36298 9.2197031e-39
778.83398 3857.75 619.77502 9.2197031e-39
1400.1899 4116.4697 615.23499 9.2197031e-39
436.513 3744.1101 629.34601 9.2197031e-39
467.44901 3744.6299 626.09497 9.2197031e-39
780.78601 3876.9299 624.25299 9.2197031e-39
365.28299 3742.1699 636.64899 9.2197031e-39
385.02399 3743.0601 634.71198 9.2197031e-39
419.06 3741.73 630.66901 9.2197031e-39
779.37 3914.8401 633.685 9.2197031e-39
789.12402 3923.8601 634.82703 9.2197031e-39
797.95502 3948.4299 639.875 9.2197031e-39
1399.16 4200.46 635.90002 9.2197031e-39
1409.01 4215.1299 638.41199 9.2197031e-39
-1451.74 2958.6201 643.32397 9.2197031e-39
269.703 3746.4399 648.13 9.2197031e-39
305.89899 3745.6799 643.99298 9.2197031e-39
329.46899 3743.9099 640.98499 9.2197031e-39
806.88702 3958.96 641.47601 9.2197031e-39
639.375 3948.54 657.21698 9.2197031e-39
805.20398 4000.48 651.82098 9.2197031e-39
812.45398 4014.26 654.39899 9.2197031e-39
836.651 4016.8201 652.38501 9.2197031e-39
840.55902 4036.22 656.70398 9.2197031e-39
1410.02 4301.2998 659.388 9.2197031e-39
188.061 3796.6201 669.323 9.2197031e-39
135.239 3808.79 678.06897 9.2197031e-39
588.02698 3990.9299 673.198 9.2197031e-39
1411.72 4354.5601 672.23602 9.2197031e-39
74.620598 3838.3401 691.91901 9.2197031e-39
1416.5601 4437.3203 691.95697 9.2197031e-39
1710.74 4586.9902 696.45801 9.2197031e-39
1685.72 4590.2803 699.99402 9.2197031e-39
9.36415 3857.78 703.79999 9.2197031e-39
1417.84 4501.1797 707.44202 9.2197031e-39
1670.23 4590.5098 701.74298 9.2197031e-39
1643.35 4609.7402 709.38397 9.2197031e-39
1722.45 4640.6699 708.31403 9.2197031e-39
2677.5801 5073.6401 709.96698 9.2197031e-39
2737.5701 5099.1602 709.66199 9.2197031e-39
746.26801 4234.3604 715.48499 9.2197031e-39
1628.01 4606.7998 710.34003 9.2197031e-39
1560.58 4615.6001 719.854 9.2197031e-39
1586.6 4610.79 715.836 9.2197031e-39
1602.08 4613.04 714.69598 9.2197031e-39
2716.0601 5094.8901 710.96503 9.2197031e-39
-2106.1101 3005 726.12402 9.2197031e-39
-2054.1101 3023.3401 724.93103 9.2197031e-39
-1424.23 3315.49 727.64301 9.2197031e-39
-90.561699 3915.73 728.89203 9.2197031e-39
736.58197 4280.25 727.771 9.2197031e-39
1427.04 4577.5801 725.133 9.2197031e-39
1441.02 4587.52 726.03802 9.2197031e-39
1462.83 4607.8301 728.62598 9.2197031e-39
1478.14 4611.8398 727.93597 9.2197031e-39
1503.1899 4615.5801 726.11798 9.2197031e-39
1518.71 4618.3799 725.10602 9.2197031e-39
1545.08 4613.0801 720.92999 9.2197031e-39
1757.52 4757.3701 733.04102 9.2197031e-39
1783.95 4758.2002 730.35699 9.2197031e-39
1740.6801 4762.8901 736.22998 9.2197031e-39
2682.1201 5158.3701 730.20502 9.2197031e-39
2694.24 5320.7002 768.60101 9.2197031e-39
1793.97 4957.0698 777.92499 9.2197031e-39
2694.3899 5401.1099 788.26001 9.2197031e-39
-2114.54 3292.8301 797.47302 9.2197031e-39
-2047.88 3304.8501 793.13599 9.2197031e-39
-2009.41 3339.5901 797.435 9.2197031e-39
-1928.5 3416.97 807.53497 9.2197031e-39
603.27698 4594.7803 819.289 9.2197031e-39
583.40802 4593.5098 821.14801 9.2197031e-39
2693.29 5533.7798 820.84497 9.2197031e-39
-714.34998 4057.79 831.76398 9.2197031e-39
-720.90997 4087.4299 839.73297 9.2197031e-39
-716.38397 4125.5303 848.56201 9.2197031e-39
-715.82501 4151.0898 854.755 9.2197031e-39
2709.6101 5690.3901 857.38397 9.2197031e-39
-709.60797 4188.8604 863.31799 9.2197031e-39
-710.04498 4215.7197 869.93903 9.2197031e-39
-708.42999 4257.7197 880.039 9.2197031e-39
-702.74298 4280.75 885.05499 9.2197031e-39
-700.92102 4323.6201 895.34399 9.2197031e-39
-687.737 4341.3999 898.25598 9.2197031e-39
1810.95 5498.1802 908.47601 9.2197031e-39
2723.51 5909.2402 909.41498 9.2197031e-39
1831.62 5557.3501 920.69702 9.2197031e-39
2728.1699 6038.8901 940.633 9.2197031e-39
-5215.8799 2569.5698 959.13702 9.2197031e-39
-5569.4302 2658.3701 1019.47 9.2197031e-39
-3559.29 3568.3 1022.63 9.2197031e-39
-5565.9502 2707.2 1031.04 9.2197031e-39
-5574.5298 2786.3501 1051.34 9.2197031e-39
-5570.1699 2835.24 1062.83 9.2197031e-39
-5571.3799 2914.27 1082.3 9.2197031e-39
-5567.1299 2963.24 1093.8199 9.2197031e-39
-5566.9199 3042.4199 1113.17 9.2197031e-39
-5568.6899 3092.0701 1125.51 9.2197031e-39
-5566.0601 3171.3401 1144.62 9.2197031e-39
-5551.1802 3219.3201 1154.74 9.2197031e-39
-5535.3398 3297.0901 1172.03 9.2197031e-39
-5530.4302 3346.1799 1183.51 9.2197031e-39
-4940.4702 3629.1499 1188.33 9.2197031e-39
-5507.3198 3422.8501 1199.75 9.2197031e-39
-4932.98 3702.8 1205.54 9.2197031e-39
-5499.5898 3471.53 1210.8199 9.2197031e-39
-4922.46 3747.6201 1215.36 9.2197031e-39
-4923.29 3823.3301 1233.97 9.2197031e-39
2982.9399 7388.98 1243.17 9.2197031e-39
2903.3101 7453.6401 1267.6899 9.2197031e-39
2961.03 7453.5498 1261.36 9.2197031e-39
2770.3301 7430.8799 1276.64 9.2197031e-39
2806.1599 7432.52 1273.13 9.2197031e-39
2866.8601 7450.73 1270.95 9.2197031e-39
2617.8 7405.3701 1287.05 9.2197031e-39
2675.79 7416.0601 1283.33 9.2197031e-39
2713.3201 7429.8901 1282.62 9.2197031e-39
2489.49 7386.29 1296.39 9.2197031e-39
2524.8301 7390.7798 1293.63 9.2197031e-39
2582.3799 7402.4702 1290.21 9.2197031e-39
2398.1101 7376.25 1303.91 9.2197031e-39
2432.8301 7377.4702 1300.42 9.2197031e-39
2385.53 7838.6699 1418.4399 9.2197031e-39
2348.8701 7850.6201 1425.36 9.2197031e-39
2250.51 7848.5498 1435.6 9.2197031e-39
2288.0701 7846.9302 1431.1 9.2197031e-39
2152.46 7848.6699 1446.33 9.2197031e-39
2189.99 7846.73 1441.76 9.2197031e-39
2054.5 7849.0698 1457.13 9.2197031e-39
2092.1101 7848.7402 1452.9399 9.2197031e-39
1994.12 7847.1401 1463.25 9.2197031e-39
1956.64 7855.5698 1469.4 9.2197031e-39
1896.21 7856.5 1476.23 9.2197031e-39
1858.48 7865.25 1482.49 9.2197031e-39
