# .PCD v0.7 - Point Cloud Data file format
VERSION 0.7
FIELDS x y z rgb
SIZE 4 4 4 4
TYPE F F F F
COUNT 1 1 1 1
WIDTH 314
HEIGHT 1
VIEWPOINT 0 0 0 1 0 0 0
POINTS 314
DATA ascii
-1214.0601 78.924011 135.897 9.2197031e-39
1567.91 2429.8701 139.067 9.2197031e-39
1575.74 2437.145 139.21249 9.2197031e-39
1590.2 2443.24 137.97301 9.2197031e-39
1786.97 2598.9302 136.022 9.2197031e-39
1788.0149 2603.585 136.79651 9.2197031e-39
1792.575 2613.1001 137.9635 9.2197031e-39
1805.88 2618.21 136.72099 9.2197031e-39
1795.9567 2623.1267 139.43898 9.2197031e-39
3161.4099 3738.27 133.043 9.2197031e-39
3164.6599 3766.95 138.368 9.2197031e-39
-1231.5 96.79303 142.567 9.2197031e-39
1555.95 2436.6699 142.52499 9.2197031e-39
1564.348 2435.8743 140.9136 9.2197031e-39
1570.1 2439.8799 140.745 9.2197031e-39
1568.7167 2446.0566 142.25067 9.2197031e-39
1570.5699 2449.8398 142.70799 9.2197031e-39
1546.6801 2458.6699 148.63499 9.2197031e-39
1557.218 2458.084 146.6998 9.2197031e-39
1566.2933 2456.3035 144.77167 9.2197031e-39
1575.96 2455.4351 142.92773 9.2197031e-39
1556.9449 2464.1299 147.9875 9.2197031e-39
1563.3201 2468.79 147.845 9.2197031e-39
1575.65 2460.6001 144.03999 9.2197031e-39
1557.48 2471.21 149.34801 9.2197031e-39
1561.73 2470.7402 148.52051 9.2197031e-39
1776.34 2617.26 141.61467 9.2197031e-39
1773.9285 2624.7756 143.57271 9.2197031e-39
1784.1326 2623.6201 141.577 9.2197031e-39
1766.6034 2633.5334 146.63234 9.2197031e-39
1770.41 2634.79 146.233 9.2197031e-39
1802.245 2635.9651 140.991 9.2197031e-39
1776.155 2640.6401 146.4455 9.2197031e-39
1781.25 2642.1699 145.88 9.2197031e-39
3170.75 3789 141.845 9.2197031e-39
3172.48 3817.3601 147.368 9.2197031e-39
-1224.28 152.83499 152.825 9.2197031e-39
-1224.8101 183.905 159.29201 9.2197031e-39
1547.89 2472.74 151.314 9.2197031e-39
1551.73 2471.645 150.429 9.2197031e-39
1949.9 2807.46 150.745 9.2197031e-39
3171.3 3833.6899 150.92101 9.2197031e-39
3170.8501 3860.9399 156.591 9.2197031e-39
-1218.59 237.51501 169.22301 9.2197031e-39
3168.53 3876.6899 160.22301 9.2197031e-39
-1210.42 274.41299 175.388 9.2197031e-39
-1210.84 321.37 185.097 9.2197031e-39
-1212.24 350.086 191.23 9.2197031e-39
-1171.14 426.11902 199.75301 9.2197031e-39
-1202.54 432.21899 206.414 9.2197031e-39
-1533.59 276.12701 231.416 9.2197031e-39
-1561.1801 306.29501 242.36 9.2197031e-39
2885.25 4595.2998 356.5 9.2197031e-39
2808.6201 4591.5703 368.93701 9.2197031e-39
2837.6599 4593.48 364.32501 9.2197031e-39
2855 4592.27 361.08899 9.2197031e-39
1330.16 3396.47 378.39499 9.2197031e-39
2745.8701 4591.2598 379.68399 9.2197031e-39
2764.8301 4594.3203 377.04501 9.2197031e-39
2790.45 4590.6499 371.879 9.2197031e-39
1317.52 3399.3799 381.168 9.2197031e-39
1289.24 3403.4099 386.86801 9.2197031e-39
1298.2 3400.1399 384.65302 9.2197031e-39
1309.0601 3401.9399 383.15201 9.2197031e-39
1331.24 3411.7 381.33401 9.2197031e-39
1336.47 3427.5601 383.686 9.2197031e-39
1339.03 3440.1299 385.82599 9.2197031e-39
2702.8601 4593.6499 387.58499 9.2197031e-39
2721.24 4596.1899 384.939 9.2197031e-39
1339.4 3470.55 392.005 9.2197031e-39
1340.45 3488.6599 395.54001 9.2197031e-39
1344.37 3511.9299 399.64099 9.2197031e-39
2621.23 4567.4199 396.26501 9.2197031e-39
2606.1499 4570.4399 399.48199 9.2197031e-39
2672.77 4586.3896 391.27899 9.2197031e-39
2659.2 4593.3799 395.05099 9.2197031e-39
1345.35 3531.95 403.58099 9.2197031e-39
1347.64 3562.6899 409.49301 9.2197031e-39
1349.87 3580.96 412.858 9.2197031e-39
1352.88 3612.76 418.86401 9.2197031e-39
2604.3601 4625.75 411.142 9.2197031e-39
2594.72 4642.3301 416.20599 9.2197031e-39
1355.17 3632.95 422.61499 9.2197031e-39
1358.42 3667.6699 429.17999 9.2197031e-39
1358.49 3698.22 435.43799 9.2197031e-39
1360.2 3743.4099 444.418 9.2197031e-39
1364.01 3763.78 447.94199 9.2197031e-39
1171.84 3629.45 453.483 9.2197031e-39
1365.48 3815.74 458.35101 9.2197031e-39
1367.1 3848.46 464.78601 9.2197031e-39
1368.8 3907.28 476.565 9.2197031e-39
311.10699 3077.8101 488.564 9.2197031e-39
1372.22 3937.29 482.134 9.2197031e-39
2741.8301 5113.7998 487.61401 9.2197031e-39
2762.76 5115.52 484.36301 9.2197031e-39
305.46301 3091.3999 492.32501 9.2197031e-39
1378.49 3983.96 490.63101 9.2197031e-39
1381.15 4022.6101 498.10599 9.2197031e-39
2689.48 5111.5098 496.16501 9.2197031e-39
2710.26 5113.6499 493.02301 9.2197031e-39
291.27701 3157.01 508.23401 9.2197031e-39
1389.08 4069.3899 506.33801 9.2197031e-39
2656.72 5107.0298 500.89001 9.2197031e-39
-1507.4301 1695.0601 518.10199 9.2197031e-39
267.07999 3156.1699 512.23199 9.2197031e-39
290.897 3175.8201 512.15997 9.2197031e-39
1390.98 4118.6699 516.12402 9.2197031e-39
2664.21 5181.8101 514.94598 9.2197031e-39
-1559.22 1717.9301 531.71698 9.2197031e-39
276.591 3278.23 535.64203 9.2197031e-39
299.198 3278.6101 531.82501 9.2197031e-39
1392.55 4211.5703 534.91998 9.2197031e-39
2672.97 5296.6001 536.99298 9.2197031e-39
192.55701 3235.24 541.297 9.2197031e-39
202.936 3263.3701 545.28198 9.2197031e-39
212.498 3278.97 546.83502 9.2197031e-39
230.147 3282.8 544.58099 9.2197031e-39
1394.78 4269.6699 546.45898 9.2197031e-39
2673.78 5359.6499 549.79199 9.2197031e-39
-238.089 2926.5701 552.14502 9.2197031e-39
-230.935 2938.8701 553.43597 9.2197031e-39
175.728 3263.8899 550.07599 9.2197031e-39
748.21002 3746.8601 550.56 9.2197031e-39
708.05499 3752.21 558.57599 9.2197031e-39
731.26703 3750.8301 554.29498 9.2197031e-39
758.39697 3761.9099 551.89398 9.2197031e-39
45.1605 3234.99 566.63898 9.2197031e-39
652.45398 3756.6799 569.07397 9.2197031e-39
671.68298 3751.3101 564.65802 9.2197031e-39
690.87598 3755.76 562.26501 9.2197031e-39
759.61902 3808.49 561.24298 9.2197031e-39
763.69897 3822.1699 563.34698 9.2197031e-39
767.15198 3848.3201 568.11798 9.2197031e-39
1398.9301 4366.75 565.66602 9.2197031e-39
1659.84 4602.9502 569.18701 9.2197031e-39
1674.12 4607.5303 567.66803 9.2197031e-39
1696.63 4611.3203 564.56897 9.2197031e-39
-265.491 3005.3501 573.034 9.2197031e-39
-265.39301 3019.6799 575.95697 9.2197031e-39
1.4596601 3240.21 575.23901 9.2197031e-39
592.26599 3753.3401 578.75702 9.2197031e-39
612.388 3758.1001 576.26801 9.2197031e-39
631.23602 3753.9299 572.164 9.2197031e-39
765.63702 3870.8201 572.99701 9.2197031e-39
766.146 3902.79 579.46997 9.2197031e-39
1401.74 4434.6699 579.12 9.2197031e-39
1636.51 4633.9902 579.57703 9.2197031e-39
1711.3199 4651.9199 570.36902 9.2197031e-39
2681.3 5482.5498 573.71802 9.2197031e-39
-274.19199 3044.7 582.60699 9.2197031e-39
-267.21899 3057.3201 583.99597 9.2197031e-39
-268.96799 3080.73 589.10101 9.2197031e-39
-217.418 3102.6499 584.71899 9.2197031e-39
-202.657 3112.45 584.18597 9.2197031e-39
-203.741 3135.48 589.09998 9.2197031e-39
-177.73801 3141.28 585.81 9.2197031e-39
-175.70799 3163.24 589.96802 9.2197031e-39
-162.51199 3173.0701 589.71002 9.2197031e-39
-74.401199 3213.46 582.82001 9.2197031e-39
139.951 3388.55 581.82098 9.2197031e-39
137.938 3404.0601 585.35101 9.2197031e-39
531.70898 3757.1699 589.97601 9.2197031e-39
547.06598 3758.1699 587.53601 9.2197031e-39
572.55798 3757.79 583.065 9.2197031e-39
770.59698 3917.4299 581.70697 9.2197031e-39
1584.77 4628.27 587.31702 9.2197031e-39
1599.1899 4631.3999 585.47601 9.2197031e-39
1621.98 4633.0601 581.88898 9.2197031e-39
2681.3701 5550.6099 587.67297 9.2197031e-39
-268.31299 3095.23 591.96301 9.2197031e-39
-149.144 3190.9299 591.073 9.2197031e-39
-144.935 3203.8701 593.00299 9.2197031e-39
-117.676 3216.1599 590.83002 9.2197031e-39
124.779 3434.6001 593.88599 9.2197031e-39
117.351 3453.8501 599.117 9.2197031e-39
486.46701 3759.6699 598.28497 9.2197031e-39
505.314 3757.6101 594.61298 9.2197031e-39
766.26001 3958.5701 590.89801 9.2197031e-39
770.72198 3974.1299 593.32202 9.2197031e-39
773.12598 4006.5901 599.57001 9.2197031e-39
1408.09 4540.71 599.789 9.2197031e-39
1547.39 4626.7402 593.44299 9.2197031e-39
1561.9 4628.1699 591.23798 9.2197031e-39
1523.9399 4633.0601 598.78003 9.2197031e-39
1736.79 4785.6802 593.42999 9.2197031e-39
1752.28 4783.8999 590.39697 9.2197031e-39
99.2108 3488.5801 609.37 9.2197031e-39
442.78799 3758.9299 605.65698 9.2197031e-39
459.11301 3760.0901 603.08197 9.2197031e-39
774.57098 4028.01 603.716 9.2197031e-39
1415.96 4588.5 608.23999 9.2197031e-39
1450.87 4609.7598 606.58899 9.2197031e-39
1472.0601 4626.5801 606.388 9.2197031e-39
1485.83 4636.29 606.01001 9.2197031e-39
1509.4 4631.3701 600.93903 9.2197031e-39
89.027802 3510.3201 615.58502 9.2197031e-39
396.633 3759.0601 613.63501 9.2197031e-39
415.87399 3757.96 610.09497 9.2197031e-39
772.53998 4069.8501 612.65198 9.2197031e-39
775.17102 4090.6101 616.45898 9.2197031e-39
1435.51 4615.3301 610.37701 9.2197031e-39
1782.5601 4946.6899 618.586 9.2197031e-39
2690.48 5692.0298 615.125 9.2197031e-39
329.5 3777.01 628.88599 9.2197031e-39
351.17401 3774.5801 624.65198 9.2197031e-39
777.24402 4127.75 623.72498 9.2197031e-39
779.112 4151.1699 628.21002 9.2197031e-39
263.08301 3763.25 637.505 9.2197031e-39
295.129 3762.7 631.86902 9.2197031e-39
309.771 3767.21 630.27399 9.2197031e-39
785.08801 4183.4697 633.80902 9.2197031e-39
787.63898 4207.02 638.203 9.2197031e-39
2697.3101 5790.6802 634.19501 9.2197031e-39
-2347.55 1626.9399 648.862 9.2197031e-39
217.541 3756.8101 644.02802 9.2197031e-39
243.241 3762.74 640.81799 9.2197031e-39
562.57599 4046.1201 643.95599 9.2197031e-39
786.57001 4254.9199 648.21503 9.2197031e-39
157.48801 3760.76 655.185 9.2197031e-39
184.925 3766.3 651.59601 9.2197031e-39
791.23798 4276.0601 651.74902 9.2197031e-39
805.38202 4296.5703 653.521 9.2197031e-39
810.59302 4317.7197 656.966 9.2197031e-39
817.466 4354.7402 663.37903 9.2197031e-39
2710.76 5964.1001 667.466 9.2197031e-39
70.900299 3812.3799 680.69501 9.2197031e-39
2711.6599 6054.6899 685.90198 9.2197031e-39
-2480.54 1746.72 696.35498 9.2197031e-39
-6.74859 3844.1499 700.59399 9.2197031e-39
-67.511299 3871.95 716.76703 9.2197031e-39
2714.95 6212.6602 717.75403 9.2197031e-39
2706.52 6280.6699 733.16199 9.2197031e-39
-340.638 3809.03 750.90997 9.2197031e-39
-1492.41 2930.4199 769.03302 9.2197031e-39
-279.543 4001.3899 779.85999 9.2197031e-39
-727.992 4080.0901 873.271 9.2197031e-39
-724.66302 4115.8799 880.04401 9.2197031e-39
-729.13397 4143.3799 886.45697 9.2197031e-39
-724.94598 4179.4697 893.14099 9.2197031e-39
-721.64203 4202.27 897.25098 9.2197031e-39
-722.14697 4242.4902 905.59302 9.2197031e-39
-716.73401 4264.2998 909.13702 9.2197031e-39
-706.99902 4297.9102 914.35602 9.2197031e-39
2976.3999 7494.5601 935.77899 9.2197031e-39
-2004.12 3374.8899 948.40698 9.2197031e-39
2940.9099 7495.2402 942.03497 9.2197031e-39
-1986.8199 3397.54 950.07397 9.2197031e-39
2846.1001 7479.4902 955.138 9.2197031e-39
2883.46 7488.1099 950.47101 9.2197031e-39
2753.1399 7466.8301 968.55402 9.2197031e-39
2788.6699 7469.3799 962.95502 9.2197031e-39
2695 7449.8701 975.09003 9.2197031e-39
2603.6699 7436.4102 988.06299 9.2197031e-39
2661.4299 7455.3701 982.00299 9.2197031e-39
2568.45 7431.5898 993.14301 9.2197031e-39
-4824.77 1272.494 1002.91 9.2197031e-39
2479.75 7426.5601 1007.39 9.2197031e-39
2514.6201 7431.02 1002.3 9.2197031e-39
-4703.9399 1408.8201 1010.07 9.2197031e-39
-4685.4102 1455.863 1016.53 9.2197031e-39
2389.1699 7404.3599 1018.44 9.2197031e-39
2424.78 7416.2598 1014.75 9.2197031e-39
-4652.9302 1529.5281 1026.05 9.2197031e-39
-5083.1899 1509.3721 1096.04 9.2197031e-39
-5086.1802 1581.5859 1111.38 9.2197031e-39
2399.3701 7885.7798 1115.48 9.2197031e-39
-5084.9199 1627.97 1120.6801 9.2197031e-39
2363 7891.1299 1122.84 9.2197031e-39
-5091.54 1699.5699 1136.51 9.2197031e-39
2267.6399 7887.96 1138.62 9.2197031e-39
2304.26 7885.21 1131.75 9.2197031e-39
-5086.5098 1746.25 1145.22 9.2197031e-39
2210.03 7890.7998 1149.13 9.2197031e-39
-5083.0098 1818.8 1159.51 9.2197031e-39
2173.4299 7893.8901 1156.0699 9.2197031e-39
-5075.1899 1865.48 1167.74 9.2197031e-39
2115.5901 7893.77 1166.01 9.2197031e-39
2078.9399 7896.23 1172.83 9.2197031e-39
-5073.3599 1937.55 1182.22 9.2197031e-39
1984.5601 7899.8599 1189.84 9.2197031e-39
2021.33 7899.02 1183.33 9.2197031e-39
-5071.6201 1983.46 1191.34 9.2197031e-39
-4932.8901 2109.3301 1193.27 9.2197031e-39
-5064.5698 2055.6899 1204.95 9.2197031e-39
1926.91 7902.6299 1200.34 9.2197031e-39
-3365.54 3542.47 1217.35 9.2197031e-39
-5067.5098 2172.8 1229.49 9.2197031e-39
-5059.23 2218.8101 1237.5 9.2197031e-39
-5058.54 2290.3398 1252.0601 9.2197031e-39
-5565.1401 2322.78 1346 9.2197031e-39
-5566.0698 2399.6499 1361.9399 9.2197031e-39
-5572.8701 2448.6201 1373.16 9.2197031e-39
-5570.48 2525.6401 1388.55 9.2197031e-39
-5569.5098 2574.74 1398.46 9.2197031e-39
-5559.8701 2651.6499 1412.58 9.2197031e-39
-5554.1001 2700.6101 1421.64 9.2197031e-39
-5550.98 2777.5901 1436.9 9.2197031e-39
-5555.1802 2826.9399 1447.75 9.2197031e-39
-5549.7202 2903.9399 1462.61 9.2197031e-39
-5545.1802 2952.97 1471.89 9.2197031e-39
-5546.2202 3030.49 1487.98 9.2197031e-39
-5539.8398 3079.4399 1496.92 9.2197031e-39
-4924.8599 3619.6001 1501.8199 9.2197031e-39
-5550.27 3158.05 1514.85 9.2197031e-39
-4911.1401 3690.28 1513.96 9.2197031e-39
-5543.9902 3207.1399 1523.84 9.2197031e-39
-4911.02 3736.9399 1523.52 9.2197031e-39
-5533.48 3284.0901 1537.8199 9.2197031e-39
-5129.2998 3605.96 1534.24 9.2197031e-39
-4904.6899 3809.24 1537.26 9.2197031e-39
-5526.3501 3333.0901 1546.65 9.2197031e-39
-5501.8301 3408.3101 1557.86 9.2197031e-39
-5469.0298 3531.95 1577.59 9.2197031e-39
-5478.6499 3583.3201 1589.79 9.2197031e-39
