# .PCD v0.7 - Point Cloud Data file format
VERSION 0.7
FIELDS x y z rgb
SIZE 4 4 4 4
TYPE F F F F
COUNT 1 1 1 1
WIDTH 305
HEIGHT 1
VIEWPOINT 0 0 0 1 0 0 0
POINTS 305
DATA ascii
1465.84 2452.26 139.371 9.2197031e-39
1470.09 2459.55 139.77699 9.2197031e-39
1476.2949 2463.8599 139.26599 9.2197031e-39
1481.17 2468.1201 139.01801 9.2197031e-39
1653.14 2650.53 135.817 9.2197031e-39
1658.5699 2666.3198 137.464 9.2197031e-39
1663.355 2668.4551 136.864 9.2197031e-39
1664.1975 2673.6399 137.59575 9.2197031e-39
1663.5967 2684.1267 139.54633 9.2197031e-39
1669.58 2691.3899 139.59599 9.2197031e-39
3156.9299 4387.1699 132.526 9.2197031e-39
3159.8 4430.6797 139.52699 9.2197031e-39
1457.4301 2459.29 142.308 9.2197031e-39
1465.5834 2464.5535 141.56667 9.2197031e-39
1471.485 2465.6802 140.56149 9.2197031e-39
1454.46 2479.78 146.483 9.2197031e-39
1468.2351 2474.9351 142.8365 9.2197031e-39
1470.8301 2473.8799 142.12399 9.2197031e-39
1445.335 2484.0151 149.07899 9.2197031e-39
1454.6381 2484.76 147.31641 9.2197031e-39
1466.9021 2483.4761 144.5966 9.2197031e-39
1473.65 2482.3201 143.02167 9.2197031e-39
1455.5576 2494.2249 148.78 9.2197031e-39
1457.52 2502.6401 149.847 9.2197031e-39
1463.6851 2502.125 148.5015 9.2197031e-39
1646.1334 2676.8098 141.82399 9.2197031e-39
1653.4399 2677.79 140.509 9.2197031e-39
1645.275 2685.9326 143.58951 9.2197031e-39
1654.8301 2684.9941 141.48239 9.2197031e-39
1635.47 2691.6101 146.576 9.2197031e-39
1643.15 2695.7332 145.72966 9.2197031e-39
1665.34 2692.8201 140.707 9.2197031e-39
1644.535 2702.52 146.63199 9.2197031e-39
3139.3101 4429.5601 143.50301 9.2197031e-39
1440.04 2492.96 151.716 9.2197031e-39
3090.5901 4434.4199 154.263 9.2197031e-39
3107.8 4432.1299 150.362 9.2197031e-39
3028.04 4419.98 164.47501 9.2197031e-39
3053.0701 4428.3896 160.847 9.2197031e-39
-792.41998 64.927979 182.76801 9.2197031e-39
-756.97998 132.18301 187.28 9.2197031e-39
-791.151 148.97198 197.16 9.2197031e-39
-916.15002 106.27002 215.153 9.2197031e-39
-1045.95 10.471008 224.867 9.2197031e-39
1292.5701 3392.71 338.56702 9.2197031e-39
1304.42 3397.6799 337.021 9.2197031e-39
1311.91 3393.1399 334.70499 9.2197031e-39
1322.41 3392.72 332.496 9.2197031e-39
1324.04 3406.6799 334.59799 9.2197031e-39
1326.9 3432.3101 338.48199 9.2197031e-39
1330.61 3440.6899 339.189 9.2197031e-39
1277.1 3397.6499 342.57599 9.2197031e-39
1336.0601 3459.8 341.41101 9.2197031e-39
1337.28 3478.54 344.42999 9.2197031e-39
1338.33 3517.54 351.013 9.2197031e-39
1339.51 3539.21 354.552 9.2197031e-39
1244.85 3467.55 361.323 9.2197031e-39
1341.41 3580.28 361.32401 9.2197031e-39
1343.77 3600.1299 364.30399 9.2197031e-39
1345.13 3649.95 372.711 9.2197031e-39
1348.05 3670.8301 375.758 9.2197031e-39
1351.39 3718.9099 383.457 9.2197031e-39
1351.54 3758.1001 390.258 9.2197031e-39
1355.0699 3815.01 399.46201 9.2197031e-39
1358.34 3843.73 403.802 9.2197031e-39
1360.9 3918.1899 416.26099 9.2197031e-39
-738.40601 1539.5811 428.832 9.2197031e-39
1363.9301 3955.7 422.18301 9.2197031e-39
2674.0901 5495.6201 424.00299 9.2197031e-39
-732.18799 1572.1641 433.246 9.2197031e-39
1367.7 4039.1001 435.95499 9.2197031e-39
1372.12 4076.71 441.60999 9.2197031e-39
2681.73 5617.04 443.61499 9.2197031e-39
-873.422 1530.0381 454.64401 9.2197031e-39
1376.88 4173.9199 457.586 9.2197031e-39
2682.74 5680.6099 454.491 9.2197031e-39
1380.41 4231.0703 466.82999 9.2197031e-39
1657.36 4614.1699 477.25201 9.2197031e-39
1680.01 4614 472.61301 9.2197031e-39
1693.59 4624.6299 471.70499 9.2197031e-39
2690.6001 5814.9102 476.302 9.2197031e-39
-1074.97 1479.4509 486.84 9.2197031e-39
-1068.27 1501.4041 489.30301 9.2197031e-39
307.871 3077.76 484.04901 9.2197031e-39
1384.65 4363.6104 489.07101 9.2197031e-39
1608.8 4622.54 488.595 9.2197031e-39
1621.86 4622.79 485.979 9.2197031e-39
1644.83 4629.9199 482.54901 9.2197031e-39
1740.16 4776.2998 488.66501 9.2197031e-39
1765.05 4781.1699 484.45001 9.2197031e-39
-1068.59 1534.579 495.15201 9.2197031e-39
-1057.75 1557.6841 496.974 9.2197031e-39
1389.34 4430.6602 499.80499 9.2197031e-39
1572.91 4631.29 497.422 9.2197031e-39
1586.04 4631.77 494.83301 9.2197031e-39
1725.9 4772.8398 490.96399 9.2197031e-39
2697.8601 5904.29 490.405 9.2197031e-39
-1055.54 1591.266 502.37601 9.2197031e-39
-1057.3101 1609.312 505.88199 9.2197031e-39
-1042.28 1646.92 509.38 9.2197031e-39
247.00301 3112.74 502.53201 9.2197031e-39
269.88501 3149.05 504.20401 9.2197031e-39
278.34 3155.5601 503.61899 9.2197031e-39
283.74799 3171.1399 505.23401 9.2197031e-39
745.38397 3735.8999 509.73999 9.2197031e-39
1514.04 4628.1104 508.84698 9.2197031e-39
1536.91 4629.5498 504.444 9.2197031e-39
1550.04 4630.25 501.896 9.2197031e-39
-1038.05 1666.74 511.97501 9.2197031e-39
305.547 3277.49 519.336 9.2197031e-39
710.18201 3739.75 517.57397 9.2197031e-39
730.39801 3740.45 513.58301 9.2197031e-39
754.323 3751.98 510.724 9.2197031e-39
762.72498 3804.02 518.08502 9.2197031e-39
1399.4 4548.8101 518.35199 9.2197031e-39
1500.92 4627.1699 511.353 9.2197031e-39
1477.5699 4635.1602 517.49799 9.2197031e-39
2706.3 6055.4102 515.02899 9.2197031e-39
274.61099 3264.1499 523.30603 9.2197031e-39
283.633 3270.3401 522.55103 9.2197031e-39
657.96301 3748.05 529.64801 9.2197031e-39
671.60699 3746.54 526.60901 9.2197031e-39
697.88599 3740.0701 520.13202 9.2197031e-39
748.755 3807.3201 521.50299 9.2197031e-39
762.159 3836.3799 523.84198 9.2197031e-39
761.112 3856.6201 527.58301 9.2197031e-39
1409.4399 4580.71 521.87201 9.2197031e-39
1443.01 4609.1899 520.00403 9.2197031e-39
1429.77 4610.7402 522.96802 9.2197031e-39
1464.34 4634.9697 520.15601 9.2197031e-39
2708.8201 6139.5601 529.185 9.2197031e-39
-1147.4399 1662.66 533.52197 9.2197031e-39
-1168.49 1674.8101 539.92603 9.2197031e-39
184.037 3229.3501 535.672 9.2197031e-39
203.65401 3250.75 535.40997 9.2197031e-39
205.87801 3269.46 538.21997 9.2197031e-39
215.849 3275.73 537.284 9.2197031e-39
260.01199 3314.5801 535.06799 9.2197031e-39
625.34998 3745.2 535.78802 9.2197031e-39
637.91498 3745.52 533.28699 9.2197031e-39
708.44 3835.78 534.66901 9.2197031e-39
761.53497 3889.29 533.19098 9.2197031e-39
766.63 3900.6101 534.12799 9.2197031e-39
767.453 3934.3201 539.83698 9.2197031e-39
162.53799 3259.73 545.34198 9.2197031e-39
587.55103 3747.5 543.88 9.2197031e-39
600.862 3747.3999 541.15503 9.2197031e-39
561.52899 3750.54 549.70502 9.2197031e-39
767.55298 3954.8799 543.401 9.2197031e-39
767.966 3991.3899 549.68103 9.2197031e-39
-1211.08 1694.7 552.06 9.2197031e-39
549.34003 3748.8201 551.88599 9.2197031e-39
521.74597 3752.6399 558.16803 9.2197031e-39
772.96399 4004.51 550.95099 9.2197031e-39
771.61401 4046.3701 558.52197 9.2197031e-39
776.63599 4060.4099 559.94702 9.2197031e-39
2725.78 6336.1001 559.995 9.2197031e-39
15.7739 3175.8201 560.58197 9.2197031e-39
24.778 3225.75 567.45398 9.2197031e-39
38.254601 3232 565.79999 9.2197031e-39
475.07101 3744.95 566.32501 9.2197031e-39
488.08899 3746.6001 563.96399 9.2197031e-39
508.151 3752.02 560.82599 9.2197031e-39
777.375 4100.8398 566.84601 9.2197031e-39
914.82098 4259.6699 566.56201 9.2197031e-39
-260.50201 2913.1101 571.008 9.2197031e-39
-249.22301 2923.28 570.48499 9.2197031e-39
127.124 3412.71 579.21698 9.2197031e-39
449.608 3744.6299 571.45099 9.2197031e-39
426.40701 3753.05 577.63898 9.2197031e-39
777.56403 4125.2998 571.07001 9.2197031e-39
780.43701 4164.3101 577.28497 9.2197031e-39
-1389.3199 1695.36 588.44397 9.2197031e-39
-268.58099 2983.49 584.92102 9.2197031e-39
-278.70499 2998.5601 589.60797 9.2197031e-39
-263.59201 3017.1299 589.77002 9.2197031e-39
119.584 3430.1201 583.78497 9.2197031e-39
114.169 3456.3 589.45099 9.2197031e-39
389.401 3747.51 584.20502 9.2197031e-39
401.97601 3750.5901 582.18298 9.2197031e-39
782.65002 4186.3203 580.672 9.2197031e-39
782.10999 4235.2002 589.30298 9.2197031e-39
2755.6201 6523.6401 586.61298 9.2197031e-39
-265.90302 3030.49 592.56897 9.2197031e-39
-269.27399 3053.78 597.31403 9.2197031e-39
-217.16499 3109.47 596.41699 9.2197031e-39
-216.955 3122.26 598.60498 9.2197031e-39
-184.097 3134.1201 593.98499 9.2197031e-39
-179.11099 3145.24 594.90997 9.2197031e-39
-175.53101 3166.3601 597.862 9.2197031e-39
-155.71001 3172.25 594.85699 9.2197031e-39
-149.996 3192.52 597.22601 9.2197031e-39
-151.021 3205.77 599.745 9.2197031e-39
-106.936 3211.3701 591.74902 9.2197031e-39
106.235 3474.54 594.245 9.2197031e-39
106.388 3498.05 598.31201 9.2197031e-39
343.35599 3765.3201 596.67999 9.2197031e-39
784.65302 4258.25 592.802 9.2197031e-39
788.02502 4302.1797 599.77399 9.2197031e-39
-273.19601 3067.8 600.55603 9.2197031e-39
-268.629 3089.2 603.35797 9.2197031e-39
292.96301 3769.74 607.70502 9.2197031e-39
322.228 3769.8101 601.76099 9.2197031e-39
788.51801 4331.5601 604.79498 9.2197031e-39
247.002 3768.21 616.79102 9.2197031e-39
268.02701 3776.9399 614.034 9.2197031e-39
789.42999 4384.6699 613.86798 9.2197031e-39
793.54303 4408 617.09802 9.2197031e-39
189.008 3775.5901 629.87799 9.2197031e-39
222.506 3774.1599 622.81299 9.2197031e-39
796.07001 4461.4399 625.89801 9.2197031e-39
1.4141901 3579.47 633.86603 9.2197031e-39
137.871 3758.73 637.34601 9.2197031e-39
144.33701 3769.46 637.901 9.2197031e-39
177.36501 3769.52 631.19 9.2197031e-39
798.05402 4492.0898 630.83801 9.2197031e-39
102.409 3759.71 644.73401 9.2197031e-39
79.423103 3762.01 649.81201 9.2197031e-39
45.112499 3760.76 656.57501 9.2197031e-39
785.633 4627.52 656.97198 9.2197031e-39
-4.88901 3783.05 670.63702 9.2197031e-39
-2053.5701 1527.1321 694.29303 9.2197031e-39
-108.448 3832.1699 700.27301 9.2197031e-39
-2111.0601 1554.4031 710.74597 9.2197031e-39
-2138.52 1572.03 719.40698 9.2197031e-39
-150.205 3845.79 711.14502 9.2197031e-39
2954.5 7505.46 717.28802 9.2197031e-39
2987.3999 7504.3501 710.39899 9.2197031e-39
-2149.6899 1612.748 728.77698 9.2197031e-39
2893.21 7491.6802 727.35999 9.2197031e-39
2859.73 7489.2798 733.75201 9.2197031e-39
-2224.8201 1619.181 745.18701 9.2197031e-39
2766.0701 7472.27 749.84802 9.2197031e-39
2799.05 7474.3501 743.49799 9.2197031e-39
2673.27 7453.5098 765.461 9.2197031e-39
2707.78 7463.9502 760.25702 9.2197031e-39
2615.5 7444.1001 775.57599 9.2197031e-39
2582.97 7440.79 781.62 9.2197031e-39
2495.1599 7436.1699 798.68298 9.2197031e-39
2525.8401 7431.29 791.591 9.2197031e-39
2438.1899 7424.6602 808.27002 9.2197031e-39
2406.0601 7420.1802 814.02899 9.2197031e-39
-2645.6201 1641.3201 834.67798 9.2197031e-39
-2654.29 1667.4 840.98901 9.2197031e-39
-2650.6499 1716.7 848.841 9.2197031e-39
-2683.0601 1738.24 859.19098 9.2197031e-39
-730.63501 4089.5 871.742 9.2197031e-39
-726.80902 4108.9297 874.34998 9.2197031e-39
-721.422 4143.9502 879.35901 9.2197031e-39
-717.966 4164 882.15002 9.2197031e-39
-718.10199 4203.6602 889.09198 9.2197031e-39
-696.18298 4210.79 885.87299 9.2197031e-39
2418.6499 7844.8799 885.49902 9.2197031e-39
2392.1599 7894 899.45099 9.2197031e-39
2332.4299 7892.8198 911.40002 9.2197031e-39
2299.3201 7900.27 919.43597 9.2197031e-39
2205.8301 7899.98 938.41101 9.2197031e-39
2239.27 7895.0898 930.75299 9.2197031e-39
2146.3601 7897.6802 950.11298 9.2197031e-39
2112.75 7901 957.52899 9.2197031e-39
2053.79 7902.5698 969.80298 9.2197031e-39
-2061.8999 3351.26 1013.96 9.2197031e-39
-2140.99 3343.1699 1028.65 9.2197031e-39
-5086.7002 1351.9189 1280.98 9.2197031e-39
-5086.9302 1395.4 1288.61 9.2197031e-39
-5087.1001 1471.022 1301.8199 9.2197031e-39
-5082.6699 1515.037 1308.59 9.2197031e-39
-5071.7598 1591.895 1319.77 9.2197031e-39
-5077.27 1634.1799 1328.26 9.2197031e-39
-5071.8501 1709.8 1340.34 9.2197031e-39
-5069.7798 1752.95 1347.4399 9.2197031e-39
-5069.8701 1827.55 1360.47 9.2197031e-39
-5045.5298 1872.84 1363.41 9.2197031e-39
-5015.9102 1949.73 1370.78 9.2197031e-39
-5049.5298 1989.16 1384.5 9.2197031e-39
-5052.8901 2062.97 1398.05 9.2197031e-39
-5019.1802 2107.77 1399 9.2197031e-39
-5042.8101 2180.05 1416.4 9.2197031e-39
-5043.6299 2222.3901 1423.95 9.2197031e-39
-5056.1802 2295.74 1439.29 9.2197031e-39
-5530.8198 2322.4199 1540.53 9.2197031e-39
-5551.8599 2401.23 1558.55 9.2197031e-39
-5553.1201 2446.8501 1566.76 9.2197031e-39
-5549.25 2526.4302 1579.84 9.2197031e-39
-5541.8799 2572.0698 1586.3 9.2197031e-39
-5548.3799 2651.6899 1601.5 9.2197031e-39
-5536.2998 2697.1699 1606.97 9.2197031e-39
-5533.5898 2776.7 1620.28 9.2197031e-39
-5530.5098 2822.3 1627.61 9.2197031e-39
-5535.2202 2902.26 1642.5 9.2197031e-39
-5529.3901 2947.8 1649.25 9.2197031e-39
-4929.8999 3614.8 1643.53 9.2197031e-39
-4898.0898 3684.79 1649.25 9.2197031e-39
-4907.6299 3729.79 1659.04 9.2197031e-39
-5531.7202 3027.8999 1663.6899 9.2197031e-39
-5526.0801 3073.48 1670.49 9.2197031e-39
-5526.02 3153.6799 1684.46 9.2197031e-39
-5529.3198 3200.1001 1693.22 9.2197031e-39
-5528.8198 3280.6299 1707.16 9.2197031e-39
-5502.1699 3324.1101 1709.3101 9.2197031e-39
-5494.4702 3403.8501 1721.64 9.2197031e-39
-5478.7202 3448.24 1726.1801 9.2197031e-39
-5327.1001 3633.3601 1727.59 9.2197031e-39
-5443.5601 3524.24 1732.27 9.2197031e-39
-5440.5898 3570.1201 1739.66 9.2197031e-39
