# .PCD v0.7 - Point Cloud Data file format
VERSION 0.7
FIELDS x y z rgb
SIZE 4 4 4 4
TYPE F F F F
COUNT 1 1 1 1
WIDTH 308
HEIGHT 1
VIEWPOINT 0 0 0 1 0 0 0
POINTS 308
DATA ascii
-245.976 -128.61499 136.144 9.2197031e-39
1378.65 2483.3301 139.2265 9.2197031e-39
1380.45 2482.46 138.696 9.2197031e-39
1524.66 2698.1799 136.67101 9.2197031e-39
1528.7832 2705.04 136.713 9.2197031e-39
1529.5601 2718.03 138.38499 9.2197031e-39
1532.5449 2714.3 137.17749 9.2197031e-39
1528.105 2722.5249 139.356 9.2197031e-39
1532.74 2723.7002 138.47 9.2197031e-39
2583.95 4358.54 132.606 9.2197031e-39
2598.6399 4425.96 138.87 9.2197031e-39
-269.62799 -130.17401 141.291 9.2197031e-39
1367.7225 2476.3276 140.71001 9.2197031e-39
1368.46 2484.5525 141.71425 9.2197031e-39
1338.8101 2494.1299 149.80701 9.2197031e-39
1345.3167 2495.3101 148.49966 9.2197031e-39
1354.2375 2496.7202 146.67474 9.2197031e-39
1366.8151 2495.325 143.62099 9.2197031e-39
1374.9399 2495.7 141.83 9.2197031e-39
1349.67 2508.25 149.353 9.2197031e-39
1351.8899 2505.8252 148.50351 9.2197031e-39
1363.67 2500.8599 145.125 9.2197031e-39
1376.27 2506.02 142.998 9.2197031e-39
1354.97 2513.8049 148.94099 9.2197031e-39
1361.9399 2514.9302 147.52 9.2197031e-39
1372.85 2527.3701 146.814 9.2197031e-39
1509.6801 2716.0701 142.619 9.2197031e-39
1514.5126 2717.8975 141.7825 9.2197031e-39
1499.36 2724.8799 146.217 9.2197031e-39
1506.75 2722.1101 144.144 9.2197031e-39
1512.39 2725.3132 143.32033 9.2197031e-39
1522.0601 2723.925 140.927 9.2197031e-39
1505.886 2735.666 146.2702 9.2197031e-39
1510.79 2730.3 144.39301 9.2197031e-39
1529.97 2730.97 140.134 9.2197031e-39
1509.4399 2740.98 146.21899 9.2197031e-39
1533.48 2743.5801 141.134 9.2197031e-39
1505.67 2761.1899 149.953 9.2197031e-39
2589.78 4436.0498 142.317 9.2197031e-39
2574.6399 4456.7598 148.702 9.2197031e-39
-335.64499 -131.26801 156.121 9.2197031e-39
-307.966 -124.39203 150.817 9.2197031e-39
1345.39 2511.3599 150.767 9.2197031e-39
2567.05 4469.3203 152.213 9.2197031e-39
2560.79 4506.3398 158.905 9.2197031e-39
-379.80899 -132.85101 165.92101 9.2197031e-39
2586.6001 4579 163.39101 9.2197031e-39
-399.88599 -127.54602 171.233 9.2197031e-39
-472.01501 -132.948 186.83701 9.2197031e-39
-448.36899 -133.86401 181.339 9.2197031e-39
-522.74701 -140.53699 197.27299 9.2197031e-39
-586.98102 -193.71899 204.282 9.2197031e-39
-861.79401 -494.79004 223.8 9.2197031e-39
-828.98199 -414.06995 227.84399 9.2197031e-39
-810.98297 -323.995 236.582 9.2197031e-39
1298.74 3405.1799 288.612 9.2197031e-39
1304.6801 3401.5601 286.746 9.2197031e-39
1256.495 3404.405 298.09003 9.2197031e-39
1268.51 3406.3601 295.64099 9.2197031e-39
1273.04 3409.6599 295.082 9.2197031e-39
1288.76 3406.73 291.09698 9.2197031e-39
1281.8199 3414.0601 293.715 9.2197031e-39
1306.8101 3440.3999 291.793 9.2197031e-39
1309.15 3457.04 293.63101 9.2197031e-39
1312.37 3496.96 298.58401 9.2197031e-39
1314.84 3516.54 300.81201 9.2197031e-39
1316.51 3575.04 308.76001 9.2197031e-39
1319.48 3596.6201 311.15799 9.2197031e-39
1321.5601 3666 320.565 9.2197031e-39
1325.5601 3686.6599 322.59601 9.2197031e-39
1328.87 3764.02 332.85901 9.2197031e-39
1331.8199 3802.3401 337.646 9.2197031e-39
1337.02 3886.72 348.479 9.2197031e-39
1340.51 3933.9399 354.41 9.2197031e-39
1345.87 4050.9099 369.84601 9.2197031e-39
1350.54 4106.0801 376.64099 9.2197031e-39
1647.9399 4617.9297 382.005 9.2197031e-39
1625.71 4623.1001 387.78799 9.2197031e-39
1660.9399 4625.0601 380.07001 9.2197031e-39
1692.51 4708.3799 384.76501 9.2197031e-39
1736.5601 4768.3599 383.30499 9.2197031e-39
1105.72 3874.55 399.25201 9.2197031e-39
1113.84 3876.0901 397.62799 9.2197031e-39
1358.23 4246.8501 394.93799 9.2197031e-39
1578.86 4631.73 399.651 9.2197031e-39
1591.21 4631.3999 396.79901 9.2197031e-39
1614.54 4639.4902 392.65601 9.2197031e-39
1714.13 4786.3198 390.953 9.2197031e-39
1091.3 3869.8501 401.85501 9.2197031e-39
1081.5 3873.8 404.642 9.2197031e-39
1363.52 4326.73 405.10901 9.2197031e-39
1544.12 4641.1797 408.883 9.2197031e-39
1556.58 4642.0498 406.17899 9.2197031e-39
1508.87 4641.0898 416.87201 9.2197031e-39
1521.3101 4642.1797 414.202 9.2197031e-39
-670.896 1243.2119 427.90799 9.2197031e-39
1450.76 4639.5801 429.84601 9.2197031e-39
1473.6 4640.3799 424.77499 9.2197031e-39
1486.03 4640.7002 422 9.2197031e-39
-676.54401 1272.582 433.37201 9.2197031e-39
-671.33801 1293.469 435.164 9.2197031e-39
-663.52502 1330.283 438.63101 9.2197031e-39
1415.5 4637.8398 437.60199 9.2197031e-39
1438.34 4639.04 432.58899 9.2197031e-39
-664.70697 1346.879 441.263 9.2197031e-39
-687.15399 1365.6221 449.026 9.2197031e-39
1367.99 4631.52 447.48801 9.2197031e-39
1380.21 4636.46 445.41501 9.2197031e-39
1403.08 4637.0703 440.31299 9.2197031e-39
-695.84998 1377.905 452.74899 9.2197031e-39
-695.39203 1409.526 457.147 9.2197031e-39
-709.948 1418.613 461.745 9.2197031e-39
-713.30701 1447.881 466.67401 9.2197031e-39
-711.84302 1465.3979 468.836 9.2197031e-39
724.1485 3743.7651 467.246 9.2197031e-39
976.40997 4157.7002 468.91599 9.2197031e-39
-732.31403 1485.6641 476.36801 9.2197031e-39
-729.664 1503.6069 478.32101 9.2197031e-39
294.19199 3086.8301 471.31601 9.2197031e-39
277.91901 3102.6599 477.26401 9.2197031e-39
697.84399 3746.8201 473.651 9.2197031e-39
684.71997 3750.6101 477.17099 9.2197031e-39
720.823 3787.2 474.185 9.2197031e-39
746.45801 3810.7 471.711 9.2197031e-39
729.427 3821.77 477.15399 9.2197031e-39
745.302 3845.48 476.92499 9.2197031e-39
745.85602 3862.9099 479.28101 9.2197031e-39
-748.87903 1524.672 485.68201 9.2197031e-39
-744.13098 1543.416 487.27301 9.2197031e-39
263.52301 3161.26 488.87399 9.2197031e-39
636.15198 3747.48 487.74899 9.2197031e-39
649.39301 3757.3701 486.15201 9.2197031e-39
661.61603 3755.5 483.112 9.2197031e-39
697.13702 3842.5801 487.44601 9.2197031e-39
749.03802 3892.03 482.70401 9.2197031e-39
748.23401 3913 485.87201 9.2197031e-39
-762.05902 1565.2119 494.44501 9.2197031e-39
244.08701 3160.97 493.24399 9.2197031e-39
259.97101 3180.3501 492.39801 9.2197031e-39
248.22701 3195.74 497.255 9.2197031e-39
596.55701 3742.6001 496.04199 9.2197031e-39
604.30701 3747.46 494.97601 9.2197031e-39
622.13397 3751.45 491.496 9.2197031e-39
746.40601 3953.5 492.05399 9.2197031e-39
750.76703 3966.02 492.84601 9.2197031e-39
753.61401 3999.8701 497.01901 9.2197031e-39
903.35901 4191.1201 490.25601 9.2197031e-39
-809.26202 1560.224 504.45001 9.2197031e-39
232.922 3260.01 509.879 9.2197031e-39
247.65199 3270.6201 508.047 9.2197031e-39
261.28201 3273.1299 505.31 9.2197031e-39
282.75699 3279.4199 501.33099 9.2197031e-39
283.026 3289.3999 502.69101 9.2197031e-39
298.74701 3298.71 500.44699 9.2197031e-39
303.29001 3306.1399 500.474 9.2197031e-39
550.04498 3759.8899 509.06299 9.2197031e-39
568.021 3752.04 503.86401 9.2197031e-39
753.60199 4022.02 500.17599 9.2197031e-39
753.25897 4064.8601 506.353 9.2197031e-39
754.367 4086.3101 509.155 9.2197031e-39
207.34399 3263.53 516.18701 9.2197031e-39
534.31598 3751.8799 511.49301 9.2197031e-39
515.48297 3760.0801 516.93597 9.2197031e-39
756.15997 4127.7002 514.64099 9.2197031e-39
757.94098 4149.29 517.31 9.2197031e-39
157.00101 3265.53 527.89899 9.2197031e-39
464.11899 3751.23 527.33502 9.2197031e-39
495.345 3756.8401 521.04498 9.2197031e-39
479.35001 3760.8799 525.25098 9.2197031e-39
760.61401 4191.8301 522.76001 9.2197031e-39
759.966 4220.71 527.01801 9.2197031e-39
444.78101 3758.5601 532.76703 9.2197031e-39
418.53601 3760.74 539.03497 9.2197031e-39
760.23798 4272.52 534.33398 9.2197031e-39
763.48901 4294.3896 536.70898 9.2197031e-39
368.923 3757.6299 549.85498 9.2197031e-39
406.04999 3759.6699 541.71698 9.2197031e-39
380.18701 3760.45 547.69897 9.2197031e-39
764.60999 4348.3501 544.13702 9.2197031e-39
765.04401 4379.4297 548.46399 9.2197031e-39
-1085.11 1469.687 554.17603 9.2197031e-39
-1070.48 1494.4509 554.38098 9.2197031e-39
-1069.77 1528.2419 559.03101 9.2197031e-39
26.228901 3231.1399 552.68799 9.2197031e-39
25.135401 3242.6499 554.57501 9.2197031e-39
767.90399 4433.73 555.54498 9.2197031e-39
774.78302 4450.3398 556.34802 9.2197031e-39
-1068.36 1546.918 561.36902 9.2197031e-39
-1067.91 1580.126 565.995 9.2197031e-39
-1067.05 1598.311 568.39001 9.2197031e-39
98.5373 3454.25 568.03802 9.2197031e-39
102.437 3463.99 568.53998 9.2197031e-39
124.048 3472.51 564.84698 9.2197031e-39
120.836 3486.95 567.63202 9.2197031e-39
308.52399 3778.1799 566.49103 9.2197031e-39
322.01501 3779.3601 563.59698 9.2197031e-39
782.21002 4496.5898 561.24701 9.2197031e-39
-1054.88 1635.52 570.92499 9.2197031e-39
-1047.1801 1655.92 572.08197 9.2197031e-39
-1039.8199 1690.53 575.33801 9.2197031e-39
-279.858 2916.28 577.341 9.2197031e-39
-268.93799 2925.6001 576.19 9.2197031e-39
-268.27499 2946.4299 579.00403 9.2197031e-39
-61.536999 3216.3899 570.51099 9.2197031e-39
259.41699 3784.6699 578.56299 9.2197031e-39
275.11899 3784.22 574.93298 9.2197031e-39
814.84998 4628.1797 572.573 9.2197031e-39
-136.914 3213.7 587.23798 9.2197031e-39
-119.427 3228.3501 585.35303 9.2197031e-39
67.565697 3546.25 588.16699 9.2197031e-39
217.38901 3782.4299 587.78302 9.2197031e-39
233.231 3782.3899 584.18103 9.2197031e-39
783.28497 4645.8398 582.25201 9.2197031e-39
762.50897 4665.23 589.72803 9.2197031e-39
-299.78201 2997.8101 593.47101 9.2197031e-39
-292.617 3017.77 594.68701 9.2197031e-39
-285.892 3027.9099 594.604 9.2197031e-39
-293.40201 3051.6201 599.68402 9.2197031e-39
-286.491 3061.6899 599.54999 9.2197031e-39
-249.496 3106.76 597.56799 9.2197031e-39
-226.571 3111.6001 593.05298 9.2197031e-39
-226.505 3133.28 596.125 9.2197031e-39
-212.73801 3140.6499 594.04901 9.2197031e-39
-188.498 3154.1799 590.47302 9.2197031e-39
-187.47099 3165.5801 591.86298 9.2197031e-39
-170.358 3181.1499 590.19501 9.2197031e-39
-173.69099 3194.1599 592.80402 9.2197031e-39
-168.987 3214.22 594.59302 9.2197031e-39
166.48801 3786.9099 599.97498 9.2197031e-39
183.218 3786.6799 596.14502 9.2197031e-39
2492.3201 7450.02 593.54199 9.2197031e-39
-295.42099 3086.1799 605.06201 9.2197031e-39
-289.25 3096.48 605.12799 9.2197031e-39
132.63499 3789.55 608.03497 9.2197031e-39
2434.01 7437.29 604.96802 9.2197031e-39
82.977203 3789.71 619.33099 9.2197031e-39
109.942 3794.4199 613.88 9.2197031e-39
2403.48 7435.46 611.63702 9.2197031e-39
35.087399 3786.6101 629.76001 9.2197031e-39
60.7715 3793.3701 624.89203 9.2197031e-39
14.9078 3787.8601 634.51801 9.2197031e-39
2364.1699 7523.48 633.09198 9.2197031e-39
-86.005203 3665.6499 640.02698 9.2197031e-39
-59.448799 3774.6201 649.51202 9.2197031e-39
-32.750999 3782.29 644.54401 9.2197031e-39
-16.173401 3784.6001 641.10999 9.2197031e-39
-76.868301 3772.46 653.159 9.2197031e-39
-145.255 3779.21 669.64301 9.2197031e-39
-114.485 3772.1499 661.65302 9.2197031e-39
2401.96 7913.1699 679.99402 9.2197031e-39
-213.873 3799.6599 688.13098 9.2197031e-39
2341.8 7914.79 693.88098 9.2197031e-39
2308.5901 7912.25 701.05603 9.2197031e-39
-312.89099 3853.74 718.30701 9.2197031e-39
2249.55 7919.6802 715.51703 9.2197031e-39
2216.55 7917.52 722.70001 9.2197031e-39
2155.77 7911.0801 735.58099 9.2197031e-39
-2119.9199 1534.318 798.276 9.2197031e-39
-2200.9099 1486.027 809.784 9.2197031e-39
-2139.6599 1572.541 808.198 9.2197031e-39
-2146.96 1594.379 812.96503 9.2197031e-39
-2332.5901 1374.016 823.729 9.2197031e-39
-2326.9399 1401.375 826.34003 9.2197031e-39
-2234.54 1615.067 835.79102 9.2197031e-39
-2235.8601 1639.01 839.49799 9.2197031e-39
-2290.74 1670.05 856.375 9.2197031e-39
-2340.46 1682.66 869.45801 9.2197031e-39
-2653.6899 1657.1899 936.93201 9.2197031e-39
-2671.8999 1679.8199 944.289 9.2197031e-39
-2661.0901 1731.09 949.13397 9.2197031e-39
-2658.6899 1758.1 952.43298 9.2197031e-39
-2049.04 3377.95 1044.67 9.2197031e-39
-2237.1899 3375.03 1086.96 9.2197031e-39
-4645.4302 1869.2 1419.23 9.2197031e-39
-4572.23 2023.29 1424.5601 9.2197031e-39
-5075.3599 1348.056 1442.63 9.2197031e-39
-5095.98 1386.0601 1452.72 9.2197031e-39
-5059.29 1469.209 1456.23 9.2197031e-39
-5029.8799 1515.5449 1456.15 9.2197031e-39
-5030.4302 1591.182 1467.04 9.2197031e-39
-5003.5801 2172.1099 1543.66 9.2197031e-39
-5048.6401 2209.8999 1559.27 9.2197031e-39
-5041.3799 2285.03 1568.3101 9.2197031e-39
-5064.29 2324.72 1579.17 9.2197031e-39
-5543.5801 2385.7 1696.64 9.2197031e-39
-5546.2598 2429.3999 1703.47 9.2197031e-39
-5551.9502 2509.8101 1716.21 9.2197031e-39
-5543.1602 2553.6802 1720.46 9.2197031e-39
-5541.6099 2634.1802 1731.5699 9.2197031e-39
-5532.0698 2677.8799 1735.63 9.2197031e-39
-4895.4102 3660.4099 1730.99 9.2197031e-39
-4897.1401 3702.02 1737.3101 9.2197031e-39
-5539.8599 2758.5601 1748.88 9.2197031e-39
-5536.3901 2802.3301 1754.33 9.2197031e-39
-5532.0698 2882.8501 1764.8101 9.2197031e-39
-5530.77 2926.72 1770.76 9.2197031e-39
-5533.8198 3007.76 1782.99 9.2197031e-39
-5519.1201 3050.8601 1785.79 9.2197031e-39
-5519.8101 3131.8999 1797.49 9.2197031e-39
-5522.7998 3176.29 1804.49 9.2197031e-39
-5518.2002 3257.1899 1814.96 9.2197031e-39
-5521.3901 3301.8301 1822.04 9.2197031e-39
-5510.54 3382.29 1831.03 9.2197031e-39
-5492.6899 3424.6299 1833.01 9.2197031e-39
-5462.1899 3502.3799 1837.15 9.2197031e-39
-5444.6099 3544.3701 1839.14 9.2197031e-39
-5440.7002 3625.45 1849.8 9.2197031e-39
-5410.9102 3665.3401 1848.71 9.2197031e-39
