# .PCD v0.7 - Point Cloud Data file format
VERSION 0.7
FIELDS x y z rgb
SIZE 4 4 4 4
TYPE F F F F
COUNT 1 1 1 1
WIDTH 327
HEIGHT 1
VIEWPOINT 0 0 0 1 0 0 0
POINTS 327
DATA ascii
2460 -530.84998 136.181 9.2197031e-39
887.69104 2157.8301 138.9055 9.2197031e-39
878.84155 2167.1851 139.698 9.2197031e-39
883.42554 2163.6301 139.11349 9.2197031e-39
-369.17999 4320.3501 139.30099 9.2197031e-39
-370.04999 4373.1299 132.40401 9.2197031e-39
2438.21 -531.81006 141.36099 9.2197031e-39
852.85205 2146.157 148.549 9.2197031e-39
847.81653 2154.8301 148.549 9.2197031e-39
855.72766 2155.6599 146.60458 9.2197031e-39
876.46985 2156.8999 141.6312 9.2197031e-39
839.76898 2164.02 149.17799 9.2197031e-39
842.78394 2165.0352 148.34325 9.2197031e-39
857.85999 2166.635 144.634 9.2197031e-39
863.49829 2166.7451 143.31274 9.2197031e-39
875.27747 2162.74 141.12149 9.2197031e-39
859.914 2175.3101 142.992 9.2197031e-39
862.93365 2173.7 142.50768 9.2197031e-39
726.49799 2398.4302 143.89799 9.2197031e-39
734.81073 2397.9375 142.03801 9.2197031e-39
740.45099 2398.1099 140.70799 9.2197031e-39
725.84052 2401.3501 143.65851 9.2197031e-39
733.841 2401.52 141.78101 9.2197031e-39
729.49048 2413.75 141.1445 9.2197031e-39
698.862 2422.8999 147.011 9.2197031e-39
724.10754 2425.5649 140.80251 9.2197031e-39
714.646 2436.54 141.51801 9.2197031e-39
674.302 2444.8 149.757 9.2197031e-39
711.35999 2445.48 141.077 9.2197031e-39
563.14301 2640.4199 149.205 9.2197031e-39
548.77301 2663.4399 149.439 9.2197031e-39
531.20001 2695.3201 149.224 9.2197031e-39
509.806 2729.26 149.617 9.2197031e-39
506.30099 2744.0801 148.436 9.2197031e-39
504.29199 2752.5 147.76801 9.2197031e-39
505.802 2760.95 146.282 9.2197031e-39
481.93201 2801.5901 146.347 9.2197031e-39
474.59698 2824.45 144.972 9.2197031e-39
430.78201 2897.3999 145.313 9.2197031e-39
239.679 3207.3501 147.91 9.2197031e-39
-375.80399 4255.5801 149.549 9.2197031e-39
-373.435 4300.3398 142.979 9.2197031e-39
2394.04 -565.55005 156.13499 9.2197031e-39
2417.8401 -568.44995 151.009 9.2197031e-39
839.98798 2133.1802 153.276 9.2197031e-39
839.59998 2157.04 150.157 9.2197031e-39
657.42999 2457.3599 151.978 9.2197031e-39
660.185 2452.95 151.93201 9.2197031e-39
633.35901 2473.74 155.35201 9.2197031e-39
595.10101 2505.6602 159.92599 9.2197031e-39
-17.4543 3622.1699 151.702 9.2197031e-39
-378.39401 4233.9502 153.058 9.2197031e-39
2359.79 -577.13 165.63 9.2197031e-39
541.021 2548.1401 166.744 9.2197031e-39
2295.04 -571.27002 179.847 9.2197031e-39
2337.53 -576.41003 170.69099 9.2197031e-39
476.09 2600.8999 174.69501 9.2197031e-39
2282.8701 -589.69995 185.147 9.2197031e-39
2263.9099 -631.31995 195.13901 9.2197031e-39
318.814 2726.29 194.276 9.2197031e-39
2388.6299 -934.10999 206.96201 9.2197031e-39
241.48599 2774.5 205.71201 9.2197031e-39
256.55701 2772.77 202.452 9.2197031e-39
218.53999 2787.1001 209.33501 9.2197031e-39
174.158 2787.1499 219.61301 9.2197031e-39
184.134 2785.73 217.492 9.2197031e-39
202.73 2782.5701 213.60699 9.2197031e-39
213.37601 2780.24 211.45399 9.2197031e-39
2405.3799 -1062.08 220.293 9.2197031e-39
2345.45 -985.07996 223.826 9.2197031e-39
149.562 2770.45 227.56 9.2197031e-39
153.91701 2773.4399 226.14799 9.2197031e-39
163.022 2778.0801 223.41499 9.2197031e-39
166.603 2781.54 222.118 9.2197031e-39
111.7065 2764.4248 237.1425 9.2197031e-39
135.04449 2766.2451 231.48999 9.2197031e-39
79.564201 2752.8 246.155 9.2197031e-39
92.813599 2755.97 242.658 9.2197031e-39
90.407501 2763.6399 242.18401 9.2197031e-39
35.430302 2754.8201 256.11099 9.2197031e-39
41.472401 2757.6799 254.326 9.2197031e-39
59.105701 2758.8899 250.077 9.2197031e-39
2801.73 -2097.25 267.681 9.2197031e-39
-11.294 2750.6399 267.50101 9.2197031e-39
4.7526698 2753.8701 263.34799 9.2197031e-39
16.003 2754.0801 260.71301 9.2197031e-39
-54.519501 2754.53 276.995 9.2197031e-39
-30.4683 2754.28 271.45499 9.2197031e-39
-101.625 2758.78 287.34 9.2197031e-39
-72.0839 2756.72 280.772 9.2197031e-39
-149.976 2761.9099 298.12399 9.2197031e-39
-127.33 2764.3 292.55499 9.2197031e-39
1039.46 -927.66003 518.755 9.2197031e-39
1075.1801 -925.09998 510.133 9.2197031e-39
1019.38 -918.42004 522.16602 9.2197031e-39
983.745 -921.32996 530.81403 9.2197031e-39
963.98999 -914.71997 534.50299 9.2197031e-39
908.85999 -914.98999 547.31598 9.2197031e-39
928.28802 -915 542.81598 9.2197031e-39
873.10999 -912.66003 555.28699 9.2197031e-39
853.73798 -918.25 560.52802 9.2197031e-39
-1491.4 2980.8401 579.53998 9.2197031e-39
817.70801 -1020.33 582.60797 9.2197031e-39
-1494.09 2966.1799 582.13702 9.2197031e-39
796.82599 -1112.73 599.87598 9.2197031e-39
651.55298 -922.17004 607.91101 9.2197031e-39
-727.90399 1379.689 617.97302 9.2197031e-39
-738.57001 1397.939 617.98999 9.2197031e-39
-735.89001 1412.689 615.38501 9.2197031e-39
-745.34601 1431.485 615.04797 9.2197031e-39
-751.71002 1441.036 615.23798 9.2197031e-39
-760.84698 1459.9871 614.80603 9.2197031e-39
-763.62402 1471.431 613.91101 9.2197031e-39
-775.00299 1489.182 614.15997 9.2197031e-39
-770.66602 1504.1111 611.14697 9.2197031e-39
-705.54797 1262.772 628.51801 9.2197031e-39
-704.84998 1277.401 626.38898 9.2197031e-39
-709.36102 1300.173 624.37097 9.2197031e-39
-709.164 1314.1641 622.44397 9.2197031e-39
-719.73401 1332.738 622.39502 9.2197031e-39
-718.44501 1347.176 620.15399 9.2197031e-39
-729.46899 1365.3311 620.26703 9.2197031e-39
-820.82703 1503.0129 622.91901 9.2197031e-39
-1689.15 2991.48 623.93597 9.2197031e-39
525.04901 -869.81995 630.18597 9.2197031e-39
-690.21002 1163.761 638.28101 9.2197031e-39
-695.466 1187.37 636.32397 9.2197031e-39
-696.18298 1201.645 634.57001 9.2197031e-39
-700.91901 1225.165 632.50403 9.2197031e-39
-699.742 1240.454 630.17499 9.2197031e-39
754.08002 -1354.62 642.31897 9.2197031e-39
-684.02502 1080.853 648 9.2197031e-39
-661.37701 1083.443 642.40302 9.2197031e-39
-687.37402 1107.098 645.24597 9.2197031e-39
-688.74103 1121.563 643.617 9.2197031e-39
-696.87799 1143.5591 642.54401 9.2197031e-39
574.12097 -1225.61 666.66901 9.2197031e-39
380.65701 -849.82996 660.95801 9.2197031e-39
364.12399 -828.82996 661.966 9.2197031e-39
-1069.0601 1585.645 669.33002 9.2197031e-39
-1067.35 1600.001 667.00299 9.2197031e-39
-1069.28 1624.3401 664.177 9.2197031e-39
-1063.64 1639.85 660.784 9.2197031e-39
-2082.99 3359.0801 665.76099 9.2197031e-39
-2075.22 3376.3899 661.633 9.2197031e-39
-2111.02 3427.3501 663.07501 9.2197031e-39
-2118.47 3450.8899 661.63599 9.2197031e-39
-2193.4299 3519.3899 669.79199 9.2197031e-39
607.59003 -1326.25 672.45001 9.2197031e-39
550.23297 -1255.84 676.27197 9.2197031e-39
327.97198 -830.04004 670.50702 9.2197031e-39
308.95801 -826.29004 674.40802 9.2197031e-39
-1046.14 1475.9829 678.76898 9.2197031e-39
-1076.16 1543.495 676.64502 9.2197031e-39
-1065.75 1561.5349 671.80603 9.2197031e-39
-2099.1799 3307.8101 676.41101 9.2197031e-39
-2096.3701 3326.8899 673.19202 9.2197031e-39
253.325 -824.67004 687.08301 9.2197031e-39
272.16901 -829.75 683.39899 9.2197031e-39
-1037.87 1412.51 685.39099 9.2197031e-39
-1050.01 1433.502 685.38098 9.2197031e-39
-1048.53 1448.619 683.00403 9.2197031e-39
-1081.59 1474.818 687.14099 9.2197031e-39
-2112.6201 3255.6101 686.54498 9.2197031e-39
-2117.6101 3277.22 684.79498 9.2197031e-39
-2414.5 3808.4099 682.14899 9.2197031e-39
399.259 -1147.92 696.742 9.2197031e-39
379.98801 -1131.8199 699.04303 9.2197031e-39
216.731 -825.52002 695.677 9.2197031e-39
201.41701 -802.72998 696.16101 9.2197031e-39
-1125.17 1482.905 696.15198 9.2197031e-39
-1132.22 1494.5491 696.22101 9.2197031e-39
-2146.47 3229.7 697.87402 9.2197031e-39
447.04501 -1266.79 701.65802 9.2197031e-39
148.55701 -786.65002 706.24799 9.2197031e-39
-2060.8799 3039.6399 703.60498 9.2197031e-39
-2069.6001 3076.8799 700.61603 9.2197031e-39
-2513.7 3809.3799 705.00598 9.2197031e-39
417.35699 -1335.33 717.75598 9.2197031e-39
-2103.8301 3031.4399 714.66101 9.2197031e-39
-2580.8201 3814.8101 719.83002 9.2197031e-39
-2142.1201 2986.0701 729.63599 9.2197031e-39
-2120.3201 3000.2 722.68402 9.2197031e-39
716.08398 -1970.1699 733.91998 9.2197031e-39
-2308.5901 3259.3101 731.46198 9.2197031e-39
668.07001 -1981.03 746.50702 9.2197031e-39
-2621.1001 3716.54 742.38397 9.2197031e-39
-2682.6699 3788 747.04102 9.2197031e-39
-2682.4199 3813.1699 743.59601 9.2197031e-39
642.06598 -1981.1399 752.54797 9.2197031e-39
-2222.3301 2968.28 750.61798 9.2197031e-39
70.571198 -1245.75 786.073 9.2197031e-39
447.41699 -1962.95 795.21002 9.2197031e-39
-132.87399 -1186.58 825.26099 9.2197031e-39
-35.129398 -1422.55 834.349 9.2197031e-39
-171.901 -1174.14 832.63202 9.2197031e-39
-193.08 -1167.1899 836.604 9.2197031e-39
-60.7449 -1428.8401 841.13098 9.2197031e-39
-101.969 -1415.22 848.85303 9.2197031e-39
-240.815 -1183.14 849.81299 9.2197031e-39
-126.545 -1416.27 854.68903 9.2197031e-39
-262.06 -1175.76 853.74298 9.2197031e-39
-167.105 -1400.01 861.90198 9.2197031e-39
-327.38501 -1169.89 868.09198 9.2197031e-39
-302.216 -1165.5601 861.67798 9.2197031e-39
-369.15701 -1163.55 876.91998 9.2197031e-39
-393.55701 -1164.61 882.71698 9.2197031e-39
-623.466 -1045.26 919.94299 9.2197031e-39
-647.104 -996 918.79602 9.2197031e-39
-655.159 -959.43005 915.74298 9.2197031e-39
-674.41199 -903.92004 912.73798 9.2197031e-39
-542.01398 -1254.21 929.17297 9.2197031e-39
-555.88098 -1224.88 928.44098 9.2197031e-39
-582.95898 -1176.73 928.23901 9.2197031e-39
-592.28699 -1138.26 925.22699 9.2197031e-39
-612.13098 -1076.48 921.51501 9.2197031e-39
-705.36798 -917.68005 921.763 9.2197031e-39
-2136.26 1498.835 928.323 9.2197031e-39
-2153.49 1531.303 927.948 9.2197031e-39
-2162.3899 1549.1641 927.60901 9.2197031e-39
-2185.7 1580.4709 928.79999 9.2197031e-39
-762.17902 -940.82996 938.04303 9.2197031e-39
-1100.95 -323.12598 933.46503 9.2197031e-39
-1113.08 -305.07703 933.84802 9.2197031e-39
-2216.98 1593.329 934.31799 9.2197031e-39
-791.177 -948.57996 945.80499 9.2197031e-39
-2265.4199 1619.874 941.97498 9.2197031e-39
-2302.27 1632.48 948.81897 9.2197031e-39
-844.63898 -961.65002 959.953 9.2197031e-39
-2236.21 1450.918 957.92999 9.2197031e-39
-1286.02 -240.34497 965.21802 9.2197031e-39
-1262.84 -244.98999 960.47101 9.2197031e-39
-2371.3799 1656.49 961.60303 9.2197031e-39
-567.02002 -1518.1599 970.47101 9.2197031e-39
-887.59497 -994.66003 974.34698 9.2197031e-39
-1253.8101 -427.62 982.94397 9.2197031e-39
-1297.4 -349.21698 982.5 9.2197031e-39
-2333.3501 1384.181 989.41901 9.2197031e-39
-2344.79 1359.021 995.45398 9.2197031e-39
-986.30402 -1088.83 1009.89 9.2197031e-39
-1001.06 -1065.66 1010.19 9.2197031e-39
-2355.46 1252.178 1012.3 9.2197031e-39
-2376.29 1286.5759 1012.5 9.2197031e-39
-2379.26 1307.9709 1010.31 9.2197031e-39
-1061.76 -1084.13 1026.74 9.2197031e-39
-2653.5601 1664.38 1025.9399 9.2197031e-39
-2670.5601 1725.83 1021.61 9.2197031e-39
-2691.8701 1745.11 1023.96 9.2197031e-39
-1103.66 -1108.9301 1039.79 9.2197031e-39
-1790.76 107.82397 1035.36 9.2197031e-39
-2682.8201 1681.91 1030.36 9.2197031e-39
-1784.2 31.97699 1044.04 9.2197031e-39
-1800.55 71.057983 1042.5699 9.2197031e-39
-2694.5601 1614.5291 1042.14 9.2197031e-39
-728.57098 -1880.3999 1056.63 9.2197031e-39
-1806.25 -16.690002 1055.6899 9.2197031e-39
-1841.22 -103.30701 1075.45 9.2197031e-39
-1849.72 -141.922 1082.61 9.2197031e-39
-1746.0699 -377.073 1090.22 9.2197031e-39
-1777.22 -347.08899 1093.41 9.2197031e-39
-1799.8101 -336.42902 1097.21 9.2197031e-39
-1676 -602.01001 1104.24 9.2197031e-39
-1843.67 -318.71002 1104.99 9.2197031e-39
-1859.26 -300.79303 1106.1899 9.2197031e-39
-1681.8199 -646.20996 1111.53 9.2197031e-39
-1726.92 -592.40002 1114.75 9.2197031e-39
-1788 -455.44995 1110.48 9.2197031e-39
-1901.5699 -280.82001 1113.3101 9.2197031e-39
-1909.85 -255.95398 1111.89 9.2197031e-39
-1308.51 -1371.64 1122.6 9.2197031e-39
-1764.21 -597.5 1124.08 9.2197031e-39
-1686.6899 -875.84998 1143.55 9.2197031e-39
-1686.5601 -952.48999 1153.83 9.2197031e-39
-2004.46 -793.12 1206.0601 9.2197031e-39
-1604.12 -1820.55 1251.48 9.2197031e-39
-1667.74 -1819.24 1266.05 9.2197031e-39
-1703.76 -1820.21 1274.53 9.2197031e-39
-1759.6 -1804.26 1285.3199 9.2197031e-39
-1798.99 -1809.3799 1295.14 9.2197031e-39
-1901.71 -1806.9399 1318.62 9.2197031e-39
-1864.59 -1806.8 1310 9.2197031e-39
-1968.36 -1803.6299 1333.62 9.2197031e-39
-1996.4 -1789.3 1338.1899 9.2197031e-39
-2066.77 -1789.28 1354.49 9.2197031e-39
-2104.4299 -1787.71 1363.01 9.2197031e-39
-5509.71 3647.48 1421.09 9.2197031e-39
-5506.3999 3531.1399 1435.97 9.2197031e-39
-5506.7402 3571.8701 1430.5699 9.2197031e-39
-5525.23 3460.03 1449.9 9.2197031e-39
-5539.6299 3422 1458.35 9.2197031e-39
-5565.2002 3311.03 1479.2 9.2197031e-39
-5559.1899 3350.6699 1472.48 9.2197031e-39
-5565.1401 3236.5 1489.21 9.2197031e-39
-5052.73 2287.02 1498.1801 9.2197031e-39
-5053.79 2323.8198 1493.47 9.2197031e-39
-5567.5601 3196.3799 1495.17 9.2197031e-39
-5563.0698 3081.25 1509.61 9.2197031e-39
-5557.4702 3120.8301 1502.99 9.2197031e-39
-5043.6499 2182.6899 1510.1 9.2197031e-39
-5083.3101 2218.9302 1514.42 9.2197031e-39
-2877.6201 -1696.3601 1529.9 9.2197031e-39
-5063.3101 2114.3901 1523.85 9.2197031e-39
-5572.1401 2968.05 1526.9399 9.2197031e-39
-5570.1299 3008.0701 1521.09 9.2197031e-39
-5070.71 2077.1299 1530.5699 9.2197031e-39
-5567.2402 2893.72 1535.8 9.2197031e-39
-5078.4199 1971.4301 1546.58 9.2197031e-39
-5072.6401 2008.89 1540.2 9.2197031e-39
-5571.4702 2853.98 1542.13 9.2197031e-39
-5082.0698 1902.76 1556.66 9.2197031e-39
-5575.6602 2740.48 1558.37 9.2197031e-39
-5575.04 2780.53 1552.84 9.2197031e-39
-5087.1899 1865.0699 1562.92 9.2197031e-39
-5576.02 2666.8398 1568.36 9.2197031e-39
-5093.1299 1758.28 1578.66 9.2197031e-39
-5083.8301 1796.59 1571.35 9.2197031e-39
-5577.8999 2626.8799 1574.17 9.2197031e-39
-5083.7402 1690.13 1585.65 9.2197031e-39
-5579.1602 2513.24 1589.74 9.2197031e-39
-5574.0698 2553.1001 1583.2 9.2197031e-39
-5084.6299 1652.4 1590.9301 9.2197031e-39
-5542.4102 2398.99 1596.6 9.2197031e-39
-5575.04 2439.53 1598.7 9.2197031e-39
-5091.6499 1544.3401 1607.09 9.2197031e-39
-5088.54 1582.5859 1601.23 9.2197031e-39
-5095.2798 1474.037 1617.39 9.2197031e-39
-5092.9102 1436.277 1621.92 9.2197031e-39
