# .PCD v0.7 - Point Cloud Data file format
VERSION 0.7
FIELDS x y z rgb
SIZE 4 4 4 4
TYPE F F F F
COUNT 1 1 1 1
WIDTH 315
HEIGHT 1
VIEWPOINT 0 0 0 1 0 0 0
POINTS 315
DATA ascii
2961.8201 -36.578003 136.05701 9.2197031e-39
623.0423 1755.4766 139.62599 9.2197031e-39
631.90295 1750.575 139.213 9.2197031e-39
621.01202 1763.6899 138.21899 9.2197031e-39
398.03198 1928.605 139.8175 9.2197031e-39
408.72534 1927.8301 138.22865 9.2197031e-39
425.26599 1924.42 136.2395 9.2197031e-39
399.04099 1930.41 139.269 9.2197031e-39
407.33951 1931.635 137.64951 9.2197031e-39
410.509 1930.13 137.448 9.2197031e-39
400.17099 1941.76 136.67799 9.2197031e-39
-1302.5 3246.8101 139.19299 9.2197031e-39
-1588.79 3501.1699 132.21201 9.2197031e-39
2965.46 -62.747986 141.007 9.2197031e-39
608.89502 1719.77 149.51401 9.2197031e-39
599.83301 1725.04 149.882 9.2197031e-39
608.99353 1723.8401 148.63449 9.2197031e-39
611.17999 1729.24 147.132 9.2197031e-39
595.78796 1734.5233 148.53467 9.2197031e-39
606.01825 1732.2375 147.3425 9.2197031e-39
588.72998 1740.58 148.408 9.2197031e-39
607.52917 1743.29 144.7516 9.2197031e-39
616.07477 1747.3401 142.49324 9.2197031e-39
624.47797 1744.7334 141.668 9.2197031e-39
631.68799 1740.84 141.311 9.2197031e-39
607.13098 1752.74 142.81476 9.2197031e-39
622.93402 1751.77 140.42999 9.2197031e-39
398.40399 1898.95 146.04201 9.2197031e-39
403.36301 1898.12 145.40401 9.2197031e-39
383.43167 1905.5034 147.10767 9.2197031e-39
390.80701 1907.66 145.44099 9.2197031e-39
380.6925 1911.925 146.196 9.2197031e-39
395.81146 1912.6686 143.55971 9.2197031e-39
404.0798 1916.252 141.44499 9.2197031e-39
395.65134 1926.2567 140.705 9.2197031e-39
-1311.52 3236.5 142.856 9.2197031e-39
-1369.1899 3247.6699 149.942 9.2197031e-39
2962.1799 -127.53003 155.274 9.2197031e-39
2966.9299 -107.40997 150.231 9.2197031e-39
602.91602 1707.72 153.048 9.2197031e-39
596.758 1723.49 150.714 9.2197031e-39
-1692.38 3464.6201 156.94 9.2197031e-39
2963.47 -197.85602 169.96899 9.2197031e-39
2963.3701 -173.14398 164.74699 9.2197031e-39
-1478.98 3258.99 165.54201 9.2197031e-39
-1471.47 3271.49 161.66 9.2197031e-39
2955.96 -237.31 179.563 9.2197031e-39
2956.23 -262.823 184.92599 9.2197031e-39
2952.97 -307.078 194.839 9.2197031e-39
2541.9199 -2.4199829 197.65199 9.2197031e-39
2954.1101 -334.11102 200.383 9.2197031e-39
2460.1599 11.703979 208.061 9.2197031e-39
2503.72 10.955994 201.078 9.2197031e-39
-780.55298 1475.735 429.01099 9.2197031e-39
-778.75098 1425.6531 439.32999 9.2197031e-39
-781.66498 1433.719 438.09799 9.2197031e-39
-792.48999 1446.854 437.08899 9.2197031e-39
-786.85999 1457.548 433.89899 9.2197031e-39
-807.60901 1476.866 433.20599 9.2197031e-39
-752.85901 1357.307 449.57101 9.2197031e-39
-756.19202 1365.231 448.43799 9.2197031e-39
-762.19202 1379.845 446.32501 9.2197031e-39
-765.38702 1387.821 445.15799 9.2197031e-39
-771.133 1402.527 442.983 9.2197031e-39
-774.18903 1410.552 441.78299 9.2197031e-39
-694.36499 1286.2949 455.034 9.2197031e-39
-727.15997 1297.9919 457.931 9.2197031e-39
-733.91803 1312.3101 456.004 9.2197031e-39
-737.52698 1320.1279 454.93799 9.2197031e-39
-744.03601 1334.552 452.948 9.2197031e-39
-746.60498 1342.791 451.62299 9.2197031e-39
1811.1899 -711.04004 467.63501 9.2197031e-39
-708.23901 1243.1479 466.453 9.2197031e-39
-698.28998 1257.645 461.74899 9.2197031e-39
-706.37903 1271.241 460.194 9.2197031e-39
-730.51001 1287.027 460.80399 9.2197031e-39
-1105.5699 1544.1699 467.78601 9.2197031e-39
-1101.91 1564.0029 462.983 9.2197031e-39
-1112.73 1572.5081 462.953 9.2197031e-39
1799.6801 -760.02002 479.901 9.2197031e-39
-703.258 1189.8511 476.93301 9.2197031e-39
-705.90698 1198.423 475.54999 9.2197031e-39
-707.755 1215.675 472.19699 9.2197031e-39
-710.22699 1224.239 470.78699 9.2197031e-39
-698.526 1134.564 487.87601 9.2197031e-39
-695.67401 1146.5869 484.85999 9.2197031e-39
-704.99597 1160.141 483.51501 9.2197031e-39
-702.75403 1171.592 480.72 9.2197031e-39
-694.79401 1087.323 497.27701 9.2197031e-39
-699.81 1103.9041 494.58401 9.2197031e-39
-695.57001 1117.077 491.09698 9.2197031e-39
1849.71 -905.08997 502.44699 9.2197031e-39
1788.9 -854.79004 501.755 9.2197031e-39
-690.39801 1027.682 509.19699 9.2197031e-39
-698.61298 1042.7781 507.34399 9.2197031e-39
-690.90601 1058.929 502.65701 9.2197031e-39
-696.29199 1075.552 500.017 9.2197031e-39
-3312.1899 3067.8601 506.57199 9.2197031e-39
-693.76099 1014.049 512.638 9.2197031e-39
-1374.47 1480.689 525.323 9.2197031e-39
-3382.23 3017.22 528.78802 9.2197031e-39
-3358.6101 3035.6001 521.01898 9.2197031e-39
1855.36 -1130.25 549.245 9.2197031e-39
1895.03 -1129.84 542.65399 9.2197031e-39
1855.75 -1180.38 559.80603 9.2197031e-39
1656.3101 -986.12 551.328 9.2197031e-39
1785.67 -1159.96 566.96503 9.2197031e-39
-1785.1 1621.22 562.84998 9.2197031e-39
1830.4399 -1214.92 571.276 9.2197031e-39
1675.4 -1130.65 578.83099 9.2197031e-39
1663.73 -1154.58 585.81702 9.2197031e-39
1574.85 -1070.45 582.55499 9.2197031e-39
-1895.54 1594.979 586.51801 9.2197031e-39
1811.45 -1320.65 596.79901 9.2197031e-39
1639.24 -1192.03 597.76703 9.2197031e-39
1535.49 -1121.08 599.73798 9.2197031e-39
1558.58 -1129.52 597.74103 9.2197031e-39
1499.09 -1122.6 606.02698 9.2197031e-39
1477.78 -1118.4399 608.638 9.2197031e-39
1401.92 -1053.2 607.24701 9.2197031e-39
1442.99 -1123.99 615.51801 9.2197031e-39
1298.1899 -1000.73 613.13 9.2197031e-39
1276.33 -988.56006 614.13397 9.2197031e-39
1239.0699 -975.59998 617.49402 9.2197031e-39
-2032.03 1551.001 618.21301 9.2197031e-39
1382.6899 -1109.16 622.26099 9.2197031e-39
1189.73 -986.78003 627.953 9.2197031e-39
1222.5699 -983.13 621.79602 9.2197031e-39
1169.38 -977.68005 629.35999 9.2197031e-39
1382.92 -1179.29 637.086 9.2197031e-39
1118.75 -981.87 638.54901 9.2197031e-39
1136.64 -980.72998 635.37299 9.2197031e-39
1085.99 -984.33997 644.44202 9.2197031e-39
1066.4399 -976.45996 645.97699 9.2197031e-39
1017.96 -990.48999 656.89697 9.2197031e-39
1035.51 -988.03003 653.49902 9.2197031e-39
-1140.98 677.08032 657.37097 9.2197031e-39
967.43597 -992.97998 665.70898 9.2197031e-39
985.17401 -991.81006 662.552 9.2197031e-39
-1133.65 620.6582 668.12903 9.2197031e-39
-1140.85 631.64349 666.97998 9.2197031e-39
-1141.16 661.04272 660.80103 9.2197031e-39
917.84601 -1001.41 675.625 9.2197031e-39
935.909 -1002.49 672.89203 9.2197031e-39
-1135.96 571.84698 678.85303 9.2197031e-39
-1131.92 591.66931 673.98901 9.2197031e-39
870.12 -1026.54 688.77399 9.2197031e-39
886.34802 -1012.3199 683.099 9.2197031e-39
843.31598 -1084.74 705.50403 9.2197031e-39
515.336 -841.94995 707.81097 9.2197031e-39
-2061.9299 1152.933 707.48602 9.2197031e-39
-2199.6499 1268.1121 705.65002 9.2197031e-39
-2195.1699 1286.6841 700.97998 9.2197031e-39
-2379.01 1387.832 709.67902 9.2197031e-39
-2124.45 1153.62 717.59003 9.2197031e-39
-2150.3701 1179.356 716.38501 9.2197031e-39
-2175.03 1190.936 717.97302 9.2197031e-39
-2191.1001 1219.751 714.49799 9.2197031e-39
-2204.1499 1234.5239 713.50702 9.2197031e-39
-5120.0801 3465.9399 718.56799 9.2197031e-39
666.83197 -1029.6 722.74799 9.2197031e-39
-2812.1101 1672 720.44702 9.2197031e-39
-5122.1001 3429.9199 726.53198 9.2197031e-39
371.091 -863.08997 735.93701 9.2197031e-39
340.293 -856.22998 739.53302 9.2197031e-39
-2544.47 1380.6179 738.33099 9.2197031e-39
291.681 -859.72998 748.24298 9.2197031e-39
323.42599 -854.47998 741.92603 9.2197031e-39
275.59799 -848.93994 748.59198 9.2197031e-39
-1321.79 393.754 747.06299 9.2197031e-39
-2612.1001 1406.5139 743.92999 9.2197031e-39
-3003.79 1683.14 749.50897 9.2197031e-39
-3010.8101 1722.66 742.28302 9.2197031e-39
-5131.2202 3329.04 749.40997 9.2197031e-39
-5122.1802 3362.97 740.73602 9.2197031e-39
226.87801 -851.30005 757.07898 9.2197031e-39
243.74699 -853.64001 754.81 9.2197031e-39
-2669.97 1418.314 750.91602 9.2197031e-39
-2738.3701 1446.5449 756.14502 9.2197031e-39
641.375 -1231.52 769.71802 9.2197031e-39
532.54999 -1138.97 767.94202 9.2197031e-39
194.593 -857.35999 763.65698 9.2197031e-39
148.968 -833.19995 766.01398 9.2197031e-39
133.911 -818.71997 765.414 9.2197031e-39
-3162.0601 1739.5601 763.495 9.2197031e-39
-3304.6201 1844.5601 764.61102 9.2197031e-39
-3312.3201 1867.96 760.91302 9.2197031e-39
-5128.1602 3261.74 763.172 9.2197031e-39
-3299.6299 1778.25 777.84601 9.2197031e-39
-5128.8501 3225.8701 770.888 9.2197031e-39
587.625 -1261.54 784.89301 9.2197031e-39
376.069 -1096.6899 784.63202 9.2197031e-39
-1008.89 -48.27301 789.45697 9.2197031e-39
-5134.2202 3161.0901 785.49902 9.2197031e-39
-5141.0498 3126.8 793.88599 9.2197031e-39
-5134.5801 3059.72 807.04401 9.2197031e-39
628.461 -1435.1101 814.98602 9.2197031e-39
-5140.7798 3025.3999 815.33197 9.2197031e-39
840.53497 -1633.3799 822.245 9.2197031e-39
402.21701 -1289.6801 821.25098 9.2197031e-39
-5142.8398 2960.51 829.42499 9.2197031e-39
455.75699 -1381.1801 831.867 9.2197031e-39
418.806 -1378.9301 837.44897 9.2197031e-39
-5138.6699 2924.29 836.41803 9.2197031e-39
784.56201 -1710.5601 847.77802 9.2197031e-39
135.125 -1184.22 842.68201 9.2197031e-39
-1002.53 -319.258 845.84998 9.2197031e-39
572.49402 -1585.1299 855.95801 9.2197031e-39
-5145.48 2825.3201 858.51099 9.2197031e-39
-5140.5298 2859.71 850.41101 9.2197031e-39
-5143.6699 2725.28 879.41901 9.2197031e-39
-5147.1802 2760.9299 872.43701 9.2197031e-39
-1118.24 -426.48999 887.54602 9.2197031e-39
919.289 -2017.73 890.79797 9.2197031e-39
849.67902 -2003.0701 899.10199 9.2197031e-39
-128.74899 -1206.62 890.68903 9.2197031e-39
-182.755 -1192.05 896.45398 9.2197031e-39
-145.782 -1192.4399 890.47498 9.2197031e-39
-201.80499 -1187.03 898.513 9.2197031e-39
-1374.52 -256.13098 893.45099 9.2197031e-39
-5150.1001 2661.8301 893.92102 9.2197031e-39
779.01501 -1962.75 902.14001 9.2197031e-39
-238.88499 -1185.98 904.36798 9.2197031e-39
-257.66501 -1179.6801 906.11102 9.2197031e-39
-1776.1 10.807007 902.70502 9.2197031e-39
-5144.9902 2626.1401 900.646 9.2197031e-39
737.34003 -1997.1399 916.26202 9.2197031e-39
-296.60699 -1184.51 913.52002 9.2197031e-39
-351.32901 -1170.79 919.58301 9.2197031e-39
-314.07199 -1173.1899 913.98297 9.2197031e-39
-667.98102 -907.88 915.76801 9.2197031e-39
-4609.27 2138.6699 916.146 9.2197031e-39
-5153.23 2563.03 915.37402 9.2197031e-39
-22.078899 -1466.72 928.33002 9.2197031e-39
1.11334 -1455.3201 922.11102 9.2197031e-39
-372.21399 -1171.26 923.10498 9.2197031e-39
-409.617 -1168.16 928.58002 9.2197031e-39
-641.263 -985.29004 927.79498 9.2197031e-39
-649.01501 -953.42004 922.30902 9.2197031e-39
-697.44702 -927.43005 924.73999 9.2197031e-39
-4597.04 2106.76 920.90302 9.2197031e-39
-5146.5 2527.3501 921.83502 9.2197031e-39
-61.516499 -1466.75 934.80103 9.2197031e-39
-81.720703 -1459.53 936.58398 9.2197031e-39
-435.88599 -1184.88 936.42902 9.2197031e-39
-612.90997 -1064.5 939.935 9.2197031e-39
-619.43201 -1027.1899 933.09601 9.2197031e-39
-747.19397 -951.21997 937.93799 9.2197031e-39
-5142.79 2462.99 934.86603 9.2197031e-39
-119.549 -1450.28 940.823 9.2197031e-39
-140.575 -1447.49 943.67902 9.2197031e-39
-592.76703 -1114.46 947.22302 9.2197031e-39
-774.59302 -963.89001 945.11499 9.2197031e-39
-1866.26 -107.63599 942.58899 9.2197031e-39
-5154.1401 2429.4102 943.84497 9.2197031e-39
466.168 -1986.3899 958.43701 9.2197031e-39
-587.19397 -1157.29 955.38599 9.2197031e-39
-826.302 -988.21997 958.74799 9.2197031e-39
-842.52197 -975.82996 958.78198 9.2197031e-39
-1702.87 -287.18597 953.86102 9.2197031e-39
-1709.58 -266.44397 950.56403 9.2197031e-39
-1777.1801 -252.90399 958.77502 9.2197031e-39
-1751.51 -256.18799 955.26501 9.2197031e-39
-1883.3 -147.33502 953.797 9.2197031e-39
-4677.6499 2020.6899 952.362 9.2197031e-39
-5112.7202 2327.3398 958.68903 9.2197031e-39
-5149.2998 2365.0898 956.68402 9.2197031e-39
-556.65698 -1244.6801 968.90302 9.2197031e-39
-566.00598 -1209.08 962.88898 9.2197031e-39
-887.33899 -983.44995 967.74402 9.2197031e-39
-1705 -339.979 965.39899 9.2197031e-39
-1837.29 -257.698 969.646 9.2197031e-39
-1854.48 -245.99402 969.98297 9.2197031e-39
-913.09003 -989.70996 973.29199 9.2197031e-39
-1707.99 -371.06 972.47699 9.2197031e-39
-1907.05 -242.34399 977.828 9.2197031e-39
-4686.5898 1930.8 972.88098 9.2197031e-39
-5107.71 2263.6802 971.36102 9.2197031e-39
-967.45801 -1013.45 987.23602 9.2197031e-39
-1629.58 -508.83997 988.82397 9.2197031e-39
-1702.0699 -446.81995 987.565 9.2197031e-39
-1701.22 -416.83997 981.06897 9.2197031e-39
-1935.27 -239.55499 981.862 9.2197031e-39
-5117.8599 2229.97 980.16803 9.2197031e-39
-996.854 -1025.05 994.513 9.2197031e-39
-1050.54 -1044.04 1007.34 9.2197031e-39
-5034.0498 2065.8799 1001.21 9.2197031e-39
-1081.92 -1057.45 1015.33 9.2197031e-39
-1730.4399 -561.96997 1016.62 9.2197031e-39
-1755.17 -557.47998 1019.72 9.2197031e-39
-595.37598 -1479.23 1024.96 9.2197031e-39
-4792.0498 1780.5601 1022.01 9.2197031e-39
-5060.2998 1970.24 1025.78 9.2197031e-39
-1174.96 -1098.61 1039.3 9.2197031e-39
-1142.87 -1086.02 1031.37 9.2197031e-39
-1682.4399 -688.91003 1035.66 9.2197031e-39
-1686.52 -661.07996 1030.4301 9.2197031e-39
-1700.54 -771.21997 1056.0699 9.2197031e-39
-1702.34 -807.52002 1064.0601 9.2197031e-39
-1703.99 -873.73999 1078.37 9.2197031e-39
-1714.05 -989.43005 1104.53 9.2197031e-39
-713.79901 -1909.3301 1135.54 9.2197031e-39
-1392.85 -1388.39 1136.4399 9.2197031e-39
-1688.52 -1834.0601 1279.37 9.2197031e-39
-1745.52 -1830.6001 1287.98 9.2197031e-39
-1770.36 -1818.3601 1289.46 9.2197031e-39
-1865.0699 -1820.3999 1305.42 9.2197031e-39
-1832.84 -1821.8601 1300.4399 9.2197031e-39
-1927.61 -1821.6699 1315.9399 9.2197031e-39
-1959.5601 -1818.6599 1320.54 9.2197031e-39
-2013.28 -1805.02 1326.45 9.2197031e-39
-2138.8401 -1792.3 1344.34 9.2197031e-39
-2277.6001 -1751.6299 1358.47 9.2197031e-39
-2222.4199 -1815.6799 1363 9.2197031e-39
-2249.8101 -1803.46 1364.9 9.2197031e-39
