# .PCD v0.7 - Point Cloud Data file format
VERSION 0.7
FIELDS x y z rgb
SIZE 4 4 4 4
TYPE F F F F
COUNT 1 1 1 1
WIDTH 310
HEIGHT 1
VIEWPOINT 0 0 0 1 0 0 0
POINTS 310
DATA ascii
3006.51 405.436 136.04201 9.2197031e-39
605.29901 1587.821 139.50999 9.2197031e-39
596.0517 1593.8033 139.18132 9.2197031e-39
602.09198 1591.9719 138.899 9.2197031e-39
340.20599 1719.16 139.7 9.2197031e-39
370.45999 1717.6899 136.437 9.2197031e-39
338.069 1725.3 138.483 9.2197031e-39
341.70865 1721.5767 138.94167 9.2197031e-39
352.33481 1724.554 136.95799 9.2197031e-39
-2134.51 2985.24 131.88499 9.2197031e-39
3003.3701 353.33499 148.912 9.2197031e-39
3010.79 385.08801 140.41 9.2197031e-39
567.82367 1567.941 148.75768 9.2197031e-39
577.76971 1562.6458 148.8385 9.2197031e-39
585.09674 1565.5466 147.26714 9.2197031e-39
561.82501 1573.7361 148.08501 9.2197031e-39
582.6615 1576.229 144.99649 9.2197031e-39
600.77399 1578.5 142.287 9.2197031e-39
550.65997 1586.459 146.368 9.2197031e-39
577.0705 1584.0635 143.78549 9.2197031e-39
583.25464 1584.3861 142.96916 9.2197031e-39
596.15021 1585.1053 141.25545 9.2197031e-39
328.83801 1695.52 146.729 9.2197031e-39
337.44083 1694.5033 145.94417 9.2197031e-39
336.05136 1700.9033 144.57501 9.2197031e-39
345.61417 1705.335 142.36967 9.2197031e-39
350.51999 1703.78 142.157 9.2197031e-39
335.19601 1719.89 140.125 9.2197031e-39
345.08023 1711.8475 140.87149 9.2197031e-39
328.01801 1720.33 140.87801 9.2197031e-39
-2134.6201 2930.54 145.01601 9.2197031e-39
-2132.77 2948.1499 140.571 9.2197031e-39
3003.6899 334.69501 153.343 9.2197031e-39
300.55899 1693.53 150.58701 9.2197031e-39
-2146.3 2882.04 158.043 9.2197031e-39
-2159.29 2906.4099 153.75 9.2197031e-39
3004.3101 279.36899 166.537 9.2197031e-39
3003.52 298.617 162.01601 9.2197031e-39
-2146.74 2846.98 166.50301 9.2197031e-39
3004.5901 223.17499 179.98 9.2197031e-39
3005.0901 242.069 175.38901 9.2197031e-39
-2157.04 2833.48 170.972 9.2197031e-39
3004.54 185.617 188.993 9.2197031e-39
3003.6201 166.60501 193.661 9.2197031e-39
3002.25 109.15799 207.60201 9.2197031e-39
3002.74 128.806 202.83099 9.2197031e-39
3000.52 71.125977 216.929 9.2197031e-39
-1678 1911.08 334.91299 9.2197031e-39
-756.62646 1404.66 346.22601 9.2197031e-39
-768.1015 1424.7505 342.77951 9.2197031e-39
-1092.6899 1558.821 349.42599 9.2197031e-39
-1691.79 1875.25 345.15302 9.2197031e-39
-1690.88 1887.85 342.02301 9.2197031e-39
-733.74298 1346.385 357.465 9.2197031e-39
-747.42798 1357.782 356.36801 9.2197031e-39
-739.95801 1367.373 353.17499 9.2197031e-39
-751.52698 1379.452 351.66101 9.2197031e-39
-753.48401 1386.675 350.16299 9.2197031e-39
-1105.4399 1530.453 357.75299 9.2197031e-39
-1101.59 1548.88 352.87299 9.2197031e-39
-1706.92 1839.14 355.62201 9.2197031e-39
-1703.25 1851.59 352.198 9.2197031e-39
-677.34198 1273.092 368.29999 9.2197031e-39
-720.57098 1296.793 367.784 9.2197031e-39
-723.02502 1303.8511 366.384 9.2197031e-39
-725.77802 1318.141 363.28699 9.2197031e-39
-728.10303 1325.225 361.866 9.2197031e-39
-740.08801 1336.9241 360.49301 9.2197031e-39
-926.55402 1414.308 364.224 9.2197031e-39
-1728.35 1802.95 366.86301 9.2197031e-39
-1722.92 1815.45 363.216 9.2197031e-39
-689.737 1237.854 378.23199 9.2197031e-39
-680.55298 1249.1121 374.435 9.2197031e-39
-680.26898 1264.342 370.74899 9.2197031e-39
-719.638 1273.947 373.151 9.2197031e-39
-713.81799 1283.74 370.10699 9.2197031e-39
-1745.17 1765.87 377.76501 9.2197031e-39
-1741.95 1778.66 374.31299 9.2197031e-39
-697.26001 1195.6221 389.259 9.2197031e-39
-703.16803 1209.1079 386.73099 9.2197031e-39
-706.15002 1216.0811 385.41599 9.2197031e-39
-1315.22 1501.0869 389.87 9.2197031e-39
-1769.25 1741.49 386.48801 9.2197031e-39
1832.88 -70.143982 390.37601 9.2197031e-39
-691.97699 1165.325 395.89301 9.2197031e-39
-696.12598 1171.8569 394.823 9.2197031e-39
-694.15399 1188.697 390.54901 9.2197031e-39
-1781.1801 1728.71 390.979 9.2197031e-39
-680.98102 1104.1279 409.255 9.2197031e-39
-687.96198 1117.4661 406.89001 9.2197031e-39
-691.49799 1124.368 405.65799 9.2197031e-39
-692.80499 1144.5076 400.9845 9.2197031e-39
-684.55499 1067.832 418.38599 9.2197031e-39
-678.81598 1079.614 414.875 9.2197031e-39
-684.33197 1093.807 412.13 9.2197031e-39
-662.67902 1035.929 423.422 9.2197031e-39
-684.203 1041.6489 424.62299 9.2197031e-39
-681.302 1052.2209 421.741 9.2197031e-39
-746.18903 979.77301 446.871 9.2197031e-39
-1500.0699 1321.1951 455.10501 9.2197031e-39
-2267.6399 1709.8 453.66101 9.2197031e-39
-1650.89 1319.495 473.54199 9.2197031e-39
-1732.38 1319.3521 483.31601 9.2197031e-39
2184.3999 -742.84998 509.67999 9.2197031e-39
2130.3301 -695.32996 504.74799 9.2197031e-39
2077.25 -675.30005 506.29001 9.2197031e-39
2042.8101 -653.69995 505.22501 9.2197031e-39
1998.47 -643.89001 508.17401 9.2197031e-39
-1938.53 1314.6951 509.07401 9.2197031e-39
-1931.26 1330.22 504.48199 9.2197031e-39
-1950.61 1355.6641 500.69299 9.2197031e-39
-1997.0601 1364.3721 504.15701 9.2197031e-39
1933.76 -660.54004 519.901 9.2197031e-39
1950.8101 -657.46997 517.12598 9.2197031e-39
1984.65 -652.29004 511.84 9.2197031e-39
-2129.1499 1378.046 516.66602 9.2197031e-39
2478.28 -963.31006 527.422 9.2197031e-39
2439.99 -944.23999 527.42499 9.2197031e-39
1888.58 -677.08997 529.271 9.2197031e-39
1904.62 -672.64001 526.28601 9.2197031e-39
-2194.3 1386.55 522.414 9.2197031e-39
2386.4399 -965.59998 538.94897 9.2197031e-39
2405.6001 -959.71997 535.24902 9.2197031e-39
1863.78 -696.33997 536.84998 9.2197031e-39
1828.3 -729.68005 549.08698 9.2197031e-39
1849.63 -703.93994 540.36603 9.2197031e-39
1813.9301 -737.06995 552.57703 9.2197031e-39
1784.85 -783.63 567.21899 9.2197031e-39
1791.54 -761.62 561.14099 9.2197031e-39
-1147.23 635.73273 577.31097 9.2197031e-39
-1151.27 646.9472 575.10602 9.2197031e-39
-1163.75 665.76868 572.08398 9.2197031e-39
-1235.7 676.98608 577.99298 9.2197031e-39
-1169.26 676.02252 570.28302 9.2197031e-39
-1155.33 589.2619 589.42401 9.2197031e-39
-1133.59 617.6228 580.02399 9.2197031e-39
-1247.85 655.97827 584.48401 9.2197031e-39
-3375.6899 1702.4399 587.87299 9.2197031e-39
-816.38898 306.69699 616.67297 9.2197031e-39
-804.55798 302.48099 616.27002 9.2197031e-39
-856.12799 314.57101 619.534 9.2197031e-39
-842.24597 312.14899 618.45599 9.2197031e-39
-893.09302 309.71799 625.117 9.2197031e-39
-1002.3 351.78799 628.08099 9.2197031e-39
-996.67297 372.832 622.362 9.2197031e-39
1930.6801 -1135.3101 634.12402 9.2197031e-39
-833.75201 237.65201 635.30603 9.2197031e-39
-944.49799 275.90601 639.37 9.2197031e-39
-851.46198 200.366 646.36401 9.2197031e-39
-1145.0601 342.41101 647.39398 9.2197031e-39
-1227.89 373.655 649.802 9.2197031e-39
-1240.48 395.763 646.005 9.2197031e-39
-1246.12 407.73199 643.80902 9.2197031e-39
-1300.26 416.20502 648.24902 9.2197031e-39
-1274.9 418.10199 644.76202 9.2197031e-39
-856.71399 158.84201 656.95001 9.2197031e-39
-1215.86 334.36899 657.78601 9.2197031e-39
-1222.79 361.15302 652.19098 9.2197031e-39
1602.2 -1101.95 665.38599 9.2197031e-39
-867.03302 128.23599 665.52301 9.2197031e-39
-1098.05 232.76001 668.07001 9.2197031e-39
-1140.51 279.98199 661.82202 9.2197031e-39
-1221.11 313.39099 663.44397 9.2197031e-39
1649.13 -1169.62 676.00702 9.2197031e-39
1561.9301 -1142.3101 679.88 9.2197031e-39
1578.8 -1136.4399 676.45697 9.2197031e-39
1422.62 -1060.52 676.91699 9.2197031e-39
1300.84 -1007.66 678.79498 9.2197031e-39
1463.4301 -1125.01 687.505 9.2197031e-39
1498.99 -1122.96 682.76099 9.2197031e-39
1517.8 -1122.98 680.51898 9.2197031e-39
1399.04 -1095.26 688.06598 9.2197031e-39
1268.97 -1013.98 684.12299 9.2197031e-39
1249.55 -1006.76 684.711 9.2197031e-39
-1254.91 234.897 686.30701 9.2197031e-39
1349.13 -1106.38 696.69897 9.2197031e-39
1383.01 -1101.96 691.59003 9.2197031e-39
1151.24 -1016.4301 698.78302 9.2197031e-39
1169.11 -1019.58 697.401 9.2197031e-39
1200.27 -1011.5601 691.75299 9.2197031e-39
1219.26 -1018.17 691.06897 9.2197031e-39
-925.57898 22.041992 697.987 9.2197031e-39
-1136.48 124.98901 698.50897 9.2197031e-39
-1127.77 151.995 690.99103 9.2197031e-39
1101.54 -1017.59 704.99902 9.2197031e-39
1117.74 -1014.38 702.29401 9.2197031e-39
-1274.35 183.54001 700.948 9.2197031e-39
2131.9099 -1571.8701 714.763 9.2197031e-39
1003.64 -1023.02 718.00598 9.2197031e-39
1019.88 -1020.38 715.43103 9.2197031e-39
1052.78 -1021.6899 711.81201 9.2197031e-39
1070.6801 -1026.42 710.80603 9.2197031e-39
-1214.51 107.59399 712.00702 9.2197031e-39
-1582.6899 271.37701 716.73901 9.2197031e-39
955.08002 -1026.39 724.61603 9.2197031e-39
971.17999 -1023.0699 721.896 9.2197031e-39
-1593.0699 245.92999 724.08197 9.2197031e-39
859.30701 -1040.26 739.39001 9.2197031e-39
924.07703 -1034.55 730.27899 9.2197031e-39
874.27899 -1028.79 734.85199 9.2197031e-39
905.909 -1025.05 730.172 9.2197031e-39
532.48401 -851.88 733.28003 9.2197031e-39
676.45099 -973.85999 745.32501 9.2197031e-39
658.927 -952.16003 742.21399 9.2197031e-39
336.811 -851.84998 756.66199 9.2197031e-39
352.19 -852.08997 754.88202 9.2197031e-39
382.09601 -850.31006 750.87903 9.2197031e-39
307.07401 -849.23999 759.59198 9.2197031e-39
217.01401 -840.27002 768.20398 9.2197031e-39
246.67999 -843.89001 765.526 9.2197031e-39
262.061 -844.66003 763.87201 9.2197031e-39
291.76099 -847.77002 761.06897 9.2197031e-39
127.751 -824.38 775.065 9.2197031e-39
-4649.1499 1536.739 779.82599 9.2197031e-39
520.00098 -1051.12 782.55298 9.2197031e-39
392.74301 -991.07996 783.367 9.2197031e-39
-1153.4301 -269.14801 795.05298 9.2197031e-39
-1014.19 -388.52002 807.03601 9.2197031e-39
-5122.9199 1652.77 808.63 9.2197031e-39
2252.1201 -2070.46 819.96198 9.2197031e-39
2333.03 -2072.3999 810.755 9.2197031e-39
2303.6799 -2068.29 813.276 9.2197031e-39
-4839.8398 1471.468 818.27197 9.2197031e-39
-5128.73 1620.12 817.15601 9.2197031e-39
2222.6001 -2064.8799 822.15002 9.2197031e-39
2167.7 -2057.9299 827.04602 9.2197031e-39
647.51703 -1301.28 827.302 9.2197031e-39
2142.53 -2060.75 830.73102 9.2197031e-39
2091.22 -2059.95 836.67401 9.2197031e-39
2056.8999 -2040.52 836.11603 9.2197031e-39
174.349 -1084.04 831.76398 9.2197031e-39
-5126.9502 1556.772 832.133 9.2197031e-39
470.349 -1348.55 859.81403 9.2197031e-39
416.48999 -1346.4399 865.74597 9.2197031e-39
435.02802 -1332.6801 860.23102 9.2197031e-39
-5137.8398 1427.407 864.45898 9.2197031e-39
639.96301 -1511.78 878.68597 9.2197031e-39
783.29498 -1624.8501 888.66803 9.2197031e-39
116.418 -1285.4301 886.98401 9.2197031e-39
101.549 -1258.74 882.35901 9.2197031e-39
-5148.7002 1330.098 889.09198 9.2197031e-39
-5160.5098 1362.408 882.75598 9.2197031e-39
584.30499 -1545.54 893.435 9.2197031e-39
-135.17101 -1183.8199 892.68903 9.2197031e-39
-150.47701 -1170.27 891.26801 9.2197031e-39
-203.633 -1167.0601 896.85303 9.2197031e-39
-184.746 -1164.87 894.06897 9.2197031e-39
-657.55798 -940.73999 896.83698 9.2197031e-39
-668.86902 -923.04004 893.94501 9.2197031e-39
-699.698 -909.06006 894.27698 9.2197031e-39
-292.759 -1161.87 906.26099 9.2197031e-39
-257.64999 -1165.71 902.98499 9.2197031e-39
-238.882 -1164.8 900.52301 9.2197031e-39
-308.23099 -1150.33 905.34399 9.2197031e-39
-625.41699 -997.67004 906.64801 9.2197031e-39
-636.88599 -979.18005 903.58398 9.2197031e-39
-735.479 -944.64001 907.086 9.2197031e-39
35.411701 -1343.36 910.55902 9.2197031e-39
-400.70599 -1152.15 916.83398 9.2197031e-39
-347.07501 -1158.89 912.03998 9.2197031e-39
-416.784 -1142.8199 916.51898 9.2197031e-39
-361.58801 -1144.3 910.27399 9.2197031e-39
-605.43298 -1040.4301 914.51398 9.2197031e-39
-779.94598 -957.77002 915.54901 9.2197031e-39
-574.565 -1107.79 926.97699 9.2197031e-39
-597.28198 -1068.73 920.32501 9.2197031e-39
-803.69098 -965.58997 920.26202 9.2197031e-39
-857.72601 -954.83997 924.14398 9.2197031e-39
-835.487 -950.93005 920.54797 9.2197031e-39
-541.97699 -1175.88 939.40997 9.2197031e-39
-563.59497 -1130.64 931.14502 9.2197031e-39
-915.013 -988.31995 939.021 9.2197031e-39
-38.210602 -1452.3101 945.48602 9.2197031e-39
-19.1731 -1455.79 944.04498 9.2197031e-39
-75.447304 -1447.1499 948.698 9.2197031e-39
-145.35001 -1407.79 947.617 9.2197031e-39
-533.51801 -1207.77 946.047 9.2197031e-39
-939.97803 -995.92004 943.82599 9.2197031e-39
949.56897 -2002.04 959.24799 9.2197031e-39
923.71997 -1974.0601 955.62701 9.2197031e-39
-133.306 -1446.0901 955.36102 9.2197031e-39
-94.616699 -1444.29 950.30499 9.2197031e-39
-514.75897 -1265.72 957.70099 9.2197031e-39
-1015.25 -1018.88 958.33002 9.2197031e-39
-988.44702 -1009.34 952.83899 9.2197031e-39
860.16302 -1991.9199 967.50598 9.2197031e-39
883.04999 -1997.04 965.99902 9.2197031e-39
794.79602 -1994.1201 975.84802 9.2197031e-39
617.315 -1901.45 974.83899 9.2197031e-39
-1103.47 -1060.1 978.75897 9.2197031e-39
-1070.3101 -1041.2 970.26501 9.2197031e-39
-1161.25 -1083.48 991.27301 9.2197031e-39
490.151 -1983.1201 1009.62 9.2197031e-39
-557.11298 -1453.5601 1007.81 9.2197031e-39
-1196.6899 -1104.02 1000.43 9.2197031e-39
-1702.5699 -984.70996 1032.29 9.2197031e-39
-1915.9399 -1280.97 1128.84 9.2197031e-39
-1725.92 -1834.8899 1238.96 9.2197031e-39
-1693.55 -1831 1234.16 9.2197031e-39
-1805.0601 -1819.1599 1244.65 9.2197031e-39
-1774.5601 -1819.1699 1241.01 9.2197031e-39
-1894.72 -1816.99 1254.85 9.2197031e-39
-1865.05 -1819.29 1251.85 9.2197031e-39
-1950.21 -1808.6399 1259.48 9.2197031e-39
-1995.13 -1827.01 1269.25 9.2197031e-39
-2080.1001 -1812.04 1275.8199 9.2197031e-39
-2142.6899 -1809.5901 1282.71 9.2197031e-39
-2161.8401 -1790.6201 1280.45 9.2197031e-39
-2219.9399 -1780.79 1285.04 9.2197031e-39
-2250.8799 -1776.5801 1287.73 9.2197031e-39
