# .PCD v0.7 - Point Cloud Data file format
VERSION 0.7
FIELDS x y z rgb
SIZE 4 4 4 4
TYPE F F F F
COUNT 1 1 1 1
WIDTH 320
HEIGHT 1
VIEWPOINT 0 0 0 1 0 0 0
POINTS 320
DATA ascii
3057.6499 967.15302 139.929 9.2197031e-39
3036.3 990.64404 135.01199 9.2197031e-39
623.29169 1507.1852 138.79366 9.2197031e-39
631.88501 1506.408 138.502 9.2197031e-39
348.45901 1565.418 139.381 9.2197031e-39
352.81223 1566.4363 138.86374 9.2197031e-39
364.811 1568.626 137.60001 9.2197031e-39
372.01599 1569.953 136.838 9.2197031e-39
355.26001 1572.7855 137.06149 9.2197031e-39
362.23401 1572.241 136.802 9.2197031e-39
373.431 1572.817 136.007 9.2197031e-39
-5134.5298 2801.1101 131.756 9.2197031e-39
3064.3601 938.87701 146.942 9.2197031e-39
615.55249 1468.2615 149.425 9.2197031e-39
624.06366 1468.6437 148.83501 9.2197031e-39
631.97498 1463.719 149.668 9.2197031e-39
603.18201 1476.609 147.953 9.2197031e-39
626.53033 1474.3778 147.19234 9.2197031e-39
631.46802 1479.5339 145.55901 9.2197031e-39
592.31299 1482.0759 147.14799 9.2197031e-39
619.28302 1482.449 145.49699 9.2197031e-39
624.65649 1486.2794 144.18549 9.2197031e-39
616.10645 1491.9036 143.20599 9.2197031e-39
622.73651 1494.416 142.16724 9.2197031e-39
636.89948 1495.1713 141.15367 9.2197031e-39
647.797 1492.224 141.298 9.2197031e-39
321.07001 1537.553 148.25 9.2197031e-39
334.30399 1535.877 147.927 9.2197031e-39
345.23749 1536.8145 147.052 9.2197031e-39
351.104 1534.329 147.36401 9.2197031e-39
339.677 1541.874 146.048 9.2197031e-39
346.99048 1544.2051 145.017 9.2197031e-39
356.289 1547.1599 143.70801 9.2197031e-39
363.18201 1549.063 142.813 9.2197031e-39
347.129 1558.877 141.16901 9.2197031e-39
352.43002 1555.0363 141.869 9.2197031e-39
361.58002 1552.933 141.89301 9.2197031e-39
337.24701 1562.004 140.92 9.2197031e-39
348.29401 1562.876 140.056 9.2197031e-39
353.16501 1560.084 140.506 9.2197031e-39
-1848.8101 2031.7 143.89101 9.2197031e-39
-5127.98 2741.46 146.99001 9.2197031e-39
3055.5 895.23596 158.873 9.2197031e-39
3059.01 921.23804 151.866 9.2197031e-39
623.10199 1463.385 150.26601 9.2197031e-39
-1865.3199 1993.6899 154.789 9.2197031e-39
-1820.01 2002.01 150.00301 9.2197031e-39
3062.3899 874.35498 163.94 9.2197031e-39
92.355202 1520.697 165.832 9.2197031e-39
3059.0901 828.823 176.04601 9.2197031e-39
3064.1499 846.68799 171.07899 9.2197031e-39
3055.8799 782.93103 188.24001 9.2197031e-39
3061.29 800.77002 183.25999 9.2197031e-39
3057.55 754.75903 195.51601 9.2197031e-39
-5142.8398 2547.21 198.67799 9.2197031e-39
3049.1201 709.92358 207.73399 9.2197031e-39
3051.8 736.95203 200.507 9.2197031e-39
-4704.8599 2432.6201 203.44299 9.2197031e-39
-663.763 1269.261 275.17099 9.2197031e-39
-683.52802 1285.756 271.99301 9.2197031e-39
-653.40302 1280.408 271.65799 9.2197031e-39
-847.38702 1296.666 278.57401 9.2197031e-39
-855.27399 1305.0491 276.83401 9.2197031e-39
-859.00201 1318.355 273.56699 9.2197031e-39
-984.34003 1322.635 279.66501 9.2197031e-39
-887.36401 1323.504 273.853 9.2197031e-39
-678.99597 1222.464 288.29501 9.2197031e-39
-666.23499 1234.933 284.297 9.2197031e-39
-698.05798 1248.1541 282.67001 9.2197031e-39
-677.38599 1244.5339 282.427 9.2197031e-39
-877.26001 1266.5811 288.16699 9.2197031e-39
-870.72998 1278.0129 284.79901 9.2197031e-39
-674.27899 1179.958 299.146 9.2197031e-39
-672.41803 1189.688 296.49301 9.2197031e-39
-676.77148 1205.79 292.53052 9.2197031e-39
-909.88202 1245.061 295.677 9.2197031e-39
-1153.58 1308.265 293.17099 9.2197031e-39
-1216.5 1316.401 294.66501 9.2197031e-39
-672.99103 1144.9 308.246 9.2197031e-39
-668.02399 1159.762 304.07101 9.2197031e-39
-672.92999 1167.363 302.36499 9.2197031e-39
-661.599 1103.522 318.41901 9.2197031e-39
-640.62299 1102.2729 317.53799 9.2197031e-39
-667.38202 1114.769 315.80801 9.2197031e-39
-664.237 1125.38 312.85001 9.2197031e-39
-668.86298 1136.9971 310.077 9.2197031e-39
-907.58099 980.19702 364.85599 9.2197031e-39
-1069.25 901.27698 394.81799 9.2197031e-39
2474.99 1.9639893 426.06 9.2197031e-39
-1206.29 809.55298 426.71301 9.2197031e-39
-1212.87 821.19897 424.04501 9.2197031e-39
2413.9199 -35.885986 439.48199 9.2197031e-39
2438.78 -23.942017 434.92499 9.2197031e-39
2460.3601 -18.557983 432.27301 9.2197031e-39
-1208.37 773.255 436.332 9.2197031e-39
-1216.12 784.50098 433.83499 9.2197031e-39
-1211.4399 735.79401 446.311 9.2197031e-39
-1209.62 751.64502 442.05899 9.2197031e-39
2137.49 -30.476013 453.98499 9.2197031e-39
2082.1599 -8.1760254 451.33499 9.2197031e-39
-1202.55 681.81293 459.92599 9.2197031e-39
-1212.79 698.41528 456.17099 9.2197031e-39
-1210.4399 714.85138 451.73401 9.2197031e-39
2544.2 -168.57599 466.703 9.2197031e-39
-1127.01 632.4881 468.483 9.2197031e-39
-1140.88 640.1593 467.27499 9.2197031e-39
2514.1499 -203.12299 477.474 9.2197031e-39
2533.75 -194.97198 474.21201 9.2197031e-39
-1131.4399 607.89148 475.17499 9.2197031e-39
-1211.26 623.68188 475.63901 9.2197031e-39
2479.78 -233.84003 487.491 9.2197031e-39
2497.29 -224.06702 483.92599 9.2197031e-39
2436.9399 -256.47601 495.88199 9.2197031e-39
2453.8201 -246.40802 492.276 9.2197031e-39
2424.48 -281.47498 503.142 9.2197031e-39
-841.02301 339.814 528.604 9.2197031e-39
-825.33002 336.28601 528.62402 9.2197031e-39
-864.19702 344.26401 528.77399 9.2197031e-39
-791.56702 342.414 525.07599 9.2197031e-39
-873.315 353.96399 526.76099 9.2197031e-39
-1327.58 476.53198 520.84601 9.2197031e-39
-961.164 347.48499 533.51501 9.2197031e-39
-930.94397 347.396 531.79797 9.2197031e-39
-911.36798 346.19199 530.98602 9.2197031e-39
-1083.49 355.67801 538.41498 9.2197031e-39
-1055.71 358.828 535.99103 9.2197031e-39
-1028.15 354.78601 535.46198 9.2197031e-39
-1009.83 351.32199 535.31299 9.2197031e-39
-971.02502 357.246 531.52802 9.2197031e-39
-1161.62 367.72699 539.76202 9.2197031e-39
-1134.52 361.54999 539.81702 9.2197031e-39
-1120.7 353.522 541.12201 9.2197031e-39
-1323.77 364.87399 549.84601 9.2197031e-39
-1344.78 377.901 547.646 9.2197031e-39
-1282.74 373.16498 545.31299 9.2197031e-39
-1421.96 394.323 547.79303 9.2197031e-39
-1363.61 411.10199 540.04199 9.2197031e-39
-1625.83 445.76801 546.07098 9.2197031e-39
-1582.4301 441.306 544.73901 9.2197031e-39
2555.6201 -504.07996 553.84198 9.2197031e-39
-1301.63 333.92599 556.66901 9.2197031e-39
-1380.3199 374.25 550.64801 9.2197031e-39
2562.5 -553.03003 566.25598 9.2197031e-39
-777.37299 173.216 568.53497 9.2197031e-39
-786.70898 191.814 564.20599 9.2197031e-39
-886.81 206.20099 566.20599 9.2197031e-39
-872.41998 200.505 566.86798 9.2197031e-39
-843.43298 201.31299 564.987 9.2197031e-39
-824.99597 200.172 564.224 9.2197031e-39
-796.95697 200.992 562.39398 9.2197031e-39
-894.091 226.94 561.198 9.2197031e-39
-1274.13 306.73401 562.20099 9.2197031e-39
2566.21 -587.12 574.96301 9.2197031e-39
-771.513 159.134 571.883 9.2197031e-39
-750.05798 153.67001 572.07703 9.2197031e-39
-747.211 105.85303 584.427 9.2197031e-39
-759.39398 122.15302 580.86298 9.2197031e-39
-757.034 72.528992 593.71301 9.2197031e-39
-1431.4 225.58401 592.49402 9.2197031e-39
2656.6699 -726.39001 606.19897 9.2197031e-39
2077.0701 -613.19995 609.95697 9.2197031e-39
2008.24 -596.33997 609.50702 9.2197031e-39
-750.18402 26.296021 605.41699 9.2197031e-39
-755.44702 42.723022 601.42102 9.2197031e-39
2639.1699 -740.46997 610.89203 9.2197031e-39
2175.4299 -666.12 618.14099 9.2197031e-39
2110.5801 -626.07996 611.39697 9.2197031e-39
2046.92 -618 612.94702 9.2197031e-39
1961.97 -609.58997 615.64001 9.2197031e-39
1984.02 -608.43994 614.06799 9.2197031e-39
2539.49 -790.93994 629.83801 9.2197031e-39
2619.25 -799.21997 627.414 9.2197031e-39
2565.8501 -787.19995 627.34302 9.2197031e-39
2630.5 -778 621.21301 9.2197031e-39
1873.49 -640.02002 628.69702 9.2197031e-39
1894.41 -638.02002 626.97101 9.2197031e-39
1916.73 -623.57996 621.90503 9.2197031e-39
1937.65 -621.19995 620.07898 9.2197031e-39
2487.95 -813.17004 638.62402 9.2197031e-39
2500.21 -793.42004 632.75098 9.2197031e-39
1839.2 -670.78003 638.72302 9.2197031e-39
1857.66 -664.92004 636.12701 9.2197031e-39
2463.1699 -832.41003 645.08698 9.2197031e-39
1824.8199 -698.83997 646.89398 9.2197031e-39
2432.0601 -879.32996 659.15698 9.2197031e-39
2448.02 -848.91003 650.27698 9.2197031e-39
1816 -721.41003 653.30798 9.2197031e-39
2421.98 -902.63 665.83502 9.2197031e-39
2411.8301 -941.54004 676.59998 9.2197031e-39
1823.5 -789.5 670.69397 9.2197031e-39
1872.84 -918.43005 701.59302 9.2197031e-39
-982.55402 -395.59003 729.20001 9.2197031e-39
1590.48 -1016.05 743.39697 9.2197031e-39
1438.05 -1030.1899 755.875 9.2197031e-39
1406.34 -1026.1 756.63202 9.2197031e-39
1456.85 -1022.9 752.88599 9.2197031e-39
1486.65 -1020.9399 750.65698 9.2197031e-39
1344.9301 -995.08997 752.05103 9.2197031e-39
537.92102 -821.42004 753.07703 9.2197031e-39
1286.05 -1033.1899 765.414 9.2197031e-39
1306.6801 -1032.53 764.05402 9.2197031e-39
1335.61 -1030.33 761.81201 9.2197031e-39
1183.3199 -1021.2 768.19202 9.2197031e-39
1154.05 -1018.99 769.29797 9.2197031e-39
1202.42 -1016.61 765.89099 9.2197031e-39
1250.88 -1013.38 762.255 9.2197031e-39
1229.41 -1009.89 762.57703 9.2197031e-39
672.21802 -904.93994 767.20099 9.2197031e-39
391.83499 -820.30005 761.19702 9.2197031e-39
262.85199 -818.46997 768.14502 9.2197031e-39
281.358 -811.64001 765.29401 9.2197031e-39
306.366 -814.03003 764.47803 9.2197031e-39
324.03699 -815.56006 763.862 9.2197031e-39
349.078 -817.53003 762.93298 9.2197031e-39
366.76901 -818.76001 762.23798 9.2197031e-39
238.746 -807.01001 766.534 9.2197031e-39
136.532 -790.93994 768.21503 9.2197031e-39
1106.9 -1025.24 773.65002 9.2197031e-39
1134.23 -1020.4 770.81 9.2197031e-39
1008.3 -1014.35 776.47699 9.2197031e-39
1036.3 -1014.3 774.85199 9.2197031e-39
1084.27 -1014 772.01099 9.2197031e-39
939.16602 -1002.83 777.44397 9.2197031e-39
986.841 -1005.1801 775.31299 9.2197031e-39
1055.16 -1009.79 772.586 9.2197031e-39
890.521 -991.97998 777.40503 9.2197031e-39
958.16101 -999.94995 775.59601 9.2197031e-39
219.55 -818.31006 770.59698 9.2197031e-39
1689.5601 -1193.3 784.07599 9.2197031e-39
1417.92 -1121.54 780.94 9.2197031e-39
912.22601 -1006.6801 780.00299 9.2197031e-39
405.65201 -924.63 787.703 9.2197031e-39
146.89 -842.41003 781.08801 9.2197031e-39
2095.3999 -1441.28 825.59998 9.2197031e-39
2125.9299 -1445.8501 825.03699 9.2197031e-39
892.42102 -1196.02 830.69098 9.2197031e-39
719.75403 -1169.95 833.81299 9.2197031e-39
-690.27502 -891.5 842.14203 9.2197031e-39
-712.03003 -889.79004 842.948 9.2197031e-39
574.08899 -1232.4301 858.552 9.2197031e-39
673.90198 -1222.84 850.29401 9.2197031e-39
424.797 -1185.84 854.95599 9.2197031e-39
-662.06201 -946.95996 855.03101 9.2197031e-39
-761.64502 -923.88 854.72601 9.2197031e-39
-674.57898 -925.38 850.10602 9.2197031e-39
626.18701 -1274.96 866.68103 9.2197031e-39
-632.22302 -1002.22 867.77502 9.2197031e-39
-647.37903 -985.15002 864.18103 9.2197031e-39
-827.297 -940.88 862.95502 9.2197031e-39
-793.12799 -939.65002 860.66699 9.2197031e-39
-843.68799 -927.01001 860.27002 9.2197031e-39
473.461 -1264.75 872.80402 9.2197031e-39
-119.865 -1142.47 874.96997 9.2197031e-39
-99.690399 -1147.01 874.99799 9.2197031e-39
-247.758 -1120.2 876.508 9.2197031e-39
-196.877 -1123.75 874.508 9.2197031e-39
-167.07899 -1125.28 873.19202 9.2197031e-39
-145.44299 -1123.58 871.50098 9.2197031e-39
-216.136 -1115.73 873.51801 9.2197031e-39
-346.89801 -1101.17 877.237 9.2197031e-39
-317.85599 -1107.04 877.10101 9.2197031e-39
-295.15201 -1103.71 874.922 9.2197031e-39
-266.14401 -1109.05 874.65002 9.2197031e-39
-418.33301 -1090.14 878.46399 9.2197031e-39
-397.88901 -1094.9399 878.54303 9.2197031e-39
-367.952 -1098.5699 877.77002 9.2197031e-39
-617.62799 -1043 877.60498 9.2197031e-39
-922.31897 -963.18005 874.263 9.2197031e-39
-894.914 -958.07996 871.35199 9.2197031e-39
138.076 -1253.96 889.29401 9.2197031e-39
118.556 -1240.54 886.90601 9.2197031e-39
-607.89001 -1074.1899 885.20697 9.2197031e-39
-996.29901 -986.55005 884.64099 9.2197031e-39
-968.435 -982.13 881.87701 9.2197031e-39
441.85501 -1358.7 899.20898 9.2197031e-39
-592.37201 -1115.84 895.21301 9.2197031e-39
-1080.2 -1022.22 898.80402 9.2197031e-39
-1049.78 -1015.21 895.21997 9.2197031e-39
-558.19598 -1171.52 907.81598 9.2197031e-39
-536.375 -1175.52 907.60602 9.2197031e-39
-584.90698 -1155.11 905.05902 9.2197031e-39
-1135.38 -1050.39 909.354 9.2197031e-39
-497.25699 -1222.42 917.625 9.2197031e-39
-515.69299 -1208.73 915.10498 9.2197031e-39
-1169 -1060.6801 913.98297 9.2197031e-39
-44.789501 -1400.6801 938.21899 9.2197031e-39
-13.0023 -1403.5 937.12701 9.2197031e-39
8.9469299 -1408.27 937.11102 9.2197031e-39
-66.851097 -1396.49 938.39203 9.2197031e-39
-118.043 -1376.27 936.04901 9.2197031e-39
-99.196899 -1395.97 940.11798 9.2197031e-39
816.36603 -1646.72 953.01501 9.2197031e-39
-1283.2 -1176 950.73798 9.2197031e-39
2367.6499 -2040.49 966.72601 9.2197031e-39
2332.1001 -2035.6499 967.50897 9.2197031e-39
2282.6101 -2029.45 968.73499 9.2197031e-39
2173.6799 -2031.6201 975.57599 9.2197031e-39
2253.04 -2035.3101 971.97198 9.2197031e-39
2094.55 -2025.46 978.52002 9.2197031e-39
2204.8101 -2029.8999 973.33197 9.2197031e-39
2121.8301 -2016.3501 974.56598 9.2197031e-39
938.25897 -1964.49 1029.15 9.2197031e-39
974.00299 -1950.8601 1023.53 9.2197031e-39
873.91901 -1960.8601 1031.91 9.2197031e-39
912.07202 -1967.1001 1031.34 9.2197031e-39
810.06897 -1959.02 1035.1 9.2197031e-39
493.48001 -1902.6699 1038.59 9.2197031e-39
617.81799 -1898.6299 1030.37 9.2197031e-39
682.83197 -1952.0801 1040.61 9.2197031e-39
530.27002 -1936.9199 1045.4301 9.2197031e-39
-1770.76 -1790.26 1139.5601 9.2197031e-39
-1723.21 -1795.3 1138.14 9.2197031e-39
-1946.05 -1784.98 1148.27 9.2197031e-39
-1890.52 -1781.9199 1144.27 9.2197031e-39
-1857.51 -1787.8 1143.91 9.2197031e-39
-1806.89 -1789.9099 1141.55 9.2197031e-39
-1983.88 -1784.5801 1150.34 9.2197031e-39
-2069.78 -1774.3101 1152.6 9.2197031e-39
-2119.01 -1765.73 1153.1899 9.2197031e-39
-2175.5601 -1786.4299 1161.87 9.2197031e-39
