# .PCD v0.7 - Point Cloud Data file format
VERSION 0.7
FIELDS x y z rgb
SIZE 4 4 4 4
TYPE F F F F
COUNT 1 1 1 1
WIDTH 321
HEIGHT 1
VIEWPOINT 0 0 0 1 0 0 0
POINTS 321
DATA ascii
3076.47 1184.9819 139.825 9.2197031e-39
3078.98 1204.959 134.42999 9.2197031e-39
655.42297 1477.613 139.77299 9.2197031e-39
662.84003 1478.1489 139.392 9.2197031e-39
648.05902 1480.933 139.12601 9.2197031e-39
652.79498 1483.182 138.37601 9.2197031e-39
660.28003 1480.186 138.93201 9.2197031e-39
375.40601 1513.1405 139.319 9.2197031e-39
381.875 1519.579 137.399 9.2197031e-39
369.01901 1523.821 136.683 9.2197031e-39
385.29663 1522.1276 136.61067 9.2197031e-39
-4952.04 2180.0801 133.082 9.2197031e-39
3073.3501 1161.8469 146.08 9.2197031e-39
629.97803 1449.9351 147.953 9.2197031e-39
645.25635 1447.0624 148.22667 9.2197031e-39
654.88733 1445.2437 148.401 9.2197031e-39
629.65802 1451.302 147.60001 9.2197031e-39
631.99799 1451.3201 147.52 9.2197031e-39
649.31897 1456.7762 145.51175 9.2197031e-39
652.19904 1452.2539 146.62199 9.2197031e-39
645.7887 1466.2452 143.10616 9.2197031e-39
654.34399 1466.1996 142.84367 9.2197031e-39
667.86566 1467.2847 142.12067 9.2197031e-39
672.92297 1469.8989 141.26199 9.2197031e-39
657.263 1473.3821 140.839 9.2197031e-39
663.74902 1474.0601 140.45 9.2197031e-39
371.323 1485.8879 146.7 9.2197031e-39
368.10699 1491.739 145.24699 9.2197031e-39
375.34448 1496.978 143.62076 9.2197031e-39
381.5 1496.259 143.614 9.2197031e-39
310.35199 1503.937 143.858 9.2197031e-39
325.422 1503.2781 143.549 9.2197031e-39
360.05399 1509.458 140.79201 9.2197031e-39
376.34052 1505.9304 141.207 9.2197031e-39
382.52701 1503.875 141.55499 9.2197031e-39
393.604 1503.438 141.315 9.2197031e-39
111.022 1513.2571 147.783 9.2197031e-39
359.987 1510.897 140.411 9.2197031e-39
-38.909599 1526.78 149.004 9.2197031e-39
-22.9559 1521.557 149.88 9.2197031e-39
-4286.0298 2055.1299 144.92101 9.2197031e-39
3073.8501 1117.766 157.78999 9.2197031e-39
3068.49 1142.208 151.46001 9.2197031e-39
646.88501 1437.6405 150.68051 9.2197031e-39
209.998 1463.9829 157.711 9.2197031e-39
-6.9579902 1517.28 150.504 9.2197031e-39
-4337.8101 2022.58 155.243 9.2197031e-39
3075.51 1073.2319 169.58299 9.2197031e-39
3070.6101 1097.838 163.19501 9.2197031e-39
110.074 1440.0601 167.285 9.2197031e-39
144.76601 1449.525 163.653 9.2197031e-39
-4507.3799 1994.33 168.20799 9.2197031e-39
3071.8999 1053.295 175.00301 9.2197031e-39
75.027695 1425.428 172.3035 9.2197031e-39
-4522.8301 1956.11 178.87199 9.2197031e-39
3073.3401 1008.4 186.899 9.2197031e-39
3067.5 1030.218 181.283 9.2197031e-39
11.0439 1403.75 180.12601 9.2197031e-39
3064.1599 965.44202 198.62199 9.2197031e-39
3068.5 985.315 193.196 9.2197031e-39
-4523.5 1910.21 191.103 9.2197031e-39
3067.6799 940.46497 205.153 9.2197031e-39
-220.72301 1345.5029 203.06799 9.2197031e-39
-4525.29 1870.74 201.658 9.2197031e-39
-635.68597 1240.344 244.375 9.2197031e-39
-663.94 1112.546 279.28 9.2197031e-39
-667.888 1123.311 276.543 9.2197031e-39
-765.65002 1139.0759 275.48999 9.2197031e-39
-666.47998 1134.147 273.61499 9.2197031e-39
-706.65997 1144.162 272.242 9.2197031e-39
-676.86102 1142.86 271.63101 9.2197031e-39
-664.20099 1101.9771 282.099 9.2197031e-39
-837.71997 1129.538 280.34299 9.2197031e-39
-704.883 1075.0959 290.55701 9.2197031e-39
-1217.48 1070.17 308.33801 9.2197031e-39
-1094.76 1072.256 303.84 9.2197031e-39
-1177.79 1094.578 300.57001 9.2197031e-39
-866.82898 1004.332 314.58499 9.2197031e-39
-1203.34 1056.985 311.39099 9.2197031e-39
-1006.43 936.81897 337.03 9.2197031e-39
-1196.55 849.03503 366.491 9.2197031e-39
-1219.8101 805.46698 378.828 9.2197031e-39
-1205.54 827.21698 372.58401 9.2197031e-39
-1214.67 772.61902 387.401 9.2197031e-39
-1212.71 789.69 382.797 9.2197031e-39
-1214.29 737.284 396.789 9.2197031e-39
-1214.51 753.69702 392.42999 9.2197031e-39
-1220.34 698.3584 407.33801 9.2197031e-39
-1219.13 715.75769 402.67001 9.2197031e-39
-1203.72 649.81482 419.71701 9.2197031e-39
-1221.05 661.16443 417.255 9.2197031e-39
-1220.23 678.70959 412.561 9.2197031e-39
-1134.5 611.87549 427.58499 9.2197031e-39
-1137.14 593.15472 432.64999 9.2197031e-39
-1191.25 601.32971 432.21399 9.2197031e-39
2151.98 144.96701 446.19101 9.2197031e-39
-1152.02 564.43799 440.767 9.2197031e-39
3023.3 -86.041016 479.64499 9.2197031e-39
2473.04 -13.10199 477.923 9.2197031e-39
2495.49 -1.4790039 474.10999 9.2197031e-39
2517.46 6.7509766 471.215 9.2197031e-39
3023.6599 -118.85101 488.362 9.2197031e-39
2443.8899 -44.380005 487.17999 9.2197031e-39
2455.6799 -24.523987 481.51901 9.2197031e-39
3019.1799 -144.30499 495.27701 9.2197031e-39
2424.04 -53.606018 490.272 9.2197031e-39
-1636.3 410.69702 497.22601 9.2197031e-39
-1566.67 421.90198 492.00699 9.2197031e-39
3020.4299 -178.448 504.319 9.2197031e-39
-1198.87 329.78601 504.694 9.2197031e-39
-1253.89 336.75299 504.60901 9.2197031e-39
-1155.76 339.51999 500.71899 9.2197031e-39
3022.7 -209.08899 512.39697 9.2197031e-39
2483.75 -160.40503 516.76398 9.2197031e-39
-1283.83 295.80899 516.46198 9.2197031e-39
-1314.09 321.20901 510.67801 9.2197031e-39
3014.95 -267.552 528.19897 9.2197031e-39
3015.8101 -238.41101 520.41901 9.2197031e-39
2868.8201 -224.77197 521.51398 9.2197031e-39
-1221.48 247.539 527.29901 9.2197031e-39
-1501.08 296.961 523.13599 9.2197031e-39
-1576.01 300.69501 524.55103 9.2197031e-39
3013.78 -301.63 537.30103 9.2197031e-39
2494.23 -229.06403 534.69202 9.2197031e-39
2512.3501 -216.92902 530.88098 9.2197031e-39
-930.159 181.827 535.41901 9.2197031e-39
-1218.46 202.76901 539.112 9.2197031e-39
-1229.5 216.47601 535.82001 9.2197031e-39
2445.55 -279.28101 549.61401 9.2197031e-39
2465.6299 -264.54999 545.04999 9.2197031e-39
2483.26 -252.04102 541.15601 9.2197031e-39
-1571.3199 227.909 543.76202 9.2197031e-39
-1624.26 245.953 540.66302 9.2197031e-39
2427.74 -291.44501 553.422 9.2197031e-39
-1577.33 173.51099 558.42603 9.2197031e-39
2420.24 -318.117 560.75897 9.2197031e-39
-778.04102 40.070007 568.24103 9.2197031e-39
-786.52197 58.546997 563.59802 9.2197031e-39
-953.815 61.142029 568.28302 9.2197031e-39
-929.771 61.369995 567.45001 9.2197031e-39
-897.724 66.383972 565.08698 9.2197031e-39
-878.69 62.314026 565.55798 9.2197031e-39
-849.67499 65.245972 563.84497 9.2197031e-39
-830.10101 62.382019 563.97803 9.2197031e-39
-796.77502 71.059998 560.599 9.2197031e-39
-1175.79 89.546997 567.85901 9.2197031e-39
-1645.55 158.08099 564.72198 9.2197031e-39
-758.591 9.2659912 575.81 9.2197031e-39
-775.789 18.06897 574.021 9.2197031e-39
-1047.61 49.978027 574.26703 9.2197031e-39
-1103.15 50.562988 575.896 9.2197031e-39
-1009.12 58.713989 570.70599 9.2197031e-39
-985.53699 57.627014 570.23798 9.2197031e-39
-1171.4399 65.84198 574.026 9.2197031e-39
-1119.12 60.127014 573.86499 9.2197031e-39
-759.617 -17.252014 582.89801 9.2197031e-39
-1171.72 41.625 580.47699 9.2197031e-39
2556.51 -481.31995 599.79401 9.2197031e-39
-765.177 -80.604004 599.92902 9.2197031e-39
-763.74597 -52.291992 592.35101 9.2197031e-39
2535.8301 -498.15002 604.935 9.2197031e-39
2555.0701 -550.23999 618.17401 9.2197031e-39
-776.71399 -126.73401 612.57098 9.2197031e-39
2570.76 -605.29004 632.315 9.2197031e-39
1973.86 -636.84998 659.88898 9.2197031e-39
2061.29 -638.69995 657.573 9.2197031e-39
1995.66 -625.34998 656.13 9.2197031e-39
2666.6101 -740.34998 665.16302 9.2197031e-39
2147.1299 -676.47998 664.86499 9.2197031e-39
1906.3 -655.12 666.91901 9.2197031e-39
1929.12 -651.73999 665.28699 9.2197031e-39
2098.21 -652.90002 660.16302 9.2197031e-39
1953.75 -644.73999 662.63501 9.2197031e-39
2035.95 -645.98999 660.32703 9.2197031e-39
2639.2 -790.43005 679.36603 9.2197031e-39
2583.27 -772.06995 676.28003 9.2197031e-39
2547.8701 -769.56995 676.75201 9.2197031e-39
2648.1799 -763.14001 671.81702 9.2197031e-39
1849.92 -696.54004 679.75098 9.2197031e-39
1867.1 -677.89001 674.23602 9.2197031e-39
1887.9 -671.56995 671.888 9.2197031e-39
2507.25 -803.88 687.185 9.2197031e-39
2523.21 -784.70996 681.57202 9.2197031e-39
1832.46 -708.41003 683.46899 9.2197031e-39
2469.75 -842.06006 698.54401 9.2197031e-39
2491.79 -829.90002 694.60199 9.2197031e-39
1820.74 -736.97998 691.44501 9.2197031e-39
-970.68701 -404.93005 692.80701 9.2197031e-39
2450.0601 -863.26001 704.81799 9.2197031e-39
1814.49 -769.04004 700.17401 9.2197031e-39
-966.633 -437.87 701.44098 9.2197031e-39
2435.75 -885.03003 711.06799 9.2197031e-39
1844.66 -921.53003 739.771 9.2197031e-39
1851.63 -887.31995 730.44702 9.2197031e-39
2511.8999 -1028.96 746.909 9.2197031e-39
2423.3401 -1005.4301 743.495 9.2197031e-39
1834.38 -958.26001 749.87097 9.2197031e-39
512.12299 -867.23999 768.14502 9.2197031e-39
340.85501 -850.93994 769.31299 9.2197031e-39
360.65799 -852.42004 769.06799 9.2197031e-39
383.63 -853.93005 768.73199 9.2197031e-39
531.96399 -852.88 763.68597 9.2197031e-39
232.614 -840.15002 769.91803 9.2197031e-39
255.48199 -842.81995 769.89398 9.2197031e-39
275.22501 -844.95996 769.828 9.2197031e-39
298.13501 -847.23999 769.70001 9.2197031e-39
317.91101 -849.05005 769.54498 9.2197031e-39
129.011 -819.52002 767.76099 9.2197031e-39
142.53 -860.81006 778.31097 9.2197031e-39
210.793 -853.95996 774.29401 9.2197031e-39
1450.4399 -1062.64 789.97601 9.2197031e-39
1532.09 -1065.3101 788.06 9.2197031e-39
1498.09 -1050.54 785.224 9.2197031e-39
1578.39 -1048.1801 782.01801 9.2197031e-39
1215.59 -1031.52 789.24298 9.2197031e-39
1239.45 -1035.51 789.53601 9.2197031e-39
1266 -1035.59 788.70398 9.2197031e-39
1340.41 -1039.97 787.479 9.2197031e-39
1417.9399 -1038.49 784.59302 9.2197031e-39
665.52197 -939.76001 782.50598 9.2197031e-39
1297.92 -1065.16 795.54602 9.2197031e-39
1323.42 -1060.05 793.36499 9.2197031e-39
1074.79 -1051.77 799.15399 9.2197031e-39
977.14801 -1041.53 799.56702 9.2197031e-39
1024.87 -1042.33 798.24701 9.2197031e-39
1047.97 -1047.01 798.74799 9.2197031e-39
1095.99 -1046.5699 797.08801 9.2197031e-39
1120.97 -1042.37 795.16803 9.2197031e-39
928.216 -1031.3 798.41699 9.2197031e-39
950.76099 -1035.83 798.89697 9.2197031e-39
998.48102 -1038.04 797.95203 9.2197031e-39
1141.38 -1033.98 792.28101 9.2197031e-39
1167.45 -1034.0699 791.466 9.2197031e-39
1189.9399 -1033.78 790.66602 9.2197031e-39
880.87097 -1027.87 799.026 9.2197031e-39
1392.35 -1114.7 805.68903 9.2197031e-39
1411.11 -1098.76 800.84698 9.2197031e-39
903.54303 -1034.7 800.11499 9.2197031e-39
395.755 -1013.3199 810.742 9.2197031e-39
700.09497 -1093.83 822.38202 9.2197031e-39
-710.112 -944.10999 827.867 9.2197031e-39
-758.995 -931.25 826.01398 9.2197031e-39
-722.34601 -917.84998 821.27301 9.2197031e-39
1693.8101 -1262.47 835.31201 9.2197031e-39
-807.77698 -974.09998 838.98199 9.2197031e-39
-835.20599 -967.73999 838.172 9.2197031e-39
-691.64502 -966.66003 833.27002 9.2197031e-39
-660.79102 -1017.8101 845.88702 9.2197031e-39
-679.95801 -995.44995 840.55298 9.2197031e-39
-900.659 -980.44995 843.65503 9.2197031e-39
-866.388 -975.57996 841.258 9.2197031e-39
414.11899 -1172.84 852.58899 9.2197031e-39
-627.677 -1066.92 857.88501 9.2197031e-39
-647.125 -1043.87 852.37903 9.2197031e-39
-1016.63 -1027.22 859.82397 9.2197031e-39
-976.40198 -1007.5601 853.29999 9.2197031e-39
-940.56403 -1001.87 850.63501 9.2197031e-39
886.49103 -1259.22 860.38702 9.2197031e-39
-108.173 -1170.8101 868.83002 9.2197031e-39
-157.136 -1161.3101 867.87598 9.2197031e-39
-131.108 -1167.52 868.69202 9.2197031e-39
-282.14301 -1151.1 869.17603 9.2197031e-39
-206.976 -1154.71 867.72101 9.2197031e-39
-180.272 -1158.5699 867.89001 9.2197031e-39
-307.15601 -1140.75 867.22601 9.2197031e-39
-257.06699 -1148.16 867.59003 9.2197031e-39
-227.756 -1143.1801 865.32397 9.2197031e-39
-382.19901 -1133.58 867.73199 9.2197031e-39
-356.92499 -1131.53 866.37402 9.2197031e-39
-330.276 -1136.79 866.91699 9.2197031e-39
-404.70401 -1115.97 863.76898 9.2197031e-39
-617.927 -1103.51 867.30499 9.2197031e-39
-1096.13 -1054.05 869.51398 9.2197031e-39
-1064.28 -1050.22 867.47198 9.2197031e-39
-599.18701 -1129.95 873.73798 9.2197031e-39
-1145.77 -1077.55 877.362 9.2197031e-39
612.98499 -1312.09 883.242 9.2197031e-39
460.14401 -1296.3101 883.953 9.2197031e-39
104.786 -1274.21 889.492 9.2197031e-39
129.88901 -1265.1 886.263 9.2197031e-39
-451.98901 -1178.58 881.94397 9.2197031e-39
-589.15002 -1168.3101 883.62 9.2197031e-39
-1187.1899 -1094.4 883.17499 9.2197031e-39
2935.4299 -1621.6699 890.96997 9.2197031e-39
-548.49402 -1207.72 892.79602 9.2197031e-39
-514.84601 -1268.34 907.84198 9.2197031e-39
-589.33301 -1244.02 903.76599 9.2197031e-39
-534.02197 -1249.13 903.34802 9.2197031e-39
429.198 -1416.15 916.828 9.2197031e-39
-83.749001 -1433.76 937.99402 9.2197031e-39
-29.271299 -1438.2 937.42603 9.2197031e-39
-112.356 -1427.9399 937.36603 9.2197031e-39
-56.622002 -1426.24 935.12299 9.2197031e-39
-1.49439 -1425.46 933.14398 9.2197031e-39
-135.092 -1414.23 934.448 9.2197031e-39
-1342.65 -1273.6 935.83899 9.2197031e-39
790.11902 -1581.23 949.14502 9.2197031e-39
675.46301 -1533.53 940.14099 9.2197031e-39
2304.8501 -2063.45 1028.75 9.2197031e-39
2342.5601 -2065.28 1028.03 9.2197031e-39
2225.52 -2061.72 1030.84 9.2197031e-39
2262.52 -2063.4199 1030.1 9.2197031e-39
2070.23 -2057.1201 1034.61 9.2197031e-39
2145.1699 -2054.8701 1031.6 9.2197031e-39
2183.0901 -2059.96 1031.74 9.2197031e-39
2101.9199 -2049.5701 1031.58 9.2197031e-39
791.79901 -1990.23 1057.89 9.2197031e-39
855.92902 -1995.22 1057.16 9.2197031e-39
889.91699 -1992.29 1055.29 9.2197031e-39
920.30402 -1999.1201 1056.13 9.2197031e-39
954.44098 -1996.5601 1054.35 9.2197031e-39
571.979 -1970.97 1059.83 9.2197031e-39
664.07001 -1970.22 1056.67 9.2197031e-39
475.60901 -1941.3301 1055.04 9.2197031e-39
600.59601 -1948.4399 1052.92 9.2197031e-39
-1796.0699 -1822.7 1096.48 9.2197031e-39
-1923.6801 -1817.96 1099.3199 9.2197031e-39
-1834.72 -1819.3899 1096.84 9.2197031e-39
-1744.3 -1815.6201 1092.9301 9.2197031e-39
-1887.04 -1825.3101 1100.1 9.2197031e-39
-1971.8199 -1816.49 1100.47 9.2197031e-39
