# .PCD v0.7 - Point Cloud Data file format
VERSION 0.7
FIELDS x y z rgb
SIZE 4 4 4 4
TYPE F F F F
COUNT 1 1 1 1
WIDTH 325
HEIGHT 1
VIEWPOINT 0 0 0 1 0 0 0
POINTS 325
DATA ascii
2076.8899 942.27399 137.573 9.2197031e-39
2295.3501 940.54999 134 9.2197031e-39
636.99353 1035.5856 139.2195 9.2197031e-39
643.3595 1034.2429 139.46051 9.2197031e-39
626.32098 1040.626 138.069 9.2197031e-39
-717.70001 1128.093 139.506 9.2197031e-39
-717.13 1138.353 136.75301 9.2197031e-39
-715.47101 1148.5381 134 9.2197031e-39
2215.48 887.77899 149.582 9.2197031e-39
1868.5 935.18799 143.31599 9.2197031e-39
1860.59 947.50098 140.17 9.2197031e-39
634.065 999.73401 148.85699 9.2197031e-39
616.42865 1001.966 148.586 9.2197031e-39
624.888 1001.5156 148.55 9.2197031e-39
637.18225 1003.8789 147.69115 9.2197031e-39
641.15002 1007.818 146.565 9.2197031e-39
626.00201 1018.2145 144.06549 9.2197031e-39
634.6485 1015.0205 144.75975 9.2197031e-39
347.71701 1025.9087 147.14766 9.2197031e-39
354.95898 1025.327 147.16949 9.2197031e-39
360.05301 1027.377 146.52699 9.2197031e-39
626.75549 1023.9228 142.52574 9.2197031e-39
636.67346 1024.576 142.1685 9.2197031e-39
647.82098 1025.376 141.7485 9.2197031e-39
650.72699 1024.598 141.9025 9.2197031e-39
62.607101 1039.4351 148.797 9.2197031e-39
106.745 1038.6479 148.192 9.2197031e-39
163.811 1039.568 146.892 9.2197031e-39
211.649 1033.324 147.67799 9.2197031e-39
355.48068 1036.0267 144.29933 9.2197031e-39
363.414 1038.6101 143.46249 9.2197031e-39
638.47302 1030.965 140.427 9.2197031e-39
643.63 1031.001 140.32201 9.2197031e-39
-52.877701 1046.7991 148.961 9.2197031e-39
-16.7181 1043.6021 149.14799 9.2197031e-39
33.4277 1041.7 148.73 9.2197031e-39
203.894 1040.0439 146.02499 9.2197031e-39
344.88199 1046.469 141.70399 9.2197031e-39
364.82315 1044.7572 141.7935 9.2197031e-39
-102.143 1055.369 147.58 9.2197031e-39
-94.016197 1050.485 148.735 9.2197031e-39
-173.256 1065.627 146.151 9.2197031e-39
-128.222 1060.264 146.75301 9.2197031e-39
-285.23001 1072.417 146.40401 9.2197031e-39
-709.854 1097.047 147.66 9.2197031e-39
-718.56 1107.5601 145.011 9.2197031e-39
-718.17603 1117.829 142.259 9.2197031e-39
204.66499 999.20099 156.92799 9.2197031e-39
626.28497 993.88098 150.565 9.2197031e-39
102.657 1028.26 151.04401 9.2197031e-39
130.85001 1027.698 150.674 9.2197031e-39
-691.05603 1086.5 150.133 9.2197031e-39
3058 757.28101 168.907 9.2197031e-39
3034.74 781.73499 162.8 9.2197031e-39
168.36301 988.20001 160.53999 9.2197031e-39
3059.21 735.22302 174.78101 9.2197031e-39
3051.1001 692.42548 186.371 9.2197031e-39
3053.27 714.07428 180.54401 9.2197031e-39
3044.2 649.48657 197.97701 9.2197031e-39
3055.6499 669.71991 192.35699 9.2197031e-39
3049.3301 626.54028 204.01601 9.2197031e-39
-1177.73 571.17041 296.87299 9.2197031e-39
-1400.73 398.40198 347.17401 9.2197031e-39
-1596.09 428.686 342.68701 9.2197031e-39
-1252.1899 347.80099 357.95801 9.2197031e-39
-1221.77 343.00699 358.67801 9.2197031e-39
-1657.99 369.59198 359.62601 9.2197031e-39
-1657.63 389.91998 354.186 9.2197031e-39
-1204.17 333.18799 360.97699 9.2197031e-39
-1669.48 345.44699 366.293 9.2197031e-39
-1240.3199 282.12701 375.29401 9.2197031e-39
-1237.4 301.25201 370.12799 9.2197031e-39
-1537.41 311.23499 372.99899 9.2197031e-39
-1671.29 324.26501 371.98801 9.2197031e-39
-1257.1801 238.064 387.384 9.2197031e-39
-1243.9301 262.478 380.61301 9.2197031e-39
-1660.21 286.69601 381.82599 9.2197031e-39
2428.2 -55.893005 397.90799 9.2197031e-39
2437.3 -39.143005 393.263 9.2197031e-39
-1241.84 208.495 395.005 9.2197031e-39
-1251.36 222.388 391.46701 9.2197031e-39
-1589.85 230.41199 395.57199 9.2197031e-39
-1667.95 241.86401 393.953 9.2197031e-39
-1598.3199 247.73599 391.09799 9.2197031e-39
2421.5 -74.088989 402.896 9.2197031e-39
-1252.41 165.621 406.66101 9.2197031e-39
-1250.79 185.358 401.35501 9.2197031e-39
-1253.21 126.797 417.05399 9.2197031e-39
-1253.8 145.789 411.98801 9.2197031e-39
2567.55 -184.64099 429.75101 9.2197031e-39
-776.81403 65.213013 424.71899 9.2197031e-39
-750.758 67.939026 423.509 9.2197031e-39
-813.63898 72.72699 423.39001 9.2197031e-39
-791.30798 71.854004 423.211 9.2197031e-39
-1260.9301 83.333008 428.815 9.2197031e-39
-1250.6801 108.69299 421.84601 9.2197031e-39
2536.4399 -213.94501 438.159 9.2197031e-39
-777.95398 9.3460083 439.67401 9.2197031e-39
-897.77399 28.124023 436.867 9.2197031e-39
-759.98999 42.517029 430.47501 9.2197031e-39
-1257.9399 65.060974 433.64401 9.2197031e-39
2507.3899 -244.20099 446.78299 9.2197031e-39
2521.5601 -228.87903 442.42599 9.2197031e-39
-1253.9399 26.932007 443.76199 9.2197031e-39
-1268.45 38.823975 440.85101 9.2197031e-39
2461.71 -287.625 459.23401 9.2197031e-39
2686.3999 -282.11499 453.612 9.2197031e-39
2470.48 -268.86401 454.05701 9.2197031e-39
2486.5 -254.99298 450.05399 9.2197031e-39
-1263.4 -20.171997 456.52802 9.2197031e-39
-1261.35 1.9290161 450.58301 9.2197031e-39
2441.98 -323.84998 469.28201 9.2197031e-39
2446.26 -301.78601 463.30499 9.2197031e-39
-845.07703 -65.960999 461.04401 9.2197031e-39
-1260.99 -39.765991 461.72198 9.2197031e-39
-1270.4 -88.781982 474.99799 9.2197031e-39
-1275.83 -70.573975 470.23099 9.2197031e-39
-1267.13 -130.71503 486.147 9.2197031e-39
-1272.1801 -111.901 481.211 9.2197031e-39
2575.9299 -446.73999 499.65799 9.2197031e-39
-1274.0601 -157.93201 493.54999 9.2197031e-39
2507.0701 -477.45996 509.14099 9.2197031e-39
2520.05 -459.93994 504.21899 9.2197031e-39
2543.99 -450.56995 501.272 9.2197031e-39
-1268.4 -199.79999 504.63699 9.2197031e-39
-1275.79 -181.95801 500.004 9.2197031e-39
2498.6101 -498.53003 514.92902 9.2197031e-39
-1271.1801 -225.15601 511.46701 9.2197031e-39
2518.53 -542.34998 526.27502 9.2197031e-39
2514.78 -567.94995 533.18903 9.2197031e-39
2538.1599 -616.23999 545.66602 9.2197031e-39
1874.2 -661.23999 569.95502 9.2197031e-39
1920.67 -656.87 567.92798 9.2197031e-39
1939.26 -648.65002 565.388 9.2197031e-39
1964.83 -648.45996 564.86499 9.2197031e-39
-997.75403 -462.90002 569.96899 9.2197031e-39
-918.33899 -460.29004 567.80603 9.2197031e-39
2624.05 -749.62 579.73499 9.2197031e-39
2644.05 -734.89001 575.427 9.2197031e-39
2193.52 -717.95996 579.21997 9.2197031e-39
2218.3799 -712.88 577.40399 9.2197031e-39
1827.14 -695.19995 579.90198 9.2197031e-39
1839.9399 -680.13 575.63599 9.2197031e-39
1856.8 -670.38 572.71802 9.2197031e-39
1901.42 -664.14001 570.22699 9.2197031e-39
-850.63702 -494.13 575.60101 9.2197031e-39
-1241.59 -478.93005 578.758 9.2197031e-39
-1035.09 -473.73999 573.55798 9.2197031e-39
-981.12097 -472.70996 572.284 9.2197031e-39
-953.65601 -470.97998 571.31403 9.2197031e-39
-907.09399 -475.15002 571.56897 9.2197031e-39
-879.35101 -471.71997 570.14099 9.2197031e-39
-856.95599 -473.81995 570.28802 9.2197031e-39
-1135.15 -463.01001 572.53497 9.2197031e-39
-1109.85 -465.97998 572.86298 9.2197031e-39
-1082.5 -466.59998 572.52301 9.2197031e-39
-1053.88 -465.5 571.70001 9.2197031e-39
-1187.41 -457.43994 572.013 9.2197031e-39
-1159.8 -459.06006 571.935 9.2197031e-39
2601.71 -762.20996 583.51202 9.2197031e-39
2198.9199 -755.10999 589.05103 9.2197031e-39
1780.3101 -729.55005 589.94897 9.2197031e-39
1792.96 -714 585.56 9.2197031e-39
1810.67 -705.46997 582.95099 9.2197031e-39
-834.69897 -531.79004 585.37402 9.2197031e-39
-856.091 -528.59998 584.91602 9.2197031e-39
2576.6399 -804.48999 595.276 9.2197031e-39
2592.6101 -786.32996 590.12701 9.2197031e-39
2180.49 -767.12 592.60101 9.2197031e-39
1772.54 -752.22998 596.15601 9.2197031e-39
-846.83197 -575.52002 597.28699 9.2197031e-39
-1327.4 -526.71997 593.117 9.2197031e-39
2555.72 -851.18005 608.14203 9.2197031e-39
2172.0601 -822.97998 607.69098 9.2197031e-39
2567.04 -828.52002 601.87598 9.2197031e-39
1757.6899 -800.04004 609.20801 9.2197031e-39
2187 -806.69995 603.06201 9.2197031e-39
1763.34 -773.30005 601.95801 9.2197031e-39
2431.26 -864.73999 614.065 9.2197031e-39
2161.47 -844.34998 613.59698 9.2197031e-39
2593.51 -920.57996 625.99799 9.2197031e-39
2499.8601 -898.83997 621.914 9.2197031e-39
2421.4399 -888.58997 620.62299 9.2197031e-39
1774.33 -861.06006 625.21399 9.2197031e-39
2596.1599 -957.92004 635.92999 9.2197031e-39
-1521 -664.55005 633.53497 9.2197031e-39
523.44202 -866.56995 649.784 9.2197031e-39
384.37799 -856.07996 649.54797 9.2197031e-39
401.78299 -856.08997 649.22998 9.2197031e-39
106.813 -830.06995 647.72302 9.2197031e-39
126.396 -821.06995 644.95398 9.2197031e-39
1101.8 -943.16003 659.57703 9.2197031e-39
964.12402 -931.89001 659.10797 9.2197031e-39
1022.65 -937.52002 659.53302 9.2197031e-39
1060.26 -934.17004 657.94202 9.2197031e-39
1119.6 -937.16003 657.646 9.2197031e-39
776.716 -921.38 659.76099 9.2197031e-39
850.08301 -921.65002 658.47601 9.2197031e-39
869.05402 -924.41003 658.86401 9.2197031e-39
982.11902 -927.97998 657.73102 9.2197031e-39
1001.02 -927.68005 657.30103 9.2197031e-39
685.32001 -914.40002 659.58002 9.2197031e-39
739.08002 -911.18994 657.72998 9.2197031e-39
757.65601 -914.93005 658.388 9.2197031e-39
793.77698 -913.31006 657.28802 9.2197031e-39
830.86902 -916.81006 657.53699 9.2197031e-39
904.50598 -916.14001 656 9.2197031e-39
559.25702 -896.93994 657.24103 9.2197031e-39
576.73901 -890.65002 655.237 9.2197031e-39
594.57898 -893.87 655.76801 9.2197031e-39
630.44501 -899.83997 656.70398 9.2197031e-39
666.06 -899.43005 655.935 9.2197031e-39
470.83301 -885.57996 655.83899 9.2197031e-39
611.87097 -886.31995 653.43103 9.2197031e-39
488.50299 -876.17004 652.99701 9.2197031e-39
506.02301 -873.38 651.92603 9.2197031e-39
541.10797 -877 652.24597 9.2197031e-39
45.587299 -861.59998 657.28003 9.2197031e-39
172.476 -860.57996 654.66498 9.2197031e-39
190.043 -862.39001 654.82501 9.2197031e-39
225.05701 -866.52002 655.28302 9.2197031e-39
242.52 -868.84998 655.58099 9.2197031e-39
260.59601 -866.22998 654.547 9.2197031e-39
278.71301 -862.48999 653.21399 9.2197031e-39
313.573 -866.07996 653.53003 9.2197031e-39
331.02499 -867.66003 653.62903 9.2197031e-39
349.16699 -860.42004 651.35901 9.2197031e-39
366.565 -861.69995 651.37903 9.2197031e-39
418.814 -864.64001 651.20203 9.2197031e-39
436.30801 -863.40002 650.547 9.2197031e-39
453.702 -864.91003 650.62799 9.2197031e-39
-46.313099 -858.83997 658.23901 9.2197031e-39
-26.0854 -853.18994 656.35498 9.2197031e-39
-8.7230597 -857.63 657.22101 9.2197031e-39
10.1108 -856.30005 656.51801 9.2197031e-39
28.189301 -857.60999 656.53601 9.2197031e-39
64.299698 -859.77002 656.44702 9.2197031e-39
83.147697 -856.83997 655.315 9.2197031e-39
136.83 -859.35999 654.99597 9.2197031e-39
155.77 -853.85999 653.17798 9.2197031e-39
208.339 -859.28003 653.65503 9.2197031e-39
297.048 -855.70996 651.06403 9.2197031e-39
-253.67799 -846.31006 658.72101 9.2197031e-39
-410.61301 -833.12 658.09198 9.2197031e-39
-369.66199 -834.22998 657.63202 9.2197031e-39
-307.94101 -832.60999 656.06 9.2197031e-39
-267.30399 -830.82996 654.83197 9.2197031e-39
-346.90302 -829.17004 655.85901 9.2197031e-39
-325.07901 -825.65002 654.51501 9.2197031e-39
-285.91199 -827.79004 654.36401 9.2197031e-39
-804.15302 -809.95996 659.16901 9.2197031e-39
1280.27 -991 669.07001 9.2197031e-39
1216.4 -986.85999 669.14502 9.2197031e-39
1235.86 -983.56995 667.90503 9.2197031e-39
1257.33 -985.56995 668.04303 9.2197031e-39
1299.83 -987.14001 667.67798 9.2197031e-39
1188.52 -965.17004 663.85999 9.2197031e-39
1144.13 -952.27002 661.23297 9.2197031e-39
1163.8101 -951.44995 660.651 9.2197031e-39
1044.49 -947.16003 661.70502 9.2197031e-39
1083.13 -946.20996 660.73901 9.2197031e-39
889.76898 -935.55005 661.46002 9.2197031e-39
927.42401 -936.41003 660.995 9.2197031e-39
946.09497 -935.65002 660.44501 9.2197031e-39
650.14502 -924.77002 663.00403 9.2197031e-39
703.96997 -920.53003 660.87598 9.2197031e-39
814.33301 -928.04004 660.84601 9.2197031e-39
721.883 -918.81995 660.08698 9.2197031e-39
-125.961 -871.17004 663.00598 9.2197031e-39
-87.759003 -871.40002 662.362 9.2197031e-39
-181.493 -863.56995 662 9.2197031e-39
-161.825 -862.91003 661.46002 9.2197031e-39
-143.14 -864.81995 661.62598 9.2197031e-39
-104.668 -864.43994 660.815 9.2197031e-39
-66.956902 -865.21997 660.32599 9.2197031e-39
-236.70599 -853.57996 660.349 9.2197031e-39
-217.28999 -854.34998 660.19702 9.2197031e-39
-198.909 -857.67004 660.745 9.2197031e-39
-591.96997 -847.56006 665.29999 9.2197031e-39
-566.07599 -841.5 663.203 9.2197031e-39
-547.37701 -847.93994 664.578 9.2197031e-39
-521.76099 -841.35999 662.34698 9.2197031e-39
-479.11499 -842.90002 661.97198 9.2197031e-39
-435.02499 -840.10999 660.40997 9.2197031e-39
-394.63699 -843.43994 660.55499 9.2197031e-39
-768.90302 -830.19995 663.92798 9.2197031e-39
-700.86603 -836.35999 664.31897 9.2197031e-39
-631.901 -837.89001 663.45398 9.2197031e-39
-609.24298 -838.19995 663.11798 9.2197031e-39
-497.70001 -837.07996 660.758 9.2197031e-39
-454.84299 -837.28003 660.02002 9.2197031e-39
-739.39502 -822.18005 661.23999 9.2197031e-39
-719.62 -828.55005 662.57501 9.2197031e-39
-672.33301 -828.29004 661.63397 9.2197031e-39
-647.06897 -824.88 660.25403 9.2197031e-39
-932.81299 -811.79004 662.03302 9.2197031e-39
-909.901 -816.06995 662.75403 9.2197031e-39
-884.133 -816.18005 662.30701 9.2197031e-39
-858.47302 -815.98999 661.784 9.2197031e-39
-834.05298 -817.10999 661.63202 9.2197031e-39
-783.27502 -815.32996 660.21802 9.2197031e-39
-980.547 -804.80005 661.04602 9.2197031e-39
1593.27 -1089.62 689.65302 9.2197031e-39
1346.48 -1050.79 683.83099 9.2197031e-39
1411.1 -1046.77 681.56403 9.2197031e-39
1555.99 -1111.0601 696.07202 9.2197031e-39
1582.92 -1116.99 697.16101 9.2197031e-39
1504.33 -1101.86 694.56799 9.2197031e-39
1530.5 -1107.47 695.58502 9.2197031e-39
1622.97 -1100.3 691.961 9.2197031e-39
1387.3101 -1096.72 695.35602 9.2197031e-39
1456.08 -1097.83 694.38098 9.2197031e-39
1476.34 -1091.54 692.32703 9.2197031e-39
1404.5 -1083.87 691.60199 9.2197031e-39
1704.09 -1207.14 719.02197 9.2197031e-39
1753.78 -1251.02 729.83502 9.2197031e-39
2063.04 -1438.6399 774.27698 9.2197031e-39
2089.72 -1432.0601 772.026 9.2197031e-39
2123.3301 -1435.8899 772.427 9.2197031e-39
1987.08 -1624.6299 825.396 9.2197031e-39
2424.6201 -2079.01 938.77899 9.2197031e-39
2267.03 -2065.01 937.94598 9.2197031e-39
2304.4199 -2066.1899 937.57001 9.2197031e-39
2342.95 -2068.6599 937.51801 9.2197031e-39
2380.1499 -2068.2 936.70898 9.2197031e-39
