# .PCD v0.7 - Point Cloud Data file format
VERSION 0.7
FIELDS x y z rgb
SIZE 4 4 4 4
TYPE F F F F
COUNT 1 1 1 1
WIDTH 319
HEIGHT 1
VIEWPOINT 0 0 0 1 0 0 0
POINTS 319
DATA ascii
1083.17 -1737.99 137.25 9.2197031e-39
1144 -1334.39 133.771 9.2197031e-39
1313.78 -530.69995 139.662 9.2197031e-39
1312.4301 -470.31995 136.386 9.2197031e-39
1322.47 -473.15002 139.16901 9.2197031e-39
1314.9299 -464.565 136.76649 9.2197031e-39
1318.2 -455.84003 137.207 9.2197031e-39
1372.0601 -190.93903 138.59399 9.2197031e-39
1375.4551 -182.60052 139.086 9.2197031e-39
1377.9301 -177.09497 139.472 9.2197031e-39
1782.53 2130.26 134.554 9.2197031e-39
1806.05 2152.28 139.687 9.2197031e-39
1098.0601 -1715.1599 140.073 9.2197031e-39
1115.5 -1688.5901 143.384 9.2197031e-39
1137.89 -1610.0601 145.489 9.2197031e-39
1157.76 -1555.3101 148.078 9.2197031e-39
1200.24 -1306.77 147.257 9.2197031e-39
1299.24 -760.14001 146.92101 9.2197031e-39
1329.51 -638.10999 148.99899 9.2197031e-39
1352.89 -529.70996 149.922 9.2197031e-39
1347.8101 -494.17004 146.864 9.2197031e-39
1331.38 -476.28003 141.67 9.2197031e-39
1336.2625 -464.85501 142.40276 9.2197031e-39
1343.02 -464.60004 144.17101 9.2197031e-39
1336.08 -457.7767 142.01233 9.2197031e-39
1340.77 -459.80005 143.34801 9.2197031e-39
1400.08 -218.44702 147.30901 9.2197031e-39
1407.1783 -205.63884 148.56151 9.2197031e-39
1379.665 -183.54401 140.24149 9.2197031e-39
1387.7567 -186.28435 142.50732 9.2197031e-39
1393.8134 -186.554 144.11568 9.2197031e-39
1400.33 -183.52197 145.686 9.2197031e-39
1415.88 -181.69449 149.6955 9.2197031e-39
1384.9401 -179.26859 141.425 9.2197031e-39
1408.2833 -175.77766 147.40932 9.2197031e-39
1415.2167 -175.98833 149.24632 9.2197031e-39
1414.52 -166.88553 148.62199 9.2197031e-39
1832.88 2167.3599 146.02901 9.2197031e-39
1297.3199 -842.13 150.381 9.2197031e-39
1307.04 -823.57996 152.043 9.2197031e-39
1312.12 -812.75 152.86 9.2197031e-39
1317.63 -754.91003 151.517 9.2197031e-39
1322.34 -723.01001 151.215 9.2197031e-39
1325.6899 -702.05005 151.08501 9.2197031e-39
1368.79 -630.16003 158.967 9.2197031e-39
1360.29 -577 154.158 9.2197031e-39
1413.13 -205.85498 150.14 9.2197031e-39
1859.5601 2200.6299 151.453 9.2197031e-39
1380.14 -693.95996 165.043 9.2197031e-39
1404.6899 -815.10999 177.371 9.2197031e-39
1390.4301 -746.80005 170.311 9.2197031e-39
2386.8799 4492.8398 179.60899 9.2197031e-39
1423.45 -909.90002 186.899 9.2197031e-39
2428.0601 4505.0498 189.873 9.2197031e-39
1448.74 -1027.75 199.261 9.2197031e-39
1477.91 -1085.8 209.755 9.2197031e-39
1470.26 -1077.25 207.325 9.2197031e-39
1460.3 -1062.01 203.964 9.2197031e-39
2474.74 4503.29 202.25999 9.2197031e-39
1492.6899 -1091.63 213.93201 9.2197031e-39
1507.5 -1096.1801 218.054 9.2197031e-39
1485.02 -1084.22 211.55299 9.2197031e-39
1499.86 -1089.9 215.73801 9.2197031e-39
1512.87 -1086.5699 219.006 9.2197031e-39
2515.8601 4512.7598 212.64 9.2197031e-39
1524.325 -1092.1951 222.2975 9.2197031e-39
1546.14 -1094.585 228.16251 9.2197031e-39
1533.67 -1089.01 224.60699 9.2197031e-39
2562.99 4511.0703 225.144 9.2197031e-39
1557.96 -1097.1 231.39999 9.2197031e-39
1563.9 -1095.16 232.869 9.2197031e-39
1575.4099 -1095.9551 235.9425 9.2197031e-39
1586.34 -1094.7 238.763 9.2197031e-39
2601.4199 4508.1396 235.412 9.2197031e-39
1592.26 -1092.53 240.216 9.2197031e-39
1605.35 -1097.085 243.888 9.2197031e-39
1614.85 -1091.2 246.108 9.2197031e-39
1622.14 -1092.5 248.092 9.2197031e-39
1628.25 -1086.72 249.423 9.2197031e-39
2651.29 4515.1899 248.215 9.2197031e-39
1637.76 -1093.4 252.252 9.2197031e-39
1644.96 -1090.24 253.996 9.2197031e-39
1651.99 -1090.33 255.85201 9.2197031e-39
1659.54 -1087.9301 257.728 9.2197031e-39
1665.01 -1084.25 258.992 9.2197031e-39
2690.1201 4512.48 258.57999 9.2197031e-39
1676.98 -1091.64 262.504 9.2197031e-39
1684.12 -1091.4301 264.37299 9.2197031e-39
1696.5649 -1091.2 267.642 9.2197031e-39
2699.25 4377.48 267.51199 9.2197031e-39
1709.0699 -1090.78 270.91901 9.2197031e-39
1716.29 -1090.25 272.79599 9.2197031e-39
1722.5601 -1084.55 274.173 9.2197031e-39
1730.6899 -1085.64 276.36899 9.2197031e-39
1740.15 -1085.91 278.87399 9.2197031e-39
1751.2 -1092.01 282.07999 9.2197031e-39
1767.66 -1090.15 286.32999 9.2197031e-39
1755.99 -1083.41 282.927 9.2197031e-39
1776.3199 -1088.25 288.51999 9.2197031e-39
1785.71 -1090.47 291.10101 9.2197031e-39
1798.99 -1095.96 294.867 9.2197031e-39
1804.9301 -1092.05 296.24301 9.2197031e-39
1816.83 -1094.73 299.51001 9.2197031e-39
1874.9 -749.45996 298.12201 9.2197031e-39
1868.92 -736.27002 295.90701 9.2197031e-39
1873.67 -733.02002 297.00201 9.2197031e-39
1875.98 -726.41003 297.29099 9.2197031e-39
1875.875 -715.46997 296.7355 9.2197031e-39
1883.54 -710.21997 298.50101 9.2197031e-39
1888 -705.22998 299.435 9.2197031e-39
1888.0601 -690.75 298.75201 9.2197031e-39
1892.72 -679.52002 299.436 9.2197031e-39
1824.88 -1094 301.59601 9.2197031e-39
1847.22 -1098.74 307.71301 9.2197031e-39
1854.48 -1093.5 309.37299 9.2197031e-39
1829.9399 -1085.6899 302.52899 9.2197031e-39
1892.5699 -701.75 300.47198 9.2197031e-39
1894.17 -688.30005 300.24301 9.2197031e-39
1903.71 -680.06995 302.35901 9.2197031e-39
1898.8199 -669.26001 300.548 9.2197031e-39
1907.2949 -664.23499 302.539 9.2197031e-39
1907.36 -654.18994 302.07199 9.2197031e-39
1906.28 -646.04004 301.39301 9.2197031e-39
1914.73 -644.60999 303.55099 9.2197031e-39
1915.23 -637.39001 303.332 9.2197031e-39
1865.98 -1097.23 312.58301 9.2197031e-39
1873.22 -1091.8101 314.23099 9.2197031e-39
1879.14 -1087.3 315.57101 9.2197031e-39
1943.34 -646.25 311.17001 9.2197031e-39
1966.175 -647.13 317.22949 9.2197031e-39
1968.33 -637.09998 317.31299 9.2197031e-39
1896.13 -1095.23 320.43301 9.2197031e-39
1903.24 -1092.11 322.155 9.2197031e-39
1925.28 -1093.17 328.01599 9.2197031e-39
1912.8101 -1089.4399 324.54901 9.2197031e-39
1981.85 -633.30005 320.69299 9.2197031e-39
1997.15 -630.02002 324.56699 9.2197031e-39
1936.73 -1092.55 331.004 9.2197031e-39
1948.15 -1094.4301 334.10501 9.2197031e-39
1959.71 -1093.51 337.10599 9.2197031e-39
1980.92 -841.56995 330.51599 9.2197031e-39
1998.0601 -1111.84 348.099 9.2197031e-39
1980.62 -1106.42 343.241 9.2197031e-39
2031.28 -924.06006 347.776 9.2197031e-39
2034.4301 -917.03003 348.26901 9.2197031e-39
2039.27 -909.33997 349.172 9.2197031e-39
2036.27 -897.34998 347.79999 9.2197031e-39
2009.23 -1112.26 351.06299 9.2197031e-39
2015.33 -1103.9399 352.271 9.2197031e-39
2044.46 -1096.34 359.57999 9.2197031e-39
2048.6299 -1129.01 362.258 9.2197031e-39
2045.03 -1109.4399 360.362 9.2197031e-39
2114.5701 -1156.17 380.95001 9.2197031e-39
2152.9299 -1042.99 385.58899 9.2197031e-39
2465.3301 161.35699 409.69501 9.2197031e-39
2331.6001 -773.43005 419.64301 9.2197031e-39
2496.8101 126.65399 419.67099 9.2197031e-39
2480.78 131.08301 415.23001 9.2197031e-39
2472.1499 140.569 412.49701 9.2197031e-39
2480.4299 154.63 414.00101 9.2197031e-39
2496.6499 185.67599 416.77499 9.2197031e-39
2518.05 63.593018 428.315 9.2197031e-39
2513.3501 72.578003 426.64401 9.2197031e-39
2503.3401 82.008972 423.54999 9.2197031e-39
2503.1101 92.458008 422.983 9.2197031e-39
2502.1101 104.99597 422.11301 9.2197031e-39
2502.6001 115.82101 421.71899 9.2197031e-39
2527 -93.044983 438.24799 9.2197031e-39
2532.96 -81.841003 439.27701 9.2197031e-39
2527.98 -70.572021 437.42001 9.2197031e-39
2535.6399 -58.814026 438.871 9.2197031e-39
2536.1399 -46.281006 438.397 9.2197031e-39
2540.8501 47.30603 435.11401 9.2197031e-39
2534.4199 55.93103 433 9.2197031e-39
2550.9299 -178.13702 448.668 9.2197031e-39
2541.27 -169.32001 445.69699 9.2197031e-39
2537.0701 -157.74799 444.03101 9.2197031e-39
2545.51 -146.59198 445.715 9.2197031e-39
2540.1499 -135.18103 443.75101 9.2197031e-39
2538.8201 -125.37598 442.92599 9.2197031e-39
2537.0901 -113.44702 441.89499 9.2197031e-39
2536.55 -103.49799 441.271 9.2197031e-39
2597.27 244.048 440.47198 9.2197031e-39
2576.1201 -187.64001 455.76801 9.2197031e-39
2610.3301 54.783997 453.06201 9.2197031e-39
2979.3301 1939.3199 459.20401 9.2197031e-39
2559.1101 -546.91003 468.65302 9.2197031e-39
2565.1001 -535.37 469.67499 9.2197031e-39
2555.3899 -523.42004 466.53699 9.2197031e-39
2559.27 -511.56006 466.98599 9.2197031e-39
2552.2 -500.28003 464.57901 9.2197031e-39
2553 -488.03003 464.19699 9.2197031e-39
2555.3201 -478.19995 464.332 9.2197031e-39
2556.8701 -466.05005 464.15399 9.2197031e-39
2567.6599 -457.12 466.56699 9.2197031e-39
2567.1001 -444.66003 465.815 9.2197031e-39
2555.6201 -433.44995 462.24701 9.2197031e-39
2559.6399 -421.54004 462.733 9.2197031e-39
2564.3501 -411.81995 463.50299 9.2197031e-39
2569.1399 -399.84003 464.18701 9.2197031e-39
2561.1399 -389.28003 461.569 9.2197031e-39
2570.5601 -377.48798 463.48001 9.2197031e-39
2568.1799 -367.29498 462.35999 9.2197031e-39
2613.6001 -206.92297 466.57599 9.2197031e-39
2598.1799 -195.664 461.96899 9.2197031e-39
2661.74 -6.40802 469.57001 9.2197031e-39
2986.0601 1792.77 468.06201 9.2197031e-39
2984.6101 1824.8199 466.13199 9.2197031e-39
2984.5801 1866.97 464.08499 9.2197031e-39
2981.6599 1898.46 461.793 9.2197031e-39
2569.3301 -701.98999 478.845 9.2197031e-39
2994.21 1591.8511 479.92499 9.2197031e-39
2997.1599 1625.45 479.077 9.2197031e-39
2991.3401 1656.05 476.06299 9.2197031e-39
2995.3501 1692.22 475.37201 9.2197031e-39
2992.4099 1727.63 472.88599 9.2197031e-39
2989.3 1756.37 470.67599 9.2197031e-39
2601 -736.98999 488.884 9.2197031e-39
2611.29 -567.32996 483.392 9.2197031e-39
2989.55 1398.735 488.03101 9.2197031e-39
2994.28 1430.6479 487.73499 9.2197031e-39
2990.97 1460.588 485.41501 9.2197031e-39
2993.5801 1491.3579 484.61499 9.2197031e-39
2994.77 1527.395 483.18799 9.2197031e-39
2999.8601 1562.177 482.84799 9.2197031e-39
2594.3601 -880.05005 494.04901 9.2197031e-39
2610.3 -872.04004 497.86499 9.2197031e-39
2620.6001 -849.14001 499.47101 9.2197031e-39
2625.1101 -823.93994 499.44 9.2197031e-39
2610.95 -806.48999 494.86499 9.2197031e-39
2620.0901 -795.41003 496.73801 9.2197031e-39
2611.05 -780.30005 493.62601 9.2197031e-39
2623.6299 -770.40002 496.46201 9.2197031e-39
2618.8999 -757.05005 494.57101 9.2197031e-39
2607.9399 -727.79004 490.26801 9.2197031e-39
2646.3799 -714.04004 499.73401 9.2197031e-39
2645.49 -699.60999 498.79999 9.2197031e-39
2991.76 1178.631 499.25601 9.2197031e-39
2995 1205.281 498.82199 9.2197031e-39
2995.3899 1234.994 497.48901 9.2197031e-39
2995.8401 1259.8831 496.40201 9.2197031e-39
2994.0701 1288.4771 494.55399 9.2197031e-39
2995.3201 1314.95 493.604 9.2197031e-39
2992.8401 1343.755 491.55701 9.2197031e-39
2992.75 1369.7419 490.27701 9.2197031e-39
2633.3101 -869.46997 503.80399 9.2197031e-39
2625.6101 -838.94995 500.29901 9.2197031e-39
2655.8999 -690.95996 501.12799 9.2197031e-39
2656.6399 -677.02002 500.64801 9.2197031e-39
2666.9199 -668.15002 502.92899 9.2197031e-39
2682.4299 -657.90002 506.521 9.2197031e-39
2688.8501 -647.78003 507.72198 9.2197031e-39
2690.1001 -633.84998 507.379 9.2197031e-39
2692.5801 -622.76001 507.496 9.2197031e-39
2695.48 -609.22998 507.60699 9.2197031e-39
2999.3799 1034.947 508.20999 9.2197031e-39
2996.76 1054.608 506.57101 9.2197031e-39
2997.7 1082.303 505.478 9.2197031e-39
3002.1101 1108.4871 505.375 9.2197031e-39
2995.6599 1130.634 502.60501 9.2197031e-39
2998.75 1156.406 502.173 9.2197031e-39
3003.52 831.216 519.151 9.2197031e-39
2999.3799 852.11096 517.05103 9.2197031e-39
3000.1599 872.38 516.27502 9.2197031e-39
3003.51 899.14301 515.86499 9.2197031e-39
3002.23 918.43896 514.59601 9.2197031e-39
2998.71 940.72101 512.58801 9.2197031e-39
3004.04 965.51099 512.79498 9.2197031e-39
2999.97 987.94299 510.63901 9.2197031e-39
3005.52 1013.614 510.86099 9.2197031e-39
3002.01 647.6037 527.63098 9.2197031e-39
3003.1899 666.04169 527.04999 9.2197031e-39
3001.71 686.99579 525.64697 9.2197031e-39
3010.03 710.19397 526.71698 9.2197031e-39
3000.5801 726.65198 523.43298 9.2197031e-39
3000.99 745.36798 522.63501 9.2197031e-39
2999.4399 767.091 521.177 9.2197031e-39
3006.8201 790.823 521.97302 9.2197031e-39
3003.9399 812.19202 520.18298 9.2197031e-39
2992.1599 435.99799 535.26501 9.2197031e-39
3000.3101 459.353 536.28302 9.2197031e-39
3002.4199 476.60699 536.00403 9.2197031e-39
3003.04 496.892 535.18903 9.2197031e-39
3005.6799 514.742 535.02002 9.2197031e-39
3005.8899 535.19348 534.08698 9.2197031e-39
3008.1599 553.21741 533.81403 9.2197031e-39
3007.9399 573.82727 532.76001 9.2197031e-39
3009.8401 592.01782 532.38202 9.2197031e-39
3009.2 612.77661 531.20801 9.2197031e-39
3010.72 631.12567 530.72302 9.2197031e-39
2833.1299 -625.58997 544.677 9.2197031e-39
2917.54 -364.77698 554.31299 9.2197031e-39
3007.9099 92.697998 556.013 9.2197031e-39
3012.4099 108.19501 556.448 9.2197031e-39
3006.6699 124.27701 554.159 9.2197031e-39
3005.27 138.354 553.10901 9.2197031e-39
3008.6101 156.98801 553.09003 9.2197031e-39
3019.8999 -337.159 579.95599 9.2197031e-39
3022.0801 -323.43298 579.86499 9.2197031e-39
3022.23 -306.68597 579.09399 9.2197031e-39
3022.23 -292.94098 578.43103 9.2197031e-39
3022.1001 -276.198 577.58698 9.2197031e-39
3021.8701 -262.45801 576.86298 9.2197031e-39
3022.4199 -245.68103 576.19702 9.2197031e-39
3021.96 -231.94202 575.41199 9.2197031e-39
3021.26 -215.211 574.41901 9.2197031e-39
3020.5701 -201.487 573.573 9.2197031e-39
3009.9399 -185.54999 570 9.2197031e-39
3021.3999 -353.92297 581.16199 9.2197031e-39
2894.26 -1961.24 625.35999 9.2197031e-39
2942.7 -1760.1299 628.40399 9.2197031e-39
2932.0701 -1968.6101 635.67999 9.2197031e-39
2946.78 -1957.47 639.021 9.2197031e-39
2950.3201 -1929.5 638.59998 9.2197031e-39
2951.51 -1905.22 637.74103 9.2197031e-39
2954.3601 -1877.4299 637.14899 9.2197031e-39
2950.72 -1849.3 634.82898 9.2197031e-39
2949.28 -1818.4299 632.95599 9.2197031e-39
2953.5901 -1798.52 633.12903 9.2197031e-39
