# .PCD v0.7 - Point Cloud Data file format
VERSION 0.7
FIELDS x y z rgb
SIZE 4 4 4 4
TYPE F F F F
COUNT 1 1 1 1
WIDTH 306
HEIGHT 1
VIEWPOINT 0 0 0 1 0 0 0
POINTS 306
DATA ascii
1456.33 -1080.3 139.16299 9.2197031e-39
1433.99 -1077.73 133.13901 9.2197031e-39
1445.145 -1079.1 136.14951 9.2197031e-39
1526.4399 -188.91501 138.435 9.2197031e-39
1532.3199 -182.60199 139.866 9.2197031e-39
1531.72 -175.7695 139.5585 9.2197031e-39
1700.86 2026.8199 136.66499 9.2197031e-39
1716.5699 2090.6899 139.466 9.2197031e-39
1459.4301 -1082.46 140.037 9.2197031e-39
1469.79 -1064.9 142.422 9.2197031e-39
1473.53 -1048.02 143.05099 9.2197031e-39
1483.83 -1000.27 144.75999 9.2197031e-39
1487.28 -968.31995 144.985 9.2197031e-39
1495.84 -906.39001 145.92 9.2197031e-39
1498.37 -867.40002 145.744 9.2197031e-39
1505.11 -850.32996 147.172 9.2197031e-39
1507.1 -834.29004 147.353 9.2197031e-39
1512.83 -806.12 148.269 9.2197031e-39
1514.49 -794.06006 148.44901 9.2197031e-39
1519.74 -776.80005 149.47301 9.2197031e-39
1519.79 -738.76001 148.658 9.2197031e-39
1521.46 -679.56995 147.81 9.2197031e-39
1518.29 -608.67004 145.41701 9.2197031e-39
1517 -545.60999 143.69701 9.2197031e-39
1517.04 -534.56995 143.467 9.2197031e-39
1537.45 -511.20996 148.408 9.2197031e-39
1517.28 -508.43994 142.96201 9.2197031e-39
1515.6899 -484.5 142.013 9.2197031e-39
1516.865 -460.19501 141.79749 9.2197031e-39
1525.1851 -465.875 144.14301 9.2197031e-39
1517.1333 -457.45667 141.80901 9.2197031e-39
1522.2134 -458.30997 143.18367 9.2197031e-39
1555.52 -214.35199 146.756 9.2197031e-39
1558.78 -204.77899 147.41701 9.2197031e-39
1561.17 -204.987 148.06 9.2197031e-39
1561.9301 -197.43701 148.099 9.2197031e-39
1534.17 -187.22803 140.46201 9.2197031e-39
1547.2267 -182.01567 143.83434 9.2197031e-39
1565.71 -185.91699 148.85699 9.2197031e-39
1537.16 -174.25032 140.97768 9.2197031e-39
1543.7965 -174.68217 142.75899 9.2197031e-39
1553.87 -173.34149 145.42 9.2197031e-39
1565.21 -173.9595 148.46249 9.2197031e-39
1559.61 -165.987 146.7915 9.2197031e-39
1565.9099 -162.75449 148.4045 9.2197031e-39
1566.62 -159.25302 148.51849 9.2197031e-39
1757.08 2185.1899 148.22301 9.2197031e-39
1566.96 -625.10999 158.77499 9.2197031e-39
1552.54 -565.02002 153.61301 9.2197031e-39
1542.45 -531.55005 150.186 9.2197031e-39
1569.92 -193.99298 150.157 9.2197031e-39
1573.27 -186.73602 150.892 9.2197031e-39
1583.97 -173.47601 153.461 9.2197031e-39
1572.87 -166.09566 150.33632 9.2197031e-39
1768.6801 2194.01 151.12801 9.2197031e-39
1596.04 -723.63 168.69099 9.2197031e-39
1579.73 -661.97998 162.99001 9.2197031e-39
1815.45 2224.73 162.94701 9.2197031e-39
1806.1801 2237.98 160.181 9.2197031e-39
1616.08 -781.16003 175.297 9.2197031e-39
1641.89 -873.21997 184.2 9.2197031e-39
1688.03 -1015.37 199.62399 9.2197031e-39
1720.38 -1071.01 209.47701 9.2197031e-39
1716.38 -1069.15 208.368 9.2197031e-39
1700.5 -1049.05 203.688 9.2197031e-39
1735.9 -1081.615 213.85251 9.2197031e-39
1749.61 -1085.28 217.595 9.2197031e-39
1753.15 -1085.0699 218.536 9.2197031e-39
1766.09 -1090.9 222.118 9.2197031e-39
1783.7849 -1093.64 226.9035 9.2197031e-39
1769.34 -1089.67 222.96001 9.2197031e-39
2313.3401 5435.4399 225.849 9.2197031e-39
2313.73 5618.2202 221.965 9.2197031e-39
1797.7 -1095.47 230.661 9.2197031e-39
1801.33 -1095.03 231.62 9.2197031e-39
1815.2051 -1096.0701 235.3465 9.2197031e-39
1828.4 -1095.03 238.85001 9.2197031e-39
1831.28 -1092.61 239.565 9.2197031e-39
1858.495 -719.12 238.6825 9.2197031e-39
1861.54 -708.58002 239.26599 9.2197031e-39
2304.72 4755.8901 238.377 9.2197031e-39
2327.1599 5042.9302 238.106 9.2197031e-39
1844.6899 -1096.14 243.22301 9.2197031e-39
1859.03 -1092.4 246.97 9.2197031e-39
1863.13 -1092.54 248.069 9.2197031e-39
1843.08 -1083.7 242.522 9.2197031e-39
1867.83 -746.07996 241.763 9.2197031e-39
1864.46 -738.47998 240.69901 9.2197031e-39
1869.99 -705.59998 241.457 9.2197031e-39
1871.62 -703.92004 241.856 9.2197031e-39
1882.125 -702.80505 244.6375 9.2197031e-39
1884.4301 -690.16003 244.976 9.2197031e-39
1890.59 -699.40002 246.823 9.2197031e-39
1877.03 -670.45996 242.57201 9.2197031e-39
1882.6899 -678.85999 244.265 9.2197031e-39
1882.925 -665.07001 244.02701 9.2197031e-39
1885.785 -655.48499 244.582 9.2197031e-39
1896.2949 -652.5 247.3235 9.2197031e-39
1901.1299 -644.625 248.444 9.2197031e-39
1903.03 -633.06995 248.698 9.2197031e-39
1905.95 -623.94995 249.28 9.2197031e-39
2327.21 4502.52 249.91299 9.2197031e-39
1878.77 -1091.11 252.215 9.2197031e-39
1890.78 -1090.26 255.40199 9.2197031e-39
1872.04 -1085.71 250.3 9.2197031e-39
1893.12 -1086.7 255.951 9.2197031e-39
1906.53 -1088.24 259.56699 9.2197031e-39
1908.61 -640.31006 250.34599 9.2197031e-39
1911.66 -631.07996 250.96001 9.2197031e-39
1925.4351 -628.32001 254.577 9.2197031e-39
1932.21 -621.65997 256.2435 9.2197031e-39
1935.67 -612.67499 256.97 9.2197031e-39
1946.52 -609.95996 259.80701 9.2197031e-39
2347.3 4497.8799 255.38 9.2197031e-39
1930.4 -1092.59 266.034 9.2197031e-39
1909.77 -1086.38 260.392 9.2197031e-39
1923.3 -1087.62 264.03101 9.2197031e-39
1954.29 -612.14001 261.93201 9.2197031e-39
1949.05 -1102.05 271.22101 9.2197031e-39
1953.34 -1101.7 272.35999 9.2197031e-39
1972.63 -1103.45 277.552 9.2197031e-39
1965.77 -1099.66 275.63501 9.2197031e-39
2414.28 4518.7402 272.81 9.2197031e-39
1986.72 -1103.62 281.31799 9.2197031e-39
1994.23 -1108.09 283.42001 9.2197031e-39
2005.3149 -1099.27 286.18903 9.2197031e-39
2042.1899 -1121.42 296.51801 9.2197031e-39
2034.95 -1118.14 294.513 9.2197031e-39
2323.5701 -834.12 365.39401 9.2197031e-39
2355.21 -625.35999 369.29001 9.2197031e-39
2367.7451 -645.34998 373.07349 9.2197031e-39
2362.8999 -623.75 371.30899 9.2197031e-39
2362.1599 -610.43994 370.819 9.2197031e-39
2364.3201 -606.84998 371.31699 9.2197031e-39
2371.6299 -596.25 373.039 9.2197031e-39
2383.8899 -595.77002 376.30301 9.2197031e-39
2453.9199 124.13599 379.29501 9.2197031e-39
2448.29 137.00699 377.51099 9.2197031e-39
2444.6299 140.41599 376.45901 9.2197031e-39
2433.03 152.84351 373.08899 9.2197031e-39
2386.97 -868.22998 383.07199 9.2197031e-39
2399.4299 -587.31995 380.26801 9.2197031e-39
2413.5701 -587.05005 384.03799 9.2197031e-39
2484.155 73.179993 388.48151 9.2197031e-39
2474.29 86.984009 385.54599 9.2197031e-39
2481.5601 95.14801 387.30899 9.2197031e-39
2466.49 104.10303 383.08899 9.2197031e-39
2470.95 111.20801 384.125 9.2197031e-39
2462.8301 123.09201 381.698 9.2197031e-39
2477.3999 194.508 384.03 9.2197031e-39
2459.22 -696.98999 398.63 9.2197031e-39
2438.3701 -580.56995 390.521 9.2197031e-39
2459.0801 -581.68005 396.07401 9.2197031e-39
2509.3999 -116.78101 399.36801 9.2197031e-39
2507.8301 -95.798981 398.49152 9.2197031e-39
2505.885 -77.191498 397.56702 9.2197031e-39
2507.23 59.117981 394.95099 9.2197031e-39
2502.9299 62.609985 393.72501 9.2197031e-39
2483.7 -711.71997 405.48801 9.2197031e-39
2492.885 -574.13501 404.93851 9.2197031e-39
2526.02 -373.14899 409.401 9.2197031e-39
2528.3999 -352.31702 409.58301 9.2197031e-39
2534.3301 -185.96597 407.53699 9.2197031e-39
2526.5901 -170.461 405.13 9.2197031e-39
2527.8899 -165.54999 405.37 9.2197031e-39
2524.02 -151.94299 404.04001 9.2197031e-39
2523.3301 -147.33099 403.755 9.2197031e-39
2514.085 -132.40549 400.96149 9.2197031e-39
2518.99 -110.09198 401.785 9.2197031e-39
2517.77 -57.33197 400.30701 9.2197031e-39
2534.4199 48.372986 402.44601 9.2197031e-39
2530.1399 52.038025 401.224 9.2197031e-39
2563.1201 245.57001 405.80899 9.2197031e-39
2520.1201 -564 411.98999 9.2197031e-39
2548.45 -565.80005 419.59601 9.2197031e-39
2525.1001 -526.35999 412.49899 9.2197031e-39
2516.5 -519.85999 410.06201 9.2197031e-39
2526.5601 -505.03003 412.42352 9.2197031e-39
2520.21 -487.26001 410.341 9.2197031e-39
2531.4299 -484.32996 413.272 9.2197031e-39
2529.0449 -467.29498 412.26398 9.2197031e-39
2523.8101 -447.70001 410.43951 9.2197031e-39
2530.48 -432 411.87601 9.2197031e-39
2531.9299 -427.44995 412.164 9.2197031e-39
2547.71 -414.73999 416.10199 9.2197031e-39
2554.8601 -410.59998 417.922 9.2197031e-39
2532.8799 -394.59003 411.702 9.2197031e-39
2532.25 -389.87 411.42999 9.2197031e-39
2533.0601 -357.13098 410.931 9.2197031e-39
2545.71 -201.245 410.90799 9.2197031e-39
2565.3999 -203.87299 416.224 9.2197031e-39
2576.7 -37.013977 415.60199 9.2197031e-39
2538.1699 -942.63 425.073 9.2197031e-39
2541.6399 -938.42004 425.909 9.2197031e-39
2549.46 -924.18994 427.68799 9.2197031e-39
2553.49 -546.98999 420.53201 9.2197031e-39
2759.3 1829.49 423.63501 9.2197031e-39
2561.3101 -924.72998 430.86301 9.2197031e-39
2571.51 -911.64001 433.302 9.2197031e-39
2572.3201 -905.85999 433.39001 9.2197031e-39
2578.01 -890.31006 434.57101 9.2197031e-39
2595.05 -893.08997 439.18201 9.2197031e-39
2583.25 -868.48999 435.49399 9.2197031e-39
2593.3799 -867.5 438.17899 9.2197031e-39
2583.71 -844.55005 435.09601 9.2197031e-39
2582.4399 -837.96997 434.612 9.2197031e-39
2573.1399 -815.88 431.64801 9.2197031e-39
2580.54 -813.43994 433.57001 9.2197031e-39
2576.1299 -794.02002 431.96899 9.2197031e-39
2574.5901 -787.59998 431.41699 9.2197031e-39
2574.25 -770.31995 430.94901 9.2197031e-39
2575.27 -765.08997 431.10599 9.2197031e-39
2780.27 1722.6 431.56699 9.2197031e-39
2633.6699 -569.64001 442.439 9.2197031e-39
2932.7 1944.05 467.444 9.2197031e-39
2940.4399 2044.83 467.31201 9.2197031e-39
2930 2050.3901 464.40201 9.2197031e-39
2956.4299 1665.91 479.85101 9.2197031e-39
2958.9299 1742.6801 478.84299 9.2197031e-39
2960.52 1763.79 478.806 9.2197031e-39
2954.24 1812.74 476.06299 9.2197031e-39
2954.1799 1832.37 475.617 9.2197031e-39
2950.3601 1887.38 473.396 9.2197031e-39
2951.3799 1909.64 473.18301 9.2197031e-39
2963.1599 1294.61 489.75 9.2197031e-39
2962.99 1308.4919 489.401 9.2197031e-39
2960.5801 1348.873 487.87799 9.2197031e-39
2965.24 1368.825 488.686 9.2197031e-39
2959.8 1407.287 486.39499 9.2197031e-39
2964.6201 1428.198 487.22601 9.2197031e-39
2966.24 1476.88 486.59698 9.2197031e-39
2964.3101 1490.3469 485.785 9.2197031e-39
2957.9099 1530.8921 483.19299 9.2197031e-39
2960.5 1550.655 483.45401 9.2197031e-39
2958.99 1599.3091 481.987 9.2197031e-39
2961.6599 1620.05 482.24899 9.2197031e-39
2960.9099 1690.03 480.522 9.2197031e-39
2706.8899 -2053.95 494.384 9.2197031e-39
2719.8799 -2056.51 497.90701 9.2197031e-39
2967.96 905.15302 499.53101 9.2197031e-39
2968.79 950.00403 498.77499 9.2197031e-39
2970.1399 962.396 498.86499 9.2197031e-39
2967.0901 993.93298 497.362 9.2197031e-39
2969.6201 1007.752 497.73499 9.2197031e-39
2966.51 1040.179 496.198 9.2197031e-39
2968 1053.465 496.306 9.2197031e-39
2965.29 1099.51 494.57599 9.2197031e-39
2971.9199 1093.606 496.47601 9.2197031e-39
2967.5701 1139.291 494.319 9.2197031e-39
2968.4199 1152.834 494.24799 9.2197031e-39
2970.3799 1193.717 493.88 9.2197031e-39
2970.1899 1206.6841 493.54599 9.2197031e-39
2964.3601 1240.76 491.245 9.2197031e-39
2970.5801 1261.0281 492.466 9.2197031e-39
2758.5801 -2062.8501 508.38199 9.2197031e-39
2764.78 -2055.52 509.87601 9.2197031e-39
2970.1599 495.47299 509.05899 9.2197031e-39
2975.9399 524.48657 509.96799 9.2197031e-39
2972.4099 531.11267 508.88101 9.2197031e-39
2976.5698 564.25757 509.2695 9.2197031e-39
2979.27 597.21417 509.272 9.2197031e-39
2972.95 602.29749 507.47299 9.2197031e-39
2968.6699 626.89294 505.79099 9.2197031e-39
2972.9099 638.81592 506.664 9.2197031e-39
2976.21 668.98071 506.888 9.2197031e-39
2980.1799 681.08289 507.685 9.2197031e-39
2974.74 706.02728 505.686 9.2197031e-39
2968.8401 711.51691 503.992 9.2197031e-39
2972.46 743.31097 504.26401 9.2197031e-39
2975.9299 755.68298 504.922 9.2197031e-39
2967.8 779.64001 502.22699 9.2197031e-39
2970.24 791.53998 502.61801 9.2197031e-39
2970.8799 822.72998 502.10999 9.2197031e-39
2973.8201 835.37299 502.61899 9.2197031e-39
2974.48 867.48401 502.09399 9.2197031e-39
2975.6101 879.04199 502.14301 9.2197031e-39
2977.1101 923.745 501.569 9.2197031e-39
2796.96 -2036.1599 518.047 9.2197031e-39
2977.0701 96.40802 519.61102 9.2197031e-39
2980.1499 118.85199 519.94598 9.2197031e-39
2978.3301 125.51099 519.31403 9.2197031e-39
2981.01 148.117 519.53601 9.2197031e-39
2982.25 177.85001 519.21802 9.2197031e-39
2980.1799 184.51599 518.52002 9.2197031e-39
2973.54 488.85602 510.10599 9.2197031e-39
2803.27 -2060.1599 520.25598 9.2197031e-39
2818.0701 -2017.52 523.27802 9.2197031e-39
2810.6699 -1992.9299 520.76501 9.2197031e-39
2978.9099 -346.59698 529.771 9.2197031e-39
2979.05 -339.92798 529.66199 9.2197031e-39
2983.96 -286.35797 529.80402 9.2197031e-39
2985.45 -266.16901 529.76202 9.2197031e-39
2983.3201 -259.55103 529.04797 9.2197031e-39
2982.22 -232.76202 528.172 9.2197031e-39
2989.79 -212.04901 529.73901 9.2197031e-39
2989.3601 -205.33502 529.47803 9.2197031e-39
2983.0801 -185.58899 527.37 9.2197031e-39
2982.54 -178.90698 527.08002 9.2197031e-39
2978.77 89.754028 520.21002 9.2197031e-39
2988.3101 157.742 521.27502 9.2197031e-39
2846.02 -1992.51 530.19702 9.2197031e-39
2860.52 -1995.54 534.13501 9.2197031e-39
2986.0649 -316.517 531.02454 9.2197031e-39
2985.98 -293.01398 530.48901 9.2197031e-39
2991.22 -238.97498 530.711 9.2197031e-39
2894.3599 -1984.6 542.935 9.2197031e-39
