# .PCD v0.7 - Point Cloud Data file format
VERSION 0.7
FIELDS x y z rgb
SIZE 4 4 4 4
TYPE F F F F
COUNT 1 1 1 1
WIDTH 321
HEIGHT 1
VIEWPOINT 0 0 0 1 0 0 0
POINTS 321
DATA ascii
1725.22 -1055.3 133.813 9.2197031e-39
1736.1599 -1053.8101 136.7605 9.2197031e-39
1748.8 -1058.97 139.76601 9.2197031e-39
1531.5649 -103.83701 138.548 9.2197031e-39
1528.9 -93.030029 138.479 9.2197031e-39
1533.7367 -95.347008 139.60933 9.2197031e-39
600.61499 4017.54 134.96899 9.2197031e-39
1755.8101 -1060.27 141.524 9.2197031e-39
1756.23 -1031.2 143.325 9.2197031e-39
1757.77 -1013.15 144.77901 9.2197031e-39
1735.61 -908.21997 145.092 9.2197031e-39
1728.05 -863.54004 145.716 9.2197031e-39
1719.64 -814.89001 146.347 9.2197031e-39
1710.35 -769.60999 146.55299 9.2197031e-39
1707.02 -742.31006 147.272 9.2197031e-39
1708.6801 -734.38 148.168 9.2197031e-39
1702.66 -701.56995 148.50301 9.2197031e-39
1698.29 -677.66003 148.752 9.2197031e-39
1682.1851 -615.44501 148.1615 9.2197031e-39
1666.61 -559.34998 147.351 9.2197031e-39
1638 -478.26001 144.591 9.2197031e-39
1631.38 -455.06995 144.21001 9.2197031e-39
1621.76 -426.60999 143.347 9.2197031e-39
1618.91 -414.80005 143.29201 9.2197031e-39
1637.25 -406.77002 148.55499 9.2197031e-39
1608.12 -385.71997 142.162 9.2197031e-39
1605.52 -375.94397 142.05 9.2197031e-39
1629.97 -370.30603 148.774 9.2197031e-39
1603.63 -365.8045 142.147 9.2197031e-39
1612.5566 -366.85934 144.42 9.2197031e-39
1598.33 -353.95898 141.45 9.2197031e-39
1603.9498 -357.86133 142.69299 9.2197031e-39
1619.77 -356.76001 146.894 9.2197031e-39
1565.84 -113.09497 146.97301 9.2197031e-39
1567.355 -101.73801 148.03101 9.2197031e-39
1570.47 -106.00403 148.597 9.2197031e-39
1545.84 -93.573669 142.87901 9.2197031e-39
1550.4 -90.812988 144.23199 9.2197031e-39
1568.61 -91.322998 148.965 9.2197031e-39
1572.2549 -98.264008 149.51349 9.2197031e-39
1537.2666 -85.542992 141.10333 9.2197031e-39
1546.3234 -89.278664 143.25533 9.2197031e-39
1551.96 -82.929993 145.10001 9.2197031e-39
1567.2151 -80.917999 149.20599 9.2197031e-39
1537.97 -79.525024 141.63901 9.2197031e-39
1541.14 -78.001495 142.556 9.2197031e-39
1555.405 -73.232483 146.564 9.2197031e-39
1563.65 -72.262657 148.77699 9.2197031e-39
1557.0449 -68.390991 147.27649 9.2197031e-39
1563.2 -65.663483 149.04401 9.2197031e-39
1564.1899 -57.229004 149.79401 9.2197031e-39
531.99597 4496.8999 144.92599 9.2197031e-39
1673.76 -460.46997 154.979 9.2197031e-39
1661.24 -442.40002 152.757 9.2197031e-39
1649.1801 -425.20996 150.601 9.2197031e-39
574.44501 4512.8799 156.95799 9.2197031e-39
1704.14 -507.30005 160.198 9.2197031e-39
612.09302 4512.1899 166.765 9.2197031e-39
1767.09 -607.77002 170.815 9.2197031e-39
658.65802 4506.75 178.62801 9.2197031e-39
1838.0699 -716.09998 183.073 9.2197031e-39
872.17102 3732.02 189.37399 9.2197031e-39
819.44897 3815.3401 180.43401 9.2197031e-39
1895.9351 -709.76501 198.57599 9.2197031e-39
1884.91 -682.35999 197.289 9.2197031e-39
1884.03 -674.12 197.53799 9.2197031e-39
1885.6951 -664.35498 198.5405 9.2197031e-39
901.39398 3742.8101 197.645 9.2197031e-39
1892.1801 -660.78003 200.44701 9.2197031e-39
1902.37 -666.38 202.784 9.2197031e-39
1910.825 -664.81 205.08801 9.2197031e-39
1914.71 -654.5 206.7045 9.2197031e-39
1917.6599 -643.47498 208.117 9.2197031e-39
1915.6001 -627.40002 208.5145 9.2197031e-39
1918.24 -619.76001 209.64999 9.2197031e-39
943.07599 3716.78 207.032 9.2197031e-39
1976.63 -835.18994 212.381 9.2197031e-39
1927.39 -623.09998 211.849 9.2197031e-39
1928.865 -614.30005 212.746 9.2197031e-39
1938.03 -613.06995 215.215 9.2197031e-39
1942.6266 -604.87 216.89467 9.2197031e-39
1951.17 -599.45996 219.44299 9.2197031e-39
1070.13 3278.1299 214.729 9.2197031e-39
962.30701 3796.28 216.689 9.2197031e-39
1955.175 -593.84003 220.8185 9.2197031e-39
1965.13 -593.30005 223.453 9.2197031e-39
1978.825 -595.01001 226.93701 9.2197031e-39
1098 3272.53 221.692 9.2197031e-39
2081.3601 -992.80005 230.599 9.2197031e-39
1991.12 -595.17004 230.14301 9.2197031e-39
1108.9399 3459.95 235.464 9.2197031e-39
2037.05 -625.92004 240.36501 9.2197031e-39
2331.4099 -633.66003 316.90601 9.2197031e-39
2327.3401 -623.80005 316.41501 9.2197031e-39
2332.5801 -616.93994 318.185 9.2197031e-39
2327.4399 -606.77002 317.43301 9.2197031e-39
2324.5601 -596.16003 317.29501 9.2197031e-39
2327.21 -589.84998 318.35599 9.2197031e-39
2438.7 -931.31995 327.63901 9.2197031e-39
2333.95 -583.70996 320.47699 9.2197031e-39
2332.02 -575.37 320.45801 9.2197031e-39
2339.55 -569.5 322.76999 9.2197031e-39
2353.74 -567.91003 326.573 9.2197031e-39
2361.23 -561.73999 328.89001 9.2197031e-39
2719.1399 -2055.26 335.56299 9.2197031e-39
2467.3501 -942.09998 334.50601 9.2197031e-39
2476.9099 -935.39001 337.397 9.2197031e-39
2373.6101 -559.04004 332.28601 9.2197031e-39
2381.04 -552.58997 334.60501 9.2197031e-39
2392.5 -549.21997 337.798 9.2197031e-39
2742.4199 -2053.77 341.73801 9.2197031e-39
2761.1101 -2051.6299 346.75201 9.2197031e-39
2487.6699 -931.96997 340.41101 9.2197031e-39
2493.99 -922.68994 342.603 9.2197031e-39
2494.3 -911.59998 343.32901 9.2197031e-39
2503.6499 -904.5 346.18799 9.2197031e-39
2510.25 -897.87 348.29999 9.2197031e-39
2467.6899 -714.15002 347.86401 9.2197031e-39
2421.8799 -550.43994 345.41101 9.2197031e-39
2807.8401 -2053.5701 358.85901 9.2197031e-39
2783.95 -2048.79 352.89099 9.2197031e-39
2519.5 -890.56995 351.146 9.2197031e-39
2523.55 -882.15002 352.69501 9.2197031e-39
2536.8201 -877.31995 356.44601 9.2197031e-39
2546.5601 -872.46997 359.27499 9.2197031e-39
2445.3201 -550.78003 351.52399 9.2197031e-39
2463.79 -547.22998 356.56 9.2197031e-39
2554.8101 -864.17004 361.91699 9.2197031e-39
2561.1499 -857.03003 363.98999 9.2197031e-39
2580.22 -855.08997 369.09201 9.2197031e-39
2571.28 -838.76001 367.70401 9.2197031e-39
2480.8501 -544.69995 361.16901 9.2197031e-39
2601.3701 -842.83997 375.336 9.2197031e-39
2581.1001 -820.30005 371.34799 9.2197031e-39
2586.3601 -810.08997 373.31799 9.2197031e-39
2591.47 -802.13 375.117 9.2197031e-39
2587.8999 -787.21997 375.05099 9.2197031e-39
2520.6699 -547.37 371.42899 9.2197031e-39
2542.45 -545.56006 377.23001 9.2197031e-39
2546.1201 -516.62 379.875 9.2197031e-39
2541.5601 -506.69995 379.26099 9.2197031e-39
2577.79 -545.55005 386.47501 9.2197031e-39
2558.53 -530.88 382.29199 9.2197031e-39
2551.4399 -494.50995 382.5535 9.2197031e-39
2554.5801 -480.46997 384.19199 9.2197031e-39
2557.26 -472.5 385.358 9.2197031e-39
2551.71 -460.78003 384.58801 9.2197031e-39
2545.7 -450.95996 383.58801 9.2197031e-39
2550.3899 -441.65002 385.35599 9.2197031e-39
2550.8799 -433.30005 385.97 9.2197031e-39
2544.9199 -421.91003 385.073 9.2197031e-39
2552.8899 -414.98999 387.56299 9.2197031e-39
2553.1101 -377.91498 389.77701 9.2197031e-39
2538.8799 -365.888 386.75699 9.2197031e-39
2541.6699 -358.05402 387.94199 9.2197031e-39
2545.53 -348.51898 389.50699 9.2197031e-39
2566.8301 -407.13 391.66599 9.2197031e-39
2568.97 -398.98999 392.69901 9.2197031e-39
2564.5601 -387.97998 392.186 9.2197031e-39
2548.1899 -340.59399 390.664 9.2197031e-39
2553.8301 -331.12701 392.68799 9.2197031e-39
2547.3899 -185.55798 399.48001 9.2197031e-39
2537.8201 -159.88 398.47 9.2197031e-39
2529.4299 -142.57397 397.284 9.2197031e-39
2532.25 -132.41498 398.61301 9.2197031e-39
2533.26 -124.16302 399.35599 9.2197031e-39
2520.55 -115.73999 396.522 9.2197031e-39
2519.51 -107.79303 396.71301 9.2197031e-39
2519.1201 -97.987976 397.18201 9.2197031e-39
2519.0952 -84.932495 397.93649 9.2197031e-39
2515.1201 -72.47699 397.62201 9.2197031e-39
2504.8799 -64.348022 395.41699 9.2197031e-39
2516.75 -54.077026 399.12 9.2197031e-39
2471.28 129.47198 397.91101 9.2197031e-39
2466.55 146.966 397.69299 9.2197031e-39
2462.6299 154.121 397.08301 9.2197031e-39
2464.1799 165.561 398.155 9.2197031e-39
2455.7 170.72501 396.237 9.2197031e-39
2465.8701 186.19601 399.797 9.2197031e-39
2549.78 -177.237 400.58801 9.2197031e-39
2547.1399 -167.39899 400.47101 9.2197031e-39
2543.6899 -149.46802 400.612 9.2197031e-39
2507.76 74.125977 404.23001 9.2197031e-39
2523.1101 70.247986 408.01801 9.2197031e-39
2492.1001 88.125 400.94901 9.2197031e-39
2500.1399 82.187012 402.70499 9.2197031e-39
2496.7151 104.6265 403.117 9.2197031e-39
2488.3899 116.63 401.63901 9.2197031e-39
2484.6799 123.992 401.09698 9.2197031e-39
2477.3601 140.63101 400.14999 9.2197031e-39
2490.6101 206.763 407.466 9.2197031e-39
2565.1599 -34.663025 412.91101 9.2197031e-39
2538.98 64.367981 411.827 9.2197031e-39
2631.03 -192.38098 420.95901 9.2197031e-39
2717.53 -337.38898 435.14001 9.2197031e-39
2643.3899 85.833008 440.38699 9.2197031e-39
2717.8201 326.45599 473.85999 9.2197031e-39
3000.27 -347.98102 508.47501 9.2197031e-39
2892.9399 40.447021 503.01401 9.2197031e-39
3007.6899 -336.63501 511.077 9.2197031e-39
3008.3799 -322.15601 512.099 9.2197031e-39
3008.8401 -310.26501 512.91302 9.2197031e-39
3009.28 -295.77197 513.87201 9.2197031e-39
3009.55 -283.87201 514.633 9.2197031e-39
3001.03 -269.15503 513.263 9.2197031e-39
3009.8 -257.46301 516.237 9.2197031e-39
3001.05 -242.89697 514.79498 9.2197031e-39
3010.5801 -231.04498 517.97803 9.2197031e-39
3000.6101 -216.63702 516.21002 9.2197031e-39
3010.9099 -204.59302 519.604 9.2197031e-39
2985.24 -190.80902 513.69202 9.2197031e-39
2996.8999 76.575989 532.30701 9.2197031e-39
2993.3799 88.197998 532.06299 9.2197031e-39
2998.5901 104.54199 534.37799 9.2197031e-39
2995.8 116.38901 534.33801 9.2197031e-39
2998.8401 132.44101 536.06702 9.2197031e-39
2997.71 144.77899 536.48901 9.2197031e-39
2993.9199 159.20499 536.33899 9.2197031e-39
2990.72 171.01901 536.18799 9.2197031e-39
2986.6201 468.94901 552.45801 9.2197031e-39
2988.48 487.61499 554.034 9.2197031e-39
2987.95 502.047 554.73401 9.2197031e-39
2990.29 521.33411 556.46899 9.2197031e-39
2992.02 537.24042 557.84698 9.2197031e-39
2992.25 555.81549 558.98798 9.2197031e-39
2986.8601 568.11951 558.29602 9.2197031e-39
2986.73 586.78491 559.34698 9.2197031e-39
2989.49 603.9151 561.06598 9.2197031e-39
2987.28 621.75952 561.52698 9.2197031e-39
2990.51 639.56433 563.40802 9.2197031e-39
2989.5601 658.54523 564.26398 9.2197031e-39
2989.9299 675.00519 565.32098 9.2197031e-39
2989.3899 694.6416 566.32098 9.2197031e-39
2989.4099 711.23688 567.29303 9.2197031e-39
2986.8201 729.94202 567.70502 9.2197031e-39
2979.27 741.74701 566.41498 9.2197031e-39
2985.8899 767.10803 569.625 9.2197031e-39
2985.1899 783.94299 570.422 9.2197031e-39
2983.3501 803.98102 571.10699 9.2197031e-39
2982.28 820.92798 571.81403 9.2197031e-39
2986.22 845.737 574.289 9.2197031e-39
2985.52 863.427 575.13397 9.2197031e-39
2981.97 883.16199 575.35602 9.2197031e-39
2980.1201 900.35901 575.87097 9.2197031e-39
2976.1299 920.17004 575.98297 9.2197031e-39
2982.1799 944.22101 578.96503 9.2197031e-39
2985.1699 970.41296 581.27002 9.2197031e-39
2982.45 987.89001 581.578 9.2197031e-39
2977.46 1007.977 581.44202 9.2197031e-39
2982.4099 1032.587 584.16803 9.2197031e-39
2976.9099 1052.798 583.90503 9.2197031e-39
2980.5701 1077.016 586.27197 9.2197031e-39
2975.26 1097.994 586.10602 9.2197031e-39
2979.0701 1123.119 588.565 9.2197031e-39
2978.1399 1148.95 589.82397 9.2197031e-39
2974.3601 1167.54 589.91699 9.2197031e-39
2974.8799 1195.6111 591.68903 9.2197031e-39
2970.6299 1214.3049 591.66498 9.2197031e-39
2969.8 1241.8921 593.05499 9.2197031e-39
2971.8101 1267.7419 595.08398 9.2197031e-39
2970.26 1295.5811 596.29797 9.2197031e-39
2972.26 1322.402 598.38501 9.2197031e-39
2968.6599 1349.0281 598.99298 9.2197031e-39
2969.3601 1375.3611 600.70697 9.2197031e-39
2965.6899 1402.902 601.35199 9.2197031e-39
2970.8101 1435.395 604.58099 9.2197031e-39
2967.6101 1464.6641 605.44897 9.2197031e-39
2966.29 1490.71 606.62 9.2197031e-39
2966.6299 1525.4919 608.73401 9.2197031e-39
2969.48 1557.876 611.36401 9.2197031e-39
2964.6299 1587.595 611.82501 9.2197031e-39
2966.6399 1620.27 614.25403 9.2197031e-39
2964.48 1654.88 615.703 9.2197031e-39
2965.04 1687.0601 617.72302 9.2197031e-39
2961.9099 1721.9399 618.93402 9.2197031e-39
2962.74 1755.98 621.13397 9.2197031e-39
2958.6101 1791.11 622.099 9.2197031e-39
2964.1001 1833.51 626.00098 9.2197031e-39
2956.7 1865.67 625.93799 9.2197031e-39
2956.2 1901.0699 627.87 9.2197031e-39
2955.8799 1945.75 630.38599 9.2197031e-39
2958.6001 1988.0601 633.55902 9.2197031e-39
2949.6599 2021.45 633.16602 9.2197031e-39
2951.27 2064.0801 636.06897 9.2197031e-39
2946.8701 2106.8999 637.409 9.2197031e-39
2944.3 2144.77 638.94202 9.2197031e-39
2944.0601 2197.22 641.93201 9.2197031e-39
2943.26 2240.49 644.242 9.2197031e-39
2941.95 2294.2 647.026 9.2197031e-39
2939.3999 2336.9302 648.84601 9.2197031e-39
2674.29 3446.1001 644.073 9.2197031e-39
2936.98 2391.8799 651.41199 9.2197031e-39
2934.97 2438.3799 653.59302 9.2197031e-39
2934.48 2500.73 657.09497 9.2197031e-39
2791.28 3090.1699 653.95203 9.2197031e-39
2709.48 3437.0601 652.75098 9.2197031e-39
2673.24 3680.3101 657.43201 9.2197031e-39
2935.01 2555.49 660.41998 9.2197031e-39
2933.47 2620.0601 663.77698 9.2197031e-39
2929.3701 2668.98 665.552 9.2197031e-39
2927.5801 2737.54 669.07501 9.2197031e-39
2818.5 3084.1699 660.72198 9.2197031e-39
2809.3601 3237.6599 667.26599 9.2197031e-39
2740.3301 3435.52 660.73102 9.2197031e-39
2698.3401 3630.3999 661.09198 9.2197031e-39
2670.02 3785.3401 662.70398 9.2197031e-39
2643.8601 3967.3601 666.45697 9.2197031e-39
2584.77 4219.7002 665.69098 9.2197031e-39
2923.5901 2790.3401 671.104 9.2197031e-39
2923.75 2868.3401 675.68799 9.2197031e-39
2924.77 2936.8601 679.94098 9.2197031e-39
2825.21 3367.6101 678.97803 9.2197031e-39
2777.6899 3432.3799 670.31897 9.2197031e-39
2810.28 3434.9199 678.98901 9.2197031e-39
2679.3501 3970.26 675.90802 9.2197031e-39
2627.8799 4215.3203 676.71198 9.2197031e-39
2918.23 3005.3999 682.22101 9.2197031e-39
2916.0801 3071.6001 685.51398 9.2197031e-39
2890.1599 3173.9199 684.69098 9.2197031e-39
2655.3401 4179.8604 681.83099 9.2197031e-39
2915.8899 3161.5701 690.70001 9.2197031e-39
