# .PCD v0.7 - Point Cloud Data file format
VERSION 0.7
FIELDS x y z rgb
SIZE 4 4 4 4
TYPE F F F F
COUNT 1 1 1 1
WIDTH 315
HEIGHT 1
VIEWPOINT 0 0 0 1 0 0 0
POINTS 315
DATA ascii
2576.5601 -314.30298 133.20599 9.2197031e-39
2574.6101 -300.65802 135.99699 9.2197031e-39
2583.8 -301.073 137.23599 9.2197031e-39
1716.14 267.66 139.424 9.2197031e-39
1724.335 262.58948 139.472 9.2197031e-39
1706.715 272.798 139.2135 9.2197031e-39
1683.92 288.39801 139.42 9.2197031e-39
-2302.0701 2851.8899 138.379 9.2197031e-39
2611.3401 -300.10699 141.452 9.2197031e-39
2635.79 -301.97498 144.578 9.2197031e-39
2600.3899 -298.90997 140.132 9.2197031e-39
2570.7 -258.73297 144.873 9.2197031e-39
2438.0601 -172.36902 145.076 9.2197031e-39
2397.8701 -145.88098 145.21001 9.2197031e-39
2367.24 -120.565 146.468 9.2197031e-39
2344.04 -104.58502 146.7 9.2197031e-39
2330.3601 -89.710022 148.065 9.2197031e-39
2305.8899 -73.880981 148.07899 9.2197031e-39
2222.875 -24.151001 147.23401 9.2197031e-39
2206.21 -9.1749878 148.189 9.2197031e-39
2191.75 0.020996094 148.161 9.2197031e-39
2148.26 25.119019 147.504 9.2197031e-39
2078.8601 58.414978 144.93201 9.2197031e-39
2046.28 76.200989 144.21001 9.2197031e-39
2027.48 85.632019 143.60699 9.2197031e-39
2016.47 93.004028 143.66901 9.2197031e-39
1964.6034 118.51966 141.88867 9.2197031e-39
1977.14 110.31 141.85899 9.2197031e-39
2027.95 111.215 149.437 9.2197031e-39
1958.1951 125.3215 142.49049 9.2197031e-39
1963.2839 126.1898 143.42502 9.2197031e-39
1716.9467 276.11832 141.44701 9.2197031e-39
1726.6859 275.68341 142.76241 9.2197031e-39
1733.8999 275.49899 143.76768 9.2197031e-39
1760.24 276.30899 147.77299 9.2197031e-39
1728.21 285.077 145.10001 9.2197031e-39
1732.8199 282.42899 145.172 9.2197031e-39
1747.1951 286.8605 148.257 9.2197031e-39
1754.495 283.84799 148.63699 9.2197031e-39
1723.96 297.67474 147.3205 9.2197031e-39
1734.9366 296.54233 148.65833 9.2197031e-39
1741.36 296.12299 149.496 9.2197031e-39
1726.35 302.01398 148.64401 9.2197031e-39
1730.5699 302.004 149.254 9.2197031e-39
-2328.4399 2899.29 145.228 9.2197031e-39
2100.22 95.895996 156.474 9.2197031e-39
2052.1399 105.15802 151.58299 9.2197031e-39
2074.9199 101.56799 154.08 9.2197031e-39
1747.135 297.38898 150.61951 9.2197031e-39
2227.71 67.68103 168.62 9.2197031e-39
2163.6399 82.505981 162.661 9.2197031e-39
-2271.1799 2931.1399 160.713 9.2197031e-39
-2270.22 2961.03 167.58501 9.2197031e-39
2285.8601 58.320007 174.952 9.2197031e-39
2417.0901 29.039001 187.39999 9.2197031e-39
-2281.3301 3039.8101 183.717 9.2197031e-39
-2269.8301 3063.04 190.618 9.2197031e-39
2574.8501 0.17297363 203.793 9.2197031e-39
-1906.28 2901.95 207.09399 9.2197031e-39
-2249.1899 3120.8201 206.63 9.2197031e-39
2495.96 102.16 215.31601 9.2197031e-39
2478.8301 113.50101 215.38499 9.2197031e-39
2480.02 116.80801 216.302 9.2197031e-39
2481.4551 126.25151 218.6375 9.2197031e-39
2484.77 137.33899 221.616 9.2197031e-39
2492.8301 146.61801 224.87601 9.2197031e-39
2492.8501 150.086 225.66 9.2197031e-39
2505.6799 157.79401 229.258 9.2197031e-39
2504.6499 161.34601 229.908 9.2197031e-39
-2204.98 3193.72 229.465 9.2197031e-39
2642.1001 74.974976 230.401 9.2197031e-39
2511.3899 169.44101 232.711 9.2197031e-39
2500.3999 172.98999 231.914 9.2197031e-39
2505.4302 182.908 234.87851 9.2197031e-39
2503.3899 192.76599 236.80299 9.2197031e-39
2516 196.76099 239.533 9.2197031e-39
2956.52 -81.375 240.813 9.2197031e-39
2972.76 -70.799011 245.552 9.2197031e-39
2977.76 -65.664978 247.43401 9.2197031e-39
2508.1699 208.25201 240.985 9.2197031e-39
2510.4399 204.789 240.534 9.2197031e-39
2522.1899 217.39801 245.07899 9.2197031e-39
2511.97 220.332 244.257 9.2197031e-39
-2428.47 3395.3 242.439 9.2197031e-39
2981.1399 -52.130005 250.97301 9.2197031e-39
2980.1799 -45.776001 252.265 9.2197031e-39
2990.1699 -33.398987 256.50299 9.2197031e-39
2994 -27.867981 258.30499 9.2197031e-39
2992.99 -13.468018 261.401 9.2197031e-39
3001.6299 -8.6229858 263.74701 9.2197031e-39
2993.48 6.7979736 266.03799 9.2197031e-39
2999.0801 12.185974 268.064 9.2197031e-39
2995.5901 26.802002 270.849 9.2197031e-39
2805.1399 252.95901 294.15201 9.2197031e-39
-3407.47 4277.5703 299.08899 9.2197031e-39
-3640.23 4415.1499 296.29901 9.2197031e-39
3002.1001 275.51001 327.815 9.2197031e-39
-3366.21 4344.7402 320.20901 9.2197031e-39
3009.175 293.66351 332.93149 9.2197031e-39
3015.9751 315.2305 338.77551 9.2197031e-39
3012.6001 335.74701 342.90649 9.2197031e-39
3008.375 356.13449 346.88599 9.2197031e-39
3005.25 376.703 351.06549 9.2197031e-39
3011.1599 395.806 356.22601 9.2197031e-39
3010.71 402.20398 357.60101 9.2197031e-39
3006.3601 416.26898 360.138 9.2197031e-39
3005.79 422.66199 361.496 9.2197031e-39
3001.2 436.65802 363.98199 9.2197031e-39
3009.1299 445.035 367.021 9.2197031e-39
3005.22 459.29401 369.664 9.2197031e-39
3003.46 465.483 370.80399 9.2197031e-39
2999.3 479.681 373.397 9.2197031e-39
3005.96 488.13098 376.267 9.2197031e-39
3001.52 502.36499 378.82901 9.2197031e-39
3008.01 510.97699 381.711 9.2197031e-39
3003.28 525.24359 384.23801 9.2197031e-39
3001.1699 531.4328 385.32599 9.2197031e-39
3004.5901 548.30798 389.62299 9.2197031e-39
3002.3501 554.50751 390.69501 9.2197031e-39
3004.25 574.65344 395.50848 9.2197031e-39
3005.8101 594.9599 400.30801 9.2197031e-39
3003.3201 601.17291 401.34698 9.2197031e-39
3006.6299 618.87622 405.814 9.2197031e-39
3002.1899 624.39447 406.41299 9.2197031e-39
3003.7651 645.35608 411.36401 9.2197031e-39
3004.0801 666.11182 416.08401 9.2197031e-39
3001.21 672.32672 417.06799 9.2197031e-39
2996.28 687.349 419.73599 9.2197031e-39
3001.3201 697.11328 422.66599 9.2197031e-39
3001.3799 714.63159 426.621 9.2197031e-39
2998.25 720.83997 427.56601 9.2197031e-39
2997.96 738.45203 431.48999 9.2197031e-39
2995.5801 745.07501 432.63699 9.2197031e-39
2994.9648 766.7605 437.43201 9.2197031e-39
2993.1001 788.12201 441.97299 9.2197031e-39
2998.1599 798.896 445.13501 9.2197031e-39
2997.5601 817.36499 449.207 9.2197031e-39
2993.8799 823.56897 450.07001 9.2197031e-39
2993.51 846.68054 455.22302 9.2197031e-39
2991.04 868.95099 459.88101 9.2197031e-39
2993.74 879.16199 462.57199 9.2197031e-39
2993.54 899.02802 467.01901 9.2197031e-39
2989.4299 905.224 467.81699 9.2197031e-39
2987.1799 924.14697 471.75299 9.2197031e-39
2990.23 935.10999 474.66599 9.2197031e-39
2987.53 954.18103 478.56799 9.2197031e-39
2983.9199 960.901 479.55801 9.2197031e-39
2987.1599 984.48596 485.341 9.2197031e-39
2983.3799 991.22302 486.31 9.2197031e-39
2986.0701 1015.048 492.06699 9.2197031e-39
2981.3301 1021.222 492.76999 9.2197031e-39
2982.7 1044.6799 498.25201 9.2197031e-39
2984.74 1056.14 501.13 9.2197031e-39
2980.1599 1075.6799 504.866 9.2197031e-39
2989.53 1093.275 510.189 9.2197031e-39
2984.3799 1113.004 513.88702 9.2197031e-39
2985.1101 1124.109 516.49298 9.2197031e-39
2980.97 1145.1631 520.63397 9.2197031e-39
2988.0601 1162.0181 525.46002 9.2197031e-39
2988.4199 1187.725 531.30298 9.2197031e-39
2983.48 1194.5801 532.13098 9.2197031e-39
2982.52 1219.823 537.67603 9.2197031e-39
2983.8101 1232.554 540.73199 9.2197031e-39
2983.5801 1259.3521 546.73499 9.2197031e-39
2983.8501 1271.553 549.521 9.2197031e-39
2983.6001 1299.276 555.729 9.2197031e-39
2977.3301 1305.481 556.21802 9.2197031e-39
2977.1001 1334.067 562.62299 9.2197031e-39
2976.74 1346.4661 565.36298 9.2197031e-39
2974.3701 1387.1111 574.17499 9.2197031e-39
2981.0701 1380.907 573.75 9.2197031e-39
2978.48 1422.589 582.76398 9.2197031e-39
2976.77 1434.506 585.19897 9.2197031e-39
2973.49 1463.144 591.17297 9.2197031e-39
2971.45 1475.1331 593.578 9.2197031e-39
2973.6899 1511.29 602.047 9.2197031e-39
2970.6599 1522.64 604.164 9.2197031e-39
2965.76 1551.681 609.99402 9.2197031e-39
2969.1399 1571.3091 614.90601 9.2197031e-39
2968.78 1607.3721 622.97699 9.2197031e-39
2965.04 1618.864 625.02301 9.2197031e-39
2966.05 1658.27 634.04498 9.2197031e-39
2967.1899 1676.76 638.37598 9.2197031e-39
2964.73 1713.4399 646.28101 9.2197031e-39
-487.76401 3951.2 649.29199 9.2197031e-39
2967.0601 1734.4399 651.349 9.2197031e-39
2963.47 1771.4399 659.16101 9.2197031e-39
2960.22 1785.52 661.86102 9.2197031e-39
2961.04 1830.71 672.159 9.2197031e-39
2960.5701 1849.6801 676.36603 9.2197031e-39
2962.1499 1898.51 687.59302 9.2197031e-39
2957.9399 1912.79 690.19897 9.2197031e-39
2953.98 1955.48 699.23901 9.2197031e-39
2953.9199 1977.2 704.12201 9.2197031e-39
1020.59 3248.0701 709.81097 9.2197031e-39
-597.66901 4286.9102 708.96002 9.2197031e-39
2955.6599 2031.74 716.66101 9.2197031e-39
1059.26 3252.52 716.42603 9.2197031e-39
-684.93298 4384.8999 718.36798 9.2197031e-39
2953.4099 2051.1699 720.711 9.2197031e-39
1064.74 3300.8799 728.11298 9.2197031e-39
-570.33301 4353.7197 727.97601 9.2197031e-39
2951.5701 2102.8198 732.078 9.2197031e-39
2954.48 2132.4399 739.16998 9.2197031e-39
1103.13 3308.5901 735.42297 9.2197031e-39
50.642799 3997.3301 737.81799 9.2197031e-39
-566.83301 4398.2803 738.52197 9.2197031e-39
2949.54 2181.99 749.61499 9.2197031e-39
71.323898 4005.01 742.54901 9.2197031e-39
-505.83099 4407.6899 749.49402 9.2197031e-39
2946.47 2202.54 753.79797 9.2197031e-39
-83.483803 4160.2803 755.05701 9.2197031e-39
2944.1201 2260.04 766.40997 9.2197031e-39
-241.026 4305.2998 764.85999 9.2197031e-39
2943.0801 2285.8398 772.06897 9.2197031e-39
59.912998 4155.4502 774.77899 9.2197031e-39
-316.168 4400.3203 775.35797 9.2197031e-39
2939.3601 2344.6099 784.76703 9.2197031e-39
1068.87 3538.0701 782.14001 9.2197031e-39
843.34802 3674.28 780.091 9.2197031e-39
-226.117 4401.2803 788.64301 9.2197031e-39
2938.3799 2372.3 790.86401 9.2197031e-39
878.89099 3712.05 793.75702 9.2197031e-39
797.31 3765.29 793.90997 9.2197031e-39
49.711201 4235.54 791.34003 9.2197031e-39
2933.6399 2433.1899 803.88898 9.2197031e-39
2934.3101 2466.29 811.44299 9.2197031e-39
2931.24 2535.45 826.57599 9.2197031e-39
1074.64 3712.8301 822.341 9.2197031e-39
34.189201 4408.8999 828.13501 9.2197031e-39
2928.05 2562.6401 832.23798 9.2197031e-39
63.5158 4401.0601 830.62701 9.2197031e-39
121.825 4403.79 839.70203 9.2197031e-39
2923.99 2634.8701 847.91699 9.2197031e-39
146.839 4405.4902 843.716 9.2197031e-39
2925.71 2675.5 857.31799 9.2197031e-39
1064.85 3854.6201 852.85901 9.2197031e-39
203.879 4409.8799 852.98199 9.2197031e-39
229.871 4408.3398 856.40802 9.2197031e-39
313.909 4405.9102 868.05701 9.2197031e-39
284.70599 4417.2197 866.36499 9.2197031e-39
2921.0801 2752.6499 874.026 9.2197031e-39
367.63101 4416.5303 878.245 9.2197031e-39
2921.9199 2794.45 883.56201 9.2197031e-39
393.67401 4413.1001 881.25201 9.2197031e-39
449.84601 4415.23 889.883 9.2197031e-39
471.522 4424.4697 895.10901 9.2197031e-39
2915.05 2872.98 900.25403 9.2197031e-39
2917.8101 2923.1299 911.95001 9.2197031e-39
1057.24 4133.8604 914.65302 9.2197031e-39
513.22998 4472.71 912.02899 9.2197031e-39
535.55603 4480.6797 917.06299 9.2197031e-39
2912.3301 3012.97 931.39099 9.2197031e-39
2868.48 3052.79 933.99701 9.2197031e-39
2816.0901 3070.03 930.27698 9.2197031e-39
2857.3601 3071.4299 936.58099 9.2197031e-39
2910.1499 3054.3799 940.40198 9.2197031e-39
1047.0601 4303.0703 951.28802 9.2197031e-39
2675.24 3399.8 984.117 9.2197031e-39
2658.72 3408.47 983.67297 9.2197031e-39
1072.77 4452.5898 988.69702 9.2197031e-39
2882.45 3320.6699 996.36298 9.2197031e-39
2826.22 3341.01 992.78497 9.2197031e-39
2846.3501 3344.4399 996.479 9.2197031e-39
2718.1899 3398.4299 990.03998 9.2197031e-39
2779.8101 3394.76 998.15601 9.2197031e-39
2738.02 3401.5901 993.62903 9.2197031e-39
1090.1899 4487.6602 999.12598 9.2197031e-39
2801.1799 3402.1899 1002.93 9.2197031e-39
1144.61 4485.8101 1006.61 9.2197031e-39
1167.67 4488.5898 1010.58 9.2197031e-39
1220.75 4494.5303 1019.62 9.2197031e-39
1302.2 4460.1299 1023.69 9.2197031e-39
1325.15 4462.1001 1027.47 9.2197031e-39
1245.3101 4486.23 1021.32 9.2197031e-39
1361.34 4624.8398 1069.38 9.2197031e-39
1384.4 4634.2598 1074.84 9.2197031e-39
2652.24 4178.0601 1156.08 9.2197031e-39
2630.96 4184.8799 1154.53 9.2197031e-39
2294.04 4464.3398 1168.58 9.2197031e-39
2244.1899 4506.1299 1170.76 9.2197031e-39
2321.46 4498.8101 1180.3199 9.2197031e-39
2376.01 4498.6104 1188.1899 9.2197031e-39
2819.79 4246.4199 1195.79 9.2197031e-39
2729.3301 4291.3896 1192.79 9.2197031e-39
2753.29 4293.5098 1196.75 9.2197031e-39
2399.2 4494 1190.52 9.2197031e-39
2453.98 4493.8203 1198.4301 9.2197031e-39
2805.8 4286.1797 1202.72 9.2197031e-39
2620.1799 4404.6797 1202.47 9.2197031e-39
2600.78 4428.5703 1205.04 9.2197031e-39
2478.29 4496.4902 1202.5601 9.2197031e-39
1388.95 5217.4302 1206.86 9.2197031e-39
2533.29 4495.3301 1210.28 9.2197031e-39
2556.9299 4492.7803 1213.14 9.2197031e-39
2245.8899 4785.1201 1233.85 9.2197031e-39
1839.1 7286.21 1738.1801 9.2197031e-39
1877.4301 7303.3999 1747.61 9.2197031e-39
1208.59 7762.27 1753.9 9.2197031e-39
1302.77 7756.4702 1766.26 9.2197031e-39
1966.63 7358.9902 1773.08 9.2197031e-39
1342.79 7767.5898 1774.58 9.2197031e-39
2006.1899 7394.9702 1786.92 9.2197031e-39
1436.91 7760.1602 1786.5601 9.2197031e-39
2132.1699 7339.1201 1792.62 9.2197031e-39
1477.55 7761.7998 1792.83 9.2197031e-39
2096.1599 7409.9702 1803.36 9.2197031e-39
1571.13 7762.52 1806.5699 9.2197031e-39
2222.5 7364.27 1811.4 9.2197031e-39
1611.85 7762.4902 1812.47 9.2197031e-39
2262.3601 7380.3501 1820.8 9.2197031e-39
1705.48 7761.6001 1825.86 9.2197031e-39
2352.6799 7388.3398 1835.71 9.2197031e-39
1746.22 7760.8599 1831.61 9.2197031e-39
2392.49 7396.9102 1843.42 9.2197031e-39
