# .PCD v0.7 - Point Cloud Data file format
VERSION 0.7
FIELDS x y z rgb
SIZE 4 4 4 4
TYPE F F F F
COUNT 1 1 1 1
WIDTH 330
HEIGHT 1
VIEWPOINT 0 0 0 1 0 0 0
POINTS 330
DATA ascii
2619.2 -71.927002 133.953 9.2197031e-39
2616.1001 -62.317993 135.895 9.2197031e-39
2621.77 -57.369995 137.757 9.2197031e-39
2633.9199 -54.966003 139.772 9.2197031e-39
1753.22 375.526 138.97301 9.2197031e-39
1737.97 381.539 138.61301 9.2197031e-39
1742.8833 381.65396 139.22267 9.2197031e-39
-5215.0298 3789.1001 134.44 9.2197031e-39
2754.1499 -92.317993 145.03 9.2197031e-39
2641.3701 -50.64502 141.69299 9.2197031e-39
2514.5901 26.469971 145.218 9.2197031e-39
2456.71 56.606018 145.60899 9.2197031e-39
2429.0901 73.698975 146.448 9.2197031e-39
2392.76 93.35498 146.871 9.2197031e-39
2378.6399 104.03998 147.76801 9.2197031e-39
2353.0601 118.44601 148.201 9.2197031e-39
2340.5 127.83701 148.972 9.2197031e-39
2311.73 142.46701 149.082 9.2197031e-39
2287.54 155.16299 149.27 9.2197031e-39
2270.7 164.72198 149.573 9.2197031e-39
2221.47 184.66101 148.537 9.2197031e-39
2158.5601 207.82199 146.65601 9.2197031e-39
2105.8501 226.811 144.978 9.2197031e-39
2078.6699 237.10501 144.235 9.2197031e-39
2069.6001 241.76901 144.282 9.2197031e-39
2041.21 251.561 143.274 9.2197031e-39
1995.275 267.4465 141.65451 9.2197031e-39
2002.995 265.457 142.09 9.2197031e-39
2041.91 269.20901 147.599 9.2197031e-39
2066.71 266.48099 149.88 9.2197031e-39
1989.62 271.819 142.036 9.2197031e-39
1994.9498 272.94733 142.93767 9.2197031e-39
2004.785 274.004 144.35699 9.2197031e-39
1741.835 387.07751 140.40201 9.2197031e-39
1736.0359 396.92822 142.0834 9.2197031e-39
1748.72 392.61551 142.548 9.2197031e-39
1750.9125 395.53952 143.511 9.2197031e-39
1782.165 396.05798 147.336 9.2197031e-39
1747.615 403.41199 145.01251 9.2197031e-39
1750.74 406.664 146.16499 9.2197031e-39
1766.14 408.66299 148.46899 9.2197031e-39
1771.97 408.27802 149.06601 9.2197031e-39
1744.4 413.82178 147.1346 9.2197031e-39
1752.098 416.46777 148.68181 9.2197031e-39
1762.8149 412.3555 148.96249 9.2197031e-39
3002.47 -190.70801 150.782 9.2197031e-39
2093.54 263.93701 152.44501 9.2197031e-39
2126.3101 260.83499 155.58 9.2197031e-39
1763.79 423.29602 151.707 9.2197031e-39
-5227.2002 3867.8201 151.92101 9.2197031e-39
2241.3899 249.60199 166.505 9.2197031e-39
2188.74 254.077 161.347 9.2197031e-39
-2819.1201 2756.02 169.8 9.2197031e-39
2306.97 244.52701 173.05099 9.2197031e-39
-5217.4302 3939.8401 170.39 9.2197031e-39
2412.1799 235.617 183.366 9.2197031e-39
-2438.1399 2649.47 189.297 9.2197031e-39
-2698.9299 2743.4399 181.005 9.2197031e-39
2475.97 233.36801 190.37801 9.2197031e-39
2498.1899 236.23801 193.69901 9.2197031e-39
2515.46 240.22 196.701 9.2197031e-39
2525.74 244.81601 199.022 9.2197031e-39
-2340.72 2643.6099 199.422 9.2197031e-39
2529.05 250.40201 200.757 9.2197031e-39
2693.0801 244.68201 218.804 9.2197031e-39
-2342.9199 2690.3501 210.396 9.2197031e-39
-2309.8501 2719.45 221.308 9.2197031e-39
-2237.1399 2722.55 230.661 9.2197031e-39
-2228.72 2765.48 241.97701 9.2197031e-39
2984.28 234.46701 250.827 9.2197031e-39
2986.55 243.72101 253.32001 9.2197031e-39
2987.75 253.52899 255.82001 9.2197031e-39
2986.8799 262.953 257.98199 9.2197031e-39
-2264.3401 2833.4199 254.09 9.2197031e-39
2993.8701 272.63 261.13501 9.2197031e-39
2988.8501 282.16199 262.83301 9.2197031e-39
2984.74 292.07599 264.729 9.2197031e-39
2996.4399 301.44101 268.36499 9.2197031e-39
-2318.3301 2916.54 267.67599 9.2197031e-39
2994.1299 311.37399 270.48001 9.2197031e-39
2995.73 320.862 272.94901 9.2197031e-39
2993.25 330.758 275.035 9.2197031e-39
2992.6899 340.20901 277.23999 9.2197031e-39
2993.01 350.17599 279.67401 9.2197031e-39
2998.23 359.92999 282.63599 9.2197031e-39
3014.2 370.91101 287.16599 9.2197031e-39
3029.1101 381.621 291.50601 9.2197031e-39
3029.04 391.94901 293.98001 9.2197031e-39
3021.03 401.121 295.237 9.2197031e-39
3020.78 411.39899 297.67801 9.2197031e-39
3027.3899 421.90399 300.98599 9.2197031e-39
3024.98 432.039 303.13699 9.2197031e-39
3024.52 441.89301 305.45001 9.2197031e-39
3023.8899 452.24298 307.86401 9.2197031e-39
3021.29 461.83899 309.862 9.2197031e-39
3020.48 472.18201 312.25201 9.2197031e-39
3017.71 481.73599 314.22101 9.2197031e-39
3023.53 493.19101 317.664 9.2197031e-39
3022.53 503.09399 319.92599 9.2197031e-39
3020.3601 513.31299 322.12601 9.2197031e-39
3017.24 522.84119 324.04599 9.2197031e-39
3016.8301 533.40552 326.53699 9.2197031e-39
3013.54 542.89111 328.427 9.2197031e-39
3020.6499 555.14191 332.21399 9.2197031e-39
3017.1699 564.64697 334.08701 9.2197031e-39
3015.3999 575.0589 336.38 9.2197031e-39
3022.29 587.09033 340.08701 9.2197031e-39
3019.3501 597.32483 342.19901 9.2197031e-39
3016.47 607.04578 344.19501 9.2197031e-39
3023.8 620.08917 348.198 9.2197031e-39
3020.72 629.85175 350.17999 9.2197031e-39
3014.825 644.65399 353.03998 9.2197031e-39
3019.0801 662.59998 357.858 9.2197031e-39
3016.5701 672.63171 359.97198 9.2197031e-39
3012.8601 682.8338 361.98401 9.2197031e-39
3017.6101 695.36292 365.55801 9.2197031e-39
3013.6799 705.57867 367.54901 9.2197031e-39
3009.8601 715.2738 369.427 9.2197031e-39
3006.6799 725.76599 371.573 9.2197031e-39
3010.9399 738.53998 375.14801 9.2197031e-39
3014.8501 751.91101 378.82501 9.2197031e-39
3010.6299 761.625 380.66 9.2197031e-39
3014.27 775.14099 384.33899 9.2197031e-39
3008.9399 784.47498 385.952 9.2197031e-39
3004.2 794.633 387.83301 9.2197031e-39
3008.5701 808.21802 391.616 9.2197031e-39
3012.54 822.409 395.49701 9.2197031e-39
3006.8201 831.70703 397.05399 9.2197031e-39
3009.6101 845.62201 400.73001 9.2197031e-39
3013.3899 859.57001 404.52899 9.2197031e-39
3006.21 868.91602 405.92599 9.2197031e-39
3008.8201 882.55103 409.513 9.2197031e-39
3011.8799 897.216 413.39999 9.2197031e-39
3006.3899 906.93396 415.086 9.2197031e-39
3008.27 921.27002 418.755 9.2197031e-39
3010.28 935.20203 422.341 9.2197031e-39
3004.1699 945.40302 424.069 9.2197031e-39
3005.8799 959.43896 427.646 9.2197031e-39
3008.8101 975.034 431.742 9.2197031e-39
3001.8101 984.24097 433.12601 9.2197031e-39
3002.75 998.95001 436.772 9.2197031e-39
3004.6599 1013.761 440.55899 9.2197031e-39
3004.4099 1028.108 443.978 9.2197031e-39
3005.97 1043.083 447.76199 9.2197031e-39
3006.1899 1058.0969 451.39801 9.2197031e-39
2999.3101 1067.8 452.91501 9.2197031e-39
3000.02 1083.439 456.758 9.2197031e-39
3000.1001 1098.1121 460.29401 9.2197031e-39
2999.6399 1113.338 463.89999 9.2197031e-39
2999.3601 1128.1379 467.42499 9.2197031e-39
3000.1001 1144.645 471.479 9.2197031e-39
2992.46 1154.313 472.89899 9.2197031e-39
2998.24 1175.057 478.569 9.2197031e-39
2999.53 1191.897 482.76999 9.2197031e-39
2991.0801 1202.057 484.211 9.2197031e-39
2996.53 1222.672 489.81299 9.2197031e-39
2994.54 1238.3779 493.35199 9.2197031e-39
2992.78 1253.6421 496.81299 9.2197031e-39
2991.1399 1270.0701 500.56699 9.2197031e-39
2993.3999 1289.254 505.44601 9.2197031e-39
2991.3101 1305.823 509.18201 9.2197031e-39
2990.2 1322.605 513.08398 9.2197031e-39
2992.6899 1343.877 518.492 9.2197031e-39
2995.3601 1364.7939 523.836 9.2197031e-39
2991.6399 1380.9761 527.28497 9.2197031e-39
2995.1699 1403.452 533.10602 9.2197031e-39
2990.99 1419.75 536.52802 9.2197031e-39
2992.5801 1441.083 541.84497 9.2197031e-39
2987.27 1456.782 544.98901 9.2197031e-39
80.328102 2880.77 543.086 9.2197031e-39
105.184 2890.8201 548.44299 9.2197031e-39
-297.647 3058.1399 540.96802 9.2197031e-39
-257.77899 3056.5701 545.31097 9.2197031e-39
-222.869 3058.4399 549.89301 9.2197031e-39
2991 1481.0911 551.27399 9.2197031e-39
2986.55 1498.2881 554.88098 9.2197031e-39
-183.92 3056.77 554.10199 9.2197031e-39
2988.3401 1521.423 560.65302 9.2197031e-39
2988.6001 1544.457 566.21997 9.2197031e-39
2983.9299 1561.333 569.72498 9.2197031e-39
105.418 2940.1001 560.31799 9.2197031e-39
-163.875 3077.8799 561.54901 9.2197031e-39
-126.806 3077.8701 565.93701 9.2197031e-39
2984.23 1585.27 575.513 9.2197031e-39
-94.499199 3081.52 570.63898 9.2197031e-39
2984.76 1608.834 581.23999 9.2197031e-39
2984.99 1633.74 587.25403 9.2197031e-39
2986.0801 1659.02 593.45898 9.2197031e-39
2983.1299 1681.16 598.43298 9.2197031e-39
2978.0901 1699.86 602.33002 9.2197031e-39
2975.1499 1722.87 607.51398 9.2197031e-39
2979.02 1753.9 615.43103 9.2197031e-39
2978.27 1780.97 621.84802 9.2197031e-39
2980.6599 1811.55 629.48102 9.2197031e-39
2978.5 1838.09 635.604 9.2197031e-39
2974.96 1861.87 640.90198 9.2197031e-39
2975.9199 1894.12 648.76801 9.2197031e-39
2972.73 1919.66 654.53003 9.2197031e-39
2975.46 1956.1801 663.63202 9.2197031e-39
2969.3101 1978.71 668.31702 9.2197031e-39
2974.7 2021.2 679.16901 9.2197031e-39
2968.26 2044.6899 684.05402 9.2197031e-39
2962.75 2071.98 689.96002 9.2197031e-39
2965.6899 2112.03 699.935 9.2197031e-39
2962.23 2144.47 707.323 9.2197031e-39
2959.5901 2177.3599 714.91498 9.2197031e-39
2959.9299 2218.3701 724.815 9.2197031e-39
2960.01 2258.23 734.40601 9.2197031e-39
2954.3899 2291.1201 741.646 9.2197031e-39
2955.1201 2334.6499 752.19598 9.2197031e-39
1048.3 3278.73 753.35303 9.2197031e-39
1073.33 3292.5801 759.64502 9.2197031e-39
1014.38 3301.8101 754.88501 9.2197031e-39
2950.2 2371.1499 760.38599 9.2197031e-39
2951.8201 2419.28 772.14801 9.2197031e-39
1082.29 3364.8101 778.06799 9.2197031e-39
-448.34799 4116.6104 777.547 9.2197031e-39
2946.95 2458.6099 781.02301 9.2197031e-39
-418.51901 4143.3999 787.51801 9.2197031e-39
2945.4099 2503.6099 791.659 9.2197031e-39
-275.50601 4122.2402 799.36499 9.2197031e-39
2943.4199 2551.8599 803.02197 9.2197031e-39
1086.62 3466.8501 803.10797 9.2197031e-39
-769.41901 4406.29 809.16302 9.2197031e-39
-829.46198 4419.77 805.29498 9.2197031e-39
2943.3 2603.29 815.36902 9.2197031e-39
-198.74001 4138.9199 812.46399 9.2197031e-39
-718.95502 4402.7998 814.29797 9.2197031e-39
2940.1101 2652.75 826.88 9.2197031e-39
-670.58899 4405.6797 820.71698 9.2197031e-39
2937.5701 2702.75 838.599 9.2197031e-39
832.71899 3715.8899 832.90601 9.2197031e-39
864.12799 3716.9399 836.87799 9.2197031e-39
-78.297699 4152.75 830.05103 9.2197031e-39
-150.427 4209.4502 835.138 9.2197031e-39
-205.91499 4235.4297 834.81403 9.2197031e-39
-456.082 4364.6201 836.24701 9.2197031e-39
-531.84003 4412.7197 838.83698 9.2197031e-39
1076.96 3629.73 841.11603 9.2197031e-39
778.51599 3782.5801 842.52002 9.2197031e-39
2935.0801 2757.8201 851.539 9.2197031e-39
64.108398 4200.4502 858.375 9.2197031e-39
2934.6899 2817.01 865.72101 9.2197031e-39
1081.09 3751.1799 870.79901 9.2197031e-39
-158.644 4398.04 879.49597 9.2197031e-39
2935.1599 2884.01 881.883 9.2197031e-39
-123.354 4418.1001 888.49799 9.2197031e-39
2929.5 2935.5601 893.60199 9.2197031e-39
-78.273201 4413.0098 892.61102 9.2197031e-39
2924.3101 2993.98 907.03101 9.2197031e-39
2.49599 4425.5801 905.19501 9.2197031e-39
1070.48 3943.25 915.71002 9.2197031e-39
47.323898 4423.5303 910.01001 9.2197031e-39
89.8116 4421.2402 914.49103 9.2197031e-39
2925.6101 3068.3 925.04999 9.2197031e-39
2874.95 3085.6001 923.21002 9.2197031e-39
2851.49 3101.4399 924.23798 9.2197031e-39
2830.6499 3121.22 926.526 9.2197031e-39
130.125 4428.2998 920.961 9.2197031e-39
173.129 4423.3896 924.87201 9.2197031e-39
2913.25 3113.49 934.448 9.2197031e-39
213.351 4429.6699 931.14502 9.2197031e-39
255.34599 4425.7803 935.18201 9.2197031e-39
298.96301 4422.1001 939.46198 9.2197031e-39
336.87 4427.5498 945.26001 9.2197031e-39
417.396 4429.6499 955.29797 9.2197031e-39
376.90399 4432.3101 951.14398 9.2197031e-39
1063.4301 4142.6396 962.80298 9.2197031e-39
458.28201 4430.8701 960.43298 9.2197031e-39
479.44101 4485.2803 976.01703 9.2197031e-39
2877.1599 3347.5701 986.44098 9.2197031e-39
2852.48 3363.0901 987.24902 9.2197031e-39
2687.01 3417.8999 980.83002 9.2197031e-39
2717.3401 3421.3501 985.25201 9.2197031e-39
517.97198 4494.3101 982.74902 9.2197031e-39
2829.45 3389.01 990.75201 9.2197031e-39
2750.25 3427.8401 990.70697 9.2197031e-39
2780.3401 3428.8501 994.513 9.2197031e-39
2809.3799 3420.8201 996.02197 9.2197031e-39
1055.14 4357.3999 1013.44 9.2197031e-39
2697.0901 3577.6001 1020.41 9.2197031e-39
1071.3 4472.8203 1043.1 9.2197031e-39
1103.08 4502.3203 1053.95 9.2197031e-39
1141.46 4506.79 1059.5699 9.2197031e-39
1179.3 4502.9697 1063.13 9.2197031e-39
1217.53 4507.73 1068.8101 9.2197031e-39
1334.34 4476.0898 1075.03 9.2197031e-39
1297.14 4480.27 1071.63 9.2197031e-39
1255.23 4503.2598 1072.1899 9.2197031e-39
1352.5601 4649.0801 1118.77 9.2197031e-39
1390.37 4651.1699 1123.75 9.2197031e-39
2668.4399 4182.5703 1162.4399 9.2197031e-39
2634.0801 4197.0898 1161.86 9.2197031e-39
1409.28 4863.6401 1177.0601 9.2197031e-39
2270.3999 4491.71 1189.62 9.2197031e-39
2623.25 4327.0303 1191.8101 9.2197031e-39
2307.6399 4493.9102 1194.55 9.2197031e-39
2834.6001 4260.6499 1200.88 9.2197031e-39
2806.8401 4306.7197 1208.66 9.2197031e-39
2731.75 4310.02 1200.5699 9.2197031e-39
2771.3301 4313.5098 1206.09 9.2197031e-39
2386.3701 4514.3999 1208.8 9.2197031e-39
2349.71 4520.5801 1205.9399 9.2197031e-39
2240.1399 4587.9697 1209.17 9.2197031e-39
2601.1899 4417.46 1210.9301 9.2197031e-39
2426.1201 4517.23 1214.1899 9.2197031e-39
2464.1299 4520.0098 1219.36 9.2197031e-39
2540.47 4512.7598 1226.65 9.2197031e-39
2503.8101 4520.2197 1224.1 9.2197031e-39
2581.8501 4521.8301 1233.73 9.2197031e-39
1853.49 7302.8398 1815.96 9.2197031e-39
1917.61 7321.3198 1828 9.2197031e-39
1792.15 7351.8198 1820.47 9.2197031e-39
1980.11 7404.46 1855.38 9.2197031e-39
1255.45 7769.9399 1857.4301 9.2197031e-39
1186.52 7775.8901 1850.7 9.2197031e-39
2045.5 7419.8301 1866.8199 9.2197031e-39
1320.27 7772.9702 1865.83 9.2197031e-39
2170.6899 7371.4199 1870 9.2197031e-39
2107.77 7426.0698 1875.6899 9.2197031e-39
1388.41 7775.5601 1874.53 9.2197031e-39
2233.05 7382.4302 1880.04 9.2197031e-39
1453.79 7768.73 1880.62 9.2197031e-39
2298.8301 7393.6201 1890.51 9.2197031e-39
1521.52 7778.8999 1891.09 9.2197031e-39
1586.8 7770.96 1896.91 9.2197031e-39
2362.0901 7409.3501 1901.78 9.2197031e-39
1654.95 7772.1899 1905.27 9.2197031e-39
2428.5901 7421.2998 1912.53 9.2197031e-39
1719.73 7779.6602 1914.74 9.2197031e-39
