# .PCD v0.7 - Point Cloud Data file format
VERSION 0.7
FIELDS x y z rgb
SIZE 4 4 4 4
TYPE F F F F
COUNT 1 1 1 1
WIDTH 326
HEIGHT 1
VIEWPOINT 0 0 0 1 0 0 0
POINTS 326
DATA ascii
2932.3452 205.4695 135.18451 9.2197031e-39
2937.7 217.64999 138.743 9.2197031e-39
1841.86 613.02435 137.659 9.2197031e-39
1814.78 628.09485 138.966 9.2197031e-39
1824.7666 625.56097 139.24567 9.2197031e-39
1791.24 636.97052 139.039 9.2197031e-39
-1887.67 1958.75 134.00101 9.2197031e-39
2938.6499 226.66901 141.10001 9.2197031e-39
2933.8101 237.54599 143.394 9.2197031e-39
2923.1299 250.13599 145.58299 9.2197031e-39
2764.21 308.20099 145.60899 9.2197031e-39
2588.1101 368.431 144.60201 9.2197031e-39
2542.6299 387.51099 145.23 9.2197031e-39
2485.3301 409.05499 145.392 9.2197031e-39
2456.6599 421.75101 145.95599 9.2197031e-39
2423.02 439.509 147.338 9.2197031e-39
2440.3799 430.64899 146.701 9.2197031e-39
2400.7 449.25598 147.741 9.2197031e-39
2372.3999 459.99402 147.847 9.2197031e-39
2346.8899 469.582 147.91901 9.2197031e-39
2325.1599 477.88098 148.01199 9.2197031e-39
2273 492.15302 146.81599 9.2197031e-39
2209.8601 507.698 144.93201 9.2197031e-39
2182.8 515.20703 144.338 9.2197031e-39
2152.835 523.66797 143.71649 9.2197031e-39
2085.5249 539.34991 141.48401 9.2197031e-39
2120.74 531.69531 142.791 9.2197031e-39
2079.4199 547.77087 143.043 9.2197031e-39
2086.2617 544.27997 142.793 9.2197031e-39
2096.48 548.69983 144.84399 9.2197031e-39
2136.3401 547.15039 148.114 9.2197031e-39
1815.7351 635.41943 140.89775 9.2197031e-39
1826.0475 637.74976 142.43124 9.2197031e-39
1812.8049 641.64325 142.1955 9.2197031e-39
1826.928 643.79944 144.03479 9.2197031e-39
1824.184 654.8916 146.5752 9.2197031e-39
1844.7325 654.81134 148.44174 9.2197031e-39
1818.235 663.38989 148.1685 9.2197031e-39
1823.8833 662.3078 148.41467 9.2197031e-39
1832.595 660.84143 148.84549 9.2197031e-39
1842.17 661.3822 149.86 9.2197031e-39
-4653.5098 3030.74 149.91499 9.2197031e-39
2165.28 546.96332 150.72301 9.2197031e-39
2186.26 547.69849 152.834 9.2197031e-39
2209.22 548.69873 155.19501 9.2197031e-39
2257.0701 549.16382 159.705 9.2197031e-39
1843.0601 662.23578 150.157 9.2197031e-39
1821.5699 685.66632 154.082 9.2197031e-39
2314.8799 550.15637 165.26199 9.2197031e-39
-4858.3301 3173 166.92101 9.2197031e-39
2384.6101 551.89032 172.10001 9.2197031e-39
-3527.73 2715.23 173.85201 9.2197031e-39
2499.1299 554.28699 183.218 9.2197031e-39
-3484.24 2751.1499 186.88699 9.2197031e-39
2658.3999 558.4892 198.899 9.2197031e-39
-3495.03 2809.01 200.46201 9.2197031e-39
2904.1799 565.86249 223.321 9.2197031e-39
2948.71 574.63373 229.616 9.2197031e-39
2950.3401 583.20911 231.925 9.2197031e-39
2973.77 592.49219 236.41299 9.2197031e-39
2965.6899 609.64941 239.99001 9.2197031e-39
2971.26 601.16071 238.36501 9.2197031e-39
-5223.5098 3594.3301 239.453 9.2197031e-39
2982.8899 619.33954 244.008 9.2197031e-39
2974.1799 627.65192 245.302 9.2197031e-39
2982.27 637.06439 248.41299 9.2197031e-39
2980.3501 645.80902 250.439 9.2197031e-39
2978.3601 654.53027 252.451 9.2197031e-39
2986.1699 664.21021 255.605 9.2197031e-39
2982.04 672.7536 257.37701 9.2197031e-39
2983.75 681.92859 259.84299 9.2197031e-39
-2498.5601 2666.3 256.02499 9.2197031e-39
-2867.4199 2791.5601 253.69099 9.2197031e-39
-5223.1299 3665.6799 257.45099 9.2197031e-39
2979.05 699.34631 263.79599 9.2197031e-39
2981.4399 690.65082 261.827 9.2197031e-39
2988.3701 709.69763 267.258 9.2197031e-39
2984.8301 718.28961 269.09601 9.2197031e-39
-2367.02 2648.6899 263.67001 9.2197031e-39
2991.01 728.40601 272.20901 9.2197031e-39
2989.26 737.32098 274.293 9.2197031e-39
2983.54 745.52698 275.83301 9.2197031e-39
2995.27 756.92902 279.78101 9.2197031e-39
-5211.0498 3732.3799 275.34799 9.2197031e-39
3010.77 769.31 284.32001 9.2197031e-39
3008.6499 778.39899 286.41299 9.2197031e-39
3010.3201 788.29901 289.05899 9.2197031e-39
3010.9299 798.03198 291.56601 9.2197031e-39
3010.49 807.57397 293.92599 9.2197031e-39
3015.72 818.51898 297.16199 9.2197031e-39
3013.1599 827.65802 299.228 9.2197031e-39
-5232 3814.3501 294.05801 9.2197031e-39
3010.52 836.77698 301.28101 9.2197031e-39
3007.8 845.87402 303.32101 9.2197031e-39
3003.0901 854.42102 305.04001 9.2197031e-39
3009.71 866.18298 308.608 9.2197031e-39
3008.6101 875.83899 310.939 9.2197031e-39
3005.54 884.927 312.944 9.2197031e-39
3011.8 896.95703 316.547 9.2197031e-39
3006.6599 905.46497 318.21701 9.2197031e-39
3005.2 915.16602 320.52499 9.2197031e-39
3008.3 926.47699 323.65701 9.2197031e-39
3005.7 935.89801 325.79001 9.2197031e-39
3010.4299 948.00098 329.271 9.2197031e-39
3007.6299 957.45996 331.39499 9.2197031e-39
3003.8301 966.55103 333.33401 9.2197031e-39
3009.1101 979.21704 337.00699 9.2197031e-39
3005.1101 988.32501 338.93301 9.2197031e-39
3010.1201 1001.161 342.625 9.2197031e-39
3003.79 1014.8235 345.48248 9.2197031e-39
3005.3799 1032.012 349.95499 9.2197031e-39
3001.8 1041.5029 352.01599 9.2197031e-39
3007.05 1055.121 355.92499 9.2197031e-39
3000.5901 1063.3779 357.41101 9.2197031e-39
3004.6699 1076.7271 361.146 9.2197031e-39
3001.5601 1086.687 363.367 9.2197031e-39
3002.72 1098.863 366.539 9.2197031e-39
3006.3501 1112.462 370.29599 9.2197031e-39
3001.1599 1121.567 372.11099 9.2197031e-39
3004.51 1135.304 375.87601 9.2197031e-39
2997.3899 1143.448 377.27301 9.2197031e-39
3000.46 1157.304 381.043 9.2197031e-39
2994.8601 1166.3669 382.81 9.2197031e-39
2998.47 1180.848 386.78699 9.2197031e-39
2999.3799 1193.9299 390.164 9.2197031e-39
3000.97 1207.5911 393.74899 9.2197031e-39
2994.1001 1216.147 395.271 9.2197031e-39
2995.3999 1229.895 398.85199 9.2197031e-39
2998.1799 1244.786 402.85501 9.2197031e-39
2998.3301 1258.161 406.23499 9.2197031e-39
2999.9299 1272.689 410.04001 9.2197031e-39
2993.3 1281.765 411.716 9.2197031e-39
2993.79 1295.832 415.302 9.2197031e-39
2994.8999 1310.5349 419.10501 9.2197031e-39
2994.25 1324.1699 422.478 9.2197031e-39
2995.01 1339.0181 426.285 9.2197031e-39
2994.79 1353.354 429.87399 9.2197031e-39
2995.1699 1368.3459 433.68301 9.2197031e-39
2993.8301 1382.207 437.04901 9.2197031e-39
2993.8401 1397.328 440.85599 9.2197031e-39
2992.9099 1411.902 444.439 9.2197031e-39
2991.79 1426.53 448.01901 9.2197031e-39
2656.3401 1519.061 440.513 9.2197031e-39
2672.6299 1522.8401 442.95999 9.2197031e-39
2687.28 1524.11 444.625 9.2197031e-39
581.146 2284.71 442.72101 9.2197031e-39
2991.98 1442.464 452.047 9.2197031e-39
2996.3999 1462.276 457.44 9.2197031e-39
2994.6699 1477.115 461.017 9.2197031e-39
2986.9399 1486.825 462.75201 9.2197031e-39
2992.8301 1508.884 468.845 9.2197031e-39
2704.01 1602.76 465.95901 9.2197031e-39
2989.8101 1523.21 472.17401 9.2197031e-39
2988.03 1538.8931 475.95901 9.2197031e-39
2986.05 1554.625 479.737 9.2197031e-39
2989.45 1575.824 485.38501 9.2197031e-39
2986.3201 1591.011 488.92099 9.2197031e-39
411.05399 2534.29 489.93201 9.2197031e-39
2983.6899 1606.918 492.68399 9.2197031e-39
2986.28 1628.4299 498.336 9.2197031e-39
2808.49 1660.91 490.19 9.2197031e-39
2989.23 1650.77 504.23099 9.2197031e-39
2991.1899 1672.55 509.89301 9.2197031e-39
2859.6201 1683.99 500.694 9.2197031e-39
2853.5801 1697.24 503.47299 9.2197031e-39
2987.5701 1688.74 513.63702 9.2197031e-39
2897.0601 1708.8 510.37701 9.2197031e-39
2988.3 1709.99 519.05499 9.2197031e-39
2922.51 1718.23 515.08698 9.2197031e-39
2938.1001 1715.53 515.84003 9.2197031e-39
2958.8301 1718.51 518.492 9.2197031e-39
2982.28 1724.11 522.05499 9.2197031e-39
-388.25299 2956.53 522.836 9.2197031e-39
-371.26599 2980.1201 530.33197 9.2197031e-39
75.787399 2882.0601 546.69397 9.2197031e-39
-367.63599 3018.04 540.21198 9.2197031e-39
-340.57999 3031.3 546.034 9.2197031e-39
-318.12601 3049.4199 552.65802 9.2197031e-39
-294.19 3065.8601 558.99402 9.2197031e-39
-195.37399 3039.54 561.44 9.2197031e-39
-253.101 3062.71 561.97302 9.2197031e-39
-179.90601 3064.72 569.198 9.2197031e-39
110.116 2963.76 570.41199 9.2197031e-39
-154.621 3078.3899 574.96198 9.2197031e-39
-120.45 3081.1001 578.78003 9.2197031e-39
2965.78 1989.11 587.25 9.2197031e-39
2976.6399 2032.1 599.06702 9.2197031e-39
2973.6299 2056.25 604.87 9.2197031e-39
2970.27 2080.47 610.659 9.2197031e-39
2973.49 2115.25 619.70898 9.2197031e-39
2974.5801 2147.78 627.99701 9.2197031e-39
2969.98 2172.28 633.74402 9.2197031e-39
2971.6699 2207.52 642.76801 9.2197031e-39
2970.28 2238.78 650.51202 9.2197031e-39
2965.9299 2266.02 656.96698 9.2197031e-39
2963.6101 2297.48 664.67499 9.2197031e-39
2958.3999 2324.8501 671.08698 9.2197031e-39
2961.3101 2367.45 682.07599 9.2197031e-39
2960.26 2404.3101 691.26001 9.2197031e-39
2962.76 2448.97 702.72998 9.2197031e-39
2957.76 2481 710.33398 9.2197031e-39
2956.26 2520.8198 720.22198 9.2197031e-39
2958.04 2568.55 732.40002 9.2197031e-39
1040.24 3277.6001 734.81 9.2197031e-39
1066.26 3279.0701 737.57001 9.2197031e-39
2953.9099 2606.0801 741.46698 9.2197031e-39
1081.12 3315.78 748.17401 9.2197031e-39
2951.71 2648.9199 752.04797 9.2197031e-39
1103.6801 3329.03 753.58197 9.2197031e-39
2950.04 2694.51 763.37299 9.2197031e-39
2947.23 2739.3701 774.40802 9.2197031e-39
2944.8799 2787.01 786.18402 9.2197031e-39
2939.8201 2830.3701 796.63202 9.2197031e-39
1083.91 3486.52 791.41101 9.2197031e-39
-438.737 4107.0601 807.823 9.2197031e-39
2940.5 2888.9199 811.435 9.2197031e-39
1086.4399 3575.8701 814.13501 9.2197031e-39
-393.18301 4105.0703 811.50403 9.2197031e-39
2935.75 2936.97 823.09601 9.2197031e-39
835.64099 3706.1299 823.89801 9.2197031e-39
867.47101 3703.71 826.21399 9.2197031e-39
-269.75201 4115.3604 825.42603 9.2197031e-39
2932.04 2989.6201 836.00702 9.2197031e-39
1087.14 3677.6001 839.80798 9.2197031e-39
-242.353 4140.0898 834.16803 9.2197031e-39
-199.968 4140.1001 838.06 9.2197031e-39
-935.64502 4401.1396 836.229 9.2197031e-39
-125 4154.9902 848.69098 9.2197031e-39
-170.21899 4160.8999 846.02698 9.2197031e-39
-884.65698 4401.6396 841.03601 9.2197031e-39
-834.44098 4402.3701 845.83002 9.2197031e-39
2933.5 3057.6599 853.27002 9.2197031e-39
2863.1299 3077.1101 851.70502 9.2197031e-39
2842.9399 3092.5901 853.74799 9.2197031e-39
2895.3301 3094.05 858.92401 9.2197031e-39
2820.6699 3102.4399 854.18298 9.2197031e-39
-88.749397 4164.0303 854.29401 9.2197031e-39
-669.849 4379.2002 855.10901 9.2197031e-39
-784.40997 4402.54 850.466 9.2197031e-39
-734.56799 4402.1499 854.94397 9.2197031e-39
1086.33 3791.78 868.47498 9.2197031e-39
2933.8101 3125.9399 870.487 9.2197031e-39
-127.798 4308.8896 887.17603 9.2197031e-39
676.77399 4058.1599 897.92999 9.2197031e-39
13.3051 4279.6899 892.78003 9.2197031e-39
1081.9301 3927.9099 902.33899 9.2197031e-39
-141.43201 4412.21 911.93298 9.2197031e-39
-99.393997 4414.27 916.31097 9.2197031e-39
2877.01 3347.5601 921.05701 9.2197031e-39
2853.6001 3361.4299 922.40002 9.2197031e-39
2836.6799 3396.3101 929.62799 9.2197031e-39
2704.46 3421.1699 923.74597 9.2197031e-39
2733.03 3424.3 927.15698 9.2197031e-39
2761.21 3425.3 929.995 9.2197031e-39
-8.5070601 4403.1001 921.84302 9.2197031e-39
26.065001 4417.9297 928.75098 9.2197031e-39
2789.1899 3425.1101 932.51703 9.2197031e-39
2818.3799 3428.3601 936.01501 9.2197031e-39
67.652 4418.3203 932.66699 9.2197031e-39
108.271 4420.0703 936.83801 9.2197031e-39
2694.4399 3489.8501 940.11603 9.2197031e-39
1075.6899 4081.3501 940.39203 9.2197031e-39
150.036 4418.75 940.34003 9.2197031e-39
190.435 4419.7002 944.289 9.2197031e-39
232.722 4415.7803 947.18201 9.2197031e-39
270.133 4422.23 952.242 9.2197031e-39
309.83899 4422.9199 956.06097 9.2197031e-39
347.94699 4426.8604 960.55103 9.2197031e-39
387.48199 4426.7998 964.16602 9.2197031e-39
462.72101 4434.71 973.065 9.2197031e-39
421.53201 4440.0498 970.62903 9.2197031e-39
2707.28 3656.1899 983.16602 9.2197031e-39
1070.11 4243.6299 980.72998 9.2197031e-39
483.867 4482.2197 986.966 9.2197031e-39
2718.73 3829.6001 1027.87 9.2197031e-39
1064.54 4418.5601 1024.26 9.2197031e-39
1088.55 4472.79 1040.11 9.2197031e-39
1155.79 4498.6201 1052.78 9.2197031e-39
1118.6801 4502.0703 1050.25 9.2197031e-39
1190.78 4505.3701 1057.7 9.2197031e-39
1341.28 4465.8896 1061.58 9.2197031e-39
1301.0699 4494.04 1064.97 9.2197031e-39
1227.77 4501.2803 1060.0601 9.2197031e-39
1262.97 4506.46 1064.6 9.2197031e-39
1366.09 4539.46 1082.38 9.2197031e-39
1388.77 4637.9399 1109.25 9.2197031e-39
1407.88 4777.79 1146.21 9.2197031e-39
2696.04 4337.1499 1153.55 9.2197031e-39
2731.5801 4337.46 1156.89 9.2197031e-39
2663.6399 4352.6797 1154.48 9.2197031e-39
2291.2 4475 1151.08 9.2197031e-39
2767.4099 4338.3999 1160.42 9.2197031e-39
2802.04 4333.3604 1162.33 9.2197031e-39
2330.75 4516.4297 1165.14 9.2197031e-39
2366.5701 4515.1201 1168.1 9.2197031e-39
2260.9299 4540.3301 1164.75 9.2197031e-39
2438.76 4515.4199 1174.8101 9.2197031e-39
2475.05 4516.0601 1178.3 9.2197031e-39
2403.2 4520.23 1172.75 9.2197031e-39
2510.72 4511.5898 1180.45 9.2197031e-39
2547.54 4514.4697 1184.55 9.2197031e-39
2584.77 4518.9297 1189.09 9.2197031e-39
2657.4099 4514.48 1194.64 9.2197031e-39
2621.6499 4520.2002 1192.8 9.2197031e-39
1413.6899 5050.8398 1215.47 9.2197031e-39
1257.01 6854.0601 1655.01 9.2197031e-39
1873.71 7303.6201 1824.8 9.2197031e-39
1812.49 7344.8101 1829.55 9.2197031e-39
1934.13 7310.4199 1832.0601 9.2197031e-39
1995.13 7378.75 1854.86 9.2197031e-39
2178.26 7365.3501 1868.3 9.2197031e-39
2056.7 7403.8799 1866.84 9.2197031e-39
2239.6699 7370.5 1875.23 9.2197031e-39
2118.22 7408.1201 1873.55 9.2197031e-39
1222.9301 7758.9502 1879.67 9.2197031e-39
2301.76 7385.7598 1884.77 9.2197031e-39
1287.4301 7762.4399 1886.47 9.2197031e-39
2364.3 7402.4102 1894.71 9.2197031e-39
1352.67 7756.6802 1891.01 9.2197031e-39
1417.08 7760.04 1897.77 9.2197031e-39
2426.3 7405.9502 1901.29 9.2197031e-39
1546.49 7756.3901 1908.73 9.2197031e-39
1481.46 7763.8198 1904.63 9.2197031e-39
1610.9301 7758.1099 1915.08 9.2197031e-39
1675.39 7759.27 1921.29 9.2197031e-39
1739.59 7769.5898 1929.78 9.2197031e-39
