# .PCD v0.7 - Point Cloud Data file format
VERSION 0.7
FIELDS x y z rgb
SIZE 4 4 4 4
TYPE F F F F
COUNT 1 1 1 1
WIDTH 331
HEIGHT 1
VIEWPOINT 0 0 0 1 0 0 0
POINTS 331
DATA ascii
-791.98199 1327.5139 134 9.2197031e-39
1720.29 1432.9399 139.507 9.2197031e-39
1734.6899 1432.814 139.34267 9.2197031e-39
1749.39 1432.5029 139.12601 9.2197031e-39
2999.8501 1455.6011 134 9.2197031e-39
3001.49 1465.103 136.53 9.2197031e-39
2999.05 1474.432 139.05 9.2197031e-39
-819.633 1349.377 140.105 9.2197031e-39
-808.09601 1372.36 146.15601 9.2197031e-39
1729.0601 1438.687 140.966 9.2197031e-39
1733.83 1436.762 140.408 9.2197031e-39
1712.2 1446.8669 143.30901 9.2197031e-39
1723.9381 1445.4192 142.8156 9.2197031e-39
1737.4135 1445.493 142.71367 9.2197031e-39
1748.11 1447.8369 143.244 9.2197031e-39
2018.6899 1449.433 141.224 9.2197031e-39
1723.22 1459.1 146.48599 9.2197031e-39
1731.8667 1454.1476 145.08131 9.2197031e-39
2016.7983 1455.6869 142.91585 9.2197031e-39
2024.075 1452.5699 142.0155 9.2197031e-39
2031.64 1451.11 141.556 9.2197031e-39
2065.1399 1456.9619 142.82001 9.2197031e-39
2085.0601 1459.439 143.30299 9.2197031e-39
1716.9551 1466.009 148.39301 9.2197031e-39
1723.802 1465.0769 148.08141 9.2197031e-39
1742.7433 1468.3633 148.78966 9.2197031e-39
1752.585 1467.958 148.5925 9.2197031e-39
1765.28 1464.797 147.631 9.2197031e-39
2022.4 1461.7429 144.487 9.2197031e-39
2109.9299 1462.547 143.91 9.2197031e-39
2138.8 1465.975 144.567 9.2197031e-39
1726.375 1470.5454 149.522 9.2197031e-39
1754.2351 1471.7576 149.5945 9.2197031e-39
2059.96 1475.182 147.746 9.2197031e-39
2212.01 1476.844 146.81599 9.2197031e-39
2375.9099 1476.3879 145.211 9.2197031e-39
2393.3 1474.088 144.438 9.2197031e-39
2403.73 1470.791 143.461 9.2197031e-39
2542.5601 1479.272 144.476 9.2197031e-39
2249.96 1480.4409 147.436 9.2197031e-39
2273.2 1481.01 147.37801 9.2197031e-39
2292.51 1480.5869 147.09 9.2197031e-39
2326.6899 1481.9861 147.155 9.2197031e-39
2349.04 1481.199 146.742 9.2197031e-39
2383.3 1481.553 146.52699 9.2197031e-39
2997.52 1483.782 141.56799 9.2197031e-39
2997.8999 1493.245 144.099 9.2197031e-39
2922.6899 1505.802 148.142 9.2197031e-39
2980.25 1501.354 146.42999 9.2197031e-39
1746.91 1474.856 150.491 9.2197031e-39
2084.04 1484.8521 150.118 9.2197031e-39
2107.96 1494.932 152.601 9.2197031e-39
2148.6399 1511.3669 156.634 9.2197031e-39
2215.28 1537.9651 163.15401 9.2197031e-39
2261.8401 1558.421 168.211 9.2197031e-39
-1158.8 1468.9919 175.20599 9.2197031e-39
2309.9199 1580.376 173.65601 9.2197031e-39
-5233.0898 1357.527 182.213 9.2197031e-39
-1160.16 1494.679 182.097 9.2197031e-39
2385.47 1614.0081 181.979 9.2197031e-39
2451.1899 1645.22 189.744 9.2197031e-39
-5237.2202 1417.511 198.313 9.2197031e-39
-3506.97 1463.03 194.851 9.2197031e-39
2455.5801 1652.65 191.692 9.2197031e-39
2463.8149 1664.725 194.85251 9.2197031e-39
2467.27 1675.0601 197.58701 9.2197031e-39
2467.6599 1681.2 199.228 9.2197031e-39
2465.27 1686.11 200.567 9.2197031e-39
2467.8848 1696.4399 203.3085 9.2197031e-39
2469.4299 1706.4399 205.97301 9.2197031e-39
2465.9199 1717.1899 208.883 9.2197031e-39
2472.1499 1714.05 207.98599 9.2197031e-39
-1905.7 1609.4771 219.584 9.2197031e-39
2469.3701 1725.3199 211.028 9.2197031e-39
2467.23 1737.0601 214.19099 9.2197031e-39
2470.0801 1732.12 212.843 9.2197031e-39
2467.6299 1747.0801 216.873 9.2197031e-39
2469.5801 1758.1801 219.827 9.2197031e-39
-1903.75 1641.4099 228.117 9.2197031e-39
2464.78 1762.1 220.92 9.2197031e-39
2468.73 1785.1 227.045 9.2197031e-39
2474.55 1781.71 226.084 9.2197031e-39
2484.5901 1780.8101 225.75101 9.2197031e-39
-1876.5699 1671.64 235.967 9.2197031e-39
2492.1299 1807.09 232.72 9.2197031e-39
2501.8799 1820.85 236.31599 9.2197031e-39
-5241.2998 1657.84 262.70999 9.2197031e-39
-4557.46 1689.1899 264.918 9.2197031e-39
2636.0701 1917.42 260.965 9.2197031e-39
2970.3799 2152.5898 320.91699 9.2197031e-39
2991.45 2180.79 328.27802 9.2197031e-39
2989.3999 2193.5 331.70099 9.2197031e-39
2991.23 2209.1099 335.86401 9.2197031e-39
2990.47 2223.0601 339.60699 9.2197031e-39
2991.1201 2238.23 343.664 9.2197031e-39
2993.1599 2254.6602 348.047 9.2197031e-39
2991.0701 2268.1899 351.68701 9.2197031e-39
2990.3799 2282.96 355.64801 9.2197031e-39
2989.5 2297.77 359.625 9.2197031e-39
2988.4399 2312.6401 363.616 9.2197031e-39
2987.95 2328.1899 367.78299 9.2197031e-39
2986.52 2343.1602 371.80499 9.2197031e-39
2984.8899 2358.1699 375.84 9.2197031e-39
2985.3101 2375.1699 380.388 9.2197031e-39
2989.9399 2396.1499 385.966 9.2197031e-39
2987.6799 2411.3599 390.05899 9.2197031e-39
2983.78 2425.27 393.82101 9.2197031e-39
2983.3101 2442.55 398.452 9.2197031e-39
2984.75 2461.9302 403.62701 9.2197031e-39
2982.3899 2477.99 407.95001 9.2197031e-39
2986.8401 2500.98 414.06601 9.2197031e-39
2990.27 2523.4302 420.047 9.2197031e-39
2986.47 2539.01 424.254 9.2197031e-39
2990 2562.3799 430.48099 9.2197031e-39
2985.0601 2577.3501 434.53299 9.2197031e-39
2981.27 2593.75 438.961 9.2197031e-39
2983.25 2616.6899 445.086 9.2197031e-39
2977 2631 448.97601 9.2197031e-39
2979.05 2654.8501 455.34299 9.2197031e-39
2979.46 2677.3401 461.36301 9.2197031e-39
2981.45 2702.1699 467.99301 9.2197031e-39
2974.8799 2717.3601 472.12201 9.2197031e-39
2980.6001 2747.6699 480.18399 9.2197031e-39
2979.6799 2770.55 486.32001 9.2197031e-39
2979.6599 2795.04 492.88101 9.2197031e-39
2978.0601 2818.1001 499.069 9.2197031e-39
2975.53 2840.45 505.07901 9.2197031e-39
-454.26001 2775.9399 518.82898 9.2197031e-39
2978.5801 2870.6899 513.14697 9.2197031e-39
2971.26 2887.71 517.771 9.2197031e-39
-441.00299 2795.1101 523.84302 9.2197031e-39
2979.8301 2926.8701 528.18103 9.2197031e-39
2976.4099 2950.3601 534.50299 9.2197031e-39
-500.40399 2858.1799 541.27002 9.2197031e-39
-475.46301 2870.98 544.47101 9.2197031e-39
2973.21 2974.71 541.052 9.2197031e-39
2975.74 3007.98 549.93903 9.2197031e-39
-468.06 2894.51 550.70599 9.2197031e-39
107.398 2937.9299 557.12799 9.2197031e-39
134.582 2941.23 557.76703 9.2197031e-39
2971.1899 3031.6799 556.328 9.2197031e-39
-499.54199 2943.0901 564 9.2197031e-39
117.547 2983.3501 569.19897 9.2197031e-39
2970.6101 3061.95 564.43799 9.2197031e-39
-467.41199 2980.3401 573.685 9.2197031e-39
-425.35501 2981.29 573.55798 9.2197031e-39
-402.96899 2995.1101 577.05603 9.2197031e-39
107.71 3019.9399 579.08698 9.2197031e-39
2972.76 3097.24 573.87 9.2197031e-39
-392.625 3017.1799 582.875 9.2197031e-39
-378.04401 3036.3301 587.87097 9.2197031e-39
103.468 3052.1599 587.75403 9.2197031e-39
2970.6799 3126.9199 581.83801 9.2197031e-39
2838.1699 3146.72 588.34003 9.2197031e-39
2965.5601 3152.5601 588.74902 9.2197031e-39
-369.66901 3060.01 594.13599 9.2197031e-39
2823.9299 3157.25 591.28699 9.2197031e-39
2789.71 3167.6001 594.36798 9.2197031e-39
2807.28 3163.3601 593.07501 9.2197031e-39
2966.1799 3188.22 598.29401 9.2197031e-39
-360.246 3083.0801 600.22998 9.2197031e-39
-341.92499 3099.5801 604.48199 9.2197031e-39
-316.448 3110.49 607.172 9.2197031e-39
-213.116 3119.6699 608.69702 9.2197031e-39
-176.371 3119.74 608.383 9.2197031e-39
-251.55701 3120.3401 609.22302 9.2197031e-39
-144.306 3123.1299 609 9.2197031e-39
2797.6699 3222.03 608.87201 9.2197031e-39
2965.73 3223.1899 607.66101 9.2197031e-39
-1556.2 3112.2 618.84698 9.2197031e-39
-292.496 3122.3101 610.12097 9.2197031e-39
22.1618 3157.04 616.57599 9.2197031e-39
2962.25 3254.0701 615.96399 9.2197031e-39
-1518.54 3130.01 623.27502 9.2197031e-39
2961.71 3290.95 625.84399 9.2197031e-39
2960.5801 3327.95 635.763 9.2197031e-39
-1576.95 3196.74 641.67401 9.2197031e-39
-1543.13 3216.6599 646.70099 9.2197031e-39
-2215.1699 3223.47 654.604 9.2197031e-39
-2163.3101 3242.0601 659.11401 9.2197031e-39
-1548.51 3257.21 657.60901 9.2197031e-39
1060.12 3346.3701 657.888 9.2197031e-39
1077.59 3353.27 659.57703 9.2197031e-39
1098.4 3351.9299 659.03101 9.2197031e-39
2864.8301 3397.9099 655.36499 9.2197031e-39
-2139.3799 3272.8101 667.13098 9.2197031e-39
-993.01898 3294.24 662.5 9.2197031e-39
-115.016 3318.25 660.98798 9.2197031e-39
2844.79 3447.49 668.82397 9.2197031e-39
2866.04 3445.47 668.091 9.2197031e-39
-2116.1001 3303.71 675.198 9.2197031e-39
1094.1899 3413.52 675.56097 9.2197031e-39
-2126.54 3350.75 687.888 9.2197031e-39
-1682.9399 3368.8601 688.724 9.2197031e-39
-156.99001 3392.4299 681.23199 9.2197031e-39
1099.03 3454.51 686.495 9.2197031e-39
2779.8101 3499.0601 683.22198 9.2197031e-39
2802.0901 3499.46 683.12799 9.2197031e-39
2823.6499 3497.8701 682.50702 9.2197031e-39
2714.8601 3500.1699 684.10602 9.2197031e-39
2738.4199 3504.8 685.133 9.2197031e-39
2760.24 3504.71 684.91199 9.2197031e-39
2848.1001 3502.26 683.46002 9.2197031e-39
1112.38 3474.6899 691.77899 9.2197031e-39
1111.77 3533.96 707.65601 9.2197031e-39
2716.73 3618.1899 715.69397 9.2197031e-39
1112.8199 3591.5601 723.073 9.2197031e-39
2760.1599 3671.74 729.64203 9.2197031e-39
1116.12 3645.6499 737.52698 9.2197031e-39
2717.6699 3681.55 732.65302 9.2197031e-39
2709.98 3724.0801 744.112 9.2197031e-39
1114.5 3717.29 756.72803 9.2197031e-39
2697.4399 3754.73 752.435 9.2197031e-39
1119.8 3771.6299 771.23199 9.2197031e-39
2716.1499 3879.0601 785.56 9.2197031e-39
1110.64 3875.01 799 9.2197031e-39
2713.5901 3945.8301 803.46301 9.2197031e-39
-2470.27 3848.5 824.29199 9.2197031e-39
-2383.53 3848.3799 823.47601 9.2197031e-39
777.29102 3946.6201 821.19098 9.2197031e-39
1110.9 3953.72 820.07397 9.2197031e-39
2689.29 4028.8201 825.90698 9.2197031e-39
2716.3601 4033.05 826.797 9.2197031e-39
1106.24 4053.96 846.961 9.2197031e-39
1104.39 4150.75 872.89697 9.2197031e-39
2618.0701 4241.8896 883.61298 9.2197031e-39
2729.5901 4249.0303 884.51599 9.2197031e-39
2647.5801 4250.6104 885.67902 9.2197031e-39
2675.73 4253.4399 886.18201 9.2197031e-39
2703.99 4256.0098 886.61499 9.2197031e-39
-475.14801 4188.25 897.22998 9.2197031e-39
-429.90201 4184.0601 895.69702 9.2197031e-39
-387.39899 4182.3398 894.85101 9.2197031e-39
-350.63 4186.96 895.75702 9.2197031e-39
-313.952 4191.1797 896.55402 9.2197031e-39
-280.371 4198.8398 898.30402 9.2197031e-39
-243.856 4202.27 898.89203 9.2197031e-39
-207.446 4205.2998 899.37402 9.2197031e-39
-168.83 4204.7803 898.88599 9.2197031e-39
-132.10001 4206.2002 898.93298 9.2197031e-39
1104.23 4247.7598 898.87799 9.2197031e-39
-101.148 4215.1797 901.05603 9.2197031e-39
-63.501999 4214.23 900.46198 9.2197031e-39
-31.5266 4220.9199 901.96503 9.2197031e-39
77.3106 4274.0898 915.21802 9.2197031e-39
-1004 4261.8101 921.711 9.2197031e-39
2633.55 4411.3604 928.85602 9.2197031e-39
-1003.09 4311.1001 934.90399 9.2197031e-39
1098.8199 4371.1699 931.97601 9.2197031e-39
-1008.37 4367.6104 950.08301 9.2197031e-39
-1015.57 4427.2402 966.11902 9.2197031e-39
-744.35699 4450.1299 969.79602 9.2197031e-39
-120.24 4465.5 968.26501 9.2197031e-39
-80.448799 4463.4902 967.367 9.2197031e-39
-6.5752201 4466.4399 967.48798 9.2197031e-39
-162.38901 4470.3101 969.935 9.2197031e-39
27.141701 4472.3203 968.758 9.2197031e-39
239.987 4479.2002 968.67499 9.2197031e-39
1100.38 4476.1396 960.07098 9.2197031e-39
306.272 4485.7998 969.84399 9.2197031e-39
2315.9199 4543.8101 967.19897 9.2197031e-39
2345.1201 4546.7998 967.73499 9.2197031e-39
-838.76001 4449.73 970.54199 9.2197031e-39
-986.86603 4450.2002 972.00598 9.2197031e-39
-937.28101 4450.6396 971.67798 9.2197031e-39
-889.89203 4452.6602 971.78802 9.2197031e-39
-794.37201 4453.52 971.15503 9.2197031e-39
57.831299 4482.8896 971.31 9.2197031e-39
93.963501 4483.9199 971.26099 9.2197031e-39
130.939 4482.8896 970.651 9.2197031e-39
166.80701 4483.1699 970.401 9.2197031e-39
199.74001 4488.2002 971.45001 9.2197031e-39
270.45001 4487.8301 970.71002 9.2197031e-39
338.44199 4490.3501 970.771 9.2197031e-39
372.715 4490.2402 970.42999 9.2197031e-39
403.50201 4496.7803 971.90503 9.2197031e-39
438.82901 4493.3799 970.672 9.2197031e-39
467.91 4502.8398 972.94501 9.2197031e-39
499.035 4507.6299 973.94397 9.2197031e-39
1114.64 4537.1499 976.28198 9.2197031e-39
1350.03 4534.1699 973.354 9.2197031e-39
1378.0601 4539.5601 974.54303 9.2197031e-39
2408.23 4578.7197 975.71301 9.2197031e-39
2436.9199 4575.1899 974.50702 9.2197031e-39
2466.8201 4578.0703 975.008 9.2197031e-39
2495.3301 4573.0898 973.41602 9.2197031e-39
2525.54 4576.3999 974.03003 9.2197031e-39
2555.8501 4579.4399 974.57001 9.2197031e-39
2379.8201 4583.9297 977.36298 9.2197031e-39
2585.8401 4580.3301 974.53497 9.2197031e-39
2616.55 4583.77 975.17999 9.2197031e-39
2646.9299 4585.0601 975.25 9.2197031e-39
1139.3 4558.6299 981.81097 9.2197031e-39
1169.86 4555.4102 980.672 9.2197031e-39
1198.45 4560.4199 981.75403 9.2197031e-39
1226.88 4566.1299 983.026 9.2197031e-39
1257.0601 4563.0601 981.93298 9.2197031e-39
1285.51 4568.2803 983.073 9.2197031e-39
1315.55 4564.7002 981.841 9.2197031e-39
1401.48 4575.2803 983.89801 9.2197031e-39
2294.75 4601.9399 982.95502 9.2197031e-39
1442.98 4699.8799 1016.89 9.2197031e-39
1412.24 4703.6299 1018.17 9.2197031e-39
1444.55 4928.8301 1078.1899 9.2197031e-39
2349.1201 5296.25 1168.4 9.2197031e-39
1432.58 5310.6001 1180.53 9.2197031e-39
1398.66 5963.7402 1355.75 9.2197031e-39
1896.54 7344.0498 1720.89 9.2197031e-39
1950.17 7352.52 1722.67 9.2197031e-39
2004.17 7371.1699 1727.17 9.2197031e-39
2221.8501 7411.1899 1735.92 9.2197031e-39
2277.04 7424.6099 1739.02 9.2197031e-39
2059.5701 7425.0801 1741.11 9.2197031e-39
2332.4399 7436.6001 1741.73 9.2197031e-39
2387.99 7447.1499 1744.05 9.2197031e-39
2114.8999 7451.4702 1747.6801 9.2197031e-39
2444.22 7462.02 1747.52 9.2197031e-39
2500.26 7471.6001 1749.58 9.2197031e-39
2170.3101 7468.71 1751.79 9.2197031e-39
2556.8301 7483.5801 1752.28 9.2197031e-39
1319.2 7804.54 1849.4301 9.2197031e-39
1377.54 7801.48 1848.08 9.2197031e-39
1435.3 7804.6602 1848.41 9.2197031e-39
1493.02 7808.3101 1848.86 9.2197031e-39
1551.23 7802.7998 1846.86 9.2197031e-39
1666.71 7805.7402 1846.61 9.2197031e-39
1724.38 7809.3799 1847.0601 9.2197031e-39
1608.64 7812.2402 1848.87 9.2197031e-39
1782.11 7811.5698 1847.12 9.2197031e-39
1839.89 7810.3701 1846.28 9.2197031e-39
1260.95 7805.1899 1850.13 9.2197031e-39
