# .PCD v0.7 - Point Cloud Data file format
VERSION 0.7
FIELDS x y z rgb
SIZE 4 4 4 4
TYPE F F F F
COUNT 1 1 1 1
WIDTH 329
HEIGHT 1
VIEWPOINT 0 0 0 1 0 0 0
POINTS 329
DATA ascii
-5226.29 1032.738 134.00101 9.2197031e-39
1655.8434 2063.98 139.57265 9.2197031e-39
1662.515 2061.0549 138.53751 9.2197031e-39
2982.74 2237.74 134 9.2197031e-39
2981.23 2247.6899 136.69701 9.2197031e-39
2979.6399 2257.6299 139.39301 9.2197031e-39
1643.5601 2066.6201 140.74899 9.2197031e-39
1653.115 2068.355 140.839 9.2197031e-39
1654.8149 2072.0049 141.73901 9.2197031e-39
1664.0459 2076.7839 142.647 9.2197031e-39
1649.0699 2089.98 146.729 9.2197031e-39
1654.3101 2085.27 145.27499 9.2197031e-39
1661.918 2083.468 144.5018 9.2197031e-39
1645.6967 2096.4734 148.58199 9.2197031e-39
1653.8475 2094.3774 147.7085 9.2197031e-39
1665.4733 2097.6436 148.12233 9.2197031e-39
1677.76 2098.395 147.843 9.2197031e-39
1671.3899 2101.3501 148.873 9.2197031e-39
1925.928 2114.1479 142.3618 9.2197031e-39
1935.655 2114.345 142.035 9.2197031e-39
1942.64 2114.26 141.74001 9.2197031e-39
1933.955 2122.21 144.18649 9.2197031e-39
1992.1801 2129.96 143.976 9.2197031e-39
1929.53 2133.05 147.23399 9.2197031e-39
2011.6899 2134.6899 144.47099 9.2197031e-39
2045.55 2143.74 145.55 9.2197031e-39
1995.89 2152.21 149.731 9.2197031e-39
2118.6399 2164.55 148.22501 9.2197031e-39
2167.27 2176.53 149.507 9.2197031e-39
2322.7 2200.4199 149.79201 9.2197031e-39
2341.3101 2200.4199 149.069 9.2197031e-39
2368.7 2202.25 148.487 9.2197031e-39
2395.1799 2203.3901 147.75999 9.2197031e-39
2422.6899 2204.3198 146.935 9.2197031e-39
2482.51 2211.78 146.584 9.2197031e-39
2536.6201 2217.01 145.866 9.2197031e-39
2977.95 2267.55 142.09 9.2197031e-39
2976.1799 2277.46 144.785 9.2197031e-39
2974.3101 2287.3501 147.48 9.2197031e-39
2941.95 2291.1699 149.754 9.2197031e-39
-5235.71 1091.8779 150.04601 9.2197031e-39
1658.79 2107.5898 151.019 9.2197031e-39
2024.97 2167.6499 152.69099 9.2197031e-39
2070.9299 2191.6699 157.271 9.2197031e-39
2232.4099 2192.53 151.215 9.2197031e-39
2302.2 2199.5898 150.37 9.2197031e-39
2274.8 2200.8 151.758 9.2197031e-39
2291.3799 2201.1099 151.19501 9.2197031e-39
-5235.6699 1152.265 166.054 9.2197031e-39
-1908.05 1647.01 167.71899 9.2197031e-39
2137.1101 2226.4399 163.912 9.2197031e-39
2179.46 2250.8599 168.739 9.2197031e-39
-1883.5 1681.2 175.828 9.2197031e-39
2225.8501 2278.24 174.194 9.2197031e-39
-5234.0801 1212.709 182.01601 9.2197031e-39
-1859.62 1714.85 183.821 9.2197031e-39
2287.72 2314.6299 181.431 9.2197031e-39
-1823.47 1749.12 191.49899 9.2197031e-39
-1815.89 1780.49 199.52 9.2197031e-39
2391.29 2374.3 193.22099 9.2197031e-39
-1807.03 1811.78 207.47 9.2197031e-39
-1807.86 1842.29 215.591 9.2197031e-39
-1798.4301 1873.33 223.453 9.2197031e-39
-1826.66 1902.51 232.287 9.2197031e-39
2972.6399 2705.4299 258.38101 9.2197031e-39
2974.74 2719.6001 262.05801 9.2197031e-39
2969.75 2729.9199 264.987 9.2197031e-39
2980.1499 2749.2 269.69299 9.2197031e-39
2974.03 2759.0601 272.54599 9.2197031e-39
2978.03 2775.04 276.62799 9.2197031e-39
2979.3 2789.5801 280.43201 9.2197031e-39
2980.3899 2804.1899 284.263 9.2197031e-39
2972.9399 2813.52 287.02499 9.2197031e-39
2982.8899 2834.1599 292.11099 9.2197031e-39
2975.1799 2843.49 294.88501 9.2197031e-39
2983.01 2863.3201 299.836 9.2197031e-39
2975.05 2872.6299 302.61499 9.2197031e-39
2975.1299 2887.5701 306.57199 9.2197031e-39
2975.8301 2903.1399 310.673 9.2197031e-39
2975.55 2918.2 314.677 9.2197031e-39
2974.28 2932.73 318.578 9.2197031e-39
2976.01 2949.6899 323.00601 9.2197031e-39
2972.8 2963.1201 326.69101 9.2197031e-39
2979.5901 2984.49 332.09201 9.2197031e-39
2976.78 2998.6299 335.952 9.2197031e-39
2976.1101 3014.6699 340.23001 9.2197031e-39
2979.8301 3034.54 345.353 9.2197031e-39
2971.1299 3044.3701 348.297 9.2197031e-39
2970.6399 3061.1899 352.77499 9.2197031e-39
2974.4099 3081.96 358.13501 9.2197031e-39
2972.71 3098.28 362.52802 9.2197031e-39
2970.79 3114.6499 366.94199 9.2197031e-39
2973.79 3135.73 372.41501 9.2197031e-39
2971.4199 3152.23 376.88 9.2197031e-39
2975.3 3174.8799 382.733 9.2197031e-39
2971.75 3190.8101 387.09601 9.2197031e-39
2969.3999 3208.1599 391.785 9.2197031e-39
2971.73 3230.4199 397.59601 9.2197031e-39
2781.99 3227.29 404.15201 9.2197031e-39
2774.6899 3239.22 407.59698 9.2197031e-39
2968.2 3247.1799 402.17801 9.2197031e-39
2971.3301 3271.05 408.38501 9.2197031e-39
2767.8601 3251.8701 411.216 9.2197031e-39
2740.99 3260.8301 414.63901 9.2197031e-39
2757.8101 3260.6399 413.93399 9.2197031e-39
2738.6499 3279.51 419.68301 9.2197031e-39
2857.1399 3294.5601 419.06 9.2197031e-39
2880.4199 3299.8101 419.54501 9.2197031e-39
2969.3501 3290.0701 413.50201 9.2197031e-39
2970.48 3312.73 419.46701 9.2197031e-39
2972.6299 3336.96 425.80499 9.2197031e-39
2963.1899 3348.8799 429.33301 9.2197031e-39
2964.75 3373.26 435.73599 9.2197031e-39
-460.86301 2901.4199 443.95499 9.2197031e-39
-481.94 2976.6499 464.72198 9.2197031e-39
91.787102 3058.46 464.08099 9.2197031e-39
2861.25 3463.55 463.70099 9.2197031e-39
2834.29 3478.6101 468.742 9.2197031e-39
2854.54 3480.2 468.37701 9.2197031e-39
-488.09399 3001.98 471.67599 9.2197031e-39
-443.13501 3028.9299 477.069 9.2197031e-39
2833.02 3503.1101 475.28699 9.2197031e-39
-657.47101 3022.4099 483.68201 9.2197031e-39
-426.90302 3044.73 480.62799 9.2197031e-39
-403.34 3057.0901 482.987 9.2197031e-39
-391.41199 3074.51 487.14099 9.2197031e-39
74.429901 3129.6101 483.61899 9.2197031e-39
-8.4348803 3137.8301 489.02399 9.2197031e-39
2835.9099 3534.1101 483.39401 9.2197031e-39
-593.52301 3069.26 493.616 9.2197031e-39
-380.23401 3092.23 491.40302 9.2197031e-39
-366.23401 3108.55 495.185 9.2197031e-39
-358.31601 3127.77 499.97299 9.2197031e-39
68.410896 3154.2 490.37399 9.2197031e-39
2838.8799 3566.0801 491.75201 9.2197031e-39
2796.01 3588.1599 499.27499 9.2197031e-39
-355.51501 3149.6101 505.65399 9.2197031e-39
-331.39401 3160.6399 507.64001 9.2197031e-39
-169.27901 3187.54 508.461 9.2197031e-39
2721.54 3588.4199 502.24301 9.2197031e-39
2759.1599 3589.52 501.069 9.2197031e-39
2704.3401 3590.1001 503.35699 9.2197031e-39
2746.47 3599.0801 504.09799 9.2197031e-39
2783.8999 3598.8401 502.578 9.2197031e-39
2822.1299 3598.6201 501.03101 9.2197031e-39
2843 3600.6299 500.75299 9.2197031e-39
-310.742 3173.1899 510.16299 9.2197031e-39
-282.19699 3181.28 511.19601 9.2197031e-39
-209.666 3187.6101 510.05099 9.2197031e-39
-263.19901 3194.1799 513.87799 9.2197031e-39
-106.486 3218.47 514.21899 9.2197031e-39
-6.9407802 3223.6399 511.71399 9.2197031e-39
-8.61938 3247.04 517.98297 9.2197031e-39
17.8431 3252.01 518.271 9.2197031e-39
53.208302 3250.55 516.508 9.2197031e-39
1056.3 3437.53 527.04102 9.2197031e-39
1088.47 3436.3701 525.48297 9.2197031e-39
1066.51 3448.1599 529.46503 9.2197031e-39
1100.0601 3444.1799 527.104 9.2197031e-39
1097.0699 3481.4099 537.09003 9.2197031e-39
-36.207699 3334.73 542.30499 9.2197031e-39
1094.7 3518.8 547.09399 9.2197031e-39
1105.83 3529.21 549.42102 9.2197031e-39
1117.91 3537.79 551.22498 9.2197031e-39
-1543.03 3205.0701 566.56897 9.2197031e-39
-93.662102 3399 561.58002 9.2197031e-39
1113.3101 3583.3301 563.47699 9.2197031e-39
-1518.27 3228.4299 571.79999 9.2197031e-39
-117.33 3440.8601 573.59601 9.2197031e-39
1114.1801 3618.4399 572.75 9.2197031e-39
1118.7 3646.53 580.02301 9.2197031e-39
1117.29 3689.8501 591.56097 9.2197031e-39
1120.28 3724.3501 600.59198 9.2197031e-39
2936.1299 4020.8401 608.52899 9.2197031e-39
-1762.16 3348.3301 613.07501 9.2197031e-39
-260.20499 3570.77 613.59802 9.2197031e-39
1115.9399 3778.7 615.16998 9.2197031e-39
2936.4199 4061.6499 619.336 9.2197031e-39
-2095.3501 3356.3601 628.17102 9.2197031e-39
-1695.1899 3392.3201 622.133 9.2197031e-39
463.37799 3733.8799 628.68103 9.2197031e-39
484.02899 3738.3701 629.06702 9.2197031e-39
510.013 3735.7 627.349 9.2197031e-39
1118.5 3817.9299 625.46997 9.2197031e-39
-2203.6101 3354.3601 631.854 9.2197031e-39
-2342.48 3360.1101 638.78302 9.2197031e-39
263.08701 3727.24 634.71503 9.2197031e-39
280.25101 3738.1399 636.93701 9.2197031e-39
307.89001 3737.23 635.62097 9.2197031e-39
410.17401 3738.48 631.97198 9.2197031e-39
330.245 3741.8501 635.97601 9.2197031e-39
379.25699 3745.1399 634.94 9.2197031e-39
430.38101 3744.27 632.71997 9.2197031e-39
522.89899 3749.79 630.58197 9.2197031e-39
348.746 3750.6599 637.591 9.2197031e-39
524.89502 3778.6201 638.14697 9.2197031e-39
1118.98 3864.49 637.79498 9.2197031e-39
2936.0601 4102.6001 630.20697 9.2197031e-39
-52.6497 3714.74 643.68903 9.2197031e-39
119.464 3758.3401 648.54999 9.2197031e-39
176.26601 3759.97 646.77197 9.2197031e-39
141.099 3766.3301 649.82501 9.2197031e-39
1129.61 3885.77 643.02197 9.2197031e-39
2935.04 4143.6899 641.14001 9.2197031e-39
185.74001 3780.1799 651.75897 9.2197031e-39
2933.3701 4184.9102 652.13202 9.2197031e-39
489.99301 3858.6101 660.71198 9.2197031e-39
1119.36 3966.1799 664.73901 9.2197031e-39
2708.0901 4197.77 664.30798 9.2197031e-39
2731.1201 4199.1602 663.78101 9.2197031e-39
2753.04 4197.6499 662.52698 9.2197031e-39
2781.8999 4211.02 664.94897 9.2197031e-39
2807.3401 4216.1104 665.30701 9.2197031e-39
2877.2 4214.9102 662.27301 9.2197031e-39
2834.6299 4224.4502 666.45801 9.2197031e-39
2857.4199 4222.8501 665.14697 9.2197031e-39
2904.48 4221.6001 662.98297 9.2197031e-39
2931.49 4227.1104 663.39398 9.2197031e-39
-22.641001 3837.8101 675.14697 9.2197031e-39
14.4381 3832.6599 672.33899 9.2197031e-39
482.53 3902.97 672.76202 9.2197031e-39
495.923 3918.96 676.48102 9.2197031e-39
-125.325 3872.74 688.40399 9.2197031e-39
-97.449799 3878.28 688.78802 9.2197031e-39
509.50299 3934.8701 680.17102 9.2197031e-39
1118.46 4024.0901 680.125 9.2197031e-39
508 3973.23 690.39899 9.2197031e-39
513.54901 4002.05 697.823 9.2197031e-39
1114.53 4094.0601 698.82898 9.2197031e-39
2736.6599 4320.3896 695.70398 9.2197031e-39
-257.41599 3929.7 708.64502 9.2197031e-39
-219.459 3927.9299 706.698 9.2197031e-39
490.336 4075.7 718.25 9.2197031e-39
1116.33 4150.4902 713.71698 9.2197031e-39
2704.1299 4417.2598 722.65198 9.2197031e-39
2725.6001 4410.6602 720.06702 9.2197031e-39
1117.35 4212.5601 730.13501 9.2197031e-39
2703.05 4478.3999 738.90198 9.2197031e-39
2778.4199 4481.5601 736.80798 9.2197031e-39
454.759 4171.1699 744.94501 9.2197031e-39
2659.1899 4491.9199 744.19202 9.2197031e-39
-484.36301 4063.3401 752.90503 9.2197031e-39
1113.16 4295.1104 752.18201 9.2197031e-39
2694.28 4521.3799 750.63898 9.2197031e-39
2666.3899 4583.5 768.19202 9.2197031e-39
1110.6899 4376.98 773.98102 9.2197031e-39
-995.94 4146.0801 794.74902 9.2197031e-39
1108.5699 4462.7803 796.81 9.2197031e-39
2337.8601 4636.1104 794.92401 9.2197031e-39
2314.6899 4640.3203 796.94098 9.2197031e-39
2467.52 4668.5703 798.48499 9.2197031e-39
2493.1799 4671.5303 798.26898 9.2197031e-39
2545.04 4677.6499 797.875 9.2197031e-39
2571 4679.8896 797.45898 9.2197031e-39
2594.5 4673.52 794.85602 9.2197031e-39
2620.55 4675.2998 794.31403 9.2197031e-39
2647 4677.77 793.93799 9.2197031e-39
2673.24 4679.0601 793.25897 9.2197031e-39
-998.729 4186.4102 805.54797 9.2197031e-39
348.099 4383.4399 805.37201 9.2197031e-39
2369.26 4669.6201 802.58502 9.2197031e-39
2392.9099 4665.8999 800.67798 9.2197031e-39
2418.3201 4669.5303 800.65302 9.2197031e-39
2444.0601 4673.8701 800.802 9.2197031e-39
2521.5 4683.6104 800.36902 9.2197031e-39
-1002.55 4228.1499 816.763 9.2197031e-39
1109.77 4542.2803 817.841 9.2197031e-39
2301.0601 4694.8101 811.91699 9.2197031e-39
-995.80499 4262.23 825.53699 9.2197031e-39
1378.12 4625.0498 829.341 9.2197031e-39
-1003.98 4308.6396 838.15698 9.2197031e-39
-963.604 4316.3203 838.62299 9.2197031e-39
1116.37 4607.0303 834.74799 9.2197031e-39
1135.51 4627.8999 839.53601 9.2197031e-39
1353.83 4627.8203 831.01898 9.2197031e-39
1399.78 4638.29 832.008 9.2197031e-39
1301.7 4649.7803 838.86902 9.2197031e-39
1325.09 4654.1201 839.11102 9.2197031e-39
1253.04 4649.9502 840.80798 9.2197031e-39
1153.33 4655.2002 846.08197 9.2197031e-39
1177.46 4657.98 845.88 9.2197031e-39
1202.9 4654.9102 844.07397 9.2197031e-39
1228.4301 4650.6499 841.953 9.2197031e-39
1276.4301 4654.7002 841.15802 9.2197031e-39
-1001.83 4388.6001 859.27197 9.2197031e-39
316.56 4581.3999 859.078 9.2197031e-39
372.017 4589.6299 859.104 9.2197031e-39
403.44199 4586.5498 857.06403 9.2197031e-39
1410.29 4728.7798 855.58698 9.2197031e-39
-992.49799 4422.5 867.89502 9.2197031e-39
253.834 4583.6396 862.11298 9.2197031e-39
280.76099 4590.1699 862.797 9.2197031e-39
339.45401 4594.0498 861.54303 9.2197031e-39
1426.08 4792.4902 871.86499 9.2197031e-39
1450.99 4793.8799 871.263 9.2197031e-39
-1003.59 4474.2998 882.06097 9.2197031e-39
1456.22 4960.0298 915.10699 9.2197031e-39
2363 5172.73 936.20801 9.2197031e-39
2336.1299 5183.77 940.17999 9.2197031e-39
1445.5 5298.1802 1005.17 9.2197031e-39
1446.79 5578.1499 1079.34 9.2197031e-39
1940.5 7455.73 1557.89 9.2197031e-39
1989.46 7464.4902 1558.3101 9.2197031e-39
2038.49 7470.8901 1558.1 9.2197031e-39
2237.4199 7512.5898 1561.41 9.2197031e-39
2287.98 7525.5601 1562.88 9.2197031e-39
2338.1299 7531.3501 1562.47 9.2197031e-39
2389.04 7542.4902 1563.4399 9.2197031e-39
2439.5 7547.4102 1562.78 9.2197031e-39
2491.9099 7566.3101 1565.75 9.2197031e-39
2543.01 7572.27 1565.34 9.2197031e-39
2595.0901 7583.5298 1566.3 9.2197031e-39
2647.4199 7594.3398 1567.13 9.2197031e-39
2090.96 7539.6602 1574.29 9.2197031e-39
2140.98 7548.1099 1574.58 9.2197031e-39
2191.8501 7565.77 1577.28 9.2197031e-39
1893.36 7545.1699 1583.4399 9.2197031e-39
1277.1801 7774.6201 1668.24 9.2197031e-39
1583.2 7901.5601 1689.99 9.2197031e-39
1635.89 7903.6899 1688.5 9.2197031e-39
1688.61 7904.4102 1686.64 9.2197031e-39
1741.3199 7904.6802 1684.66 9.2197031e-39
1794.02 7904.5 1682.5699 9.2197031e-39
1846.71 7905.8198 1680.86 9.2197031e-39
1319.29 7893.8901 1698.23 9.2197031e-39
1372.08 7896.3198 1696.8101 9.2197031e-39
1425.1899 7893.48 1694 9.2197031e-39
1477.9301 7895.0098 1692.35 9.2197031e-39
1530.62 7897.0601 1690.84 9.2197031e-39
