# .PCD v0.7 - Point Cloud Data file format
VERSION 0.7
FIELDS x y z rgb
SIZE 4 4 4 4
TYPE F F F F
COUNT 1 1 1 1
WIDTH 309
HEIGHT 1
VIEWPOINT 0 0 0 1 0 0 0
POINTS 309
DATA ascii
-236.104 -199.81097 137.709 9.2197031e-39
1101.39 2504.52 138.717 9.2197031e-39
1105.24 2516.9951 139.2785 9.2197031e-39
1109.84 2525.3398 139.168 9.2197031e-39
1111.86 2525.1699 138.662 9.2197031e-39
1111.98 2532.4102 139.49699 9.2197031e-39
1237.02 2756.1599 136.12801 9.2197031e-39
1237.4701 2764.5867 137.024 9.2197031e-39
1240.62 2763.3201 136.117 9.2197031e-39
1236.0325 2776.27 138.7605 9.2197031e-39
1240.02 2774.3301 137.57201 9.2197031e-39
1236.83 2781.8201 139.23 9.2197031e-39
2230.1799 4717.3398 131.28799 9.2197031e-39
2252.03 4830.3398 139.5 9.2197031e-39
-251.272 -201.117 141.194 9.2197031e-39
1094.7134 2519.2002 142.06767 9.2197031e-39
1094.9301 2521.5801 142.298 9.2197031e-39
1102.84 2523.0168 140.57201 9.2197031e-39
1077.666 2532.866 147.7874 9.2197031e-39
1080.595 2535.04 147.343 9.2197031e-39
1094.2 2536.4033 144.23967 9.2197031e-39
1102.86 2537.0732 142.24001 9.2197031e-39
1078.48 2541.8198 148.659 9.2197031e-39
1081.8966 2546.5266 148.39867 9.2197031e-39
1096.98 2542.4302 144.289 9.2197031e-39
1101.6 2540.8301 142.991 9.2197031e-39
1082.16 2551.4399 148.91901 9.2197031e-39
1090.13 2557.3901 147.717 9.2197031e-39
1218.3701 2773.3599 142.653 9.2197031e-39
1224.9026 2774.6523 141.2395 9.2197031e-39
1207.51 2786.1799 146.787 9.2197031e-39
1216.51 2784.0759 144.3756 9.2197031e-39
1224.5 2781.1602 142.11034 9.2197031e-39
1232.87 2786.1899 140.7 9.2197031e-39
1207.67 2792.1799 147.463 9.2197031e-39
1211.9824 2792.4023 146.45425 9.2197031e-39
1236.225 2791.4451 140.5215 9.2197031e-39
1207.51 2808.2 149.409 9.2197031e-39
2329.3 5014 142.82401 9.2197031e-39
-317.14301 -210.87402 155.843 9.2197031e-39
-297.65201 -201.93701 152.229 9.2197031e-39
1055.42 2535.71 153.466 9.2197031e-39
1067.95 2542.1899 151.228 9.2197031e-39
1071.4301 2545.8101 150.825 9.2197031e-39
2387.3799 5218.77 153.269 9.2197031e-39
2377.6899 5225.4302 156.38699 9.2197031e-39
-366.81601 -215.90002 167.168 9.2197031e-39
2332.72 5213.8398 165.80299 9.2197031e-39
-382.27301 -216.51801 170.804 9.2197031e-39
-447.98499 -220.70398 186.07899 9.2197031e-39
-431.90799 -219.565 182.356 9.2197031e-39
-500.069 -226.08002 197.94099 9.2197031e-39
-515.784 -225.98999 201.72301 9.2197031e-39
-568.35199 -230.17798 213.842 9.2197031e-39
-639.875 -319.88202 220.328 9.2197031e-39
-710.66498 -348.29199 233.936 9.2197031e-39
1047.13 3409.1599 259.47101 9.2197031e-39
1050.15 3410.8201 258.944 9.2197031e-39
1005.17 3409.99 269.64099 9.2197031e-39
1017.19 3419.29 267.86499 9.2197031e-39
1035.21 3416.5801 263.21701 9.2197031e-39
1020.43 3420.1101 267.185 9.2197031e-39
1030.42 3423.5601 265.19699 9.2197031e-39
1050.1899 3473.3301 266.37701 9.2197031e-39
1052.39 3481.8201 266.85999 9.2197031e-39
1005.69 3422.3799 270.99301 9.2197031e-39
1049.62 3576.78 278.83401 9.2197031e-39
1052.1 3587.27 279.487 9.2197031e-39
1052.04 3684.51 291.082 9.2197031e-39
1052.04 3719.55 295.25601 9.2197031e-39
1052.89 3838.72 309.24399 9.2197031e-39
1054.3199 3871.8999 312.85001 9.2197031e-39
912.89099 3733.9099 330.366 9.2197031e-39
1053.5 4050.49 334.315 9.2197031e-39
1342.04 4663.9297 338.10901 9.2197031e-39
1053.76 4112.3604 341.62201 9.2197031e-39
1307.2 4660.4199 346.05499 9.2197031e-39
1315.53 4660.1299 344.01999 9.2197031e-39
1354.76 4718.04 341.50101 9.2197031e-39
1390.21 4808.54 343.76801 9.2197031e-39
1400.1 4817.8101 342.49701 9.2197031e-39
876.31799 3857.5901 353.87299 9.2197031e-39
1272.9 4666.23 354.978 9.2197031e-39
1281.26 4666.0801 352.95401 9.2197031e-39
848.61603 3875.9399 362.70801 9.2197031e-39
829.763 3880.24 367.745 9.2197031e-39
851.70801 3885.1399 363.061 9.2197031e-39
1212.01 4665.2197 369.47299 9.2197031e-39
1238.26 4665.46 363.20099 9.2197031e-39
1246.65 4666.4502 361.306 9.2197031e-39
806.534 3860.9399 371.02301 9.2197031e-39
810.46698 3866.48 370.73801 9.2197031e-39
822.66101 3885.1399 370.034 9.2197031e-39
1049.58 4412.8701 378.41101 9.2197031e-39
1169.05 4662.0703 379.41 9.2197031e-39
1177.41 4662.3701 377.44101 9.2197031e-39
1203.65 4665.0601 371.46201 9.2197031e-39
1134.48 4660.4502 387.517 9.2197031e-39
1142.83 4660.8896 385.565 9.2197031e-39
1099.92 4658.2002 395.54501 9.2197031e-39
1108.26 4658.7998 393.61301 9.2197031e-39
1040.46 4635.98 407.17001 9.2197031e-39
1065.38 4655.3501 403.495 9.2197031e-39
1073.61 4658.0801 401.84399 9.2197031e-39
716.93298 4080.3401 418.65701 9.2197031e-39
-777.591 1109.7629 423.63501 9.2197031e-39
-788.62903 1141.916 430.11401 9.2197031e-39
-789.013 1154.446 431.698 9.2197031e-39
-785.83899 1209.011 437.43399 9.2197031e-39
-779.34003 1201.272 434.952 9.2197031e-39
467.01001 3739.9199 438.10699 9.2197031e-39
-799.44702 1238.165 444.172 9.2197031e-39
-802.54999 1248.281 446.12201 9.2197031e-39
416.71899 3720.1599 447.82501 9.2197031e-39
421.84 3722.8 446.91101 9.2197031e-39
444.30951 3726.71 441.983 9.2197031e-39
459.16299 3741.55 440.185 9.2197031e-39
454.55301 3803.4399 448.66101 9.2197031e-39
463.354 3824.49 449.05701 9.2197031e-39
-815.59399 1277.6011 452.74399 9.2197031e-39
-806.995 1295.504 452.81201 9.2197031e-39
385.83099 3722.1201 455.474 9.2197031e-39
390.40201 3725.7 454.802 9.2197031e-39
431.871 3828.0901 457.04099 9.2197031e-39
459.74301 3841.9199 451.99899 9.2197031e-39
462.306 3874.8201 455.30099 9.2197031e-39
462.58801 3886.51 456.62601 9.2197031e-39
-829.32599 1318.3091 460.888 9.2197031e-39
-835.36401 1326.318 463.29099 9.2197031e-39
30.690201 3053.5601 461.10101 9.2197031e-39
28.0779 3120.8899 469.74701 9.2197031e-39
334.90799 3718.4099 467.254 9.2197031e-39
357.19849 3724.7749 462.66251 9.2197031e-39
457.008 3935.78 463.83301 9.2197031e-39
458.16599 3946.75 464.85999 9.2197031e-39
-850.64398 1353.845 470.237 9.2197031e-39
-855.70099 1362.489 472.48001 9.2197031e-39
-863.724 1394.395 478.20599 9.2197031e-39
-23.096701 3066.8201 475.59201 9.2197031e-39
-5.9770999 3085.1899 473.67001 9.2197031e-39
15.2376 3107.49 471.23401 9.2197031e-39
23.9741 3128.5601 471.64499 9.2197031e-39
50.683899 3236.99 478.146 9.2197031e-39
57.3764 3259.78 479.255 9.2197031e-39
69.3741 3259.5801 476.35001 9.2197031e-39
294.48749 3724.175 477.64301 9.2197031e-39
321.26801 3725.99 471.431 9.2197031e-39
457.771 3989.6299 470.06201 9.2197031e-39
458.82401 4001.53 471.22699 9.2197031e-39
455.20901 4053.4199 478.27399 9.2197031e-39
457.12201 4064.5601 479.14099 9.2197031e-39
-868.612 1403.1011 480.41599 9.2197031e-39
-882.01001 1431.567 487.021 9.2197031e-39
-885.88599 1440.85 489.05701 9.2197031e-39
9.7130203 3211.5 484.94501 9.2197031e-39
28.0166 3222.3899 481.849 9.2197031e-39
33.151798 3226.1399 481.06299 9.2197031e-39
46.465599 3245.5701 480.181 9.2197031e-39
259.16599 3722.1001 485.87399 9.2197031e-39
266.89899 3722.52 484.06799 9.2197031e-39
455.05099 4116.8799 485.86899 9.2197031e-39
456.931 4128.98 486.85901 9.2197031e-39
-900.495 1468.563 495.86401 9.2197031e-39
-45.0093 3204.22 497.21399 9.2197031e-39
-45.153999 3210.8101 498.03299 9.2197031e-39
-12.8067 3215.95 490.88101 9.2197031e-39
202.05901 3718.03 499.09698 9.2197031e-39
225.8815 3725.825 494.30798 9.2197031e-39
456.84698 4180.8301 493.05399 9.2197031e-39
455.401 4200.98 495.79999 9.2197031e-39
-99.202599 3146.6001 503.35999 9.2197031e-39
-87.827698 3196.1599 506.53101 9.2197031e-39
-88.9058 3203.27 507.63699 9.2197031e-39
-18.527201 3330.02 505.83801 9.2197031e-39
157.369 3717.73 509.78799 9.2197031e-39
159.948 3724.3899 509.96301 9.2197031e-39
190.922 3720.78 502.09799 9.2197031e-39
453.33499 4261.2598 503.47501 9.2197031e-39
456.51999 4272.6499 504.06601 9.2197031e-39
120.859 3716.5601 518.41302 9.2197031e-39
132.91499 3713.6699 515.17499 9.2197031e-39
451.97501 4343.25 513.56403 9.2197031e-39
451.40399 4364.6201 516.24701 9.2197031e-39
-186.576 3159.3501 525.85101 9.2197031e-39
89.313301 3718.6101 526.229 9.2197031e-39
450.96701 4431.27 524.289 9.2197031e-39
456.242 4440.0898 524.073 9.2197031e-39
527.98999 4629.3203 529.38599 9.2197031e-39
-125.949 3399.0701 539.84601 9.2197031e-39
67.377899 3730.6299 532.92603 9.2197031e-39
445.60599 4538.1797 538.30701 9.2197031e-39
476.72299 4582.04 536.06097 9.2197031e-39
494.61301 4640.8398 538.76898 9.2197031e-39
-1191.15 1318.554 547.76801 9.2197031e-39
-148.707 3436.8401 549.80603 9.2197031e-39
21.524401 3735.1499 544.46997 9.2197031e-39
31.821899 3734.96 541.97601 9.2197031e-39
453.93799 4618.2998 545.84802 9.2197031e-39
486.27301 4637.6001 540.38501 9.2197031e-39
-1204.6 1351.7671 554.95001 9.2197031e-39
-1200.9 1366.583 555.82703 9.2197031e-39
-331.21301 3152.1201 559.70697 9.2197031e-39
-150.214 3445.6699 551.21997 9.2197031e-39
-167.07201 3481.3201 559.51202 9.2197031e-39
-19.118299 3733.1499 553.987 9.2197031e-39
-6.5859098 3731.29 550.75702 9.2197031e-39
423.133 4620.2803 553.47803 9.2197031e-39
-1205.8 1403.9719 561.45502 9.2197031e-39
-1196.54 1421.342 561.29999 9.2197031e-39
-1197.1 1460.251 566.06897 9.2197031e-39
-1184.83 1478.6421 565.315 9.2197031e-39
-1174.6 1533.9509 569.44397 9.2197031e-39
-486.94199 2846.6699 560.71198 9.2197031e-39
-487.80099 2854.1499 561.80902 9.2197031e-39
-377.328 3136.3899 568.90302 9.2197031e-39
-339.91299 3147.6399 561.26202 9.2197031e-39
-48.157101 3729.1299 560.479 9.2197031e-39
-60.809799 3730.6699 563.69897 9.2197031e-39
-1189.01 1515.05 570.65198 9.2197031e-39
-1191.46 1563.969 577.06702 9.2197031e-39
-516.07898 2920.27 576.47101 9.2197031e-39
-470.608 3029.4399 578.55603 9.2197031e-39
-446.20801 3031.22 572.91199 9.2197031e-39
-451.646 3056.28 577.20203 9.2197031e-39
-444.10199 3061.9399 576.065 9.2197031e-39
-422.03101 3079.8 572.89398 9.2197031e-39
-416.285 3085.75 572.22302 9.2197031e-39
-410.70599 3107.8401 573.51501 9.2197031e-39
-406.72 3114.23 573.31897 9.2197031e-39
-401.694 3136.5 574.76501 9.2197031e-39
-93.7397 3728.95 571.39899 9.2197031e-39
-107.259 3730.77 574.86102 9.2197031e-39
-536.55298 2915.95 580.87097 9.2197031e-39
-525.974 2945.9399 581.90302 9.2197031e-39
-521.63702 2952.8401 581.68298 9.2197031e-39
-522.50598 2977.1699 584.789 9.2197031e-39
-515.20502 2983.4299 583.78198 9.2197031e-39
-246.116 3539.0801 585.36298 9.2197031e-39
-150.373 3726.49 584.70001 9.2197031e-39
-144.96899 3731.76 584.03003 9.2197031e-39
-535.59253 3016.01 592.55603 9.2197031e-39
-199.86501 3725.77 596.49402 9.2197031e-39
-186.853 3725.28 593.31097 9.2197031e-39
-1310.58 1561.936 605.41803 9.2197031e-39
-240.502 3726.4099 606.32397 9.2197031e-39
-255.18401 3727.6899 610 9.2197031e-39
-306.33801 3724.54 621.90399 9.2197031e-39
-299.33099 3729.3799 620.79901 9.2197031e-39
1776.99 7976.9199 628.24103 9.2197031e-39
-360.242 3721.5601 634.48798 9.2197031e-39
-350.04999 3724.45 632.38501 9.2197031e-39
-1490.53 1497.61 640.95001 9.2197031e-39
-416.94699 3718.6001 647.74701 9.2197031e-39
-398.69299 3716.4099 643.104 9.2197031e-39
-451.33899 3699.26 653.69897 9.2197031e-39
-444.32901 3704.8601 652.68201 9.2197031e-39
-2345.1499 1276.328 819.73499 9.2197031e-39
-2280.0801 1353.821 813.34399 9.2197031e-39
-2262.8 1376.7361 811.92401 9.2197031e-39
-2447.74 1145.7219 828.80499 9.2197031e-39
-2447.0701 1163.817 830.79999 9.2197031e-39
-2324.9099 1406.442 830.37201 9.2197031e-39
-2342.5701 1416.939 835.85999 9.2197031e-39
-2470.98 1210.0549 842.04498 9.2197031e-39
-2417.4399 1444.2429 857.08197 9.2197031e-39
-2418.1899 1460.8669 859.242 9.2197031e-39
-2674.5601 1433.4971 917.52002 9.2197031e-39
-2801.96 1412.188 945.56299 9.2197031e-39
-2793.48 1472.428 950.70099 9.2197031e-39
-2802.52 1488.094 954.73499 9.2197031e-39
-2801.46 1545.627 961.33301 9.2197031e-39
-2851.8601 1550.1841 973.974 9.2197031e-39
-2398.9299 3163.9199 1057.4301 9.2197031e-39
-2724.8501 3194.2 1139.27 9.2197031e-39
-4722.6699 1457.696 1412.01 9.2197031e-39
-4693.7598 1596.8159 1421.64 9.2197031e-39
-4684.3701 1679.37 1429.22 9.2197031e-39
-4822.8301 1547.4819 1446.75 9.2197031e-39
-4718.3301 1780.67 1449.4301 9.2197031e-39
-4797.5898 1687.0601 1457.3101 9.2197031e-39
-4857.46 1786.78 1483.5601 9.2197031e-39
-5204.6499 1825.1 1571.46 9.2197031e-39
-5207.2202 1852.55 1575.34 9.2197031e-39
-5212.5898 1939.02 1586.9301 9.2197031e-39
-5415.4702 1945.4 1636.39 9.2197031e-39
-5721.4902 2007.02 1717.1801 9.2197031e-39
-5718.3799 2037.14 1720.02 9.2197031e-39
-5727.9302 2130 1733.37 9.2197031e-39
-5731.1099 2159.6001 1737.66 9.2197031e-39
-5154.6299 3307.3 1735.96 9.2197031e-39
-5730.3198 2253.25 1748.62 9.2197031e-39
-5157.8301 3335.4399 1740.08 9.2197031e-39
-5731.0498 2283.01 1752.34 9.2197031e-39
-5735.46 2376.3599 1764.52 9.2197031e-39
-5735.6802 2406.1602 1768.12 9.2197031e-39
-5745.2998 2499.52 1781.54 9.2197031e-39
-5745.9902 2529.3599 1785.26 9.2197031e-39
-5742.3398 2623.1001 1795.55 9.2197031e-39
-5740.5601 2652.95 1798.6801 9.2197031e-39
-5744.0601 2746.75 1810.6899 9.2197031e-39
-5742.75 2776.6201 1813.9301 9.2197031e-39
-5752.3999 2870.8601 1827.47 9.2197031e-39
-5752.52 2900.8601 1831.0699 9.2197031e-39
-5733.3901 2994.1399 1837.59 9.2197031e-39
-5731.0601 3023.99 1840.58 9.2197031e-39
-5695.8301 3115.78 1843.0601 9.2197031e-39
-5693 3145.49 1845.92 9.2197031e-39
-5660.6699 3266.5801 1852.58 9.2197031e-39
-5747.1299 3244.24 1870.67 9.2197031e-39
