# .PCD v0.7 - Point Cloud Data file format
VERSION 0.7
FIELDS x y z rgb
SIZE 4 4 4 4
TYPE F F F F
COUNT 1 1 1 1
WIDTH 331
HEIGHT 1
VIEWPOINT 0 0 0 1 0 0 0
POINTS 331
DATA ascii
870.27399 -60.09198 134.147 9.2197031e-39
848.65802 -55.179993 139.927 9.2197031e-39
831.49103 2405.72 138.80499 9.2197031e-39
831.61298 2419.79 138.74001 9.2197031e-39
829.08899 2429.1899 139.394 9.2197031e-39
831.09399 2425.8901 138.86501 9.2197031e-39
829.026 2437.29 139.392 9.2197031e-39
831.12 2435.97 138.834 9.2197031e-39
834.14301 2705.0701 137.399 9.2197031e-39
831.13953 2716.29 138.17749 9.2197031e-39
827.25732 2721.6533 139.205 9.2197031e-39
815.99799 3832.3999 139.63901 9.2197031e-39
826.37097 3833.6299 136.85699 9.2197031e-39
837.31201 3831.77 133.92999 9.2197031e-39
825.21503 -148.06299 146.424 9.2197031e-39
794.87402 2419.665 148.584 9.2197031e-39
801.83197 2417.2 146.72501 9.2197031e-39
818.25238 2417.2666 142.32533 9.2197031e-39
823.78302 2418.9102 140.84 9.2197031e-39
794.72675 2422.5867 148.61633 9.2197031e-39
801.85797 2425.9565 146.698 9.2197031e-39
824.26245 2425.9399 140.69501 9.2197031e-39
792.55103 2436.79 149.166 9.2197031e-39
808.35046 2432.3801 144.94299 9.2197031e-39
815.25262 2435.2251 143.08762 9.2197031e-39
824.56097 2430.95 140.603 9.2197031e-39
795.05438 2441.5762 148.48441 9.2197031e-39
818.01398 2698.1599 141.73599 9.2197031e-39
814.36102 2703.3967 142.70268 9.2197031e-39
820.466 2708.96 141.054 9.2197031e-39
794.66602 2712.6001 147.959 9.2197031e-39
808.06567 2713.0234 144.36732 9.2197031e-39
817.65656 2714.98 141.79276 9.2197031e-39
822.47699 2718.51 140.493 9.2197031e-39
819.66302 2727.1299 141.22701 9.2197031e-39
823.29303 2721.7 140.267 9.2197031e-39
799.677 2732.3601 146.57001 9.2197031e-39
800.05103 3134.6699 145.534 9.2197031e-39
790.12201 3190.97 148.064 9.2197031e-39
800.23901 3196.8999 145.339 9.2197031e-39
800.87299 3264.1299 145.013 9.2197031e-39
784.91498 3809.1299 148.022 9.2197031e-39
799.789 3987.96 143.621 9.2197031e-39
785.76099 4043.4399 147.25 9.2197031e-39
802.14697 -191.742 152.70599 9.2197031e-39
779.401 2419.9302 152.729 9.2197031e-39
785.92798 2427.8101 150.96201 9.2197031e-39
776.547 2803.47 152.60201 9.2197031e-39
765.85999 2830.3799 155.403 9.2197031e-39
757.58301 2848.6201 157.578 9.2197031e-39
749.505 2864.8 159.705 9.2197031e-39
777.02698 3032.0601 151.942 9.2197031e-39
775.36902 3797.5601 150.606 9.2197031e-39
733.53198 2903.52 163.895 9.2197031e-39
719.07501 2935.3401 167.694 9.2197031e-39
736.92902 -1829.6001 173.989 9.2197031e-39
732.69397 -875.04004 172.90401 9.2197031e-39
682.23602 3027.8799 177.35001 9.2197031e-39
696.599 -1024.67 182.923 9.2197031e-39
651.91602 -1323.76 195.591 9.2197031e-39
635.57001 -1029.33 199.286 9.2197031e-39
616.534 -870.69995 204.01801 9.2197031e-39
560.47601 -1215.3101 219.839 9.2197031e-39
546.41302 -1010.4 223.131 9.2197031e-39
520.323 -955.68005 229.994 9.2197031e-39
427.396 3674.3899 244.12801 9.2197031e-39
410.987 3688.0801 248.493 9.2197031e-39
398.10599 3693.4299 251.93201 9.2197031e-39
370.36099 3706.24 259.336 9.2197031e-39
383.504 3701.2 255.826 9.2197031e-39
335.004 3707.3201 268.80701 9.2197031e-39
349.66199 3701.0901 264.89401 9.2197031e-39
358.987 3705.4399 262.38599 9.2197031e-39
312.50601 3705.0801 274.841 9.2197031e-39
298.013 3711.0701 278.70999 9.2197031e-39
321.922 3710.8899 272.30399 9.2197031e-39
280.185 3698.3 283.51599 9.2197031e-39
264.104 3705.3701 287.80899 9.2197031e-39
289.05099 3704.1499 281.12701 9.2197031e-39
232.002 3696.28 296.431 9.2197031e-39
245.039 3694.6599 292.94199 9.2197031e-39
253.862 3701.95 290.561 9.2197031e-39
205.252 3698.78 303.59299 9.2197031e-39
190.047 3702.22 307.659 9.2197031e-39
216.495 3700.9299 300.57501 9.2197031e-39
155.108 3695.1399 317.03699 9.2197031e-39
167.463 3696.1101 313.724 9.2197031e-39
180.755 3696.3899 310.16199 9.2197031e-39
117.462 3689.9299 327.13599 9.2197031e-39
126.637 3697.48 324.66 9.2197031e-39
139.097 3698.75 321.31799 9.2197031e-39
73.336899 3693.55 338.95001 9.2197031e-39
102.803 3691.7 331.05899 9.2197031e-39
82.054199 3701.1499 336.59698 9.2197031e-39
61.954201 3688.77 342.01099 9.2197031e-39
0.26945701 3195.3 359.686 9.2197031e-39
5.4466801 3202.75 358.28201 9.2197031e-39
21.0453 3202.78 354.10199 9.2197031e-39
9.3086996 3223.28 357.19901 9.2197031e-39
19.5882 3227.3601 354.435 9.2197031e-39
28.834999 3231.5601 351.948 9.2197031e-39
-1.76124 3087.5 360.48099 9.2197031e-39
-18.172501 3107.8501 364.83099 9.2197031e-39
-13.338 3182.1599 363.36301 9.2197031e-39
-12.2253 3192.6001 363.04001 9.2197031e-39
-19.0865 3283.3401 364.668 9.2197031e-39
-27.089199 3793.5901 365.62601 9.2197031e-39
-40.0033 3166.05 370.54501 9.2197031e-39
-68.502701 3173.8101 378.16299 9.2197031e-39
-51.7299 3185.8501 373.64099 9.2197031e-39
-41.022301 3189.8301 370.76199 9.2197031e-39
-91.540001 3130.6499 384.436 9.2197031e-39
-88.4356 3163.4399 383.52802 9.2197031e-39
-98.264801 3181.21 386.12 9.2197031e-39
-182.817 3160.6499 408.823 9.2197031e-39
-162.537 3161.29 403.38699 9.2197031e-39
-197.828 3157.28 412.85199 9.2197031e-39
-255.57401 3126.3799 428.397 9.2197031e-39
-236.888 3129.4199 423.383 9.2197031e-39
-249.461 3148.04 426.70801 9.2197031e-39
-252.131 3162.3301 427.39099 9.2197031e-39
-231.011 3163.0801 421.73001 9.2197031e-39
-290.62701 3131.72 437.776 9.2197031e-39
-316.45001 3131.3101 444.69601 9.2197031e-39
-362.92099 3114.6001 457.18701 9.2197031e-39
-348.68799 3120.77 453.35901 9.2197031e-39
-347.39499 3133.49 452.983 9.2197031e-39
-407.51901 3081.54 469.21301 9.2197031e-39
-403.26401 3092.5801 468.047 9.2197031e-39
-397.80499 3103.76 466.55801 9.2197031e-39
-388.03201 3112.3701 463.92001 9.2197031e-39
-444.50299 3017.28 479.272 9.2197031e-39
-437.12201 3027.3501 477.271 9.2197031e-39
-434.93799 3039.8899 476.65601 9.2197031e-39
-413.77802 3044.6699 470.97601 9.2197031e-39
-411.43399 3057.03 470.319 9.2197031e-39
-410.98801 3069.54 470.17001 9.2197031e-39
-479.18201 2976.5801 488.65799 9.2197031e-39
-470.245 2986.5 486.241 9.2197031e-39
-469.35599 2999.5901 485.97198 9.2197031e-39
-449.23599 3005.6101 480.56699 9.2197031e-39
-513.948 2830.9299 498.31201 9.2197031e-39
-499.802 2956.5601 494.23001 9.2197031e-39
-490.07199 2966.48 491.60001 9.2197031e-39
-533.91302 4433.9902 499.93399 9.2197031e-39
-513.883 4439.7002 494.55399 9.2197031e-39
-521.23297 2844.8301 500.23199 9.2197031e-39
-531.10699 2860.0901 502.84201 9.2197031e-39
-547.83099 2902.9099 507.22299 9.2197031e-39
-545.836 2916.05 506.65799 9.2197031e-39
-538.25201 2927.1101 504.60001 9.2197031e-39
-548.20099 2943.4399 507.228 9.2197031e-39
-561.26202 4436.1104 507.25699 9.2197031e-39
-587.38 4437.73 514.25201 9.2197031e-39
-623.604 3802.8 525.43402 9.2197031e-39
-635.85602 4433.1396 527.25098 9.2197031e-39
-615.01001 4439.1396 521.651 9.2197031e-39
-658.914 2987.3401 536.78998 9.2197031e-39
-656.87201 3853.9199 534.229 9.2197031e-39
-653.65997 3873.5601 533.32202 9.2197031e-39
-647.48102 3891.95 531.62402 9.2197031e-39
-651.86902 3918.8601 532.737 9.2197031e-39
-654.62598 3945.9399 533.41302 9.2197031e-39
-655.46301 3970.51 533.58002 9.2197031e-39
-660.39697 4000.5801 534.83197 9.2197031e-39
-654.23102 4019.27 533.13702 9.2197031e-39
-653.56403 4044.8201 532.89801 9.2197031e-39
-655.97699 4072.5901 533.47998 9.2197031e-39
-656.02802 4099.77 533.43103 9.2197031e-39
-653.64203 4123.5703 532.73602 9.2197031e-39
-659.79602 4158.0898 534.30499 9.2197031e-39
-652.72302 4177.79 532.36401 9.2197031e-39
-656.06299 4210.48 533.18298 9.2197031e-39
-653.72101 4236.1001 532.49597 9.2197031e-39
-657.54199 4270.5801 533.44 9.2197031e-39
-655.14099 4297.1602 532.73401 9.2197031e-39
-656.164 4329.73 532.93298 9.2197031e-39
-656.21899 4360.27 532.87598 9.2197031e-39
-658.26001 4395.4199 533.34198 9.2197031e-39
-664.31201 4434.6699 534.87201 9.2197031e-39
-746.63 1003.048 564.90601 9.2197031e-39
-760.15997 1016.483 568.5 9.2197031e-39
-766.39001 1038.191 570.11902 9.2197031e-39
-768.159 1062.514 570.53699 9.2197031e-39
-775.32501 1082.84 572.409 9.2197031e-39
-782.39001 1101.797 574.258 9.2197031e-39
-781.04901 1129.287 573.83502 9.2197031e-39
-786.17603 1149.484 575.16199 9.2197031e-39
-792.41498 1169.761 576.78601 9.2197031e-39
-797.112 1189.936 577.99799 9.2197031e-39
-802.91699 1210.203 579.50598 9.2197031e-39
-814.03601 1224.807 582.45099 9.2197031e-39
-819.45599 1245.12 583.85602 9.2197031e-39
-823.34497 1265.282 584.85199 9.2197031e-39
-826.78101 1286.756 585.72198 9.2197031e-39
-837.27002 1301.567 588.49799 9.2197031e-39
-848.15601 1317.225 591.37903 9.2197031e-39
-850.48297 1337.9561 591.95398 9.2197031e-39
-860.25897 1354.3 594.53497 9.2197031e-39
-868.59003 1370.521 596.72998 9.2197031e-39
-880.49103 1385.363 599.88397 9.2197031e-39
-867.27301 -1073.38 602.05902 9.2197031e-39
-882.06702 1406.0869 600.258 9.2197031e-39
-884.71802 1426.9861 600.91998 9.2197031e-39
-921.94202 -1105.64 616.78198 9.2197031e-39
-977.51898 -1141.5699 631.75702 9.2197031e-39
-1007.27 -445.22998 638.10901 9.2197031e-39
-1030.02 -1165.29 645.87799 9.2197031e-39
-1028.71 -154.12097 643.17798 9.2197031e-39
-1085.02 -634.41003 659.38202 9.2197031e-39
-1083.77 -1193.61 660.34802 9.2197031e-39
-1140.24 1357.4609 669.54602 9.2197031e-39
-1143.39 -1227.39 676.401 9.2197031e-39
-1160.23 1270.173 675.10602 9.2197031e-39
-1157.38 1297.696 674.27698 9.2197031e-39
-1163.63 1317.994 675.90503 9.2197031e-39
-1190.28 1351.046 682.96997 9.2197031e-39
-1246.85 1367.238 698.08698 9.2197031e-39
-1245.63 1489.3401 697.47699 9.2197031e-39
-1263.78 1333.074 702.70502 9.2197031e-39
-1286.86 1370.001 708.802 9.2197031e-39
-1289.63 1417.994 709.43298 9.2197031e-39
-1298.36 1387.925 711.841 9.2197031e-39
-1317.1 1427.3511 716.771 9.2197031e-39
-1449.1 -475.22998 756.56201 9.2197031e-39
-1574.66 3126.25 781.83197 9.2197031e-39
-1590.1899 -1986.2 797.88 9.2197031e-39
-1644.38 -855.63 809.771 9.2197031e-39
-1647.52 -1996.48 813.26501 9.2197031e-39
-1647 -1120.5601 811.08801 9.2197031e-39
-1644.14 -982.68005 810.00098 9.2197031e-39
-1650.6 -925.69995 811.599 9.2197031e-39
-1646.24 -795.13 810.12701 9.2197031e-39
-1664.11 -699.45996 814.69397 9.2197031e-39
-1677.53 -660.08997 818.19897 9.2197031e-39
-1680.14 -604.94995 818.77002 9.2197031e-39
-1673.26 -541.94995 816.78003 9.2197031e-39
-1684.99 -500.22998 819.82397 9.2197031e-39
-1661.36 -419.68994 813.30603 9.2197031e-39
-1696.11 2777.5801 815.185 9.2197031e-39
-1684.7 2799.1101 812.07501 9.2197031e-39
-1695.12 -1992.49 826.008 9.2197031e-39
-1699.25 -410.54004 823.43597 9.2197031e-39
-1735.38 2756.75 825.755 9.2197031e-39
-1747.17 -1991.1299 839.95099 9.2197031e-39
-1738.5601 -1326.14 836.099 9.2197031e-39
-1768.89 -439.97998 842.16498 9.2197031e-39
-1777.51 -149.065 843.79797 9.2197031e-39
-1791.9399 -115.53198 847.58502 9.2197031e-39
-1801.99 -1998.0701 854.65503 9.2197031e-39
-1826.4301 -104.65698 856.802 9.2197031e-39
-1843.73 -470.89001 862.289 9.2197031e-39
-1851.1899 -273.34198 863.828 9.2197031e-39
-1861.02 -2006.5701 870.492 9.2197031e-39
-1879.17 -458.73999 871.758 9.2197031e-39
-1914.54 -443.51001 881.19702 9.2197031e-39
-2001.6 -485.91003 904.62402 9.2197031e-39
-2024.3199 -2010.96 914.25702 9.2197031e-39
-2084.5701 -2016.6799 930.41199 9.2197031e-39
-2137.29 -2013.8501 944.53302 9.2197031e-39
-2202.98 3241.25 949.91602 9.2197031e-39
-2271.0901 3110.99 968.46802 9.2197031e-39
-2245.6101 3134.6201 961.58502 9.2197031e-39
-2306.47 3058.71 978.07001 9.2197031e-39
-2300.4399 3086.1699 976.38898 9.2197031e-39
-2366.04 3037.5801 994.08002 9.2197031e-39
-2393.9299 1414.209 1005.33 9.2197031e-39
-2406.54 1443.321 1008.64 9.2197031e-39
-2437.8999 1125.8511 1017.78 9.2197031e-39
-2428.8301 1165.505 1015.26 9.2197031e-39
-2444.75 1192.567 1019.46 9.2197031e-39
-2421.49 1270.5439 1013.05 9.2197031e-39
-2418.1201 1306.463 1012.06 9.2197031e-39
-2425.8 1468.651 1013.74 9.2197031e-39
-2447.1399 1016.044 1020.51 9.2197031e-39
-2448.3301 1050.429 1020.75 9.2197031e-39
-2478.1599 1073.444 1028.6899 9.2197031e-39
-2457.4399 1324.3621 1022.55 9.2197031e-39
-2462.6101 1357.015 1023.86 9.2197031e-39
-2511.3401 1200.7839 1037.28 9.2197031e-39
-2617.5801 1439.572 1065.1899 9.2197031e-39
-2693.26 1449.13 1085.45 9.2197031e-39
-2794.5 1453.897 1112.5601 9.2197031e-39
-2806.3401 1485.2151 1115.66 9.2197031e-39
-4877.9199 1039.062 1671.76 9.2197031e-39
-4947.48 963.10699 1690.5699 9.2197031e-39
-4954.73 1566.877 1691.11 9.2197031e-39
-5005.71 891.55103 1706.34 9.2197031e-39
-4996.2202 1062.283 1703.4 9.2197031e-39
-5167.7598 1077.089 1749.33 9.2197031e-39
-5162.8999 1134.2051 1747.89 9.2197031e-39
-5165.6499 1192.0701 1748.5 9.2197031e-39
-5170.5298 1417.481 1749.28 9.2197031e-39
-5159.8398 1474.203 1746.28 9.2197031e-39
-5163.7002 3281.3999 1743.11 9.2197031e-39
-5157.6602 3334.3501 1741.37 9.2197031e-39
-5158.5 3390.95 1741.47 9.2197031e-39
-5185.29 1243.251 1753.64 9.2197031e-39
-5184.2202 1301.744 1753.22 9.2197031e-39
-5185.9199 1356.666 1753.54 9.2197031e-39
-5182.21 1582.151 1752.02 9.2197031e-39
-5190.52 1638.01 1754.12 9.2197031e-39
-5176.9399 1694.3199 1750.35 9.2197031e-39
-5203.4399 1747.53 1757.33 9.2197031e-39
-5186.04 1803.9301 1752.54 9.2197031e-39
-5191.48 1859.9301 1753.86 9.2197031e-39
-5197.1201 1913.1801 1755.25 9.2197031e-39
-5198.3999 3228.8799 1752.54 9.2197031e-39
-5626 -698.22998 1876.24 9.2197031e-39
-5631.3198 -626.97998 1877.5 9.2197031e-39
-5635.5098 -559.18994 1878.46 9.2197031e-39
-5719.8398 1917.9 1895.3 9.2197031e-39
-5715.3701 1976.67 1893.96 9.2197031e-39
-5713.52 2038 1893.3199 9.2197031e-39
-5716.71 2095.9102 1894.04 9.2197031e-39
-5721.5298 2156.6401 1895.2 9.2197031e-39
-5719.8999 2214.8101 1894.62 9.2197031e-39
-5722.73 2275.6201 1895.24 9.2197031e-39
-5724.9302 2333.53 1895.6899 9.2197031e-39
-5729.6299 2394.3101 1896.8101 9.2197031e-39
-5729.8999 2452.3 1896.75 9.2197031e-39
-5732.6099 2513.1802 1897.33 9.2197031e-39
-5731.8901 2571.1699 1897.01 9.2197031e-39
-5738.4102 2632.1401 1898.61 9.2197031e-39
-5734.79 2690.1201 1897.51 9.2197031e-39
-5742.2002 2751.29 1899.35 9.2197031e-39
-5739.5298 2809.3201 1898.5 9.2197031e-39
-5739.8901 2989.78 1898.1801 9.2197031e-39
-5747.8398 2870.78 1900.58 9.2197031e-39
-5747.0801 2928.99 1900.24 9.2197031e-39
-5766.0498 3231.97 1904.62 9.2197031e-39
