# .PCD v0.7 - Point Cloud Data file format
VERSION 0.7
FIELDS x y z rgb
SIZE 4 4 4 4
TYPE F F F F
COUNT 1 1 1 1
WIDTH 320
HEIGHT 1
VIEWPOINT 0 0 0 1 0 0 0
POINTS 320
DATA ascii
2438.1499 -452.31995 134.19 9.2197031e-39
497.1705 2176.145 139.3055 9.2197031e-39
487.86401 2187.0698 139.595 9.2197031e-39
493.57001 2182.7251 139.0455 9.2197031e-39
-110.776 3005.5 139.94901 9.2197031e-39
-102.34 3006.9099 137.899 9.2197031e-39
-91.823402 3004.8 135.95599 9.2197031e-39
-86.389503 3010.04 133.952 9.2197031e-39
2373.4399 -460.48999 149.48801 9.2197031e-39
2401.3899 -449.27002 141.666 9.2197031e-39
469.82401 2148.5 149.591 9.2197031e-39
466.36151 2153.2749 149.586 9.2197031e-39
473.10498 2156.9866 147.54066 9.2197031e-39
468.5105 2160.51 147.9785 9.2197031e-39
475.5152 2166.3899 145.53381 9.2197031e-39
488.58099 2168.6499 142.349 9.2197031e-39
492.23151 2168.6548 141.5575 9.2197031e-39
455.92676 2175.165 148.38875 9.2197031e-39
477.65601 2176.585 143.461 9.2197031e-39
485.36328 2176.5425 141.79924 9.2197031e-39
452.48001 2181.29 148.168 9.2197031e-39
474.32349 2184.9102 142.86749 9.2197031e-39
485.07901 2180.8252 141.18399 9.2197031e-39
323.211 2396.95 142.09599 9.2197031e-39
307.18399 2404.0898 144.43834 9.2197031e-39
316.48752 2404.6768 142.33183 9.2197031e-39
284.379 2418.6001 147.08501 9.2197031e-39
313.5675 2414.6951 141.382 9.2197031e-39
306.31299 2424.48 141.407 9.2197031e-39
262.13 2433.79 149.502 9.2197031e-39
293.05301 2439.52 141.903 9.2197031e-39
287.83401 2447.05 141.84399 9.2197031e-39
256.14499 2481.78 143.22 9.2197031e-39
225.79201 2516.3999 144.32201 9.2197031e-39
209.64799 2536.9399 144.57401 9.2197031e-39
203.448 2547.6001 144.233 9.2197031e-39
194.618 2561.24 143.991 9.2197031e-39
185.44 2575.8799 143.666 9.2197031e-39
157.202 2612.3398 144.022 9.2197031e-39
116.588 2664.5 144.576 9.2197031e-39
96.848602 2696.9951 143.71799 9.2197031e-39
18.0916 2802.5701 144.097 9.2197031e-39
-81.465103 2934.3 144.84599 9.2197031e-39
-108.71 2979.1399 143.664 9.2197031e-39
-114.007 2997.9099 141.84599 9.2197031e-39
2347.1699 -471.44995 156.907 9.2197031e-39
454.97733 2163.9133 150.371 9.2197031e-39
241.963 2446.74 151.823 9.2197031e-39
224.83501 2457.05 153.90199 9.2197031e-39
209.07899 2465.8198 155.927 9.2197031e-39
2324.73 -490.39001 164.755 9.2197031e-39
169.705 2491.21 160.442 9.2197031e-39
123.301 2520.3901 165.88 9.2197031e-39
2301.04 -505.02002 172.19299 9.2197031e-39
19.047701 2588.4302 177.70399 9.2197031e-39
2490.1299 -847.35999 185.317 9.2197031e-39
-57.562099 2635 186.93401 9.2197031e-39
2501.3401 -922.17004 194.70599 9.2197031e-39
-122.38 2658.96 197.181 9.2197031e-39
-117.901 2662.47 195.657 9.2197031e-39
-104.128 2660.1001 193.05 9.2197031e-39
-174.564 2664.1802 207.65401 9.2197031e-39
-164.05701 2664.6001 205.314 9.2197031e-39
-152.591 2664.5801 202.834 9.2197031e-39
-144.68201 2666.27 200.856 9.2197031e-39
-223.53799 2656.5601 219.459 9.2197031e-39
-218.01601 2660.8799 217.582 9.2197031e-39
-207.401 2661.9399 215.117 9.2197031e-39
-192.35001 2660.6499 212.063 9.2197031e-39
-186.96201 2664.3398 210.312 9.2197031e-39
3011.8701 -1794.0701 221.869 9.2197031e-39
-254.7045 2654.8899 226.47049 9.2197031e-39
-242.084 2659.3799 223.02901 9.2197031e-39
3020.55 -1883.8999 234.174 9.2197031e-39
-281.59698 2649.8398 233.089 9.2197031e-39
-309.49399 2655.3799 238.25301 9.2197031e-39
-270.88901 2651.8599 230.452 9.2197031e-39
-344.763 2656.01 245.78799 9.2197031e-39
-321.181 2653.3 241.11099 9.2197031e-39
2949.2 -1926.6599 256.37201 9.2197031e-39
2897.72 -1923.04 266.944 9.2197031e-39
-558.76801 2742.5601 278.44699 9.2197031e-39
983.48401 -896.41003 519.21399 9.2197031e-39
1012.93 -899.01001 513.25098 9.2197031e-39
-1710.9301 2837.3 512.901 9.2197031e-39
955.95599 -896.28003 525.15399 9.2197031e-39
-1736.9301 2823.3701 520.72998 9.2197031e-39
926.79199 -894.13 531.12799 9.2197031e-39
898.026 -884.68005 535.862 9.2197031e-39
843.16699 -891.68994 548.84497 9.2197031e-39
869.05103 -881.98999 541.71002 9.2197031e-39
814.57703 -891.44995 554.99597 9.2197031e-39
786.58197 -883.94995 559.87097 9.2197031e-39
-814.27899 1317.213 558.83502 9.2197031e-39
-822.61902 1329.342 558.72498 9.2197031e-39
-831.94897 1339.796 559.09399 9.2197031e-39
-840.08301 1352.063 558.91803 9.2197031e-39
-841.48401 1368.437 556.63501 9.2197031e-39
-848.57599 1381.3359 556.13397 9.2197031e-39
-855.138 1393.7119 555.59998 9.2197031e-39
-862.78101 1406.1421 555.29102 9.2197031e-39
-861.95697 1423.5349 552.367 9.2197031e-39
756.96399 -872.34998 564.45203 9.2197031e-39
-750.12598 1160.313 569.72302 9.2197031e-39
-763.45099 1188.511 568.15503 9.2197031e-39
-748.95001 1181.504 566.12201 9.2197031e-39
-771.771 1200.405 568.078 9.2197031e-39
-782.60901 1210.9409 568.76001 9.2197031e-39
-783.51801 1229.407 566.04102 9.2197031e-39
-789.75598 1243.877 565.10699 9.2197031e-39
-801.22803 1252.7729 566.185 9.2197031e-39
-807.20801 1267.329 565.18103 9.2197031e-39
-809.60498 1283.817 563.09601 9.2197031e-39
-812.26202 1300.814 560.98798 9.2197031e-39
730.80103 -880.12 571.34198 9.2197031e-39
701.09601 -864.06006 575.23602 9.2197031e-39
-753.16998 1115.001 577.53699 9.2197031e-39
-750.51501 1138.481 573.255 9.2197031e-39
646.17401 -863.67004 587.06403 9.2197031e-39
674.42102 -865.43005 581.22803 9.2197031e-39
616.57397 -817.15002 586.12598 9.2197031e-39
-736.03601 1020.53 588.74597 9.2197031e-39
-737.28198 1042.858 585.48999 9.2197031e-39
-743.62097 1058.208 584.43799 9.2197031e-39
-749.66498 1074.793 583.12799 9.2197031e-39
-753.633 1092.238 581.23199 9.2197031e-39
-2292.1699 3157.99 588.08502 9.2197031e-39
-2277.8301 3179.8401 581.53003 9.2197031e-39
-2331.1799 3222.72 586.30902 9.2197031e-39
-2364.02 3261.05 587.36603 9.2197031e-39
-2397.73 3299.1499 588.64801 9.2197031e-39
-721.61499 965.83398 594.26099 9.2197031e-39
-731.315 978.31604 594.39001 9.2197031e-39
-736.98401 996.45801 592.75299 9.2197031e-39
-2308.6299 3111.52 598.98798 9.2197031e-39
-2294.6699 3133.6699 592.46899 9.2197031e-39
593.625 -906.77002 605.245 9.2197031e-39
-2325.26 3064.9299 609.94299 9.2197031e-39
-2324.02 3090.8899 605.57599 9.2197031e-39
538.23102 -910.38 617.80701 9.2197031e-39
567.04401 -918.06995 612.78497 9.2197031e-39
-1164.5699 1414.8101 619.25201 9.2197031e-39
-1172.1899 1448.093 615.64697 9.2197031e-39
-1184.5 1460.561 616.34198 9.2197031e-39
-1178.3 1481.776 611.651 9.2197031e-39
-2355.53 3048.03 619.164 9.2197031e-39
511.12601 -910.32996 623.66803 9.2197031e-39
482.55701 -905.09998 629.02502 9.2197031e-39
454.91901 -846.28003 625.72101 9.2197031e-39
-1166.58 1395.137 622.79401 9.2197031e-39
-1178.8199 1426.2119 620.53601 9.2197031e-39
-1244.4301 1485.406 625.39398 9.2197031e-39
-2278.27 2878.6599 629.185 9.2197031e-39
427 -855.38 633.20099 9.2197031e-39
400.36801 -849.45996 638.03101 9.2197031e-39
-1170.33 1294.078 639.56403 9.2197031e-39
-1170.71 1314.4619 636.427 9.2197031e-39
-1173.71 1332.036 634.30298 9.2197031e-39
-1186.09 1344.8259 634.96198 9.2197031e-39
-1180.45 1367.3101 630.19 9.2197031e-39
-1298.3199 1478.504 638.14697 9.2197031e-39
-2272.4299 2803.6499 639.76703 9.2197031e-39
-2269.71 2828.05 635.32501 9.2197031e-39
-2270.8201 2852.04 631.77698 9.2197031e-39
-2319.3301 2911.6699 632.86298 9.2197031e-39
-2434.6599 3041.9299 637.26001 9.2197031e-39
-2837.21 3581.0601 639.26703 9.2197031e-39
345.75299 -847.71997 649.58002 9.2197031e-39
372.54599 -839.30005 642.45001 9.2197031e-39
-1159.14 1240.333 645.62799 9.2197031e-39
-1169.34 1253.7681 645.71503 9.2197031e-39
-1173.42 1272.214 643.68597 9.2197031e-39
-1319.73 1486.996 641.44299 9.2197031e-39
-1363.8 1505.283 648.09399 9.2197031e-39
-1327.46 1503.041 640.58197 9.2197031e-39
-2886.54 3634.03 641.58099 9.2197031e-39
317.785 -845.94995 655.35498 9.2197031e-39
-1400.61 1508.895 655.492 9.2197031e-39
-1423.8101 1518.001 659.07703 9.2197031e-39
-2358.0601 2794.9199 659.68298 9.2197031e-39
-2910.71 3577.5701 655.729 9.2197031e-39
290.91901 -849.94995 661.80103 9.2197031e-39
-2362.48 2745.71 668.409 9.2197031e-39
-2362.3999 2770.04 664.54797 9.2197031e-39
210.12 -815.98999 673.92902 9.2197031e-39
-2554.72 2991.1899 671.26099 9.2197031e-39
-3006.1599 3579.3301 676.11499 9.2197031e-39
-1567.84 1519.78 689.974 9.2197031e-39
-2488.8201 2738.8201 696.84698 9.2197031e-39
-3086.48 3575.6101 694.08801 9.2197031e-39
-3319.8401 3882.5701 696.13501 9.2197031e-39
-3330.26 3924.0801 691.83502 9.2197031e-39
-1624.65 1517.9919 702.55499 9.2197031e-39
-3305.9399 3838.22 700.12701 9.2197031e-39
245.086 -1196.29 726.41302 9.2197031e-39
210.101 -1284.16 747.86298 9.2197031e-39
-31.4622 -1201.3 787.07098 9.2197031e-39
-2.0880201 -1209.02 781.92999 9.2197031e-39
-63.873699 -1204.77 794.63501 9.2197031e-39
-127.083 -1208.15 808.85199 9.2197031e-39
-93.607002 -1199.45 800.23102 9.2197031e-39
-156.86 -1202.29 814.37201 9.2197031e-39
-918.71399 -150.617 813.22601 9.2197031e-39
-946.04102 -146.98199 818.56799 9.2197031e-39
25.447701 -1542.1001 828.56702 9.2197031e-39
-1.29287 -1485.6201 825.43597 9.2197031e-39
-220.26401 -1202.99 828.20801 9.2197031e-39
-188.771 -1199.73 820.875 9.2197031e-39
116.802 -1681.48 830.79901 9.2197031e-39
-251.521 -1195.98 833.86798 9.2197031e-39
44.9342 -1702.55 849.68402 9.2197031e-39
79.031998 -1704.8301 842.664 9.2197031e-39
-283.94199 -1202.52 841.91803 9.2197031e-39
-2195.04 1325.302 856.45801 9.2197031e-39
-2221.26 1341.8401 859.52197 9.2197031e-39
-528.90698 -1027.38 867.29102 9.2197031e-39
-549.78699 -992.78003 866.34802 9.2197031e-39
-994.64801 -403.69 869.62598 9.2197031e-39
-2254.23 1357.6531 864.16199 9.2197031e-39
-2258.3301 1382.592 861.11102 9.2197031e-39
-2280.99 1402.5391 862.86902 9.2197031e-39
-468.11499 -1161.73 875.34698 9.2197031e-39
-490.995 -1122.23 874.06299 9.2197031e-39
-512.58801 -1085.91 873 9.2197031e-39
-578.98199 -981.93005 870.95502 9.2197031e-39
-978.87 -431.28003 870.56799 9.2197031e-39
-356.526 -1390.6899 887.34497 9.2197031e-39
-404.35001 -1302.5699 883.78198 9.2197031e-39
-425.89899 -1256.16 881.11902 9.2197031e-39
-450.134 -1216.85 880.159 9.2197031e-39
-621.61798 -1018.88 886.01898 9.2197031e-39
-661.89697 -1040.84 898.20697 9.2197031e-39
-699.98499 -1059.16 909.34399 9.2197031e-39
-1172.4 -381.97998 904.67603 9.2197031e-39
-2456.0801 1371.819 905.62201 9.2197031e-39
-736.125 -1065.41 918.15503 9.2197031e-39
-1251.3199 -348.39301 916.45697 9.2197031e-39
-767.453 -1061.72 924.35303 9.2197031e-39
-436.13901 -1602.0701 937.95898 9.2197031e-39
-811.28101 -1087.42 937.90002 9.2197031e-39
-848.40399 -1097.65 947.55103 9.2197031e-39
-890.42902 -1115.0601 959.39697 9.2197031e-39
-2747.53 1462.5969 954.37799 9.2197031e-39
-938.55402 -1150.75 975.45099 9.2197031e-39
-2797.3501 1419.068 972.03699 9.2197031e-39
-983.05798 -1170.71 988.237 9.2197031e-39
-1078.4301 -1315.99 1031.8199 9.2197031e-39
-1704.42 -531.82996 1043.51 9.2197031e-39
-1730.12 -511.63 1045.88 9.2197031e-39
-1760.36 -499.82996 1050.5699 9.2197031e-39
-1785.1899 -478.38 1052.55 9.2197031e-39
-1814.08 -464.5 1056.62 9.2197031e-39
-1839.21 -443.32996 1058.71 9.2197031e-39
-1602.21 -780.83997 1060.7 9.2197031e-39
-1621.2 -751.13 1060.12 9.2197031e-39
-1657.01 -743.62 1066.6899 9.2197031e-39
-1731.48 -621.08997 1063.46 9.2197031e-39
-1872.28 -434.10999 1064.42 9.2197031e-39
-1603.55 -845.65002 1071.23 9.2197031e-39
-1187.9399 -1482.3401 1081.8 9.2197031e-39
-1598.0601 -964.53003 1088.8101 9.2197031e-39
-1592.46 -1020.1 1096.37 9.2197031e-39
-1615 -1197.3101 1129.24 9.2197031e-39
-1799.39 -891.93994 1120.9301 9.2197031e-39
-1443.1801 -1979.1101 1215.5 9.2197031e-39
-1491.9399 -1983.9099 1226.8101 9.2197031e-39
-1535.87 -1982 1236.02 9.2197031e-39
-2084.3201 -1232.2 1236.34 9.2197031e-39
-2105.71 -1196.91 1235.4 9.2197031e-39
-1580.96 -1976.9399 1244.98 9.2197031e-39
-1625.5601 -1975.01 1254.33 9.2197031e-39
-1676.42 -1980.3799 1266.1899 9.2197031e-39
-1724.84 -1984.4199 1277.3101 9.2197031e-39
-1868.86 -1979.26 1307.67 9.2197031e-39
-5748.8198 3165.54 1335.17 9.2197031e-39
-2031.24 -2003.4199 1346.63 9.2197031e-39
-5752.3799 3109.7 1344.76 9.2197031e-39
-5740.6001 3054.73 1350.89 9.2197031e-39
-5748.0098 2946.1399 1369.64 9.2197031e-39
-5743.1802 2998.96 1360.26 9.2197031e-39
-5763.2998 2838.23 1389.99 9.2197031e-39
-5762.3198 2891.51 1381.37 9.2197031e-39
-5199.2798 1944.11 1409.09 9.2197031e-39
-5774.7002 2783.1001 1401.17 9.2197031e-39
-5193.4502 1895.6899 1415.47 9.2197031e-39
-5768.5898 2673.3201 1417.1801 9.2197031e-39
-5776.73 2729.8601 1410.01 9.2197031e-39
-5137.98 1749.36 1426.5699 9.2197031e-39
-5194.7002 1844.23 1423.87 9.2197031e-39
-5761.8701 2619.72 1424.1899 9.2197031e-39
-5193.8501 1795.3101 1431.41 9.2197031e-39
-5752.9502 2510.3599 1439.53 9.2197031e-39
-5760.5898 2563.78 1432.74 9.2197031e-39
-5191.5298 1694.78 1446.78 9.2197031e-39
-5751.6802 2454.53 1448.0699 9.2197031e-39
-5184.2002 1643.8401 1453.24 9.2197031e-39
-5745.0698 2401.3198 1455.04 9.2197031e-39
-5182.6099 1594.668 1460.66 9.2197031e-39
-5741.8599 2345.55 1463.15 9.2197031e-39
-5184.4702 1492.75 1477.15 9.2197031e-39
-5191.7598 1541.416 1471.05 9.2197031e-39
-5741.1899 2292.49 1471.38 9.2197031e-39
-5184.9702 1440.3401 1485.54 9.2197031e-39
-5745.1899 2183.49 1489.46 9.2197031e-39
-5746.79 2236.6401 1481.41 9.2197031e-39
-5174.4902 1339.485 1499.1899 9.2197031e-39
-5175.8701 1391.8469 1491.22 9.2197031e-39
-5731.27 2127.99 1495.21 9.2197031e-39
-5174.1001 1289.3149 1507.03 9.2197031e-39
-5729.7402 2074.8901 1503.26 9.2197031e-39
-5173.6899 1236.4241 1515.3 9.2197031e-39
-5719.25 1966.3 1518.14 9.2197031e-39
-5725.6001 2019.1899 1511.16 9.2197031e-39
-5171.4502 1186.2571 1522.73 9.2197031e-39
-5165.9902 1083.073 1537.84 9.2197031e-39
-5169.1401 1133.377 1530.58 9.2197031e-39
-5172.1899 1027.88 1547.9 9.2197031e-39
-5185.1099 973.32202 1559.3101 9.2197031e-39
-5174.23 921.56299 1565.13 9.2197031e-39
-5161.7002 872.79401 1570.12 9.2197031e-39
