# .PCD v0.7 - Point Cloud Data file format
VERSION 0.7
FIELDS x y z rgb
SIZE 4 4 4 4
TYPE F F F F
COUNT 1 1 1 1
WIDTH 317
HEIGHT 1
VIEWPOINT 0 0 0 1 0 0 0
POINTS 317
DATA ascii
2376.98 -474.39001 134.189 9.2197031e-39
401.09399 2109.5698 139.838 9.2197031e-39
403.25269 2110.7332 139.189 9.2197031e-39
398.806 2123.1299 138.13901 9.2197031e-39
-146.30299 2838.97 139.217 9.2197031e-39
-154.00999 2859.6499 137.52901 9.2197031e-39
-167.14101 2887.4299 135.854 9.2197031e-39
-166.918 2898.9099 133.95399 9.2197031e-39
2315.0901 -486.60999 149.401 9.2197031e-39
2342.71 -475.03003 141.623 9.2197031e-39
376.45102 2086.1599 148.88701 9.2197031e-39
382.65536 2084.1167 147.88934 9.2197031e-39
374.74899 2091.8799 148.32849 9.2197031e-39
384.52277 2096.3379 145.5184 9.2197031e-39
399.00751 2098.52 142.06799 9.2197031e-39
401.79248 2098.7349 141.4375 9.2197031e-39
366.08899 2102.8201 148.41501 9.2197031e-39
386.09167 2104.6367 143.84334 9.2197031e-39
392.21436 2105.6799 142.36566 9.2197031e-39
401.798 2104.3149 140.53601 9.2197031e-39
384.74649 2112.47 142.86749 9.2197031e-39
356.323 2128.45 146.368 9.2197031e-39
218.01332 2326.3833 144.01068 9.2197031e-39
223.6646 2327.2258 142.6656 9.2197031e-39
219.14799 2339.8301 141.597 9.2197031e-39
223.08 2333.71 141.7435 9.2197031e-39
193.448 2341.26 146.864 9.2197031e-39
172.575 2354.9302 149.12399 9.2197031e-39
208.27 2351.6401 142.01801 9.2197031e-39
200.539 2360.95 142.17 9.2197031e-39
171.985 2390.3901 143.526 9.2197031e-39
150.41901 2414.1201 144.311 9.2197031e-39
124.909 2442.3599 145.209 9.2197031e-39
110.499 2460.49 145.36501 9.2197031e-39
90.705399 2484.52 145.72301 9.2197031e-39
77.627701 2502.49 145.619 9.2197031e-39
59.925598 2525.6899 145.661 9.2197031e-39
61.740898 2528.79 144.77299 9.2197031e-39
47.306702 2549.5 144.51801 9.2197031e-39
56.623749 2547.165 142.90201 9.2197031e-39
66.474403 2543.8799 141.326 9.2197031e-39
19.090599 2604.6899 141.64799 9.2197031e-39
-61.7808 2707.8601 142.29601 9.2197031e-39
-121.433 2788.3201 142.07201 9.2197031e-39
-138.032 2818.6699 140.724 9.2197031e-39
2292.6101 -502.78003 156.819 9.2197031e-39
364.9675 2088.6399 150.94351 9.2197031e-39
148.19501 2370.51 151.823 9.2197031e-39
128.46899 2382.29 154.142 9.2197031e-39
105.217 2395.9399 156.91299 9.2197031e-39
2271.71 -523.65002 164.655 9.2197031e-39
73.588203 2414.95 160.61099 9.2197031e-39
27.5355 2442.8 165.966 9.2197031e-39
2424.4399 -793.70996 175.569 9.2197031e-39
-66.191498 2501.4302 176.554 9.2197031e-39
2448.6201 -886.07996 185.304 9.2197031e-39
2498.1599 -1016.47 195.74899 9.2197031e-39
-185.19099 2574.05 190.28799 9.2197031e-39
-233.992 2599.22 196.666 9.2197031e-39
-253.034 2604.25 199.92599 9.2197031e-39
-308 2616.5 209.707 9.2197031e-39
-296.436 2616.74 207.19501 9.2197031e-39
-277.97699 2612.8901 203.868 9.2197031e-39
-349.51999 2625.5698 217.12399 9.2197031e-39
-333.508 2623.8101 213.983 9.2197031e-39
2996.5 -1840.99 222.213 9.2197031e-39
-383.64499 2629 223.87 9.2197031e-39
-381.37701 2635.52 222.33299 9.2197031e-39
2996.24 -1914.76 234.174 9.2197031e-39
2919.8 -1949.3101 256.099 9.2197031e-39
2867.8401 -1945.6201 266.61899 9.2197031e-39
-1584.8101 3245.3 381.345 9.2197031e-39
-1604.79 3276.5 380.582 9.2197031e-39
-1631 3227.1299 394.15601 9.2197031e-39
-1639.03 3251.8899 391.87701 9.2197031e-39
-1726.86 2804.76 482.82199 9.2197031e-39
963.83801 -916.58997 507.823 9.2197031e-39
-1857.15 2861.6599 501.508 9.2197031e-39
-2334.6001 3496.6699 501.159 9.2197031e-39
937.17999 -927.07996 515.21802 9.2197031e-39
909.75403 -926.38 520.97101 9.2197031e-39
878.48602 -910.95996 525.17102 9.2197031e-39
-882.82098 1402.457 528.58197 9.2197031e-39
852.07202 -914.64001 531.41602 9.2197031e-39
822.60498 -907.47998 536.56403 9.2197031e-39
-796.25201 1230.573 537.80298 9.2197031e-39
-842.005 1281.7839 539.32501 9.2197031e-39
-850.34698 1292.1909 539.42999 9.2197031e-39
-852.17297 1308.5549 537.17999 9.2197031e-39
-860.29199 1319.04 537.22498 9.2197031e-39
-861.78699 1335.3611 534.91101 9.2197031e-39
-869.68201 1345.9199 534.89502 9.2197031e-39
-878.664 1356.515 535.10699 9.2197031e-39
-892.81702 1379.625 534.40503 9.2197031e-39
-877.73199 1373.38 532.18597 9.2197031e-39
767.48798 -906.93005 548.26501 9.2197031e-39
795.04999 -902.83997 541.70801 9.2197031e-39
-768.69299 1142.5869 546.10699 9.2197031e-39
-785.836 1203.025 540.021 9.2197031e-39
-798.85999 1210.2329 541.64301 9.2197031e-39
-824.36603 1224.578 544.784 9.2197031e-39
-827.323 1239.887 542.94598 9.2197031e-39
-832.02002 1254.437 541.60303 9.2197031e-39
-840.591 1264.7671 541.76898 9.2197031e-39
741.20801 -910.65002 554.48499 9.2197031e-39
-781.974 1088.724 557.64001 9.2197031e-39
-773.39301 1118.417 551.013 9.2197031e-39
-973.89697 1357.6631 555.29199 9.2197031e-39
-2304.1499 3113.47 556.48499 9.2197031e-39
-2305.48 3139.8799 552.508 9.2197031e-39
-2348.8899 3180 555.31897 9.2197031e-39
-2361.6899 3211.3101 553.00403 9.2197031e-39
-2380.1101 3243.8201 551.69897 9.2197031e-39
716.04303 -934.92004 563.78497 9.2197031e-39
685.18298 -899.78003 564.716 9.2197031e-39
-769.48602 1016.501 566.625 9.2197031e-39
-775.995 1031.849 565.53998 9.2197031e-39
-779.81799 1048.823 563.61798 9.2197031e-39
-779.94702 1070.463 560.15399 9.2197031e-39
-2335.3 3072.98 569.68298 9.2197031e-39
-2305.0601 3089.1899 560.599 9.2197031e-39
657.68799 -903.88 571.258 9.2197031e-39
630.06097 -892.84998 575.38702 9.2197031e-39
600.966 -877.70996 579.16699 9.2197031e-39
571.698 -839.54004 579.26898 9.2197031e-39
-753.97699 942.89099 575.18597 9.2197031e-39
-765.08899 953.87903 575.78998 9.2197031e-39
-762.83301 979.04297 571.24597 9.2197031e-39
-770.40302 993.703 570.5 9.2197031e-39
-2341.51 3050.25 574.67902 9.2197031e-39
-2539.3101 3331.8501 571.54498 9.2197031e-39
-1205.1899 1463.5281 587.68201 9.2197031e-39
-2361.0801 3030.21 582.09802 9.2197031e-39
-1200.3199 1395.401 597.633 9.2197031e-39
-1207.79 1408.8521 597.06097 9.2197031e-39
-1212.95 1424.395 595.65698 9.2197031e-39
-1205.5601 1445.46 590.677 9.2197031e-39
-2299.5701 2842.05 599.30798 9.2197031e-39
-2297.99 2865.1699 595.23798 9.2197031e-39
-2342.8601 2901.0901 599.039 9.2197031e-39
553.53601 -971.94995 604.52197 9.2197031e-39
522.83099 -911.59998 601.34998 9.2197031e-39
-1199.22 1322.575 609.15198 9.2197031e-39
-1193.96 1343.842 604.59399 9.2197031e-39
-1203.9399 1356.973 604.60999 9.2197031e-39
-1202.46 1375.666 601.27698 9.2197031e-39
-1296.8199 1471.5081 605.99298 9.2197031e-39
-2301.3799 2794.47 607.37097 9.2197031e-39
-2298.28 2817.1499 603.04901 9.2197031e-39
495.952 -931.02002 610.23297 9.2197031e-39
469.061 -926.46997 615.25098 9.2197031e-39
413.24301 -881.10999 619.87097 9.2197031e-39
-1200.35 1283.959 615.625 9.2197031e-39
-1198.04 1303.979 611.89899 9.2197031e-39
-1348.87 1465.939 618.026 9.2197031e-39
-2323.77 2774.54 615.37701 9.2197031e-39
441.341 -934.53003 622.48199 9.2197031e-39
359.224 -864.43994 628.73499 9.2197031e-39
385.28799 -860.04004 622.45099 9.2197031e-39
-1200.17 1225.026 625.09698 9.2197031e-39
-1208.72 1239.738 624.55103 9.2197031e-39
-1205.27 1261.071 620.37 9.2197031e-39
-1386.7 1466.813 625.97601 9.2197031e-39
331.75201 -867.57996 635.11798 9.2197031e-39
-1445.26 1478.725 636.58099 9.2197031e-39
-1420.5601 1470.991 632.54602 9.2197031e-39
-2394.02 2739.55 636.05298 9.2197031e-39
-2392.2 2764.3799 631.65503 9.2197031e-39
-3007.8999 3576.8201 632.24402 9.2197031e-39
278.06601 -865.28003 646.23102 9.2197031e-39
305.578 -865.58997 640.396 9.2197031e-39
-1479.25 1483.906 643.01501 9.2197031e-39
-1509.38 1490.28 648.42999 9.2197031e-39
-1520.97 1505.395 648.46997 9.2197031e-39
-2413.8701 2719.1201 643.59399 9.2197031e-39
-3042.6299 3556.3799 642.97198 9.2197031e-39
-3155.96 3670.29 648.83099 9.2197031e-39
-2447.29 2699.45 653.91699 9.2197031e-39
-3350.7 3863.3 659.33698 9.2197031e-39
-3355.96 3902.6201 654.11798 9.2197031e-39
-3385.3701 3955.3501 651.89801 9.2197031e-39
171.224 -849 666.45599 9.2197031e-39
-3355.6799 3826.9199 666.27301 9.2197031e-39
-3541.3301 4108.6201 660.52502 9.2197031e-39
-3657.3701 4205.9297 669.64099 9.2197031e-39
248.774 -983.13 671.51398 9.2197031e-39
-3350.5601 3788.29 671.414 9.2197031e-39
-2904.3501 3069.72 691.92798 9.2197031e-39
209.911 -1275.9301 727.07898 9.2197031e-39
179.91 -1281.63 734.41602 9.2197031e-39
-60.0616 -1225.76 776.73102 9.2197031e-39
-91.439499 -1225.92 783.46802 9.2197031e-39
-120.112 -1216.3 788.04797 9.2197031e-39
-43.557701 -1352.29 793.61902 9.2197031e-39
-152.871 -1225.63 796.56201 9.2197031e-39
-214.186 -1222.29 809.13702 9.2197031e-39
-182.19501 -1220.35 801.98102 9.2197031e-39
-964.28601 -179.52899 801.30603 9.2197031e-39
-978.448 -155.677 800.48602 9.2197031e-39
-26.186701 -1508.4399 815.10303 9.2197031e-39
-245.11301 -1226.16 816.37701 9.2197031e-39
-3651.8301 3299.98 814.65802 9.2197031e-39
92.297699 -1714.9299 823.08197 9.2197031e-39
-276.45499 -1222.67 822.51801 9.2197031e-39
-305.24899 -1213.4301 827.18597 9.2197031e-39
-2219.6499 1334.511 825.49701 9.2197031e-39
23.0063 -1718.5801 838.49298 9.2197031e-39
56.7421 -1718.3 831.23102 9.2197031e-39
-8.2666101 -1670.3201 837.39398 9.2197031e-39
-342.34201 -1239.23 839.284 9.2197031e-39
-1087.72 -196.58502 830.461 9.2197031e-39
-2261.8 1345.099 832.80402 9.2197031e-39
-2297.04 1359.949 837.94397 9.2197031e-39
-2306.9199 1382.244 836.461 9.2197031e-39
-532.88397 -1110.35 859.24298 9.2197031e-39
-555.66302 -1074.9399 858.401 9.2197031e-39
-572.82898 -1026.66 854.28101 9.2197031e-39
-593.06598 -986.35999 852.10699 9.2197031e-39
-2423.97 1398.679 858.84497 9.2197031e-39
-470.64099 -1242.67 867.28302 9.2197031e-39
-491.961 -1200.37 865.01703 9.2197031e-39
-515.75299 -1164.22 864.271 9.2197031e-39
-635.771 -1028.91 868.10901 9.2197031e-39
-428.216 -1344.62 874.65997 9.2197031e-39
-448.44101 -1291.01 870.33502 9.2197031e-39
-674.979 -1051.76 880.18298 9.2197031e-39
-1073.74 -562.02002 886.44598 9.2197031e-39
-2488.1899 1352.1531 880.09003 9.2197031e-39
-711.50201 -1069.0601 890.78699 9.2197031e-39
-1112.6801 -575.17004 896.89697 9.2197031e-39
-1282.48 -368.29498 899.83197 9.2197031e-39
-748.93103 -1082.66 900.987 9.2197031e-39
-777.50702 -1073.22 905.57599 9.2197031e-39
-816.36798 -1088.83 916.40698 9.2197031e-39
-2734.51 1453.1321 916.48297 9.2197031e-39
-860.38501 -1122.02 931.17902 9.2197031e-39
-475.08701 -1740.5901 948.586 9.2197031e-39
-898.49103 -1132.1 940.95697 9.2197031e-39
-2834.4299 1396.626 946.974 9.2197031e-39
-939.55103 -1153.3101 953.16199 9.2197031e-39
-983.60303 -1176.15 966.271 9.2197031e-39
-1028.5 -1203.62 980.30798 9.2197031e-39
-1726.45 -552.25 1024.48 9.2197031e-39
-1750.49 -533.66003 1026.62 9.2197031e-39
-1146.27 -1404.14 1037.86 9.2197031e-39
-1781.46 -521.58997 1031.3 9.2197031e-39
-1805.25 -502.53003 1033.3101 9.2197031e-39
-1834.89 -488.34998 1037.37 9.2197031e-39
-1635.3101 -813.78003 1047.1899 9.2197031e-39
-1646.85 -770.68005 1042.71 9.2197031e-39
-1681.35 -765.57996 1049.26 9.2197031e-39
-1864.5 -476.35999 1041.77 9.2197031e-39
-1886.65 -452.60999 1042.67 9.2197031e-39
-1637.48 -876.54004 1057.78 9.2197031e-39
-1745.6899 -800.76001 1068.7 9.2197031e-39
-1225.67 -1506.29 1071.33 9.2197031e-39
-1626.0601 -984.73999 1072.8 9.2197031e-39
-1820.95 -737.10999 1074.53 9.2197031e-39
-1625.66 -1051.63 1083.51 9.2197031e-39
-1658.92 -1247.73 1122.27 9.2197031e-39
-1476.5601 -1999.73 1204.62 9.2197031e-39
-2073.9099 -1215.12 1205.78 9.2197031e-39
-1520.9399 -2001.55 1214.41 9.2197031e-39
-1571.71 -2011.8 1226.92 9.2197031e-39
-2133.1899 -1231.7 1221.13 9.2197031e-39
-1609.24 -1996.72 1232.52 9.2197031e-39
-1656.35 -1997.1201 1242.66 9.2197031e-39
-1699.72 -1993.5701 1251.36 9.2197031e-39
-1753.1801 -2005.2 1264.6801 9.2197031e-39
-5792.79 3203.4099 1288.2 9.2197031e-39
-1890.08 -1996.1599 1292.5 9.2197031e-39
-5774.9902 3144.72 1293.86 9.2197031e-39
-5779.73 3092.29 1303.33 9.2197031e-39
-5776.48 3036.1599 1311.7 9.2197031e-39
-5779.98 2928.1399 1329.88 9.2197031e-39
-5781.27 2983.8301 1321.17 9.2197031e-39
-2052.75 -2022.3601 1331.52 9.2197031e-39
-5793.3198 2821.23 1349.98 9.2197031e-39
-5790.6899 2876.46 1340.51 9.2197031e-39
-5805.0801 2769.47 1360.85 9.2197031e-39
-5100.8701 1747.8 1375.1 9.2197031e-39
-5260.1699 1932.66 1379.34 9.2197031e-39
-5800.02 2660.8101 1377.3101 9.2197031e-39
-5807.73 2714.1699 1370.34 9.2197031e-39
-5230.3701 1835.4 1388.66 9.2197031e-39
-5229.29 1883.73 1380.63 9.2197031e-39
-5793.8901 2605.0601 1384.99 9.2197031e-39
-5243.4102 1783.55 1399.8199 9.2197031e-39
-5793.0801 2552.3799 1393.3199 9.2197031e-39
-5787.2002 2444.28 1409.51 9.2197031e-39
-5785.0098 2496.75 1400.5699 9.2197031e-39
-5220.21 1637.6 1418.41 9.2197031e-39
-5226.6401 1685.53 1412.05 9.2197031e-39
-5786.98 2389.0601 1418.37 9.2197031e-39
-5220.77 1586.381 1426.79 9.2197031e-39
-5776.5298 2336.3198 1424.65 9.2197031e-39
-5219.3101 1537.741 1434.33 9.2197031e-39
-5766.54 2281.1099 1431.42 9.2197031e-39
-5214.7202 1437.8979 1449.46 9.2197031e-39
-5212.21 1487.2849 1440.95 9.2197031e-39
-5762.8398 2173.6001 1447.98 9.2197031e-39
-5772.79 2228.6699 1441.22 9.2197031e-39
-5214.4302 1386.261 1457.73 9.2197031e-39
-5695.3398 2015.85 1459 9.2197031e-39
-5767.2002 2121.04 1457.39 9.2197031e-39
-5214.1201 1336.954 1465.62 9.2197031e-39
-5755.3301 2066.1699 1463.71 9.2197031e-39
-5204.0698 1237.054 1479.59 9.2197031e-39
-5204.2798 1286.623 1471.64 9.2197031e-39
-5747.9199 1958.76 1479.46 9.2197031e-39
-5211.3198 1133.324 1497.89 9.2197031e-39
-5212.4502 1183.1589 1490.08 9.2197031e-39
-5199.6802 1082.9661 1503.52 9.2197031e-39
-5197.6699 1033.047 1511.15 9.2197031e-39
-5201.2402 979.12799 1520.61 9.2197031e-39
-5206.8198 926.99097 1530.22 9.2197031e-39
-5211.2598 872.21204 1540.01 9.2197031e-39
