# .PCD v0.7 - Point Cloud Data file format
VERSION 0.7
FIELDS x y z rgb
SIZE 4 4 4 4
TYPE F F F F
COUNT 1 1 1 1
WIDTH 303
HEIGHT 1
VIEWPOINT 0 0 0 1 0 0 0
POINTS 303
DATA ascii
2504.8601 -327.89203 136.974 9.2197031e-39
357.233 2018.75 138.80499 9.2197031e-39
345.94736 2027.9434 139.38 9.2197031e-39
334.71149 2042.675 138.94699 9.2197031e-39
145.067 2249.75 139.13499 9.2197031e-39
154.338 2248.23 137.57201 9.2197031e-39
137.43701 2256.9648 139.343 9.2197031e-39
143.38734 2257.4666 138.07434 9.2197031e-39
137.78999 2267.1699 137.43201 9.2197031e-39
140.468 2268.54 136.655 9.2197031e-39
104.622 2301.9399 137.72501 9.2197031e-39
-404.983 2862.24 137.534 9.2197031e-39
-411.54001 2876.6399 136.23399 9.2197031e-39
-396.26199 2877.0701 133.129 9.2197031e-39
2518.1799 -368.36902 141.64101 9.2197031e-39
317.47577 2006.724 148.8488 9.2197031e-39
305.08002 2016.73 149.4975 9.2197031e-39
317.64001 2017.97 146.7865 9.2197031e-39
322.23532 2015.0199 146.40901 9.2197031e-39
305.422 2024.65 148.00099 9.2197031e-39
324.71201 2024.39 144.22775 9.2197031e-39
336.00784 2027.2599 141.47214 9.2197031e-39
343.22101 2020.24 141.311 9.2197031e-39
317.888 2036.01 143.483 9.2197031e-39
322.61047 2034.7375 142.7765 9.2197031e-39
139.903 2216.8198 146.101 9.2197031e-39
127.03467 2224.4333 147.27501 9.2197031e-39
131.7975 2225.96 146.0565 9.2197031e-39
147.09334 2229.0767 142.46367 9.2197031e-39
128.05934 2231.8232 145.73767 9.2197031e-39
136.614 2231.2268 144.15199 9.2197031e-39
144.62149 2234.3049 142.00949 9.2197031e-39
150.55634 2232.3567 141.18733 9.2197031e-39
138.47549 2247.925 140.77 9.2197031e-39
143.464 2241.28 140.981 9.2197031e-39
129.007 2258.51 140.73399 9.2197031e-39
137.267 2252.8398 140.121 9.2197031e-39
-456.12201 2866.8899 146.82201 9.2197031e-39
-448.16199 2883.22 142.299 9.2197031e-39
-481.33301 2899.6699 145.899 9.2197031e-39
-457.56699 2900.5601 141.033 9.2197031e-39
2490.3999 -423.40002 157.076 9.2197031e-39
2499.5901 -407.47998 152.382 9.2197031e-39
303.65448 2013.215 150.41501 9.2197031e-39
2465.75 -456.21997 167.882 9.2197031e-39
2447.8701 -462.05005 172.47501 9.2197031e-39
2403 -470.43005 182.873 9.2197031e-39
2378.8401 -468.06995 187.23199 9.2197031e-39
2342.23 -485.57996 197.64301 9.2197031e-39
2329.28 -496.90002 202.25101 9.2197031e-39
2470.6101 -747.43005 219.47501 9.2197031e-39
2533.95 -862.34998 227.67101 9.2197031e-39
2797.4199 -1295.17 253.604 9.2197031e-39
-1701.13 2826.8701 400.62299 9.2197031e-39
-1821.73 2856.3201 419.19199 9.2197031e-39
-2013.11 2964.8 437.51801 9.2197031e-39
-2323.6399 3192.45 457.93399 9.2197031e-39
-2284.1899 3111.23 464.77899 9.2197031e-39
-2301.8101 3133.0801 464.32401 9.2197031e-39
-2336.02 3181.8301 462.30099 9.2197031e-39
-2411.8799 3265.1599 462.28799 9.2197031e-39
-2276.8601 3074.05 470.03799 9.2197031e-39
-2615.1399 3367.3799 484.09601 9.2197031e-39
-834.77698 1326.865 499.754 9.2197031e-39
-838.53699 1333.422 499.31601 9.2197031e-39
-849.62097 1346.6799 499.11801 9.2197031e-39
-854.05298 1352.735 498.90302 9.2197031e-39
-861.74799 1368.3979 497.60001 9.2197031e-39
-866.06799 1374.5129 497.35199 9.2197031e-39
-874.37 1394.162 495.4505 9.2197031e-39
-2352.46 3001.3401 498.13199 9.2197031e-39
1171.9301 -900.14001 504.24301 9.2197031e-39
-765.94098 1198.583 509.27301 9.2197031e-39
-779.28497 1210.292 509.80301 9.2197031e-39
-773.62903 1225.662 505.909 9.2197031e-39
-787.39801 1236.842 506.61801 9.2197031e-39
-787.28101 1247.005 504.76001 9.2197031e-39
-801.57001 1257.76 505.64899 9.2197031e-39
-807.20599 1262.96 505.827 9.2197031e-39
-813.60498 1285.147 503.09052 9.2197031e-39
-831.117 1307.89 502.45401 9.2197031e-39
-826.45203 1301.949 502.60199 9.2197031e-39
-906.72803 1398.136 501.142 9.2197031e-39
-2253.77 2828.1499 509.84299 9.2197031e-39
-2280.73 2868.1899 507.957 9.2197031e-39
-2299.27 2887.8401 508.08099 9.2197031e-39
1130.04 -891.62 511 9.2197031e-39
1111.46 -886.07996 513.68103 9.2197031e-39
-756.22101 1136.806 518.49701 9.2197031e-39
-747.26703 1134.6641 517.11102 9.2197031e-39
-769.57098 1149.0491 518.93201 9.2197031e-39
-769.46503 1160.0759 516.92102 9.2197031e-39
-767.75598 1186.3611 511.83899 9.2197031e-39
-2265.46 2817.1799 514.138 9.2197031e-39
-2427.24 3010.23 511.33701 9.2197031e-39
1055.7 -886.20996 524.74701 9.2197031e-39
1073.11 -888.25 521.66803 9.2197031e-39
-756.18701 1087.921 527.31299 9.2197031e-39
-755.25403 1100.4761 524.86298 9.2197031e-39
-2286.6699 2776.05 525.76202 9.2197031e-39
-2276.1299 2787.53 521.60199 9.2197031e-39
1018.17 -890.56006 532.966 9.2197031e-39
1000.84 -888.19995 535.97302 9.2197031e-39
-748.79602 1016.284 538.77802 9.2197031e-39
-744.61798 1033.364 534.86798 9.2197031e-39
-753.28601 1051.8721 533.245 9.2197031e-39
-753.328 1063.832 531.09399 9.2197031e-39
943.255 -876.63 545.28998 9.2197031e-39
960.43597 -879.31995 542.37097 9.2197031e-39
-727.78302 955.659 545.55798 9.2197031e-39
-733.638 961.88501 545.59399 9.2197031e-39
-744.026 992.61499 542.10498 9.2197031e-39
-735.198 990.01801 540.82599 9.2197031e-39
-1183.6 1436.731 549.01099 9.2197031e-39
-1204.5699 1458.848 549.17297 9.2197031e-39
-1190.15 1455.973 546.83502 9.2197031e-39
-2379.48 2750.74 548.711 9.2197031e-39
-2377.73 2764.8701 545.81403 9.2197031e-39
-3656.28 4190.8799 541.67297 9.2197031e-39
908.617 -892.18994 554.95898 9.2197031e-39
891.46002 -889.20996 557.81897 9.2197031e-39
-1197.59 1396.8721 558.97498 9.2197031e-39
-1173.6 1399.3369 553.78003 9.2197031e-39
-1184.74 1426.335 551.11298 9.2197031e-39
-2382.55 2718.1001 555.211 9.2197031e-39
-3659.4399 4108.5 557.16498 9.2197031e-39
-3653.3201 4130.7402 551.94202 9.2197031e-39
836.052 -883.37 567.73901 9.2197031e-39
850.05603 -871.10999 562.75201 9.2197031e-39
-1180.48 1338.681 566.08899 9.2197031e-39
-1184.5549 1365.2345 562.104 9.2197031e-39
-3660.6499 4051.3401 567.72198 9.2197031e-39
783.32001 -890.18994 579.41199 9.2197031e-39
798.229 -882.07996 574.995 9.2197031e-39
-1132.67 1263.131 570.255 9.2197031e-39
-1182.15 1292.49 574.75702 9.2197031e-39
-1186.1 1300.812 574.03601 9.2197031e-39
-1189.35 1323.214 570.638 9.2197031e-39
-1353.37 1482.041 574.45801 9.2197031e-39
-2472.0601 2722.3401 572.17102 9.2197031e-39
-3658.23 4025.26 571.95099 9.2197031e-39
746.45001 -894.08997 587.41803 9.2197031e-39
729.10602 -887.27002 589.62299 9.2197031e-39
-1183.38 1256.127 581.56201 9.2197031e-39
-1189.99 1262.9619 581.63898 9.2197031e-39
-1430.73 1485.234 589.203 9.2197031e-39
-3651.72 3940.8999 585.88599 9.2197031e-39
-3659.1799 3968.8501 582.31799 9.2197031e-39
-1457.15 1485.584 594.37201 9.2197031e-39
-3648.77 3883.6799 595.62903 9.2197031e-39
703.242 -967.84998 609.28802 9.2197031e-39
677.763 -902.97998 602.62598 9.2197031e-39
617.19702 -844.19995 604.01398 9.2197031e-39
-1529.46 1483.134 609.13599 9.2197031e-39
-3013.1599 3135.8501 604.71002 9.2197031e-39
-3650.77 3860.4199 600.22101 9.2197031e-39
654.26703 -1014.4399 627.39502 9.2197031e-39
518.51599 -915.18005 636.36798 9.2197031e-39
460.13901 -840.62 634.47302 9.2197031e-39
-1649.9301 1476.87 634.125 9.2197031e-39
-1659.3101 1485.24 634.47302 9.2197031e-39
543.60602 -1014.62 649.34399 9.2197031e-39
482.681 -934.53003 646.95599 9.2197031e-39
424.66501 -855.35999 644.15802 9.2197031e-39
408.392 -846.78003 645.83301 9.2197031e-39
-1701.23 1497.964 640.479 9.2197031e-39
-1730.86 1500.058 645.96899 9.2197031e-39
588.05402 -1073.17 651.10901 9.2197031e-39
372.44 -856.93994 654.78802 9.2197031e-39
356.272 -847.09998 656.21399 9.2197031e-39
-1768.2 1515.6899 650.54303 9.2197031e-39
304.12299 -846.51001 666.435 9.2197031e-39
319.97198 -848.75 663.70203 9.2197031e-39
625.66901 -1265.45 678.36102 9.2197031e-39
200.082 -828.82996 683.84998 9.2197031e-39
-3644.1799 3347.8301 691.42902 9.2197031e-39
214.084 -944.71997 701.992 9.2197031e-39
268.28101 -1062.08 712.43903 9.2197031e-39
250.811 -1237.62 747.58099 9.2197031e-39
-25.871799 -1214.87 798.27197 9.2197031e-39
-944.39697 -161.30499 790.04498 9.2197031e-39
-971.94897 -143.74103 792.33197 9.2197031e-39
-43.947201 -1215.61 801.98602 9.2197031e-39
-84.594498 -1207.3 808.53699 9.2197031e-39
-102.375 -1204.8101 811.60797 9.2197031e-39
78.080399 -1501.6399 829.44 9.2197031e-39
-162.05901 -1204.67 823.40302 9.2197031e-39
-144.26801 -1207.48 820.38702 9.2197031e-39
59.479698 -1487.2 830.51801 9.2197031e-39
16.066799 -1471.1899 836.22699 9.2197031e-39
-2.7322099 -1464.29 838.703 9.2197031e-39
-223.455 -1214.11 837.26703 9.2197031e-39
-204.39301 -1208.52 832.48199 9.2197031e-39
-2668.29 1475.004 836.15198 9.2197031e-39
116.727 -1657.3601 849.89001 9.2197031e-39
-283.81699 -1212.75 848.97601 9.2197031e-39
-264.44699 -1206.54 844.01898 9.2197031e-39
136.054 -1683.3301 850.74902 9.2197031e-39
-1024.87 -427.43994 854.013 9.2197031e-39
-1130.85 -300.29498 852.05798 9.2197031e-39
-533.80603 -1048.66 868.87402 9.2197031e-39
-546.26001 -1025.84 867.22198 9.2197031e-39
-575.51099 -978.60999 864.48999 9.2197031e-39
-1028.99 -471.27002 862.73999 9.2197031e-39
-491.711 -1125.89 874.47498 9.2197031e-39
-508.68301 -1119.35 876.65601 9.2197031e-39
-600.64301 -1004.6 874.159 9.2197031e-39
-451.45401 -1222.77 883.98602 9.2197031e-39
-466.48099 -1204.96 883.74799 9.2197031e-39
-650.22498 -1030.96 888.73499 9.2197031e-39
-409.94601 -1328.9399 894.92499 9.2197031e-39
-423.48001 -1299.76 892.34003 9.2197031e-39
-673.72998 -1047.95 896.45697 9.2197031e-39
-1281.62 -382.75 896.79901 9.2197031e-39
-722.54401 -1066.65 909.49902 9.2197031e-39
-371.73099 -1473.3201 913.41498 9.2197031e-39
-739.68903 -1060.79 911.83899 9.2197031e-39
-1320.65 -415.29004 910.40002 9.2197031e-39
-808.90503 -1079.67 928.95398 9.2197031e-39
-786.22699 -1069.22 922.57703 9.2197031e-39
-865.60699 -1114.71 946.50702 9.2197031e-39
-887.21997 -1120.02 951.74701 9.2197031e-39
-941.97601 -1144.61 967.02899 9.2197031e-39
-966.67603 -1156.73 974.10699 9.2197031e-39
-1028.55 -1195.46 993.354 9.2197031e-39
-1715.74 -521.37 1007.8 9.2197031e-39
-1735.39 -517.31995 1010.96 9.2197031e-39
-1774.34 -499.30005 1015.42 9.2197031e-39
-1789.26 -488.73999 1016.47 9.2197031e-39
-1825.61 -466.93994 1019.73 9.2197031e-39
-483.66699 -1984.26 1027.8 9.2197031e-39
-1839.78 -455.34998 1020.45 9.2197031e-39
-1609.03 -764.58997 1030.5601 9.2197031e-39
-1657.83 -759.71997 1039.34 9.2197031e-39
-1615.5601 -810.18005 1040.08 9.2197031e-39
-1672.4399 -747.34998 1040 9.2197031e-39
-1774.49 -674.37 1047.04 9.2197031e-39
-1138.9399 -1424.27 1056.51 9.2197031e-39
-5387.52 3260.77 1052.41 9.2197031e-39
-1608.72 -1008.59 1074.53 9.2197031e-39
-1610.74 -1051.67 1082.71 9.2197031e-39
-5602.71 3271.1599 1093.16 9.2197031e-39
-1257.73 -1590.05 1109.96 9.2197031e-39
-1851.03 -930.65002 1108.45 9.2197031e-39
-1671.55 -1296.41 1138.92 9.2197031e-39
-5780.5098 3229.8 1135.84 9.2197031e-39
-5781.1201 3197.22 1141.84 9.2197031e-39
-5783.0298 3122.5701 1155.6899 9.2197031e-39
-5778.2002 3089.27 1160.74 9.2197031e-39
-5773.3701 2981.6101 1179.21 9.2197031e-39
-5777.8101 3014.6101 1174.14 9.2197031e-39
-5783.3999 2908.6001 1194.38 9.2197031e-39
-2109.3 -1177.38 1204.14 9.2197031e-39
-5786.2002 2876.6299 1200.7 9.2197031e-39
-1441.0601 -1977.51 1216.1899 9.2197031e-39
-2088.1499 -1236.89 1210.6899 9.2197031e-39
-5277.9399 2232.98 1216.2 9.2197031e-39
-5792.02 2803.05 1215.13 9.2197031e-39
-5282.0801 2165.3999 1229.22 9.2197031e-39
-5793.29 2770.9199 1221.1801 9.2197031e-39
-1533.78 -1990.9299 1236.98 9.2197031e-39
-1505.08 -1985.97 1230.4 9.2197031e-39
-5796.8301 2697.1299 1235.2 9.2197031e-39
-1588.62 -1975.8401 1245.11 9.2197031e-39
-5432.52 2265.47 1240.95 9.2197031e-39
-5791.6602 2664.47 1240.0699 9.2197031e-39
-1621.15 -1988.1899 1253.79 9.2197031e-39
-5051.1401 1762.7 1256.16 9.2197031e-39
-5234.2598 1943.1899 1259.85 9.2197031e-39
-5364.4399 2135.74 1250.88 9.2197031e-39
-5788.1802 2558.1401 1258.5699 9.2197031e-39
-5787.0498 2590.1899 1252.5699 9.2197031e-39
-1682.75 -1986.01 1265.59 9.2197031e-39
-5217.2798 1876.62 1268.5 9.2197031e-39
-1711.59 -1988.8899 1271.83 9.2197031e-39
-5215.73 1847.4301 1273.47 9.2197031e-39
-5782.8398 2451.97 1276.6801 9.2197031e-39
-5782.27 2484 1270.78 9.2197031e-39
-5208.3701 1780.52 1284.08 9.2197031e-39
-5421.6602 2035.9301 1280.23 9.2197031e-39
-5774.6699 2377.95 1288.42 9.2197031e-39
-5764.8599 2345.6201 1292.3101 9.2197031e-39
-1867.39 -1987.1799 1302.38 9.2197031e-39
-5202.04 1654.77 1305.52 9.2197031e-39
-5205.5801 1683.88 1300.97 9.2197031e-39
-5569.2998 2063.9399 1304.41 9.2197031e-39
-5199.1499 1587.301 1317.13 9.2197031e-39
-1993.4301 -1991.3301 1328.09 9.2197031e-39
-4850.7002 1160.8821 1325.0699 9.2197031e-39
-5201.8999 1557.4709 1323.0601 9.2197031e-39
-5198.1001 1460.1541 1339.87 9.2197031e-39
-5202.6699 1489.28 1335.52 9.2197031e-39
-5159.9502 1397.036 1343.7 9.2197031e-39
-5190.6499 1362.952 1355.9301 9.2197031e-39
-5741.6201 1955.97 1358.03 9.2197031e-39
-5195.75 1293.396 1369.5 9.2197031e-39
-5191.1099 1264.1169 1373.86 9.2197031e-39
-5186.2998 1195.7319 1385.25 9.2197031e-39
-5188.8301 1165.0811 1391.28 9.2197031e-39
-5185.71 1065.546 1408.63 9.2197031e-39
-5179.3799 996.65302 1419.8101 9.2197031e-39
-5180.7798 965.70099 1425.67 9.2197031e-39
-5157.9302 869.38904 1438.53 9.2197031e-39
