# .PCD v0.7 - Point Cloud Data file format
VERSION 0.7
FIELDS x y z rgb
SIZE 4 4 4 4
TYPE F F F F
COUNT 1 1 1 1
WIDTH 311
HEIGHT 1
VIEWPOINT 0 0 0 1 0 0 0
POINTS 311
DATA ascii
2979.1799 1080.824 134 9.2197031e-39
474.70901 1949.27 139.853 9.2197031e-39
486.07501 1949.49 138.776 9.2197031e-39
458.57501 1955.1801 139.81 9.2197031e-39
466.13901 1955.1666 139.13399 9.2197031e-39
475.02399 1952 139.13499 9.2197031e-39
200.605 2049.77 139.11501 9.2197031e-39
188.38699 2052.3501 139.56351 9.2197031e-39
196.63251 2055.03 138.14551 9.2197031e-39
204.5945 2054.9326 137.4545 9.2197031e-39
189.70599 2064.1499 136.465 9.2197031e-39
198.97301 2060.1802 136.636 9.2197031e-39
-2298.3401 2959.7 134 9.2197031e-39
3006.01 1020.311 146.86501 9.2197031e-39
2995.5801 1049.683 140.388 9.2197031e-39
439.84698 1924.2 149.313 9.2197031e-39
444.79962 1926.1559 148.3748 9.2197031e-39
454.81235 1925.6741 147.597 9.2197031e-39
454.08749 1933.3824 145.71576 9.2197031e-39
478.41699 1939.64 141.951 9.2197031e-39
417.673 1944.2 146.257 9.2197031e-39
448.99847 1942.2949 143.92349 9.2197031e-39
454.52155 1943.9213 143.01642 9.2197031e-39
466.20627 1946.025 141.4355 9.2197031e-39
471.702 1942.04 141.946 9.2197031e-39
183.29341 2024.906 146.94881 9.2197031e-39
193.58051 2025.54 145.86301 9.2197031e-39
196.68327 2035.0129 143.19414 9.2197031e-39
202.86867 2034.64 142.73199 9.2197031e-39
188.92599 2046.96 140.87601 9.2197031e-39
192.87 2046.2849 140.6915 9.2197031e-39
204.733 2041.27 140.8905 9.2197031e-39
186.42 2050.0698 140.31599 9.2197031e-39
-2315.6599 2915.72 146.657 9.2197031e-39
-2294.8201 2933.5 140.297 9.2197031e-39
3011.9399 966.35803 159.951 9.2197031e-39
3009.5801 993.21399 153.384 9.2197031e-39
442.37 1918.34 150.565 9.2197031e-39
455.146 1911.39 151.173 9.2197031e-39
161.22 2019.79 150.22501 9.2197031e-39
-1671.45 2642.3701 157.765 9.2197031e-39
-2286.47 2856.8501 158.894 9.2197031e-39
-2302.1799 2886.45 152.83501 9.2197031e-39
3009.3899 941.26801 166.51401 9.2197031e-39
3008.1399 889.05701 179.806 9.2197031e-39
3011.2 914.23804 173.174 9.2197031e-39
3014.9099 859.47498 186.66499 9.2197031e-39
3014.96 832.54401 193.45799 9.2197031e-39
3017.8401 776.76501 207.27901 9.2197031e-39
3012.9099 806.36096 200.252 9.2197031e-39
3017.04 749.57599 214.215 9.2197031e-39
-1875.03 1954.01 349.823 9.2197031e-39
-1903.83 1972.24 347.80899 9.2197031e-39
-1942.4399 1990.8199 346.58899 9.2197031e-39
-1824.53 1900.15 358.88101 9.2197031e-39
-1844.83 1917.67 356.28101 9.2197031e-39
-1855.03 1935.91 352.59399 9.2197031e-39
-1812.29 1863.99 366.90701 9.2197031e-39
-1822.96 1881.74 363.38599 9.2197031e-39
-1824.17 1825.97 377.57401 9.2197031e-39
-1819.3101 1844.96 372.34299 9.2197031e-39
-1817.55 1789.36 386.21799 9.2197031e-39
-1829.84 1806.77 382.92899 9.2197031e-39
-1842.79 1748.85 398.71301 9.2197031e-39
-1836.6801 1768.48 393.20801 9.2197031e-39
-833.284 1345.5291 409.80099 9.2197031e-39
-836.95599 1357.093 407.21201 9.2197031e-39
-844.80103 1366.293 405.59399 9.2197031e-39
-835.323 1384.908 400.04401 9.2197031e-39
-1829.03 1731.71 401.80399 9.2197031e-39
-814.10999 1301.428 419.20999 9.2197031e-39
-814.05298 1315.48 415.65799 9.2197031e-39
-825.27301 1336.452 411.37201 9.2197031e-39
-811.31201 1330.98 411.49899 9.2197031e-39
-1162.36 1431.4919 417.67499 9.2197031e-39
-1166.95 1444.74 414.74301 9.2197031e-39
-1164.03 1460.7681 410.435 9.2197031e-39
-793.224 1257.745 428.35999 9.2197031e-39
-793.71002 1271.8579 424.841 9.2197031e-39
-800.59698 1281.658 422.98599 9.2197031e-39
-807.39801 1291.515 421.10901 9.2197031e-39
-764.72198 1203.828 439.409 9.2197031e-39
-772.21399 1213.3979 437.66599 9.2197031e-39
-780.41699 1222.4619 436.116 9.2197031e-39
-787.745 1232.161 434.32599 9.2197031e-39
-786.92999 1247.4509 430.39301 9.2197031e-39
-735.44202 1164.9619 446.58801 9.2197031e-39
-743.27899 1174.292 444.93701 9.2197031e-39
-764.15997 1189.0339 443.09299 9.2197031e-39
-746.38898 1187.251 441.94601 9.2197031e-39
-743.57599 1126.647 456.991 9.2197031e-39
-748.72803 1138.51 454.45999 9.2197031e-39
-729.69702 1072.26 469.47299 9.2197031e-39
-731.75598 1087.3201 465.85599 9.2197031e-39
-733.62701 1102.3359 462.23401 9.2197031e-39
-742.02502 1111.665 460.634 9.2197031e-39
-1122.9399 1245.765 461.01501 9.2197031e-39
-720.96802 1028.171 479.81799 9.2197031e-39
-725.01398 1042.019 476.686 9.2197031e-39
-728.172 1056.507 473.31201 9.2197031e-39
-720.75201 992.32104 488.84799 9.2197031e-39
-718.16302 1012.97 483.40302 9.2197031e-39
-1308.5699 1202.073 488.72601 9.2197031e-39
-709.10199 947.68701 499.06799 9.2197031e-39
-710.65698 965.10999 494.80899 9.2197031e-39
-714.05603 980.422 491.25 9.2197031e-39
-1292.14 1174.3301 494.25299 9.2197031e-39
-1299.98 1188.3889 491.40799 9.2197031e-39
-1394.62 1196.79 497.793 9.2197031e-39
-1361.22 1194.376 495.401 9.2197031e-39
-1546.77 1261.72 495.077 9.2197031e-39
2607.6599 -272.38702 508.978 9.2197031e-39
-1498.42 1186.4771 509.72501 9.2197031e-39
-1446.84 1191.016 503.944 9.2197031e-39
2602.6799 -306.797 518.112 9.2197031e-39
-1559.22 1178.7681 517.13501 9.2197031e-39
2562.26 -304.68201 521.21002 9.2197031e-39
-1674.46 1169.343 529.87 9.2197031e-39
-1608.59 1177.115 521.98901 9.2197031e-39
2594.0901 -378.73401 537.04303 9.2197031e-39
-1746.09 1160.379 538.57001 9.2197031e-39
-1996.74 1219.266 546.23102 9.2197031e-39
-2046.41 1225.261 549.18103 9.2197031e-39
2619.3799 -447.64001 552.164 9.2197031e-39
-2117.75 1225.0449 555.64801 9.2197031e-39
-887.61102 742.39801 566.93103 9.2197031e-39
-2060.8301 1150.489 569.35199 9.2197031e-39
-2262.9399 1227.502 568.07501 9.2197031e-39
-2191.1899 1225.391 562.15997 9.2197031e-39
-2110.8401 1156.325 572.37402 9.2197031e-39
-2346.24 1227.415 575.58301 9.2197031e-39
2697.8201 -621.95996 589.11902 9.2197031e-39
2714.3101 -594.97998 580.82703 9.2197031e-39
-2434.51 1227.3259 583.53802 9.2197031e-39
2686.9099 -655.56006 598.58002 9.2197031e-39
-2532.54 1226.0439 592.672 9.2197031e-39
2566.03 -653.55005 608.93701 9.2197031e-39
2608.71 -657.72998 606.15503 9.2197031e-39
2647.1001 -656.12 602.30103 9.2197031e-39
2203.77 -514.43994 606.37598 9.2197031e-39
2152.96 -490.43005 604.88098 9.2197031e-39
2118.72 -488.32996 607.42902 9.2197031e-39
2078.4299 -476.93005 608.17102 9.2197031e-39
-2668.0901 1216.4089 607.28497 9.2197031e-39
-3366.8201 1462.113 608.05603 9.2197031e-39
2550.55 -681.82996 617.46503 9.2197031e-39
2022.49 -487.92004 615.97302 9.2197031e-39
2042.9301 -471.56006 610.00598 9.2197031e-39
-3341.3701 1433.658 612.95203 9.2197031e-39
2531 -705.40002 625.172 9.2197031e-39
1946.96 -515.18994 629.64398 9.2197031e-39
1967.1801 -498.59998 623.64001 9.2197031e-39
1995.91 -495.05005 620.16101 9.2197031e-39
-3350.9099 1399.658 622.39203 9.2197031e-39
2516.0901 -735.05005 633.99597 9.2197031e-39
1924.47 -528.27002 634.96698 9.2197031e-39
-3361.0901 1365.266 631.98798 9.2197031e-39
2502.04 -766.19995 643.12402 9.2197031e-39
1887.22 -567.37 648.18597 9.2197031e-39
1906.48 -548.72998 641.74799 9.2197031e-39
-3366.0601 1331.547 640.94598 9.2197031e-39
2427.0701 -767.41003 650.16699 9.2197031e-39
-3368.22 1265.0549 657.92499 9.2197031e-39
-3372.6499 1297.302 650.18298 9.2197031e-39
1884.1899 -613.93994 660.21198 9.2197031e-39
-1124.66 439.86798 664.60199 9.2197031e-39
-1131.73 460.444 660.04303 9.2197031e-39
-3367.3799 1231.991 666.19598 9.2197031e-39
-3362.3601 1199.729 673.888 9.2197031e-39
2631.54 -986.17004 687.013 9.2197031e-39
1928.55 -744.32996 689.14099 9.2197031e-39
-3355.28 1134.324 689.76202 9.2197031e-39
-3361.8601 1166.3679 682.26501 9.2197031e-39
-3362.8 1098.73 699.42401 9.2197031e-39
-3336.45 1071.579 703.909 9.2197031e-39
1745.34 -1008.61 772.31799 9.2197031e-39
1631.85 -966.92004 771.992 9.2197031e-39
1564.38 -952.81995 774.49799 9.2197031e-39
1543.76 -977.10999 782.48102 9.2197031e-39
1446.01 -958.21997 786.49902 9.2197031e-39
1492.03 -1000.55 793.047 9.2197031e-39
1423.47 -977.98999 793.51501 9.2197031e-39
1359.5 -964.25 795.79401 9.2197031e-39
1328.58 -959.22998 797.30701 9.2197031e-39
1387.01 -958.81006 791.95001 9.2197031e-39
-941.46399 -157.65198 798.96899 9.2197031e-39
1541.01 -1047.8 800.573 9.2197031e-39
1247.53 -977.96997 809.32098 9.2197031e-39
1276.83 -979.12 806.97601 9.2197031e-39
1306.21 -979.98999 804.55603 9.2197031e-39
1132.4 -975.44995 819.03003 9.2197031e-39
1161.41 -977.65002 816.97803 9.2197031e-39
1190.24 -978.64001 814.63898 9.2197031e-39
1218.86 -978.43994 812.01501 9.2197031e-39
1077.23 -980.68994 825.31097 9.2197031e-39
1019.69 -974.5 828.91998 9.2197031e-39
1048.1899 -976.77002 826.93298 9.2197031e-39
1103.73 -973.93005 821.224 9.2197031e-39
992.52802 -977.68994 832.16602 9.2197031e-39
493.77301 -826.41003 838.79999 9.2197031e-39
-5223.4199 1231.001 833.245 9.2197031e-39
417.63199 -842.28003 849.64899 9.2197031e-39
443.21301 -840.10999 846.80402 9.2197031e-39
468.79501 -838.69995 844.14801 9.2197031e-39
-1116.53 -262.87097 841.26202 9.2197031e-39
551.80103 -922.28003 857.78601 9.2197031e-39
524.71198 -911.78003 857.57001 9.2197031e-39
314.961 -843.91003 859.28699 9.2197031e-39
340.64999 -841.65002 856.40802 9.2197031e-39
366.31299 -842.06995 854.21002 9.2197031e-39
391.97501 -842.28003 851.95697 9.2197031e-39
-978.34802 -417.52002 867.883 9.2197031e-39
822.716 -1128.12 885.40002 9.2197031e-39
590.47302 -1072.9399 892.341 9.2197031e-39
-1009.51 -529.92004 899.05603 9.2197031e-39
-1310.59 -419.31006 898.19098 9.2197031e-39
2502.04 -1898.28 928.89398 9.2197031e-39
-1676.91 -405.57996 927.646 9.2197031e-39
-1637.53 -402.04999 923.216 9.2197031e-39
-1703.36 -393.07001 926.86499 9.2197031e-39
2416.6101 -1903.3701 937.85498 9.2197031e-39
2459.27 -1901.04 933.43298 9.2197031e-39
-1422.29 -534.64001 937.34302 9.2197031e-39
-1617.59 -467.43994 937.93103 9.2197031e-39
-1632.9301 -441.16003 932.67499 9.2197031e-39
-1790.63 -406.66003 938.13898 9.2197031e-39
-1749.38 -403.08002 933.52899 9.2197031e-39
2286.6399 -1902.52 949.32202 9.2197031e-39
2331.1499 -1905.8701 946.16699 9.2197031e-39
2373.1399 -1903.52 941.79999 9.2197031e-39
283.41199 -1177.38 946.29999 9.2197031e-39
-1874.5 -412.95996 947.26801 9.2197031e-39
-1834.71 -412.60999 943.60199 9.2197031e-39
2207.47 -1913.99 959.33099 9.2197031e-39
-1623.86 -522.03003 952.27502 9.2197031e-39
843.5 -1470.5 969.95898 9.2197031e-39
-1614.66 -557.64001 960.435 9.2197031e-39
-584.784 -1000.96 979.79102 9.2197031e-39
-550.89899 -987.05005 973.23297 9.2197031e-39
-1614.22 -605.71997 972.53497 9.2197031e-39
16.6511 -1249.23 988.41199 9.2197031e-39
-619.58099 -1016.36 986.80603 9.2197031e-39
-1614.21 -655.57996 985.12 9.2197031e-39
1107.4301 -1662 994.58002 9.2197031e-39
960.33899 -1594.74 990.82098 9.2197031e-39
-103.113 -1251.98 999.86902 9.2197031e-39
-43.068901 -1250.65 994.13599 9.2197031e-39
-13.4428 -1252.48 991.935 9.2197031e-39
-72.458504 -1246.65 995.76703 9.2197031e-39
-514.77002 -1068.98 990.66901 9.2197031e-39
-541.80499 -1058.23 990.38501 9.2197031e-39
-716.95599 -1033.87 999.97498 9.2197031e-39
-656.23297 -1035.99 995.05402 9.2197031e-39
-222.5 -1243.88 1008.55 9.2197031e-39
-162.633 -1247.49 1004.08 9.2197031e-39
-132.24699 -1245.5601 1000.87 9.2197031e-39
-191.54601 -1239.61 1004.69 9.2197031e-39
-500.57001 -1128.0601 1004.31 9.2197031e-39
-694.24597 -1057.96 1004.02 9.2197031e-39
-1600.8101 -740.09998 1005.25 9.2197031e-39
-1637.13 -738.71997 1008.17 9.2197031e-39
-283.88501 -1246.83 1014.81 9.2197031e-39
-253.409 -1246.92 1012.1 9.2197031e-39
-482.25101 -1174.98 1014.5 9.2197031e-39
-792.89801 -1071.42 1016.28 9.2197031e-39
-757.78802 -1061.5 1010.62 9.2197031e-39
153.31 -1459.29 1029.16 9.2197031e-39
-464.091 -1225.59 1025.65 9.2197031e-39
1031.28 -1803.76 1037.21 9.2197031e-39
89.276497 -1476.48 1039.25 9.2197031e-39
120.871 -1476.24 1036.35 9.2197031e-39
-446.20999 -1280.86 1037.99 9.2197031e-39
1111.3 -1852.1399 1042.23 9.2197031e-39
1074.3199 -1845.3701 1043.84 9.2197031e-39
245.175 -1536.53 1040.4 9.2197031e-39
26.250299 -1473.25 1044.1 9.2197031e-39
57.960098 -1472.5901 1041.08 9.2197031e-39
-425.46799 -1327.61 1047.9301 9.2197031e-39
-854.49103 -1150.59 1041.8 9.2197031e-39
-918.40698 -1145.66 1046.3 9.2197031e-39
-881.01703 -1134.3101 1040.0699 9.2197031e-39
-1590.04 -888.58997 1041.77 9.2197031e-39
-963.76801 -1175.39 1057.88 9.2197031e-39
-1585.14 -938.68994 1053.97 9.2197031e-39
983.16901 -1938.3899 1075.52 9.2197031e-39
175.72701 -1659.8 1077.76 9.2197031e-39
-1013.5 -1213.49 1071.97 9.2197031e-39
875.53198 -1941.53 1085.98 9.2197031e-39
802.117 -1927.28 1088.98 9.2197031e-39
-1581.3 -1052.47 1082.35 9.2197031e-39
769.19397 -1952.53 1098.3199 9.2197031e-39
732.677 -1945.6001 1099.85 9.2197031e-39
840.21002 -1946.1499 1090.3199 9.2197031e-39
-1582.61 -1117.11 1098.78 9.2197031e-39
697.08801 -1947.0701 1103.42 9.2197031e-39
-464.32199 -1649.9399 1132.79 9.2197031e-39
198.93401 -1938.6799 1146.0699 9.2197031e-39
-447.96399 -1913.72 1197.9 9.2197031e-39
-497.23599 -1972.3401 1217.13 9.2197031e-39
-1410.92 -1959.9299 1296.11 9.2197031e-39
-1367.59 -1958.55 1291.86 9.2197031e-39
-1506.59 -1979.8201 1309.72 9.2197031e-39
-1454.8199 -1961.76 1300.51 9.2197031e-39
-1551.41 -1981.5601 1314.1899 9.2197031e-39
-1636.46 -1973.27 1319.74 9.2197031e-39
-1589.6801 -1968.9199 1314.4399 9.2197031e-39
-1684.36 -1978.8501 1325.45 9.2197031e-39
-1732.96 -1984.77 1331.3199 9.2197031e-39
-1866.88 -1974.8201 1340.84 9.2197031e-39
-1906.84 -1961.8899 1341.17 9.2197031e-39
-1967.51 -1984.6299 1352.36 9.2197031e-39
