# .PCD v0.7 - Point Cloud Data file format
VERSION 0.7
FIELDS x y z rgb
SIZE 4 4 4 4
TYPE F F F F
COUNT 1 1 1 1
WIDTH 316
HEIGHT 1
VIEWPOINT 0 0 0 1 0 0 0
POINTS 316
DATA ascii
2981.0701 1080.1531 134 9.2197031e-39
473.82501 1949.73 139.815 9.2197031e-39
492.37 1946.4301 138.981 9.2197031e-39
463.53299 1953.8199 139.709 9.2197031e-39
475.02197 1952 139.13434 9.2197031e-39
187.64101 2051.1602 139.92999 9.2197031e-39
194.75 2052.6733 138.90933 9.2197031e-39
206.567 2053.5574 137.62375 9.2197031e-39
213.09033 2056.1934 136.37166 9.2197031e-39
-2287.03 2955.6699 134 9.2197031e-39
3006.01 1020.311 146.86501 9.2197031e-39
2989.95 1051.743 140.37399 9.2197031e-39
456.01965 1919.0367 149.16368 9.2197031e-39
460.099 1919.6 148.655 9.2197031e-39
437.07401 1928.45 148.49001 9.2197031e-39
446.32849 1922.27 149.2175 9.2197031e-39
456.98959 1924.574 147.67841 9.2197031e-39
432.67801 1931.09 148.22 9.2197031e-39
451.621 1937.515 144.89375 9.2197031e-39
419.095 1942.8101 146.48 9.2197031e-39
447.11273 1945.6575 143.24301 9.2197031e-39
454.98975 1945.1599 142.66174 9.2197031e-39
465.16769 1945.4268 141.67934 9.2197031e-39
472.59634 1943.54 141.48799 9.2197031e-39
463.82901 1952.3 140.06599 9.2197031e-39
177.633 2027.4301 146.8205 9.2197031e-39
185.09801 2025.9901 146.51201 9.2197031e-39
194.047 2021.7749 146.77301 9.2197031e-39
200.14 2029.4301 144.291 9.2197031e-39
196.6295 2036.0251 142.94376 9.2197031e-39
202.40976 2033.6725 143.0175 9.2197031e-39
213.048 2039.4399 140.605 9.2197031e-39
188.15601 2048.4102 140.57899 9.2197031e-39
196.15175 2044.5125 140.84375 9.2197031e-39
201.533 2043.55 140.603 9.2197031e-39
-2310.9299 2914.1299 146.634 9.2197031e-39
-2295.76 2933.8201 140.3 9.2197031e-39
3011.9399 966.35803 159.951 9.2197031e-39
3003.05 995.72803 153.33701 9.2197031e-39
442.37 1918.34 150.565 9.2197031e-39
143.29401 2019.7 151.856 9.2197031e-39
-1681.01 2645.3301 157.87801 9.2197031e-39
-2295.99 2859.8799 158.985 9.2197031e-39
-2321.1799 2892.6799 152.97099 9.2197031e-39
3009.3899 941.26801 166.51401 9.2197031e-39
3008.1399 889.05701 179.806 9.2197031e-39
3011.2 914.23804 173.174 9.2197031e-39
3015.8301 859.07703 186.683 9.2197031e-39
3014.04 832.95001 193.438 9.2197031e-39
3017.8401 776.76501 207.27901 9.2197031e-39
3012.9099 806.36096 200.252 9.2197031e-39
3016.1299 750.005 214.188 9.2197031e-39
-1872.05 1954.1 349.53201 9.2197031e-39
-1903.83 1972.24 347.80899 9.2197031e-39
-1942.4399 1990.8199 346.58899 9.2197031e-39
-1833.47 1899.65 359.81 9.2197031e-39
-1844.83 1917.67 356.28101 9.2197031e-39
-1855.03 1935.91 352.59399 9.2197031e-39
-1812.29 1863.99 366.90701 9.2197031e-39
-1822.96 1881.74 363.38599 9.2197031e-39
-1826.15 1825.79 377.797 9.2197031e-39
-1810.4 1845.6801 371.358 9.2197031e-39
-1824.46 1788.62 387.02701 9.2197031e-39
-1822.92 1807.45 382.13501 9.2197031e-39
-825.83502 1390.042 397.89499 9.2197031e-39
-1831.95 1750.2 397.39899 9.2197031e-39
-1841.61 1767.91 393.79599 9.2197031e-39
-832.435 1346.0171 409.60101 9.2197031e-39
-837.80902 1356.6121 407.41 9.2197031e-39
-844.80103 1366.293 405.59399 9.2197031e-39
-1856.58 1728.04 405.20599 9.2197031e-39
-814.10999 1301.428 419.20999 9.2197031e-39
-820.73499 1311.395 417.29001 9.2197031e-39
-819.71198 1325.947 413.52399 9.2197031e-39
-825.27301 1336.452 411.37201 9.2197031e-39
-1167.86 1429.334 418.71399 9.2197031e-39
-1177.08 1440.871 416.63 9.2197031e-39
-1170.5 1458.36 411.62399 9.2197031e-39
-1891.77 1703.89 414.46399 9.2197031e-39
-794.03497 1257.199 428.57101 9.2197031e-39
-793.71002 1271.8579 424.841 9.2197031e-39
-800.59698 1281.658 422.98599 9.2197031e-39
-808.22302 1290.99 421.31601 9.2197031e-39
-773.00403 1212.824 437.88199 9.2197031e-39
-771.66803 1228.698 433.755 9.2197031e-39
-778.93903 1238.321 431.979 9.2197031e-39
-786.92999 1247.4509 430.39301 9.2197031e-39
-735.44202 1164.9619 446.58801 9.2197031e-39
-738.66803 1177.896 443.61301 9.2197031e-39
-764.15997 1189.0339 443.09299 9.2197031e-39
-747.93701 1186.063 442.38501 9.2197031e-39
-771 1199.1841 441.14499 9.2197031e-39
-743.57599 1126.647 456.991 9.2197031e-39
-748.72803 1138.51 454.45999 9.2197031e-39
-1095.2 1260.463 454.81201 9.2197031e-39
-729.69702 1072.26 469.47299 9.2197031e-39
-731.75598 1087.3201 465.85599 9.2197031e-39
-733.62701 1102.3359 462.23401 9.2197031e-39
-742.02502 1111.665 460.634 9.2197031e-39
-723.58099 1043.3359 476.224 9.2197031e-39
-728.172 1056.507 473.31201 9.2197031e-39
-715.16803 997.73596 486.979 9.2197031e-39
-719.57202 1011.629 483.86801 9.2197031e-39
-722.388 1026.8411 480.28101 9.2197031e-39
-1306.8101 1202.947 488.34799 9.2197031e-39
-709.10199 947.68701 499.06799 9.2197031e-39
-715.44 979.05701 491.71899 9.2197031e-39
-703.802 972 492.45401 9.2197031e-39
-1290.4 1175.234 493.86801 9.2197031e-39
-1299.98 1188.3889 491.40799 9.2197031e-39
-1403.5 1192.574 499.655 9.2197031e-39
-1361.22 1194.376 495.401 9.2197031e-39
-1546.77 1261.72 495.077 9.2197031e-39
2608.3601 -273.09302 509.09399 9.2197031e-39
-1498.42 1186.4771 509.72501 9.2197031e-39
-1455.76 1186.876 505.79001 9.2197031e-39
2601.29 -305.37299 517.87701 9.2197031e-39
-1559.22 1178.7681 517.13501 9.2197031e-39
2564.3201 -306.83502 521.56897 9.2197031e-39
-1671.74 1170.4919 529.33502 9.2197031e-39
-1607.6801 1177.506 521.80902 9.2197031e-39
2588.6499 -372.94702 536.07098 9.2197031e-39
-1746.09 1160.379 538.57001 9.2197031e-39
-1996.74 1219.266 546.23102 9.2197031e-39
-2045.47 1225.573 549.01898 9.2197031e-39
2614 -441.81006 551.17603 9.2197031e-39
-2115.8799 1225.6531 555.32501 9.2197031e-39
-2054.3401 1152.8411 568.17499 9.2197031e-39
-2264.8301 1226.926 568.39001 9.2197031e-39
-2190.25 1225.687 562 9.2197031e-39
-905.10303 724.17798 573.10199 9.2197031e-39
-2102.47 1159.277 570.87598 9.2197031e-39
-2338.6599 1229.6531 574.33698 9.2197031e-39
2698.48 -622.69995 589.24701 9.2197031e-39
2713.6399 -594.25 580.70203 9.2197031e-39
-2434.51 1227.3259 583.53802 9.2197031e-39
2686.26 -654.81995 598.45099 9.2197031e-39
-2533.5 1225.78 592.82397 9.2197031e-39
2608.71 -657.72998 606.15503 9.2197031e-39
2645.8 -654.62 602.03802 9.2197031e-39
2217.8301 -533.56006 609.93903 9.2197031e-39
2170.9099 -515.27002 609.53998 9.2197031e-39
-2668.0901 1216.4089 607.28497 9.2197031e-39
-3355.05 1463.887 606.54999 9.2197031e-39
2550.55 -681.82996 617.46503 9.2197031e-39
2571.73 -660.41003 610.15399 9.2197031e-39
2103.8401 -513.42004 615.09802 9.2197031e-39
2062.99 -500.91003 615.61401 9.2197031e-39
2133.5901 -509.29004 611.38397 9.2197031e-39
-3341.3701 1433.658 612.95203 9.2197031e-39
2530.3799 -704.62 625.03302 9.2197031e-39
2016.55 -526.38 626.216 9.2197031e-39
2038.45 -511.69995 620.54199 9.2197031e-39
-3362.6399 1397.6841 623.94501 9.2197031e-39
2516.71 -735.81995 634.13702 9.2197031e-39
2359.48 -677.15002 633.45502 9.2197031e-39
1968.09 -548.52002 636.159 9.2197031e-39
1988.61 -531.76001 630.08398 9.2197031e-39
-3362.0701 1365.094 632.12 9.2197031e-39
2502.6399 -766.97998 643.26703 9.2197031e-39
1927.02 -582.40002 648.40302 9.2197031e-39
1943.74 -559.26001 641.05798 9.2197031e-39
-3365.8401 1298.6279 649.23602 9.2197031e-39
-3370.9299 1330.641 641.61298 9.2197031e-39
1904.4301 -596.14001 653.901 9.2197031e-39
-1129.73 462.564 659.328 9.2197031e-39
-3375.02 1263.6699 658.88501 9.2197031e-39
1903.14 -646.23999 666.664 9.2197031e-39
-1124.66 439.86798 664.60199 9.2197031e-39
-3363.5 1232.8149 665.63898 9.2197031e-39
-3372.02 1197.5859 675.29797 9.2197031e-39
2614.1499 -963.34998 682.815 9.2197031e-39
-3361.8601 1166.3679 682.26501 9.2197031e-39
1947.7 -777.65002 695.83002 9.2197031e-39
-3360.8799 1099.208 699.13 9.2197031e-39
-3364.8999 1132.016 691.21002 9.2197031e-39
1934.9399 -812.12 705.67999 9.2197031e-39
-3335.5 1071.8259 703.76099 9.2197031e-39
1690.41 -958.16003 764.51898 9.2197031e-39
1751.54 -1021.98 775.13397 9.2197031e-39
1636.92 -978.63 774.492 9.2197031e-39
1568.49 -962.80005 776.646 9.2197031e-39
1539.74 -967.09998 780.31598 9.2197031e-39
1446.01 -958.21997 786.49902 9.2197031e-39
1492.03 -1000.55 793.047 9.2197031e-39
1423.8 -978.92004 793.71802 9.2197031e-39
1328.89 -960.16003 797.51398 9.2197031e-39
1359.8199 -965.18005 796 9.2197031e-39
1387.66 -960.66003 792.35797 9.2197031e-39
1544.22 -1056.01 802.35797 9.2197031e-39
1247.8101 -978.91003 809.53198 9.2197031e-39
1276.54 -978.18005 806.76703 9.2197031e-39
1305.61 -978.13 804.14001 9.2197031e-39
-943.91498 -161.82001 800.242 9.2197031e-39
1132.4 -975.44995 819.03003 9.2197031e-39
1161.67 -978.58997 817.19299 9.2197031e-39
1190.24 -978.64001 814.63898 9.2197031e-39
1218.58 -977.5 811.80298 9.2197031e-39
1050.21 -985.31995 828.90802 9.2197031e-39
1077.46 -981.64001 825.52899 9.2197031e-39
1105.9 -982.43994 823.17798 9.2197031e-39
1019.69 -974.5 828.91998 9.2197031e-39
992.73499 -978.64001 832.38702 9.2197031e-39
493.77301 -826.41003 838.79999 9.2197031e-39
-1111.84 -255.52899 838.98798 9.2197031e-39
417.57901 -840.33997 849.164 9.2197031e-39
443.21301 -840.10999 846.80402 9.2197031e-39
468.79501 -838.69995 844.14801 9.2197031e-39
524.83502 -913.70996 858.04797 9.2197031e-39
551.172 -913.56006 855.64099 9.2197031e-39
314.961 -843.91003 859.28699 9.2197031e-39
340.64999 -842.62 856.65302 9.2197031e-39
366.32199 -843.04004 854.45398 9.2197031e-39
391.939 -840.33997 851.46997 9.2197031e-39
-982.94397 -426.03003 870.44299 9.2197031e-39
823.60199 -1133.89 886.77698 9.2197031e-39
588.901 -1053.5699 887.59399 9.2197031e-39
-1004.99 -521.38 896.49298 9.2197031e-39
-1316.01 -427.32996 900.703 9.2197031e-39
2502.51 -1899.1399 929.06799 9.2197031e-39
-1676.91 -405.57996 927.646 9.2197031e-39
-1637.53 -402.04999 923.216 9.2197031e-39
-1703.36 -393.07001 926.86499 9.2197031e-39
2416.6101 -1903.3701 937.85498 9.2197031e-39
2458.8101 -1900.1699 933.25598 9.2197031e-39
-1411.85 -519.5 932.58197 9.2197031e-39
-1632.9301 -441.16003 932.67499 9.2197031e-39
-1790.63 -406.66003 938.13898 9.2197031e-39
-1743.6801 -396.46997 931.34698 9.2197031e-39
2287.51 -1904.28 949.68799 9.2197031e-39
2330.71 -1905 945.98499 9.2197031e-39
2372.6899 -1902.6499 941.62 9.2197031e-39
2233.73 -1881.04 948.65198 9.2197031e-39
283.39499 -1178.34 946.54602 9.2197031e-39
-1625.38 -477.33997 941.13098 9.2197031e-39
-1871.88 -410.08997 946.30798 9.2197031e-39
-1826.3 -403.20001 940.47198 9.2197031e-39
2206.6201 -1912.21 958.95801 9.2197031e-39
-1629.1899 -528.93005 954.49597 9.2197031e-39
839.19 -1440.6499 962.81 9.2197031e-39
-1620.51 -565.35999 962.90997 9.2197031e-39
-582.24103 -992.65002 977.46399 9.2197031e-39
-552.27002 -991.68005 974.526 9.2197031e-39
-1614.22 -605.71997 972.53497 9.2197031e-39
16.6511 -1249.23 988.41199 9.2197031e-39
-536.48798 -1039.65 985.21802 9.2197031e-39
-621.617 -1022.8101 988.617 9.2197031e-39
-1615.35 -657.15002 985.61798 9.2197031e-39
1104.45 -1647.6899 991.23499 9.2197031e-39
961.328 -1600.5 992.18597 9.2197031e-39
-13.754 -1255.36 992.69098 9.2197031e-39
-102.206 -1245.27 998.09399 9.2197031e-39
-72.821503 -1249.53 996.52698 9.2197031e-39
-42.8442 -1248.73 993.63098 9.2197031e-39
-518.88898 -1083.88 994.79999 9.2197031e-39
-657.42999 -1039.66 996.08899 9.2197031e-39
-192.323 -1244.38 1005.97 9.2197031e-39
-131.832 -1242.6899 1000.1 9.2197031e-39
-161.164 -1237.9301 1001.54 9.2197031e-39
-501.31699 -1130.86 1005.08 9.2197031e-39
-691.78601 -1050.64 1001.95 9.2197031e-39
-722.323 -1049.39 1004.38 9.2197031e-39
-1600.8101 -740.09998 1005.25 9.2197031e-39
-1630.9301 -730.06006 1005.42 9.2197031e-39
-285.15302 -1253.48 1016.61 9.2197031e-39
-254.44501 -1252.63 1013.63 9.2197031e-39
-224.468 -1255.3199 1011.62 9.2197031e-39
-481.53 -1172.17 1013.73 9.2197031e-39
-796.21997 -1080.49 1018.87 9.2197031e-39
-758.75897 -1064.23 1011.4 9.2197031e-39
153.41299 -1457.3601 1028.66 9.2197031e-39
-462.92999 -1220.91 1024.36 9.2197031e-39
1031.45 -1804.72 1037.4399 9.2197031e-39
89.276497 -1476.48 1039.25 9.2197031e-39
120.75 -1478.1799 1036.85 9.2197031e-39
-445.539 -1278.04 1037.22 9.2197031e-39
-849.38599 -1137.03 1037.92 9.2197031e-39
1111.6801 -1854.0601 1042.6801 9.2197031e-39
1073.05 -1838.6699 1042.27 9.2197031e-39
244.25101 -1571.3999 1049.28 9.2197031e-39
26.3368 -1472.29 1043.85 9.2197031e-39
57.960098 -1472.5901 1041.08 9.2197031e-39
-425.68301 -1328.55 1048.1899 9.2197031e-39
-918.40698 -1145.66 1046.3 9.2197031e-39
-884.50201 -1143.3199 1042.66 9.2197031e-39
-1589.5 -887.78003 1041.51 9.2197031e-39
-963.40302 -1174.49 1057.62 9.2197031e-39
-1588.83 -944.37 1055.74 9.2197031e-39
983.16901 -1938.3899 1075.52 9.2197031e-39
175.985 -1653.99 1076.27 9.2197031e-39
-1017.98 -1224.1801 1075.0699 9.2197031e-39
875.53198 -1941.53 1085.98 9.2197031e-39
802.22998 -1928.24 1089.22 9.2197031e-39
-1585.91 -1059.86 1084.63 9.2197031e-39
732.677 -1945.6001 1099.85 9.2197031e-39
768.14899 -1942.8701 1095.97 9.2197031e-39
840.21002 -1946.1499 1090.3199 9.2197031e-39
-1581.6 -1115.46 1098.27 9.2197031e-39
696.82599 -1944.1599 1102.71 9.2197031e-39
-461.841 -1638.6201 1129.7 9.2197031e-39
198.899 -1939.6499 1146.3199 9.2197031e-39
-447.96399 -1913.72 1197.9 9.2197031e-39
-497.03799 -1971.3999 1216.87 9.2197031e-39
-1361.5 -1944.3401 1287.73 9.2197031e-39
-1411.3101 -1960.8201 1296.36 9.2197031e-39
-1506.99 -1980.6899 1309.98 9.2197031e-39
-1458.79 -1970.5701 1303.09 9.2197031e-39
-1550.99 -1980.6899 1313.9301 9.2197031e-39
-1636.46 -1973.27 1319.74 9.2197031e-39
-1589.6801 -1968.9199 1314.4399 9.2197031e-39
-1728.52 -1976.1899 1328.75 9.2197031e-39
-1679.99 -1970.22 1322.89 9.2197031e-39
-1862.67 -1967.2 1338.54 9.2197031e-39
-1911.11 -1969.47 1343.47 9.2197031e-39
-1967.99 -1985.47 1352.61 9.2197031e-39
-2056.28 -1970.6499 1356.8101 9.2197031e-39
