# .PCD v0.7 - Point Cloud Data file format
VERSION 0.7
FIELDS x y z rgb
SIZE 4 4 4 4
TYPE F F F F
COUNT 1 1 1 1
WIDTH 325
HEIGHT 1
VIEWPOINT 0 0 0 1 0 0 0
POINTS 325
DATA ascii
2686 1392.731 139.267 9.2197031e-39
2549.3401 1419.752 134 9.2197031e-39
492.24799 1508.3091 139.85201 9.2197031e-39
500.58301 1509.0029 139.547 9.2197031e-39
487.60999 1510.4561 139.34399 9.2197031e-39
497.884 1510.7629 139.11501 9.2197031e-39
501.17651 1512.002 138.73651 9.2197031e-39
214.862 1528.0969 138.54201 9.2197031e-39
197.664 1531.069 137.994 9.2197031e-39
213.52901 1535.36 136.618 9.2197031e-39
227.343 1531.4907 137.45467 9.2197031e-39
232.549 1534.5601 136.55901 9.2197031e-39
241.508 1536.7329 135.849 9.2197031e-39
-5237.4502 1837.76 134.00101 9.2197031e-39
2999.8899 1350.8621 145.961 9.2197031e-39
476.0405 1477.907 148.21951 9.2197031e-39
488.64499 1476.309 148.46649 9.2197031e-39
494.66449 1472.8689 149.3 9.2197031e-39
504.30249 1475.6345 148.42151 9.2197031e-39
477.15302 1481.1011 147.349 9.2197031e-39
482.16599 1480.009 147.569 9.2197031e-39
494.6553 1484.9491 146.06815 9.2197031e-39
205.7325 1491.9905 148.334 9.2197031e-39
221.416 1498.546 146.355 9.2197031e-39
479.16199 1495.719 143.409 9.2197031e-39
485.62366 1497.0737 142.95366 9.2197031e-39
494.41751 1496.491 142.98351 9.2197031e-39
503.215 1498.8025 142.23849 9.2197031e-39
17.423401 1503.7681 147.88699 9.2197031e-39
74.375397 1506.953 146.217 9.2197031e-39
205.86501 1502.423 145.541 9.2197031e-39
214.87149 1507.6704 144.007 9.2197031e-39
221.136 1507.141 144.05901 9.2197031e-39
499.19 1503.046 141.161 9.2197031e-39
505.21033 1502.4408 141.23668 9.2197031e-39
-8.3226004 1510.5901 146.43201 9.2197031e-39
217.914 1512.6169 142.64 9.2197031e-39
222.83463 1515.844 141.70601 9.2197031e-39
232.48001 1516.2786 141.45151 9.2197031e-39
208.642 1520.043 140.786 9.2197031e-39
218.722 1520.01 140.64999 9.2197031e-39
-5038.98 1781.5 146.20399 9.2197031e-39
2996.29 1306.366 157.91901 9.2197031e-39
2998.1899 1328.606 151.94099 9.2197031e-39
68.4412 1468.371 156.62601 9.2197031e-39
488.58301 1468.746 150.491 9.2197031e-39
-121.605 1498.246 151.362 9.2197031e-39
-66.478897 1499.124 150.33501 9.2197031e-39
-4417.23 1713.05 155.58701 9.2197031e-39
3004.1399 1283.187 164.008 9.2197031e-39
-47.0979 1433.5901 167.591 9.2197031e-39
-6.41257 1447.29 163.341 9.2197031e-39
-4449.4702 1673.66 166.589 9.2197031e-39
3001.3 1238.408 176.03 9.2197031e-39
3001.8301 1260.8989 170.004 9.2197031e-39
-111.445 1408.5901 175.205 9.2197031e-39
-80.814003 1420.9829 171.44901 9.2197031e-39
-4567.3301 1635.46 178.505 9.2197031e-39
3003.6001 1192.879 188.179 9.2197031e-39
3006.53 1215.182 182.16901 9.2197031e-39
3000.48 1170.603 194.18401 9.2197031e-39
-4635.8599 1594.708 190.392 9.2197031e-39
3003.5 1124.594 206.451 9.2197031e-39
3007.04 1146.896 200.433 9.2197031e-39
-4632.0298 1552.589 201.606 9.2197031e-39
-747.45898 1130.501 258.746 9.2197031e-39
-734.27301 1145.8921 254.439 9.2197031e-39
-817.52399 1058.5649 279 9.2197031e-39
-738.539 1057.584 278.12799 9.2197031e-39
-964.20099 1076.198 276.38901 9.2197031e-39
-756.27698 1072.3621 274.42899 9.2197031e-39
-728.255 1073.109 273.827 9.2197031e-39
-732.922 1014.829 289.487 9.2197031e-39
-918.81702 1029.993 288.10001 9.2197031e-39
-740.33099 1022.805 287.45999 9.2197031e-39
-735.95001 1036.2371 283.80301 9.2197031e-39
-738.65802 1046.3101 281.146 9.2197031e-39
-712.36102 978.73804 298.849 9.2197031e-39
-725.34399 983.74902 297.694 9.2197031e-39
-733.88501 991.15198 295.836 9.2197031e-39
-1051.58 1004.929 296.71301 9.2197031e-39
-736.14099 1001.708 293.04401 9.2197031e-39
-1282.59 1011.779 298.198 9.2197031e-39
-1286.38 1025.948 294.46201 9.2197031e-39
-1268.97 985.43298 305.052 9.2197031e-39
-1279.62 997.323 302.02399 9.2197031e-39
-1194.04 935.95496 317.21399 9.2197031e-39
-777.18103 932.45996 312.16199 9.2197031e-39
2131.79 562.96881 369.242 9.2197031e-39
-1073.53 758.745 362.89801 9.2197031e-39
-1252.51 643.39722 396.332 9.2197031e-39
-1248.01 609.38312 405.36801 9.2197031e-39
-1249.49 626.89404 400.70401 9.2197031e-39
-1251.24 570.15302 415.91101 9.2197031e-39
-1248.03 590.82269 410.33499 9.2197031e-39
-1247.67 534.19489 425.48099 9.2197031e-39
-1248.29 552.97168 420.466 9.2197031e-39
-1181.87 480.146 438.99799 9.2197031e-39
-1253.5 511.108 431.742 9.2197031e-39
-1163.24 453.694 445.80801 9.2197031e-39
-1166.55 471.12299 441.19199 9.2197031e-39
-1204.4301 403.819 459.74399 9.2197031e-39
-1370.0699 415.798 458.918 9.2197031e-39
2519.1399 96.664001 488.44501 9.2197031e-39
2610.5901 90.898987 488.67401 9.2197031e-39
2541.95 108.37601 484.983 9.2197031e-39
3039.4399 34.265991 497.66699 9.2197031e-39
2486.4099 65.052979 497.37299 9.2197031e-39
2505.29 79.106018 493.341 9.2197031e-39
3037.9099 4.867981 505.55499 9.2197031e-39
2466.8601 24.299988 508.55701 9.2197031e-39
2473.9099 46.645996 502.47699 9.2197031e-39
-809.21198 195.58099 509.784 9.2197031e-39
-911.40302 201.54401 509.65701 9.2197031e-39
-846.461 201.01999 508.86401 9.2197031e-39
-821.97498 204.78799 507.504 9.2197031e-39
3042.0601 -28.117004 514.32098 9.2197031e-39
2465.97 -2.710022 515.797 9.2197031e-39
-1168.96 189.11499 516.68201 9.2197031e-39
-1066.38 188.20401 515.45203 9.2197031e-39
-1020.69 184.90302 515.67902 9.2197031e-39
-993.79602 187.83099 514.50897 9.2197031e-39
-945.271 189.80301 513.28497 9.2197031e-39
-1307.49 191.26901 518.09497 9.2197031e-39
-1271.65 196.608 516.15198 9.2197031e-39
-1184.1 199.51099 514.117 9.2197031e-39
-958.81097 199.49301 510.88599 9.2197031e-39
-895.90399 194.42499 511.33899 9.2197031e-39
-873.091 195.39999 510.75 9.2197031e-39
-1406.51 209.93399 514.52301 9.2197031e-39
-1029.36 200.03101 511.75601 9.2197031e-39
-1624.23 226.39999 513.245 9.2197031e-39
-1587.6899 226.23901 512.763 9.2197031e-39
3035.5801 -55.197998 521.65997 9.2197031e-39
-1290.35 156.98199 527.02301 9.2197031e-39
3040.3201 -120.85602 539.159 9.2197031e-39
3038.1399 -87.945984 530.38501 9.2197031e-39
3032.8799 -148.10699 546.55798 9.2197031e-39
2586.96 -120.75403 545.64398 9.2197031e-39
2554.46 -156.15698 555.58301 9.2197031e-39
2569.6001 -137.633 550.409 9.2197031e-39
-790.81702 11.422974 558.79401 9.2197031e-39
-1581.33 51.906006 559.31702 9.2197031e-39
-1632.58 66.781006 556.073 9.2197031e-39
2532.9399 -200.21802 567.68103 9.2197031e-39
2547.7 -181.26501 562.39801 9.2197031e-39
-775.03601 -24.403015 568.15302 9.2197031e-39
-942.55603 -11.94397 567.22601 9.2197031e-39
-914.164 -5.5599976 565.10999 9.2197031e-39
-890.29498 -4.1309814 564.38501 9.2197031e-39
-870.20099 -7.0050049 564.86499 9.2197031e-39
-838.125 5.7340088 560.99597 9.2197031e-39
-815.88501 6.5009766 560.47101 9.2197031e-39
-774.05103 5.6660156 560.09399 9.2197031e-39
-1561.02 13.81897 569.216 9.2197031e-39
-1428.22 14.887024 567.02197 9.2197031e-39
-1557.6801 43.432007 561.24402 9.2197031e-39
2522.6001 -222.79102 573.87 9.2197031e-39
-761.41498 -34.744995 570.72498 9.2197031e-39
-743.784 -39.382996 571.71198 9.2197031e-39
-976.24701 -23.913025 570.91199 9.2197031e-39
-744.98798 -102.29901 588.56403 9.2197031e-39
-749.315 -77.606018 582.01898 9.2197031e-39
-743.51898 -131.91998 596.46802 9.2197031e-39
2594.05 -346.03998 605.82001 9.2197031e-39
2622.3101 -336.62701 602.896 9.2197031e-39
-751.12799 -176.35901 608.46802 9.2197031e-39
2573.95 -395.65002 619.383 9.2197031e-39
2581.52 -368.60901 612.039 9.2197031e-39
2634.6599 -483.60999 642.04602 9.2197031e-39
2735.6599 -610.41003 674.52197 9.2197031e-39
1954.21 -587.79004 679.69299 9.2197031e-39
1979.25 -582.09998 677.81299 9.2197031e-39
2000.6899 -571.52002 674.67401 9.2197031e-39
2158.3501 -576.13 673.64301 9.2197031e-39
2022.67 -561.51001 671.67798 9.2197031e-39
2088.8701 -568.13 672.49902 9.2197031e-39
2119.1001 -567.06995 671.78302 9.2197031e-39
2051.3601 -559.67004 670.776 9.2197031e-39
2714.6399 -666.85999 689.927 9.2197031e-39
2732.9299 -645.64001 683.98901 9.2197031e-39
1922 -622.95996 689.56598 9.2197031e-39
1938.5 -605.81995 684.74402 9.2197031e-39
2217.8401 -607.68994 681.23199 9.2197031e-39
2659.05 -691.03003 697.19397 9.2197031e-39
2576.2 -686.81995 697.25702 9.2197031e-39
2612.97 -684.69995 696.16101 9.2197031e-39
2687.5801 -679.77002 693.77197 9.2197031e-39
1886.75 -654.46997 698.50299 9.2197031e-39
1899.0699 -631.19995 692.09998 9.2197031e-39
2540.6101 -728.68994 708.97101 9.2197031e-39
2562.99 -712.39001 704.28802 9.2197031e-39
1875.23 -679.31006 705.315 9.2197031e-39
2524.1799 -751.20996 715.23297 9.2197031e-39
1869.92 -713.85999 714.63599 9.2197031e-39
-952.48999 -568.47998 716.27802 9.2197031e-39
2508.1799 -774.34998 721.65399 9.2197031e-39
2513.8101 -821.32996 734.14398 9.2197031e-39
1915.71 -826.84998 744.21198 9.2197031e-39
1880.1899 -864.15002 754.70203 9.2197031e-39
1904.96 -856.22998 752.22699 9.2197031e-39
1711.38 -922.39001 772.71002 9.2197031e-39
316.29901 -874.29004 779.87701 9.2197031e-39
381.67999 -876.69995 779.58197 9.2197031e-39
447.008 -873.58997 777.81201 9.2197031e-39
208.05299 -860.18994 777.65802 9.2197031e-39
598.68903 -859.60999 771.89203 9.2197031e-39
359.879 -883.48999 781.711 9.2197031e-39
403.60999 -883.25 781.02002 9.2197031e-39
425.47101 -882.85999 780.60101 9.2197031e-39
294.46399 -875.69995 780.56702 9.2197031e-39
338.069 -876.56006 780.17297 9.2197031e-39
1616.49 -1011.6 797.94 9.2197031e-39
1503.85 -1007.77 798.53497 9.2197031e-39
1663.6 -992.76001 792.22302 9.2197031e-39
744.18201 -947.88 793.41998 9.2197031e-39
182.384 -914.63 792.59399 9.2197031e-39
1464.28 -1041.72 808.18701 9.2197031e-39
1352.35 -1030 806.65698 9.2197031e-39
1380.14 -1033.34 807.15302 9.2197031e-39
995.80103 -1023.3101 809.98999 9.2197031e-39
1044.1801 -1020.77 808.61401 9.2197031e-39
1069.5699 -1023.38 808.94702 9.2197031e-39
1095.33 -1026.6801 809.46198 9.2197031e-39
1120.92 -1028.8199 809.66699 9.2197031e-39
1143.76 -1021.45 807.367 9.2197031e-39
1171.51 -1029.61 809.15198 9.2197031e-39
1194.03 -1020.9 806.49701 9.2197031e-39
1323.6801 -1023.65 805.37201 9.2197031e-39
1403.65 -1025.61 804.74701 9.2197031e-39
1538.97 -1024.61 802.53699 9.2197031e-39
1269.1801 -1016.51 804.24402 9.2197031e-39
1294.86 -1016.11 803.76801 9.2197031e-39
1214.61 -1006.48 802.34399 9.2197031e-39
1240.7 -1008.42 802.48798 9.2197031e-39
1423.73 -1009.61 800.17798 9.2197031e-39
963.198 -988.93994 801.26202 9.2197031e-39
1500.8 -1062.66 813.26501 9.2197031e-39
949.922 -1035.39 813.88 9.2197031e-39
1021.07 -1026.37 810.44397 9.2197031e-39
477.039 -1053.33 825.47198 9.2197031e-39
-662.71698 -1033.42 836.51599 9.2197031e-39
-634.17902 -1028.46 834.77899 9.2197031e-39
-597.27802 -1071.35 845.72498 9.2197031e-39
-757.34302 -1065.29 846.40302 9.2197031e-39
-700.93597 -1061.4301 844.56097 9.2197031e-39
-618.44501 -1056.76 842.12598 9.2197031e-39
262.94901 -1148.17 853.92499 9.2197031e-39
-582.74701 -1104.9399 854.50403 9.2197031e-39
-826.16199 -1094.5699 855.22498 9.2197031e-39
-796.06201 -1090.33 853.659 9.2197031e-39
-736.74799 -1081.84 850.53497 9.2197031e-39
1838.15 -1269.6899 863.81201 9.2197031e-39
-545.29797 -1151.78 866.5 9.2197031e-39
-899.28003 -1128.4399 865.33899 9.2197031e-39
-563.565 -1126.59 860.02002 9.2197031e-39
-862.521 -1111.71 860.33502 9.2197031e-39
510.37299 -1233.71 873.25598 9.2197031e-39
-195.12801 -1220.42 879.83301 9.2197031e-39
-67.2015 -1223.42 878.80103 9.2197031e-39
-42.234299 -1227 879.39801 9.2197031e-39
-271.65701 -1213.6801 879.13098 9.2197031e-39
-245.93401 -1215.2 879.16901 9.2197031e-39
-219.239 -1211.77 877.86603 9.2197031e-39
-168.54401 -1216.52 878.40997 9.2197031e-39
-92.136299 -1219.64 878.14697 9.2197031e-39
-15.4172 -1216.96 876.32703 9.2197031e-39
-322.92899 -1209.03 878.62299 9.2197031e-39
-530.24902 -1187.92 875.95203 9.2197031e-39
-977.42499 -1167.6 876.93799 9.2197031e-39
-941.08002 -1154.37 872.87598 9.2197031e-39
2992.02 -1395.6801 880.94897 9.2197031e-39
719.95898 -1295.13 886.68103 9.2197031e-39
771.74701 -1293.5699 885.521 9.2197031e-39
233.827 -1256.22 883.25201 9.2197031e-39
-144.49699 -1225.71 880.52197 9.2197031e-39
-118.682 -1225.17 880.00702 9.2197031e-39
-298.97101 -1218.52 880.81897 9.2197031e-39
-1058.26 -1206.64 888.54401 9.2197031e-39
-509.655 -1208.3199 881.11499 9.2197031e-39
-1016.74 -1185.62 882.32501 9.2197031e-39
541.30603 -1324.99 897.237 9.2197031e-39
205.85001 -1306.09 896.99799 9.2197031e-39
-502.651 -1273.92 898.56702 9.2197031e-39
-1099.8101 -1226.29 894.40002 9.2197031e-39
570.73297 -1372.59 909.54999 9.2197031e-39
1001.09 -1377.75 904.75 9.2197031e-39
834.56897 -1357.95 901.84399 9.2197031e-39
620.974 -1343.73 901.10602 9.2197031e-39
-451.146 -1286.33 901.14801 9.2197031e-39
3050.6399 -1514.1599 911.81 9.2197031e-39
-412.952 -1348.33 917.18799 9.2197031e-39
-489.30099 -1321.99 911.23602 9.2197031e-39
-433.332 -1321.11 910.198 9.2197031e-39
-389.729 -1366.0601 921.59802 9.2197031e-39
-1195.34 -1344.6899 927.45099 9.2197031e-39
30.5769 -1491.77 949.19598 9.2197031e-39
85.974197 -1490.3 948.00702 9.2197031e-39
-24.478399 -1488.46 949.10101 9.2197031e-39
58.5327 -1488.75 947.987 9.2197031e-39
113.653 -1488.73 947.18903 9.2197031e-39
2.5418301 -1494.55 950.34198 9.2197031e-39
788.37598 -1605.3799 968.711 9.2197031e-39
910.52698 -1640.8601 976.448 9.2197031e-39
2504.8799 -1917.1499 1027.47 9.2197031e-39
2446.79 -1960.1299 1039.8101 9.2197031e-39
2361.1101 -1955.6499 1039.84 9.2197031e-39
2486.8701 -1956.6799 1038.3101 9.2197031e-39
2244.71 -1965.28 1044.09 9.2197031e-39
2325.72 -1965.48 1042.98 9.2197031e-39
2406.3201 -1962.3301 1040.98 9.2197031e-39
1002.6 -1982.6699 1066.58 9.2197031e-39
1067.77 -1980.04 1064.9399 9.2197031e-39
1101.6899 -1984.46 1065.64 9.2197031e-39
1034.71 -1979.1201 1065.17 9.2197031e-39
739.89099 -1951.24 1061.95 9.2197031e-39
647.64398 -1988.25 1073.17 9.2197031e-39
776.039 -1987.3701 1071.09 9.2197031e-39
-1627.61 -1994.1699 1107.4399 9.2197031e-39
-1587.6 -1996.4199 1107.46 9.2197031e-39
-1891.23 -2005.78 1114.33 9.2197031e-39
-1802.9 -2004.3501 1112.6801 9.2197031e-39
-1759.27 -2003.3501 1111.78 9.2197031e-39
-1714.84 -2000.2 1110.3 9.2197031e-39
-1673.54 -2001.6299 1110.09 9.2197031e-39
