# .PCD v0.7 - Point Cloud Data file format
VERSION 0.7
FIELDS x y z rgb
SIZE 4 4 4 4
TYPE F F F F
COUNT 1 1 1 1
WIDTH 327
HEIGHT 1
VIEWPOINT 0 0 0 1 0 0 0
POINTS 327
DATA ascii
2999.74 1287.9089 139.98801 9.2197031e-39
3001.0701 1310.2151 134 9.2197031e-39
496.401 1429.0029 139.22301 9.2197031e-39
500.07199 1427.0171 139.7 9.2197031e-39
520.745 1428.6741 138.952 9.2197031e-39
449.60699 1439.6741 137.06 9.2197031e-39
492.707 1430.925 138.763 9.2197031e-39
205.44225 1444.4852 139.3795 9.2197031e-39
214.64101 1445.2361 139.043 9.2197031e-39
217.64301 1454.7205 136.46049 9.2197031e-39
220.138 1454.738 136.41901 9.2197031e-39
-4421.6201 1720.1 134.00101 9.2197031e-39
3001.2 1265.4 145.989 9.2197031e-39
498.44101 1389.1799 149.847 9.2197031e-39
474.58722 1395.4661 148.51802 9.2197031e-39
483.798 1393.2881 148.965 9.2197031e-39
486.70248 1406.9102 145.27725 9.2197031e-39
493.26932 1403.623 146.05966 9.2197031e-39
484.85278 1415.1963 143.0876 9.2197031e-39
495.34464 1416.6353 142.54767 9.2197031e-39
502.181 1418.698 141.895 9.2197031e-39
-219.077 1429.991 149.52901 9.2197031e-39
-159.91 1428.3679 149.089 9.2197031e-39
110.929 1428.655 145.011 9.2197031e-39
130.035 1428.9141 144.66 9.2197031e-39
198.508 1421.015 145.761 9.2197031e-39
207.104 1428.168 143.72 9.2197031e-39
217.5435 1427.166 143.834 9.2197031e-39
221.065 1429.678 143.11 9.2197031e-39
481.90601 1420.3831 141.743 9.2197031e-39
497.41199 1422.9014 140.84033 9.2197031e-39
500.98651 1424.239 140.4295 9.2197031e-39
-243.48801 1438.963 147.49001 9.2197031e-39
-230.302 1434.4131 148.51199 9.2197031e-39
168.92 1432.0911 143.235 9.2197031e-39
194.14 1439.51 140.87801 9.2197031e-39
215.0872 1434.313 141.95879 9.2197031e-39
220.37399 1433.0549 142.217 9.2197031e-39
-4447.6299 1680.95 144.858 9.2197031e-39
2997.52 1220.808 157.97301 9.2197031e-39
3003.45 1242.7739 152.009 9.2197031e-39
62.979301 1387.6069 156.701 9.2197031e-39
490.46201 1382.697 151.7 9.2197031e-39
-4524.2598 1643.3401 156.05299 9.2197031e-39
3000.3601 1198.052 164.019 9.2197031e-39
685.15698 1309.0449 168.528 9.2197031e-39
670.02899 1318.985 166.092 9.2197031e-39
656.58197 1327.88 163.911 9.2197031e-39
636.56 1339.209 161.17599 9.2197031e-39
-41.955299 1344.886 169.681 9.2197031e-39
-40.049801 1356.1799 166.632 9.2197031e-39
1.65134 1369.958 162.33 9.2197031e-39
-4630.5498 1605.3469 167.78799 9.2197031e-39
3005.3999 1152.35 176.172 9.2197031e-39
2998.01 1175.76 170.01801 9.2197031e-39
717.34003 1291.005 172.879 9.2197031e-39
-83.340103 1337.235 172.34 9.2197031e-39
-83.4505 1341.1851 171.285 9.2197031e-39
-4632.54 1563.342 179.056 9.2197031e-39
3009.5901 1106.406 188.40199 9.2197031e-39
3002.6399 1130.019 182.187 9.2197031e-39
-236.041 1284.825 188.618 9.2197031e-39
3006.4199 1084.042 194.43201 9.2197031e-39
-326.978 1252.0969 198.717 9.2197031e-39
-4639.1499 1521.377 190.381 9.2197031e-39
3007.3601 1038.157 206.694 9.2197031e-39
3003.04 1061.707 200.45799 9.2197031e-39
-4644.3799 1479.302 201.715 9.2197031e-39
-787.39001 1103.396 245.30299 9.2197031e-39
-728.724 1017.46 267.42801 9.2197031e-39
-783.164 1028.95 265.15799 9.2197031e-39
-766.23798 1024.37 266.133 9.2197031e-39
-739.15198 1024.063 265.815 9.2197031e-39
-960.367 987.763 278.79501 9.2197031e-39
-747.05902 987.96704 275.58899 9.2197031e-39
-866.39398 1009.506 271.59 9.2197031e-39
-730.18597 1006.047 270.50299 9.2197031e-39
-775.51801 964.41296 282.311 9.2197031e-39
-1282.09 935.13196 297.629 9.2197031e-39
-916.05103 890.23596 304.233 9.2197031e-39
-1269.49 908.54199 304.55701 9.2197031e-39
-1228.71 907.24701 304.30099 9.2197031e-39
-1274.4301 922.27002 300.957 9.2197031e-39
-1048.99 816.53302 325.91599 9.2197031e-39
-1236.42 714.54492 355.97101 9.2197031e-39
-1254.76 672.14868 367.58401 9.2197031e-39
-1250.1899 691.31921 362.388 9.2197031e-39
-1257.02 636.54828 377.142 9.2197031e-39
-1256.4301 654.16821 372.42001 9.2197031e-39
-1257.61 601.09479 386.63599 9.2197031e-39
-1257.41 618.85645 381.88101 9.2197031e-39
-1249.24 551.78723 399.70401 9.2197031e-39
-1251.34 568.7229 395.20401 9.2197031e-39
-1255.86 584.2085 391.12799 9.2197031e-39
-1249.53 533.33759 404.64499 9.2197031e-39
-1164.66 474.25201 419.19901 9.2197031e-39
-1245.23 498.75702 413.83301 9.2197031e-39
-1253.87 512.30902 410.33499 9.2197031e-39
-1220.24 457.483 424.50601 9.2197031e-39
-1161.45 457.64801 423.59399 9.2197031e-39
-1181.01 425.61401 432.453 9.2197031e-39
2521.3799 85.859985 468.65302 9.2197031e-39
2542.03 98.909973 464.85699 9.2197031e-39
2490.6399 53.424988 477.785 9.2197031e-39
2500.6599 73.05603 472.38501 9.2197031e-39
3033.1201 -21.038025 489.69199 9.2197031e-39
2470.8401 13.802002 488.67801 9.2197031e-39
2477.95 35.512024 482.76501 9.2197031e-39
2691.4299 33.802979 480.06799 9.2197031e-39
3028.4199 -48.388977 497.07901 9.2197031e-39
2465.1201 -9.0230103 494.87 9.2197031e-39
-1272.74 192.035 496.29999 9.2197031e-39
-1188.3 191.75101 495.129 9.2197031e-39
-1654.15 230.26501 491.707 9.2197031e-39
-1614.4 231.09698 490.897 9.2197031e-39
3032.8899 -81.208008 505.79401 9.2197031e-39
-1335.84 166.388 504.09399 9.2197031e-39
-1280.51 163.05099 504.16901 9.2197031e-39
-1246.48 167.18201 502.56201 9.2197031e-39
3035.27 -113.211 514.32098 9.2197031e-39
2566.6599 -107.87299 519.81598 9.2197031e-39
3029.6001 -140.78998 521.78302 9.2197031e-39
-1242.6 75.890991 526.92798 9.2197031e-39
-1246.8101 96.455017 521.48901 9.2197031e-39
2564.55 -164.14301 534.90198 9.2197031e-39
2586.26 -150.70398 530.98499 9.2197031e-39
-1231.95 35.97699 537.45001 9.2197031e-39
-943.87 46.427002 530.39801 9.2197031e-39
-1578.15 59.494995 536.27197 9.2197031e-39
-1239.6 53.995972 532.742 9.2197031e-39
-1661.96 77.218018 532.76898 9.2197031e-39
-1614.55 84.484009 530.12402 9.2197031e-39
2542.1699 -206.44501 546.54999 9.2197031e-39
2553.8701 -185.62299 540.80603 9.2197031e-39
-1224.09 17.981018 542.14801 9.2197031e-39
-1593.1801 22.755981 546.32397 9.2197031e-39
-1640.62 40.487976 542.28003 9.2197031e-39
2523.23 -221.74902 550.92401 9.2197031e-39
-902.84302 -62.742981 558.99902 9.2197031e-39
-881.02002 -63.473999 558.87201 9.2197031e-39
-856.84302 -60.898987 557.82599 9.2197031e-39
-816.06799 -64.163025 558.09698 9.2197031e-39
-831.604 -56.494995 556.27502 9.2197031e-39
-786.94897 -53.771973 554.88702 9.2197031e-39
-1577.72 8.117981 550.01099 9.2197031e-39
2538.3501 -263.76599 561.94202 9.2197031e-39
-1047.9301 -93.747986 569.43799 9.2197031e-39
-778.94501 -99.697998 567.05603 9.2197031e-39
-753.46698 -93.372009 564.987 9.2197031e-39
-1167.11 -83.85199 568.55103 9.2197031e-39
-1005.88 -74.103027 563.56097 9.2197031e-39
-986.16498 -78.927979 564.56 9.2197031e-39
-933.56799 -72.229004 561.99103 9.2197031e-39
-781.948 -75.142029 560.53003 9.2197031e-39
-1202.52 -65.408997 564.14001 9.2197031e-39
-953.09998 -67.945984 561.13397 9.2197031e-39
-747.888 -144.83899 578.67401 9.2197031e-39
-747.22803 -113.87903 570.38098 9.2197031e-39
-1214.39 -104.11902 574.672 9.2197031e-39
-1160.6 -104.40698 573.95398 9.2197031e-39
-1136.25 -106.534 574.16302 9.2197031e-39
-1111.3101 -107.65399 574.09497 9.2197031e-39
2604.52 -347.56702 583.38397 9.2197031e-39
-743.16199 -168.65997 584.97699 9.2197031e-39
2568.7 -382.59003 593.28497 9.2197031e-39
2603.53 -378.90002 591.78198 9.2197031e-39
-752.617 -214.45599 597.36902 9.2197031e-39
2565.6599 -412.59998 601.35901 9.2197031e-39
2604.46 -513.16003 627.69 9.2197031e-39
2616.1101 -489.03003 621.06201 9.2197031e-39
1974.33 -593.5 658.492 9.2197031e-39
1997.64 -585.93994 656.12598 9.2197031e-39
2115.78 -582.30005 653.40698 9.2197031e-39
2153.53 -589.56995 654.79303 9.2197031e-39
2047.38 -573.88 652.164 9.2197031e-39
2079.5701 -576.06006 652.271 9.2197031e-39
2012.87 -568.28003 651.17603 9.2197031e-39
2693.6299 -663.91003 666.703 9.2197031e-39
2731.77 -661.22998 665.42297 9.2197031e-39
1916.63 -631.21997 669.435 9.2197031e-39
1935.97 -618.81006 665.83099 9.2197031e-39
1951.6 -601.58997 660.99298 9.2197031e-39
-882.31403 -446.77002 661.43799 9.2197031e-39
2673.02 -682.15002 671.88599 9.2197031e-39
1885.66 -666.63 679.36798 9.2197031e-39
2244.6201 -655.65002 671.12598 9.2197031e-39
1898.9301 -645.81995 673.60303 9.2197031e-39
2534.3999 -736.98999 688.60699 9.2197031e-39
2547.75 -712.37 681.823 9.2197031e-39
2590.5 -716.51001 682.29999 9.2197031e-39
2623.5 -710.56995 680.22302 9.2197031e-39
2670.22 -717.06006 681.26703 9.2197031e-39
1864.78 -677 682.45001 9.2197031e-39
2518.7 -759.43994 694.84497 9.2197031e-39
1848.71 -735.13 698.24103 9.2197031e-39
1864.49 -716.90002 693.12903 9.2197031e-39
-927.30103 -554.91003 691.03601 9.2197031e-39
2491.99 -809.76001 708.703 9.2197031e-39
2505.49 -784.63 701.77899 9.2197031e-39
2474.8501 -831.22998 714.69897 9.2197031e-39
1931.14 -900.35999 741.22803 9.2197031e-39
415.328 -885.69995 759.70099 9.2197031e-39
436.51199 -886.14001 759.505 9.2197031e-39
606.047 -881.27002 755.698 9.2197031e-39
288.54501 -879.32996 759.86902 9.2197031e-39
183.707 -866.25 757.91699 9.2197031e-39
459.45801 -925.97998 769.82397 9.2197031e-39
203.27299 -889.83997 763.94098 9.2197031e-39
309.51801 -886.63 761.51202 9.2197031e-39
330.685 -887 761.297 9.2197031e-39
351.854 -886.21997 760.776 9.2197031e-39
373.022 -887.18994 760.724 9.2197031e-39
394.189 -887.02002 760.36499 9.2197031e-39
1996.21 -1045.0601 778.979 9.2197031e-39
1462.53 -1016.8199 779.31 9.2197031e-39
1490.0699 -1018.96 779.47601 9.2197031e-39
1647.75 -1006.95 773.93103 9.2197031e-39
1398.67 -990.26001 773.14697 9.2197031e-39
725.55499 -961.56006 775.41302 9.2197031e-39
747.67999 -960.32996 774.75598 9.2197031e-39
1369.01 -1043.36 787.78998 9.2197031e-39
992.74597 -1030.47 789.901 9.2197031e-39
1089.52 -1032.86 789.10999 9.2197031e-39
1114.5 -1034.99 789.31299 9.2197031e-39
1139.5699 -1036.9 789.45203 9.2197031e-39
1164.14 -1036.72 789.04199 9.2197031e-39
1393.39 -1039.28 786.33801 9.2197031e-39
1185.98 -1028.04 786.396 9.2197031e-39
1208.36 -1021.01 784.18597 9.2197031e-39
1259.59 -1024.64 784.40002 9.2197031e-39
1285.34 -1026.09 784.40601 9.2197031e-39
1310.14 -1024.5699 783.63397 9.2197031e-39
1333.92 -1020.11 782.09003 9.2197031e-39
1518.97 -1023.47 780.25403 9.2197031e-39
1546.35 -1024.17 780.03601 9.2197031e-39
1232.63 -1019.29 783.36603 9.2197031e-39
960.28198 -995.23999 780.95502 9.2197031e-39
947.992 -1041.63 793.54999 9.2197031e-39
1017.66 -1034.4399 790.59399 9.2197031e-39
1041.91 -1035.37 790.48602 9.2197031e-39
1067.03 -1038.88 791.05402 9.2197031e-39
598.69299 -1022.72 793.65002 9.2197031e-39
1492.4301 -1145.39 813.26501 9.2197031e-39
-646.62 -1051.61 819.77802 9.2197031e-39
-695.96899 -1044.03 818.47699 9.2197031e-39
-665.96301 -1034.92 815.59802 9.2197031e-39
1789.28 -1218.5 828.44098 9.2197031e-39
258.134 -1129.58 827.27002 9.2197031e-39
-738.10797 -1080.42 828.83698 9.2197031e-39
-628.80902 -1072.6899 825.15198 9.2197031e-39
-597.29797 -1128.13 839.521 9.2197031e-39
-831.84497 -1106.28 837.138 9.2197031e-39
-615.83801 -1107.24 834.20502 9.2197031e-39
-799.42297 -1095.9301 833.89099 9.2197031e-39
-768.84698 -1088.78 831.52698 9.2197031e-39
496.28799 -1212.63 845.97101 9.2197031e-39
-558.35602 -1166.8199 849.29602 9.2197031e-39
-577.14899 -1145.26 843.80603 9.2197031e-39
-900.90002 -1132.89 845.27899 9.2197031e-39
-867.45099 -1122.41 841.98102 9.2197031e-39
973.70001 -1257.95 851.04199 9.2197031e-39
229.52 -1242.4399 857.88898 9.2197031e-39
-39.654099 -1230.88 858.77197 9.2197031e-39
-188.216 -1223.8 859.073 9.2197031e-39
-163.41901 -1225.52 859.16498 9.2197031e-39
-139.158 -1229.87 859.96997 9.2197031e-39
-113.199 -1224.49 858.14899 9.2197031e-39
-88.164101 -1223.65 857.55499 9.2197031e-39
-63.925098 -1227.37 858.19098 9.2197031e-39
-338.354 -1213.71 858.59003 9.2197031e-39
-286.80701 -1211.99 857.36902 9.2197031e-39
-262.659 -1217.38 858.45502 9.2197031e-39
-237.838 -1219.74 858.71802 9.2197031e-39
-211.821 -1216.2 857.388 9.2197031e-39
-310.90601 -1206.4 856.22803 9.2197031e-39
-979.18597 -1173.53 857.30902 9.2197031e-39
-940.672 -1155.1801 851.83099 9.2197031e-39
2960.5 -1404.75 860.966 9.2197031e-39
-526.45099 -1229.8199 865.67902 9.2197031e-39
-1055.23 -1204.5699 866.737 9.2197031e-39
-545.75201 -1207.52 860 9.2197031e-39
-1015 -1185.39 861.01099 9.2197031e-39
2197.9399 -1407.11 872.862 9.2197031e-39
200.617 -1323.1801 879.91602 9.2197031e-39
552.04102 -1316.04 872.815 9.2197031e-39
-507.40302 -1253.83 871.823 9.2197031e-39
-1099.15 -1229.25 873.98901 9.2197031e-39
760.80603 -1359.87 881.45502 9.2197031e-39
528.50098 -1341.63 880.00702 9.2197031e-39
-474.569 -1322.84 889.79999 9.2197031e-39
-499.95401 -1316.58 888.5 9.2197031e-39
-448.33401 -1326.09 890.28302 9.2197031e-39
-1172.3 -1305.29 895.41302 9.2197031e-39
722.112 -1463.01 909.62097 9.2197031e-39
-410.70901 -1387.02 906.02899 9.2197031e-39
3.4332199 -1491.52 927.867 9.2197031e-39
29.874399 -1496.3799 928.77802 9.2197031e-39
56.568501 -1499.1001 929.11102 9.2197031e-39
83.989799 -1493.8999 927.31403 9.2197031e-39
-22.823799 -1485.48 926.63898 9.2197031e-39
-47.160099 -1465.8201 921.73798 9.2197031e-39
759.59998 -1542.3101 930.284 9.2197031e-39
109.388 -1511.5701 931.66498 9.2197031e-39
-475.082 -1519.23 942.34998 9.2197031e-39
929.94098 -1718.05 974.78601 9.2197031e-39
2434.05 -1969.97 1019.96 9.2197031e-39
2475.6499 -1969.8601 1019.32 9.2197031e-39
2508.53 -1955.26 1014.93 9.2197031e-39
2235.55 -1976.8401 1024.73 9.2197031e-39
2314.5801 -1975.3101 1023.16 9.2197031e-39
2356.25 -1977.3201 1023.08 9.2197031e-39
2396.1101 -1975.52 1022.01 9.2197031e-39
2266.8999 -1961.8101 1020.25 9.2197031e-39
940.81702 -1952.48 1037.35 9.2197031e-39
1012.78 -1997.4399 1048.3101 9.2197031e-39
1043.9301 -1991.8701 1046.36 9.2197031e-39
1077.01 -1995.51 1046.84 9.2197031e-39
1110 -1997.9099 1047 9.2197031e-39
632.03497 -1997.4099 1053.9301 9.2197031e-39
663.211 -1995.05 1052.84 9.2197031e-39
757.60101 -1995.04 1051.4399 9.2197031e-39
-1579.58 -1969.6399 1079.17 9.2197031e-39
-1638.2 -2001.1201 1088.46 9.2197031e-39
-1762.4 -1999.8401 1089.95 9.2197031e-39
-1678.29 -1999.1699 1088.53 9.2197031e-39
-1808.05 -2004.8701 1091.97 9.2197031e-39
-1723.02 -2004.3201 1090.5699 9.2197031e-39
