# .PCD v0.7 - Point Cloud Data file format
VERSION 0.7
FIELDS x y z rgb
SIZE 4 4 4 4
TYPE F F F F
COUNT 1 1 1 1
WIDTH 322
HEIGHT 1
VIEWPOINT 0 0 0 1 0 0 0
POINTS 322
DATA ascii
-785.03198 876.57501 139.131 9.2197031e-39
-787.50598 885.927 136.60201 9.2197031e-39
-776.92401 896.27197 133.937 9.2197031e-39
224.524 920.073 137.47301 9.2197031e-39
496.69299 926.19501 138.52699 9.2197031e-39
507.51401 923.96497 139.231 9.2197031e-39
515.32898 921.92999 139.853 9.2197031e-39
521.70099 925.263 139.024 9.2197031e-39
2973.24 1012.594 139.89799 9.2197031e-39
2969.55 1033.939 134.145 9.2197031e-39
-765.08398 848.74597 146.78 9.2197031e-39
-786.78802 857.01599 144.351 9.2197031e-39
-208.008 858.88098 149.578 9.2197031e-39
-171.66499 859.20599 149.851 9.2197031e-39
-791.42798 866.22498 141.839 9.2197031e-39
29.8125 868.68201 149.30701 9.2197031e-39
-276.65701 876.57996 144.16 9.2197031e-39
-133.903 877.69604 145.274 9.2197031e-39
92.930801 879.388 147.065 9.2197031e-39
-154.786 884.005 143.377 9.2197031e-39
-127.453 882.573 144.032 9.2197031e-39
125.601 884.43604 146.037 9.2197031e-39
202.166 882.51501 147.30901 9.2197031e-39
217.72368 885.57404 146.64333 9.2197031e-39
222.87666 885.17401 146.80133 9.2197031e-39
237.243 888.57898 146.032 9.2197031e-39
487.59799 887.59204 148.77299 9.2197031e-39
494.52402 887.81171 148.78333 9.2197031e-39
501.043 886.21899 149.274 9.2197031e-39
512.49951 888.32251 148.82449 9.2197031e-39
226.922 895.54822 144.06401 9.2197031e-39
466.04599 895.362 146.48 9.2197031e-39
497.12399 895.76202 146.67999 9.2197031e-39
503.84976 893.84094 147.261 9.2197031e-39
225.658 904.1897 141.73734 9.2197031e-39
234.06026 902.83521 142.183 9.2197031e-39
487.78699 909.70801 142.853 9.2197031e-39
495.0542 904.44141 144.3358 9.2197031e-39
503.62701 907.30396 143.65401 9.2197031e-39
493.7695 912.36652 142.20074 9.2197031e-39
508.18427 914.56848 141.75375 9.2197031e-39
517.20349 917.09949 141.1655 9.2197031e-39
503.10699 920.84399 140.02299 9.2197031e-39
510.20599 921.19104 140 9.2197031e-39
2983.76 990.24799 145.985 9.2197031e-39
-161.086 856.35303 150.72 9.2197031e-39
-159.334 851.99097 151.905 9.2197031e-39
-139.858 850.94202 152.37801 9.2197031e-39
-106.601 852.51501 152.286 9.2197031e-39
-54.802601 858.39398 151.22501 9.2197031e-39
-25.645 860.46399 150.959 9.2197031e-39
493.056 882.771 150.118 9.2197031e-39
2985.1899 946.06604 157.83 9.2197031e-39
2984.0701 968.70001 151.758 9.2197031e-39
2997.1001 924.44501 163.737 9.2197031e-39
3016.3301 879.60101 175.935 9.2197031e-39
3012.8101 901.474 170.043 9.2197031e-39
3011.75 834.995 187.83299 9.2197031e-39
3010.6201 856.83997 181.97301 9.2197031e-39
3009.3601 790.35498 199.763 9.2197031e-39
3010.6299 812.12097 193.94701 9.2197031e-39
3017.8101 766.85901 206.138 9.2197031e-39
-1231.96 147.94 329.81201 9.2197031e-39
-1260.3 150.655 328.80499 9.2197031e-39
-1460.03 166.17999 322.672 9.2197031e-39
-1667.67 99.057007 338.59 9.2197031e-39
-1226.39 133.31299 333.784 9.2197031e-39
-1557.77 85.960022 343.185 9.2197031e-39
-1258.23 82.091003 347.18399 9.2197031e-39
-1250.17 104.323 341.311 9.2197031e-39
-1589.08 31.963989 357.33301 9.2197031e-39
-1255.64 47.744995 356.40701 9.2197031e-39
-1677.87 53.903015 350.57999 9.2197031e-39
-1254.17 66.924011 351.28601 9.2197031e-39
-1243.27 0.49902344 369.17999 9.2197031e-39
-1668.92 16.377014 360.71701 9.2197031e-39
-1242.83 18.653992 364.323 9.2197031e-39
-1253.83 31.085022 360.88599 9.2197031e-39
-1243.96 -37.205017 379.26901 9.2197031e-39
-1245.64 -19.914978 374.62299 9.2197031e-39
-1247.55 -58.85199 385.03 9.2197031e-39
-1251.86 -100.28101 396.08099 9.2197031e-39
-797.03003 -93.40802 398.741 9.2197031e-39
-780.61401 -96.280029 399.672 9.2197031e-39
-1248.8 -78.382996 390.24799 9.2197031e-39
-1255.99 -142.70203 407.39899 9.2197031e-39
-857.75403 -128.12201 407.435 9.2197031e-39
-750.60602 -123.65503 407.29901 9.2197031e-39
-1247.66 -116.758 400.534 9.2197031e-39
-774.64398 -109.43103 403.25299 9.2197031e-39
-751.01801 -105.26398 402.371 9.2197031e-39
2474.55 -6.2540283 407.776 9.2197031e-39
2486.8999 10.450012 403.42499 9.2197031e-39
-1250.9301 -179.93298 417.418 9.2197031e-39
-1240.71 -152.05798 410.05499 9.2197031e-39
-759.60797 -150.56702 414.41599 9.2197031e-39
2489.5801 -34.336975 415.44501 9.2197031e-39
-1246.63 -218.47101 427.78 9.2197031e-39
-1252.38 -201.125 423.078 9.2197031e-39
-799.23499 -209.27502 429.74399 9.2197031e-39
2484.9399 -54.789978 420.875 9.2197031e-39
-1253.1801 -243.901 434.52399 9.2197031e-39
2527.99 -97.052979 432.61801 9.2197031e-39
-1254.49 -288.23602 446.383 9.2197031e-39
-1259.65 -270.78198 441.65799 9.2197031e-39
-1244.59 -325.03302 456.33401 9.2197031e-39
-1253.28 -309.98297 452.21799 9.2197031e-39
2602.03 -179.96997 455.55301 9.2197031e-39
2632.3501 -171.52197 453.591 9.2197031e-39
-1233.84 -361.86401 466.302 9.2197031e-39
-1242.12 -346.245 462.03799 9.2197031e-39
2551.3101 -226.487 467.50699 9.2197031e-39
2571.72 -212.55402 463.978 9.2197031e-39
2588.01 -197.48499 460.104 9.2197031e-39
-1243.0601 -393.21002 474.60501 9.2197031e-39
2535.8999 -266.61298 478.099 9.2197031e-39
2539.1799 -243.51599 471.94601 9.2197031e-39
-1236.79 -435.44995 485.97699 9.2197031e-39
-1243.37 -416.52002 480.84299 9.2197031e-39
2534.6399 -289.82202 484.30099 9.2197031e-39
-707.396 -464.53003 499.00201 9.2197031e-39
-669.17798 -464.95996 499.496 9.2197031e-39
-682.68701 -456.81006 497.17801 9.2197031e-39
2561.72 -330.828 495.54901 9.2197031e-39
-687.17297 -515.40002 512.82397 9.2197031e-39
2566.3799 -409.89001 516.76398 9.2197031e-39
2569.75 -386.59998 510.56201 9.2197031e-39
2611.8301 -385.03003 510.55701 9.2197031e-39
2560.78 -459.08997 529.88202 9.2197031e-39
2547.0601 -424.69995 520.53998 9.2197031e-39
2570.1001 -492.56006 538.93799 9.2197031e-39
-1075.75 -666.38 549.40399 9.2197031e-39
-1042.71 -658.07996 547.51001 9.2197031e-39
-1018.35 -657.68005 547.64301 9.2197031e-39
-991.479 -655.31006 547.27502 9.2197031e-39
-873.65399 -652.43994 547.67297 9.2197031e-39
-1157.25 -642.53003 542.21399 9.2197031e-39
-959.81097 -645.29004 544.90399 9.2197031e-39
-935.18201 -644.48999 544.93402 9.2197031e-39
-913.83502 -645.91003 545.52802 9.2197031e-39
-891.24597 -646.85999 546.00403 9.2197031e-39
-1179.34 -638.43994 540.90002 9.2197031e-39
2568.0901 -517.76001 545.66602 9.2197031e-39
-1255.63 -687.12 553.17902 9.2197031e-39
-1105.03 -671.20996 550.409 9.2197031e-39
-1208.0699 -724.85999 563.755 9.2197031e-39
1986.41 -650.90002 575.56097 9.2197031e-39
2011 -647.68005 574.94098 9.2197031e-39
2125.97 -643.55005 574.97198 9.2197031e-39
2031.36 -638.73999 572.75 9.2197031e-39
2055.3101 -634.30005 571.797 9.2197031e-39
2082.1699 -630.84998 571.13898 9.2197031e-39
2668.3701 -613.44995 572.28101 9.2197031e-39
1921.11 -697.69995 587.44501 9.2197031e-39
1941.64 -691.13 585.89001 9.2197031e-39
1951.1801 -671.81006 580.81 9.2197031e-39
1975.77 -669.05005 580.315 9.2197031e-39
2183.3701 -665.93005 581.53497 9.2197031e-39
1873.8 -734.77002 596.90399 9.2197031e-39
1890.58 -723.06006 593.935 9.2197031e-39
1906.54 -711.83997 591.08698 9.2197031e-39
2677.22 -707.44995 597.53802 9.2197031e-39
2712.73 -703.03003 596.70502 9.2197031e-39
2731.95 -685.42004 592.18201 9.2197031e-39
-920.93103 -873.06995 606.28101 9.2197031e-39
1862.87 -751.56006 601.29199 9.2197031e-39
2659.4399 -725.67004 602.242 9.2197031e-39
1867.7 -818.29004 619.20599 9.2197031e-39
1876.08 -797.69995 613.776 9.2197031e-39
2667.6699 -761.51001 611.91803 9.2197031e-39
-949.64899 -947.71997 625.987 9.2197031e-39
2675.4399 -799.15002 622.07501 9.2197031e-39
-713.01202 -982.97998 637.771 9.2197031e-39
-648.39099 -985.06006 638.96698 9.2197031e-39
-519.38397 -982.06995 639.44098 9.2197031e-39
-917.61298 -972.72998 633.00098 9.2197031e-39
-774.54102 -970.93005 633.93298 9.2197031e-39
-730.72601 -973.65002 635.09698 9.2197031e-39
-662.05103 -970.70996 634.98798 9.2197031e-39
-602.15198 -979.13 637.83698 9.2197031e-39
-578.802 -976 637.229 9.2197031e-39
-535.01099 -972.14001 636.62799 9.2197031e-39
-494.431 -973.59998 637.42102 9.2197031e-39
-477.18399 -979.65002 639.21198 9.2197031e-39
-393.14801 -970.53003 637.60199 9.2197031e-39
-278.31601 -974.64001 639.83801 9.2197031e-39
-936.58197 -965.40002 630.85101 9.2197031e-39
-889.70898 -968.17004 632.05402 9.2197031e-39
-864.42297 -965.22998 631.51703 9.2197031e-39
-791.29602 -961.54004 631.255 9.2197031e-39
-555.16803 -969.60999 635.75098 9.2197031e-39
-412.116 -969.68994 637.18701 9.2197031e-39
-331.46301 -963.5 636.32898 9.2197031e-39
-200.35001 -966.12 638.32898 9.2197031e-39
-744.55798 -959.57996 631.19098 9.2197031e-39
-424.48901 -950.40002 631.901 9.2197031e-39
177.44 -942.19995 635.66199 9.2197031e-39
585.88098 -935.52002 637.91498 9.2197031e-39
2640.9399 -867.06995 639.92102 9.2197031e-39
2673.1399 -860.95996 638.60199 9.2197031e-39
2676.4399 -830.70996 630.53601 9.2197031e-39
-133.91499 -994.12 646.48199 9.2197031e-39
12.2783 -992.10999 647.39099 9.2197031e-39
47.3452 -996.68994 648.966 9.2197031e-39
66.141701 -993.56995 648.31403 9.2197031e-39
119.231 -991.60999 648.315 9.2197031e-39
136.98399 -994.56006 649.28003 9.2197031e-39
207.78101 -990.23999 648.82501 9.2197031e-39
224.774 -991.41003 649.30499 9.2197031e-39
-458.272 -984.10999 640.59302 9.2197031e-39
-319.24799 -981.90002 641.37799 9.2197031e-39
-261.5 -982.82996 642.19702 9.2197031e-39
-149.164 -983.44995 643.474 9.2197031e-39
-76.671204 -987.10999 645.17297 9.2197031e-39
-40.6493 -988.46997 645.89203 9.2197031e-39
-22.3356 -985.04004 645.15503 9.2197031e-39
31.9578 -984.54004 645.55798 9.2197031e-39
102.63 -986.69995 646.836 9.2197031e-39
189.94099 -988.85999 648.28003 9.2197031e-39
260.064 -985.64001 648.11102 9.2197031e-39
277.87201 -986.41003 648.49402 9.2197031e-39
295.00299 -982.18005 647.52899 9.2197031e-39
329.62 -987.78003 649.37201 9.2197031e-39
364.41699 -984.10999 648.73199 9.2197031e-39
468.71701 -984.05005 649.75 9.2197031e-39
-376.51599 -979.67004 640.21198 9.2197031e-39
-357.21701 -979.28003 640.29901 9.2197031e-39
-297.98199 -977.58997 640.43298 9.2197031e-39
-241.938 -979.53003 641.508 9.2197031e-39
-221.345 -975.37 640.59698 9.2197031e-39
-184.84599 -978.32996 641.75 9.2197031e-39
-165.88499 -975.25 641.11401 9.2197031e-39
-111.135 -978.55005 642.53802 9.2197031e-39
-92.219803 -973.85999 641.47101 9.2197031e-39
-55.9683 -973.59998 641.76001 9.2197031e-39
-2.53193 -977.79004 643.41101 9.2197031e-39
347.54999 -975.39001 646.23199 9.2197031e-39
382.11401 -974.31995 646.28601 9.2197031e-39
398.91101 -971.15002 645.60498 9.2197031e-39
416.58301 -970.72998 645.66602 9.2197031e-39
433.72101 -978.85999 648.01398 9.2197031e-39
451.46301 -978.14001 647.995 9.2197031e-39
157.864 -960.75 640.43402 9.2197031e-39
313.13501 -969.13 644.21399 9.2197031e-39
766.34003 -966.93994 648.11298 9.2197031e-39
1004.97 -964.33997 649.77899 9.2197031e-39
1023.52 -961.43005 649.18201 9.2197031e-39
1299.42 -951.65002 649.29199 9.2197031e-39
1319.5699 -950.77002 649.258 9.2197031e-39
603.979 -946.05005 640.91101 9.2197031e-39
1892.37 -912.06995 644.56299 9.2197031e-39
1921.88 -915.12 645.66998 9.2197031e-39
2565.76 -903.80005 649.01001 9.2197031e-39
2473.3101 -889.83997 644.35999 9.2197031e-39
2496.1899 -876.60999 641.04102 9.2197031e-39
81.642197 -1006.4301 651.91101 9.2197031e-39
504.84 -1001.16 654.68903 9.2197031e-39
242.51601 -994.41003 650.28497 9.2197031e-39
522.78802 -999.81995 654.50702 9.2197031e-39
539.24799 -991.66003 652.48499 9.2197031e-39
557.39697 -992.90002 652.99701 9.2197031e-39
574.409 -991.19995 652.70801 9.2197031e-39
645.39899 -992.29004 653.70502 9.2197031e-39
700.54797 -998.57996 655.93402 9.2197031e-39
790.41602 -996.56006 656.28302 9.2197031e-39
845.495 -994.25 656.21002 9.2197031e-39
864.21198 -996.72998 657.05902 9.2197031e-39
881.862 -991.34998 655.79199 9.2197031e-39
486.87799 -988.80005 651.20203 9.2197031e-39
627.19202 -985.96997 651.83099 9.2197031e-39
662.96503 -987.81995 652.68201 9.2197031e-39
680.245 -987.16003 652.67401 9.2197031e-39
751.93402 -986.5 653.20697 9.2197031e-39
824.87299 -987.09998 654.09003 9.2197031e-39
898.85602 -986.96997 654.789 9.2197031e-39
917.46899 -985.02002 654.44897 9.2197031e-39
955.00201 -984.55005 654.69501 9.2197031e-39
803.97198 -973.90002 650.34998 9.2197031e-39
933.85498 -978.48999 652.86401 9.2197031e-39
969.59198 -972.18994 651.53003 9.2197031e-39
989.97699 -975.12 652.51501 9.2197031e-39
1047.75 -976.87 653.55701 9.2197031e-39
1068.8101 -979.93994 654.586 9.2197031e-39
1086.04 -974.93005 653.41602 9.2197031e-39
1228.89 -978.68005 655.83502 9.2197031e-39
1267.17 -971.60999 654.32001 9.2197031e-39
1287.37 -971.06006 654.37299 9.2197031e-39
1419.27 -975.12 656.763 9.2197031e-39
1465.37 -977.18005 657.771 9.2197031e-39
1486.53 -973.41003 656.97198 9.2197031e-39
1508.36 -972.42004 656.922 9.2197031e-39
1534.15 -975.69995 658.05499 9.2197031e-39
1103.39 -967.66003 651.64203 9.2197031e-39
1122.3199 -966.87 651.617 9.2197031e-39
1142.88 -967.38 651.95599 9.2197031e-39
1163.03 -968.91003 652.565 9.2197031e-39
1182.59 -966.33997 652.07001 9.2197031e-39
1201.7 -964.81995 651.85199 9.2197031e-39
1242.92 -965.29004 652.38599 9.2197031e-39
1347.76 -963.10999 652.84003 9.2197031e-39
1438.39 -968.42004 655.15802 9.2197031e-39
1772.39 -963.55005 657.16101 9.2197031e-39
1366.77 -959.19995 651.98199 9.2197031e-39
1387.09 -955.55005 651.20398 9.2197031e-39
2676.97 -929.40002 656.966 9.2197031e-39
722.659 -1023.27 662.763 9.2197031e-39
741.17401 -1021.9399 662.591 9.2197031e-39
1570.0699 -996.54004 663.99103 9.2197031e-39
1651.5699 -1047.76 678.513 9.2197031e-39
1617.78 -1032.84 674.18402 9.2197031e-39
2701.47 -982.14001 671.33099 9.2197031e-39
1713.47 -1064.46 683.59601 9.2197031e-39
1985.4301 -1061.17 685.40698 9.2197031e-39
1949.4301 -1051.55 682.474 9.2197031e-39
1804.35 -1119.61 699.26501 9.2197031e-39
1991.74 -1142.95 707.367 9.2197031e-39
1786.14 -1131.4301 702.25 9.2197031e-39
1874.97 -1179.3199 715.95001 9.2197031e-39
1757.0699 -1168.21 711.80902 9.2197031e-39
1947.9399 -1162.38 712.13702 9.2197031e-39
1976.88 -1160.95 712.04199 9.2197031e-39
1920.01 -1203.08 722.75897 9.2197031e-39
