# .PCD v0.7 - Point Cloud Data file format
VERSION 0.7
FIELDS x y z rgb
SIZE 4 4 4 4
TYPE F F F F
COUNT 1 1 1 1
WIDTH 317
HEIGHT 1
VIEWPOINT 0 0 0 1 0 0 0
POINTS 317
DATA ascii
-1257.6899 -56.419983 137.98399 9.2197031e-39
-1249.14 -38.421021 133.70799 9.2197031e-39
326.85101 267.41199 136.63 9.2197031e-39
336.836 268.83899 136.782 9.2197031e-39
336.21899 271.065 136.16499 9.2197031e-39
606.83752 314.08899 139.1595 9.2197031e-39
611.31 314.93201 139.175 9.2197031e-39
624.11102 318.375 138.946 9.2197031e-39
2981.6101 789.32898 139.78 9.2197031e-39
2977.77 808.93402 134.427 9.2197031e-39
-1257.9 -101.16901 149.729 9.2197031e-39
-1256.17 -86.573975 145.985 9.2197031e-39
-1257.73 -70.52301 141.687 9.2197031e-39
51.613602 169.63101 147.774 9.2197031e-39
76.100899 166.26401 149.953 9.2197031e-39
67.392654 174.4985 147.3295 9.2197031e-39
100.318 178.63 147.98399 9.2197031e-39
39.4687 181.52301 144.009 9.2197031e-39
69.3657 186.259 144.34399 9.2197031e-39
89.439903 189.039 144.675 9.2197031e-39
132.62199 183.405 148.436 9.2197031e-39
180.55499 197.91299 147.157 9.2197031e-39
236.46001 216.797 145.14999 9.2197031e-39
258.67599 223.13199 144.66 9.2197031e-39
329.60199 227.95401 147.14 9.2197031e-39
288.992 233.457 143.549 9.2197031e-39
336.686 237.70499 144.953 9.2197031e-39
344.2135 236.24516 145.73401 9.2197031e-39
336.81647 244.03474 143.29701 9.2197031e-39
344.035 245.92932 143.18066 9.2197031e-39
343.95035 253.10333 141.29167 9.2197031e-39
590.51001 277.00201 148.039 9.2197031e-39
604.05396 276.57767 148.86665 9.2197031e-39
625.79797 279.76801 149.177 9.2197031e-39
607.651 280.354 148.065 9.2197031e-39
616.64954 285.44775 147.202 9.2197031e-39
623.38898 283.28934 148.12535 9.2197031e-39
607.02362 294.7486 144.2502 9.2197031e-39
612.62701 295.94363 144.23235 9.2197031e-39
604.89453 302.48273 142.106 9.2197031e-39
618.47546 307.20801 141.582 9.2197031e-39
622.48199 307.228 141.7885 9.2197031e-39
614.95947 310.88599 140.43051 9.2197031e-39
628.32599 314.75201 140.121 9.2197031e-39
2986.8501 766.73901 145.991 9.2197031e-39
-1252.64 -130.69098 157.761 9.2197031e-39
-1259.92 -118.20203 154.09599 9.2197031e-39
2994.1799 724.20801 157.55099 9.2197031e-39
2989.3501 746.888 151.338 9.2197031e-39
2991.8401 680.22882 168.98 9.2197031e-39
2991.3799 703.53442 162.834 9.2197031e-39
2994.6001 660.50421 174.30701 9.2197031e-39
3016.8899 619.9115 186.14799 9.2197031e-39
2998.6001 637.73608 180.49899 9.2197031e-39
3027.53 577.49341 197.853 9.2197031e-39
3025.45 597.48743 192.491 9.2197031e-39
3033.7 554.67548 204.173 9.2197031e-39
-505.16 -430.20996 275.931 9.2197031e-39
-492.00299 -432.28003 277.17001 9.2197031e-39
-456.25601 -430.31006 278.54099 9.2197031e-39
-470.08701 -429.23999 277.53101 9.2197031e-39
-433.79401 -426.07996 278.616 9.2197031e-39
-420.86301 -427.35999 279.63599 9.2197031e-39
-400.16901 -423.82996 279.80099 9.2197031e-39
-380.569 -418.93994 279.55301 9.2197031e-39
-583.14398 -474.09998 283.341 9.2197031e-39
-366.14401 -420.02002 280.59799 9.2197031e-39
-351.979 -419.22998 281.14001 9.2197031e-39
-331.03699 -413.95996 280.86301 9.2197031e-39
-317.78101 -413.43994 281.42499 9.2197031e-39
-290.50201 -412.83997 282.70901 9.2197031e-39
-263.47699 -411.55005 283.797 9.2197031e-39
-297.11801 -407.63 280.98999 9.2197031e-39
-270.07401 -406.55005 282.13699 9.2197031e-39
-242.592 -404.08997 282.94199 9.2197031e-39
-236.72099 -409.56006 284.689 9.2197031e-39
-218.16701 -403.76001 284.147 9.2197031e-39
-208.20599 -404.75 284.931 9.2197031e-39
-197.33501 -406.43994 285.95001 9.2197031e-39
-183.41499 -402.83002 285.737 9.2197031e-39
-160.858 -402.51001 286.845 9.2197031e-39
-139.147 -402.40002 287.96201 9.2197031e-39
-118.883 -403.28998 289.26599 9.2197031e-39
-165.35899 -396.16998 284.94199 9.2197031e-39
-146.271 -399.17999 286.73999 9.2197031e-39
-122.813 -396.47998 287.26999 9.2197031e-39
-116.421 -413.84998 292.172 9.2197031e-39
-87.826797 -415.37 294.07999 9.2197031e-39
-74.951401 -412.43994 293.99301 9.2197031e-39
-64.883698 -411.06995 294.164 9.2197031e-39
-53.9291 -410.22998 294.521 9.2197031e-39
-103.072 -409.09998 291.62799 9.2197031e-39
-91.943901 -408.73999 292.12201 9.2197031e-39
-39.963501 -403.03003 293.36801 9.2197031e-39
-13.1613 -405.16003 295.34299 9.2197031e-39
-4.54039 -404.73999 295.689 9.2197031e-39
2.8343 -408.08997 296.95901 9.2197031e-39
-22.395399 -392.23999 291.46301 9.2197031e-39
-15.4876 -394.37 292.38699 9.2197031e-39
0.53650302 -453.38 308.73599 9.2197031e-39
-1.03733 -442.29004 305.73901 9.2197031e-39
1.3399301 -423.20996 300.85199 9.2197031e-39
3.8584399 -495.53003 319.983 9.2197031e-39
4.6821198 -477.04004 315.168 9.2197031e-39
2.7758601 -465.90002 312.14301 9.2197031e-39
3.48822 -529.62 328.918 9.2197031e-39
1.30013 -515.23999 325.026 9.2197031e-39
4.2093201 -563.93994 337.97198 9.2197031e-39
5.2615099 -542.59998 332.422 9.2197031e-39
95.166451 -539.83502 336.44452 9.2197031e-39
6.47611 -597.59998 346.93201 9.2197031e-39
47.801399 -593.65002 348.07999 9.2197031e-39
87.925201 -588.93994 348.96201 9.2197031e-39
5.07688 -579.59998 342.13 9.2197031e-39
64.635902 -576.39001 344.43301 9.2197031e-39
13.26 -624.39001 354.32901 9.2197031e-39
26.0627 -617.23999 353.12799 9.2197031e-39
9.59694 -609.82996 350.31201 9.2197031e-39
-1679.3199 -1046.86 375.88699 9.2197031e-39
-1516.11 -1014.22 375.93701 9.2197031e-39
47.762501 -706.27002 377.66101 9.2197031e-39
-1512.5601 -1038.16 382.41199 9.2197031e-39
2629.2 -267.69299 398.82999 9.2197031e-39
2635.8899 -248.23102 394.07101 9.2197031e-39
-1643.09 -1151.1899 405.207 9.2197031e-39
2611.3401 -302.36499 406.995 9.2197031e-39
2611.6599 -281.23901 401.46201 9.2197031e-39
-1669.01 -1198.14 416.172 9.2197031e-39
-8.7470398 -873.65002 418.64499 9.2197031e-39
2599.55 -338.63599 415.89999 9.2197031e-39
2601.2 -317.79199 410.51199 9.2197031e-39
-1672.79 -1226.23 423.35199 9.2197031e-39
2622.98 -386.23999 429.642 9.2197031e-39
2604.29 -358.60797 421.397 9.2197031e-39
2579.9099 -431.35999 439.22 9.2197031e-39
2544.4399 -459.22998 444.668 9.2197031e-39
2549.1201 -442.19995 440.44199 9.2197031e-39
2665.03 -441.55005 446.39401 9.2197031e-39
2690.3301 -427.39001 444.01099 9.2197031e-39
173.69501 -985.81995 457.74899 9.2197031e-39
184.87 -986.05005 458.39999 9.2197031e-39
2554.76 -504.06006 456.98801 9.2197031e-39
2544.0901 -480.93994 450.35199 9.2197031e-39
155.61099 -1006.88 462.32501 9.2197031e-39
2552.1799 -544.62 467.508 9.2197031e-39
2555.76 -526.72998 462.995 9.2197031e-39
573.60999 -985.69995 478.845 9.2197031e-39
583.79401 -977.95996 477.35001 9.2197031e-39
595.65302 -970.93005 476.129 9.2197031e-39
2566.3899 -573.16003 475.755 9.2197031e-39
1913.75 -749.40002 487.57101 9.2197031e-39
1932.23 -744.80005 487.341 9.2197031e-39
1940.11 -729.65002 483.776 9.2197031e-39
1963.4 -728.04004 484.58301 9.2197031e-39
1978.41 -717.59998 482.634 9.2197031e-39
2002.6 -715.98999 483.48901 9.2197031e-39
2565.1201 -592.37 480.73499 9.2197031e-39
638.75403 -1041.7 496.99701 9.2197031e-39
663.60699 -1042.13 498.422 9.2197031e-39
650.63599 -1031.3101 494.896 9.2197031e-39
675.19202 -1030.58 496.00201 9.2197031e-39
1871.08 -795.68005 497.474 9.2197031e-39
1878.83 -783.33997 494.64401 9.2197031e-39
1887.92 -769.18005 491.40201 9.2197031e-39
1903.29 -762.59998 490.487 9.2197031e-39
755.83801 -1057.99 507.46201 9.2197031e-39
806.34698 -1052.4399 508.672 9.2197031e-39
764.96698 -1045.17 504.57599 9.2197031e-39
790.90698 -1046.22 506.22198 9.2197031e-39
817.70898 -1049.6 508.52701 9.2197031e-39
857.11798 -1046.0601 509.67899 9.2197031e-39
775.90399 -1032.84 501.914 9.2197031e-39
1855.24 -823.18005 503.86301 9.2197031e-39
1859.42 -807.88 500.065 9.2197031e-39
2696.3201 -673.10999 508.87601 9.2197031e-39
493.66101 -1142.37 515.77698 9.2197031e-39
507.88599 -1149.63 518.43597 9.2197031e-39
519.729 -1140.42 516.64301 9.2197031e-39
636.96997 -1123.73 518.45099 9.2197031e-39
834.60303 -1060.2 512.20398 9.2197031e-39
943.22699 -1061.92 518.39398 9.2197031e-39
846.03198 -1057.14 512.005 9.2197031e-39
884.91699 -1050.0601 512.19702 9.2197031e-39
899.46899 -1056.74 514.72198 9.2197031e-39
926.52399 -1056.26 516.02502 9.2197031e-39
980.32098 -1051.98 517.74298 9.2197031e-39
869.80402 -1047.46 510.71701 9.2197031e-39
910.58801 -1046.17 512.53302 9.2197031e-39
965.91602 -1047.92 515.91602 9.2197031e-39
991.75403 -1042.6 515.883 9.2197031e-39
1022.69 -1049.35 519.28998 9.2197031e-39
2160.75 -798.58997 513.54303 9.2197031e-39
2718.48 -704.39001 518.263 9.2197031e-39
548.117 -1182.4399 529.17902 9.2197031e-39
626.01001 -1152.27 525.37 9.2197031e-39
719.71899 -1144.6 528.30499 9.2197031e-39
958.24701 -1068.03 520.79199 9.2197031e-39
1011.98 -1060.78 521.72699 9.2197031e-39
1099.26 -1060.28 526.20697 9.2197031e-39
1037.4 -1052.85 520.987 9.2197031e-39
1055.5601 -1059.01 523.565 9.2197031e-39
1068.9399 -1058.65 524.17798 9.2197031e-39
1082.2 -1052.97 523.38599 9.2197031e-39
1113.36 -1056.0699 525.84698 9.2197031e-39
1127.3 -1056.0601 526.58099 9.2197031e-39
1156.71 -1053.91 527.56799 9.2197031e-39
1139.6801 -1048.12 525.14801 9.2197031e-39
1170.8199 -1049.15 527.06403 9.2197031e-39
1185.35 -1049.46 527.91199 9.2197031e-39
1201.75 -1048.6899 528.57599 9.2197031e-39
2701.1899 -743.34998 527.58301 9.2197031e-39
2710.1201 -725.71997 523.42401 9.2197031e-39
482.112 -1203.6 531.25098 9.2197031e-39
564.229 -1208.47 536.86902 9.2197031e-39
536.11798 -1192.83 531.27502 9.2197031e-39
576.25403 -1198.84 534.97302 9.2197031e-39
763.66101 -1165.83 536.20502 9.2197031e-39
1223.88 -1062.27 533.31201 9.2197031e-39
1240.04 -1060.24 533.63397 9.2197031e-39
1289.03 -1061.87 536.651 9.2197031e-39
1266.6899 -1050.02 532.35602 9.2197031e-39
1301.83 -1053.37 535.09198 9.2197031e-39
1334.22 -1051.03 536.18903 9.2197031e-39
1350.37 -1051.38 537.13599 9.2197031e-39
1372.16 -1056.09 539.52399 9.2197031e-39
1248.6 -1048.97 531.125 9.2197031e-39
1312.72 -1045.83 533.68799 9.2197031e-39
1398.4301 -1042.6899 537.39099 9.2197031e-39
1965.35 -936.54004 539.45697 9.2197031e-39
2687.6201 -784.21997 537.60199 9.2197031e-39
2695.1101 -765.83997 533.16901 9.2197031e-39
467.448 -1275.42 549.34198 9.2197031e-39
1432.63 -1067.8199 545.79797 9.2197031e-39
1389.5699 -1057.6801 540.85999 9.2197031e-39
1445.4301 -1058.04 543.90802 9.2197031e-39
1480.53 -1055.04 544.974 9.2197031e-39
1451.74 -1043.14 540.32501 9.2197031e-39
1512.27 -1046.65 544.44598 9.2197031e-39
1526.04 -1041.35 543.78101 9.2197031e-39
1590.7 -1045.87 548.383 9.2197031e-39
1561.46 -1036.54 544.38898 9.2197031e-39
2304.1599 -871.16003 540.18402 9.2197031e-39
2648.8501 -838.19995 549.73401 9.2197031e-39
2663.6101 -820.02002 545.73798 9.2197031e-39
2679.3401 -805.78003 542.828 9.2197031e-39
438.405 -1304.54 555.45898 9.2197031e-39
454.15302 -1286.17 551.46399 9.2197031e-39
752.39301 -1255.52 559.16998 9.2197031e-39
1561.65 -1059.63 550.46399 9.2197031e-39
1641.1899 -1056.64 553.88098 9.2197031e-39
1655.86 -1050.9301 553.15698 9.2197031e-39
1683.35 -1055.92 555.92102 9.2197031e-39
1701.36 -1053.4399 556.21997 9.2197031e-39
1725.86 -1054.1899 557.711 9.2197031e-39
1611.48 -1048.05 550.05499 9.2197031e-39
1725.29 -1031.37 551.685 9.2197031e-39
1966.9301 -1004.48 557.38898 9.2197031e-39
1986.14 -999.58997 557.11798 9.2197031e-39
1998.15 -984.95996 553.90997 9.2197031e-39
2383.1499 -896.68005 551.05798 9.2197031e-39
2640.73 -856.28003 554.05603 9.2197031e-39
424.02301 -1339.25 563.815 9.2197031e-39
768.43402 -1257.4301 560.51703 9.2197031e-39
1804.62 -1066.23 565.034 9.2197031e-39
1848.17 -1061.67 566.138 9.2197031e-39
1774.76 -1057.77 561.23499 9.2197031e-39
1815.9399 -1051.79 561.84003 9.2197031e-39
1856.62 -1044.15 561.98199 9.2197031e-39
1884.22 -1048.63 564.61603 9.2197031e-39
1903.85 -1041.5699 563.79901 9.2197031e-39
1925.97 -1040.09 564.57898 9.2197031e-39
1986.11 -1046.8199 569.52301 9.2197031e-39
1948.53 -1035.17 564.47803 9.2197031e-39
2645.6201 -907.96997 567.89203 9.2197031e-39
2637.76 -880.81995 560.34497 9.2197031e-39
2697.6799 -964.40002 585.466 9.2197031e-39
404.12299 -1447.28 591.14398 9.2197031e-39
747.466 -1403.45 597.76898 9.2197031e-39
2678.1599 -1004.7 595.02002 9.2197031e-39
2700.3899 -989.85999 592.297 9.2197031e-39
387.142 -1499.1201 603.86401 9.2197031e-39
2658.71 -1045.25 604.646 9.2197031e-39
2681.23 -1030.74 602.02399 9.2197031e-39
47.9338 -1701.1599 639.01599 9.2197031e-39
-168.91 -1786.03 649.85602 9.2197031e-39
-125.656 -1776.3601 649.599 9.2197031e-39
-36.537701 -1737.6001 644.12598 9.2197031e-39
59.104599 -1731.77 647.64801 9.2197031e-39
80.609398 -1725.6101 647.16602 9.2197031e-39
97.882896 -1726.45 648.29901 9.2197031e-39
119.168 -1719.9099 647.70599 9.2197031e-39
137.304 -1714.71 647.29602 9.2197031e-39
174.94901 -1710.8899 648.28302 9.2197031e-39
158.159 -1708.74 646.83197 9.2197031e-39
195.745 -1703.6101 647.46899 9.2197031e-39
212.985 -1701.6201 647.85699 9.2197031e-39
233.521 -1693.97 646.93402 9.2197031e-39
249.983 -1697.46 648.71899 9.2197031e-39
286.59601 -1694.5901 649.901 9.2197031e-39
270.59698 -1686.5701 646.948 9.2197031e-39
307.586 -1675.6399 646.03003 9.2197031e-39
324.11099 -1676.6201 647.16101 9.2197031e-39
343.89401 -1667.9299 645.92499 9.2197031e-39
361.52399 -1647.3701 641.45398 9.2197031e-39
-385.87701 -1856.24 656.836 9.2197031e-39
-356.978 -1842.6899 654.80402 9.2197031e-39
-335.686 -1839.72 655.14801 9.2197031e-39
-309.98801 -1832.9199 654.71899 9.2197031e-39
-289.59 -1831.3601 655.38898 9.2197031e-39
-260.729 -1813.9299 652.33398 9.2197031e-39
-243.093 -1819.3401 654.68701 9.2197031e-39
-214.47501 -1800.4299 651.23199 9.2197031e-39
-196.655 -1804.5601 653.25598 9.2197031e-39
-151.5 -1790.73 652.00897 9.2197031e-39
-108.323 -1780.72 651.65997 9.2197031e-39
-84.176498 -1770.5701 650.27002 9.2197031e-39
-64.707603 -1766.1299 650.133 9.2197031e-39
