# .PCD v0.7 - Point Cloud Data file format
VERSION 0.7
FIELDS x y z rgb
SIZE 4 4 4 4
TYPE F F F F
COUNT 1 1 1 1
WIDTH 307
HEIGHT 1
VIEWPOINT 0 0 0 1 0 0 0
POINTS 307
DATA ascii
-1241.79 -461.38 138.231 9.2197031e-39
-1235.76 -442.81006 133.897 9.2197031e-39
416.71835 16.019653 138.21901 9.2197031e-39
421.65466 16.300333 138.51266 9.2197031e-39
425.66235 24.161337 136.78534 9.2197031e-39
433.37 28.25 136.304 9.2197031e-39
689.00702 92.801025 138.62801 9.2197031e-39
694.59833 91.220665 139.44966 9.2197031e-39
703.63599 96.333008 138.80299 9.2197031e-39
2990.8101 751.08398 139.715 9.2197031e-39
2994.76 773.86401 134.142 9.2197031e-39
-1222.98 -488.55005 146.62199 9.2197031e-39
-1248.8101 -479.63 142.41 9.2197031e-39
393.89499 -28.119019 147.89301 9.2197031e-39
369.082 -19.039001 143.716 9.2197031e-39
388.59799 -11.130981 143.12601 9.2197031e-39
397.086 -3.5789795 141.811 9.2197031e-39
429.56699 -4.3170166 144.408 9.2197031e-39
431.694 -0.19598389 143.505 9.2197031e-39
404.59366 3.0790203 140.65266 9.2197031e-39
427.51797 2.987325 142.37532 9.2197031e-39
433.905 6.4179993 141.96524 9.2197031e-39
440.034 3.3900146 143.19901 9.2197031e-39
686.39301 55.057007 148.1535 9.2197031e-39
695.13721 54.816254 148.86349 9.2197031e-39
706.40149 58.419525 148.77051 9.2197031e-39
708.15698 60.894012 148.263 9.2197031e-39
715.50879 65.867836 147.52716 9.2197031e-39
687.987 76.571007 142.73167 9.2197031e-39
695.64331 75.233986 143.64366 9.2197031e-39
709.27197 72.042511 145.47501 9.2197031e-39
694.922 84.327805 141.2484 9.2197031e-39
702.5127 85.95034 141.39301 9.2197031e-39
2997.53 730.26501 145.57401 9.2197031e-39
-1241.34 -544.25 159.604 9.2197031e-39
-1232.17 -524.73999 155.258 9.2197031e-39
-1229.6899 -506.82996 150.832 9.2197031e-39
314.827 -89.093994 157.73399 9.2197031e-39
344.991 -66.150024 154.062 9.2197031e-39
359.70901 -54.125977 152.056 9.2197031e-39
367.84 -46.564026 150.71201 9.2197031e-39
710.883 47.835022 151.828 9.2197031e-39
2998.51 686.51428 156.912 9.2197031e-39
2993.1499 707.61932 151.08 9.2197031e-39
234.377 -151.26599 167.78101 9.2197031e-39
282.51599 -114.14301 161.78999 9.2197031e-39
2999.6299 643.13129 168.166 9.2197031e-39
2996.6201 664.72662 162.382 9.2197031e-39
138.069 -223.70599 179.29601 9.2197031e-39
3014.6101 603.03448 179.601 9.2197031e-39
3004.1699 622.97998 173.69099 9.2197031e-39
3028.5801 584.78357 185.336 9.2197031e-39
-23.801001 -346.422 198.899 9.2197031e-39
3034.6599 542.54779 196.662 9.2197031e-39
3032.8 563.35571 191.166 9.2197031e-39
-60.9631 -393.47501 208.261 9.2197031e-39
-51.464001 -374.15302 203.989 9.2197031e-39
3032.5901 519.995 202.31599 9.2197031e-39
-11.3179 -415.77002 217.67999 9.2197031e-39
-4.1243801 -417.71997 218.716 9.2197031e-39
-45.598 -402.13 211.62801 9.2197031e-39
-38.209 -404.73999 212.84801 9.2197031e-39
-26.4086 -403.23999 213.336 9.2197031e-39
-13.7056 -401.17999 213.74699 9.2197031e-39
-52.7798 -399.67999 210.463 9.2197031e-39
-0.52903301 -398.07001 213.92101 9.2197031e-39
-0.58006102 -458.43994 229.464 9.2197031e-39
6.9448199 -442.14001 225.823 9.2197031e-39
6.1897302 -434.31006 223.752 9.2197031e-39
3.9179521 -423.375 220.767 9.2197031e-39
4.9753299 -495.09998 239.31549 9.2197031e-39
0.94260299 -484.65002 236.325 9.2197031e-39
2.5143499 -473.87 233.66499 9.2197031e-39
-3.10936 -469.83997 232.211 9.2197031e-39
13.4791 -521.09998 246.64101 9.2197031e-39
20.593901 -523.23999 247.72 9.2197031e-39
4.5958853 -515.35999 244.50351 9.2197031e-39
19.771799 -567.13 258.95901 9.2197031e-39
21.961 -553.75 255.675 9.2197031e-39
20.841 -543.96997 253.075 9.2197031e-39
21.4303 -532.94995 250.28101 9.2197031e-39
24.515301 -607.81006 269.785 9.2197031e-39
22.954201 -598.08997 267.168 9.2197031e-39
21.858101 -587.41003 264.33701 9.2197031e-39
21.8262 -576.21997 261.452 9.2197031e-39
20.0397 -638.56006 277.371 9.2197031e-39
18.113199 -628.73999 274.70001 9.2197031e-39
22.700199 -674.94995 286.94 9.2197031e-39
21.720301 -662.44995 283.647 9.2197031e-39
21.243299 -650.18994 280.457 9.2197031e-39
22.238199 -717.98999 297.987 9.2197031e-39
20.431601 -706.37 294.862 9.2197031e-39
24.1017 -686.47998 290.01099 9.2197031e-39
23.0413 -763.35999 309.73001 9.2197031e-39
20.8141 -750.58997 306.27701 9.2197031e-39
23.4757 -731.47998 301.55399 9.2197031e-39
19.362499 -785.13 315.06201 9.2197031e-39
20.6637 -835.41003 328.10699 9.2197031e-39
23.0411 -813.18005 322.55899 9.2197031e-39
16.924299 -806.38 320.35501 9.2197031e-39
23.8403 -867.13 336.509 9.2197031e-39
24.136 -847.31006 331.42801 9.2197031e-39
23.448 -886.80005 341.54599 9.2197031e-39
119.016 -885.48999 348.29001 9.2197031e-39
103.698 -874.73999 344.38699 9.2197031e-39
121.86 -856.94995 341.15201 9.2197031e-39
-10.8187 -970.67004 360.603 9.2197031e-39
47.022202 -969.72998 364.64499 9.2197031e-39
7.42169 -1027.16 376.49899 9.2197031e-39
1.41477 -1014.6801 372.84 9.2197031e-39
180.62601 -988.98999 379.508 9.2197031e-39
2590.8 -293.23199 378.97601 9.2197031e-39
2606.1699 -277.46698 376.056 9.2197031e-39
158.29601 -1020.8 386.04401 9.2197031e-39
190.83 -989.09998 380.29099 9.2197031e-39
2563.8201 -341.453 389.39301 9.2197031e-39
2577.4299 -326.67297 386.59601 9.2197031e-39
2579.3999 -308.651 382.10101 9.2197031e-39
-67.701897 -1125.25 396.189 9.2197031e-39
47.491699 -1068.86 390.20801 9.2197031e-39
2572.8701 -379.48901 399.858 9.2197031e-39
2576.1001 -362.50098 395.72299 9.2197031e-39
-109.892 -1178.98 406.89899 9.2197031e-39
582.56799 -980.91003 407.216 9.2197031e-39
601.62799 -982.81995 409.121 9.2197031e-39
592.58502 -989.15002 410.07999 9.2197031e-39
2551.24 -447.19995 415.69 9.2197031e-39
2582.9399 -437.33997 415.5 9.2197031e-39
2642.6599 -414.39001 414.017 9.2197031e-39
644.89001 -1045.4301 428.448 9.2197031e-39
2544.97 -501.20996 429.133 9.2197031e-39
2558.1299 -485.92004 426.172 9.2197031e-39
2548.9199 -465.38 420.20001 9.2197031e-39
655.716 -1050.1899 430.47501 9.2197031e-39
759.16699 -1051.64 438.51599 9.2197031e-39
665.565 -1049.13 430.93201 9.2197031e-39
675.48199 -1044.08 430.36801 9.2197031e-39
685.62 -1045.74 431.54599 9.2197031e-39
768.13098 -1044.98 437.465 9.2197031e-39
779.01501 -1045.73 438.465 9.2197031e-39
789.039 -1044.59 438.91599 9.2197031e-39
2546.03 -538.82996 438.89801 9.2197031e-39
2556.6399 -522.81006 435.56 9.2197031e-39
2726.6499 -453.13 430.21799 9.2197031e-39
723.96503 -1095.9399 447.314 9.2197031e-39
1898.1801 -767.31006 449.71701 9.2197031e-39
1903.5601 -753.93005 446.67001 9.2197031e-39
1921.0601 -748.67004 446.61301 9.2197031e-39
1938.95 -742.58997 446.375 9.2197031e-39
1950.51 -733.43994 444.87399 9.2197031e-39
1978.62 -732.72998 446.776 9.2197031e-39
1979.83 -717.46997 442.935 9.2197031e-39
2001.1 -712.41003 443.20999 9.2197031e-39
2551.97 -578.52002 449.55801 9.2197031e-39
2553.5 -559.54004 444.785 9.2197031e-39
811.83002 -1098.92 454.595 9.2197031e-39
1867.96 -814 459.50101 9.2197031e-39
1868.92 -797.55005 455.33499 9.2197031e-39
1880.8101 -789.17004 454.06 9.2197031e-39
1891.39 -779.05005 452.23801 9.2197031e-39
2559.95 -599.81995 455.63599 9.2197031e-39
1853.01 -837.55005 464.45801 9.2197031e-39
1856.71 -822.76001 460.922 9.2197031e-39
68.2789 -1390.52 474.573 9.2197031e-39
725.84497 -1190.46 471.793 9.2197031e-39
1302.88 -1055.45 479.79401 9.2197031e-39
2660.8101 -654.35999 477.155 9.2197031e-39
1269.02 -1093.26 487.01999 9.2197031e-39
1278.3 -1084.35 485.41299 9.2197031e-39
1286.4301 -1074.87 483.57501 9.2197031e-39
1299.73 -1072.33 483.90701 9.2197031e-39
1330.21 -1073.58 486.48801 9.2197031e-39
1342.55 -1070.13 486.513 9.2197031e-39
1354.84 -1065.42 486.21201 9.2197031e-39
1364.34 -1057.79 484.952 9.2197031e-39
1378.28 -1055.22 485.32199 9.2197031e-39
1392.3199 -1053.63 485.953 9.2197031e-39
1406.3101 -1050.75 486.24899 9.2197031e-39
1433.47 -1065.75 492.12299 9.2197031e-39
1445.86 -1060.16 491.60199 9.2197031e-39
1464.4 -1063.17 493.75 9.2197031e-39
1479.26 -1060.29 494.11099 9.2197031e-39
1502.35 -1068.09 497.832 9.2197031e-39
1514.85 -1061.84 497.14899 9.2197031e-39
2720.0801 -716.90002 497.64999 9.2197031e-39
2730.4099 -698.91003 493.785 9.2197031e-39
766.60199 -1303.46 503.91101 9.2197031e-39
1200.36 -1201.78 509.87399 9.2197031e-39
1245.22 -1176.5699 506.70901 9.2197031e-39
1225.75 -1168.27 503.129 9.2197031e-39
1641.8101 -1060.62 506.24399 9.2197031e-39
2002.59 -960.88 507.29901 9.2197031e-39
2688.04 -768.02002 508.44 9.2197031e-39
2693.8201 -749.51001 504.10101 9.2197031e-39
2703.5 -731.44995 500.16699 9.2197031e-39
580.89301 -1386.84 511.616 9.2197031e-39
658.45801 -1367.58 512.40601 9.2197031e-39
1192.37 -1215.35 512.776 9.2197031e-39
1214.72 -1202.2 511.04599 9.2197031e-39
1277.6899 -1208.52 517.341 9.2197031e-39
1226.54 -1196.1899 510.37701 9.2197031e-39
1310.59 -1185.5699 513.87201 9.2197031e-39
1291.48 -1179.8 510.96799 9.2197031e-39
1713.65 -1072.13 514.53101 9.2197031e-39
1684.33 -1063.72 510.19299 9.2197031e-39
1745.7 -1062.67 514.47198 9.2197031e-39
1793.58 -1066.99 519.13098 9.2197031e-39
2006.9301 -1003.0601 518.48297 9.2197031e-39
2004.66 -982.21997 512.94598 9.2197031e-39
2650.72 -817.45996 518.40302 9.2197031e-39
2660.0901 -799.43994 514.45801 9.2197031e-39
2679.8701 -786.66003 512.63397 9.2197031e-39
27.841101 -1611.3601 528.44202 9.2197031e-39
793.237 -1386.2 527.19 9.2197031e-39
1297.3101 -1215.38 520.56201 9.2197031e-39
1818.91 -1070.24 521.84601 9.2197031e-39
1843.45 -1071.3101 523.94098 9.2197031e-39
1889.4399 -1070.47 527.133 9.2197031e-39
1902.6 -1061.72 525.85498 9.2197031e-39
1935.05 -1067.79 529.82397 9.2197031e-39
1972.59 -1057.22 529.88397 9.2197031e-39
2634.6399 -853.55005 526.50598 9.2197031e-39
2634.3799 -831.37 520.77399 9.2197031e-39
-0.132471 -1646.03 535.29498 9.2197031e-39
1961.9 -1069.6899 532.30103 9.2197031e-39
2004.22 -1062.13 533.49103 9.2197031e-39
2029.58 -1060.61 534.97803 9.2197031e-39
2659.3101 -885.95996 536.67902 9.2197031e-39
652.23199 -1479.7 540.815 9.2197031e-39
2069.3601 -1070.55 540.487 9.2197031e-39
2680.4099 -918.5 546.62201 9.2197031e-39
15.6603 -1704.0901 551.41602 9.2197031e-39
821.56201 -1473.4399 551.75299 9.2197031e-39
2669.54 -935.35999 550.15601 9.2197031e-39
13.2943 -1772.04 568.73901 9.2197031e-39
2719.1201 -982.72998 566.03003 9.2197031e-39
645.05701 -1598.5601 570.89001 9.2197031e-39
2694.3899 -1040.2 578.995 9.2197031e-39
2623.8 -1027.12 570.396 9.2197031e-39
2754.3799 -1047.71 585.375 9.2197031e-39
-338.992 -1989.6299 598.659 9.2197031e-39
-315.30701 -1983.0901 598.729 9.2197031e-39
-268.29199 -1971.4299 599.211 9.2197031e-39
-194.134 -1940.3899 596.716 9.2197031e-39
2810.77 -1051.17 590.44397 9.2197031e-39
-293.88 -1983.8799 600.521 9.2197031e-39
-246.009 -1969.04 600.24799 9.2197031e-39
-222.98 -1961.5601 600.02698 9.2197031e-39
-2.58534 -1958.96 615.69299 9.2197031e-39
17.395201 -1954.6899 616.07397 9.2197031e-39
36.231701 -1957.99 618.31897 9.2197031e-39
-18.5121 -1945 610.91803 9.2197031e-39
51.640099 -1971.3301 622.89697 9.2197031e-39
88.281799 -1978.8701 627.55499 9.2197031e-39
126.851 -1977.22 629.987 9.2197031e-39
72.630898 -1965.8 623.02698 9.2197031e-39
1191.4 -1662.8 627.922 9.2197031e-39
1223.38 -1652.97 627.76202 9.2197031e-39
1239.35 -1646.8 627.35602 9.2197031e-39
1250.84 -1631.8601 624.35999 9.2197031e-39
1269.99 -1633.48 626.19501 9.2197031e-39
1280.8199 -1617.46 622.87402 9.2197031e-39
1300.37 -1619.6399 624.88501 9.2197031e-39
1310.91 -1603.45 621.49799 9.2197031e-39
1330.5 -1605.3101 623.42603 9.2197031e-39
1341.98 -1591.5701 620.74103 9.2197031e-39
1361.62 -1593.0801 622.586 9.2197031e-39
161.979 -1992.0801 636.41699 9.2197031e-39
180.938 -1995.0601 638.58899 9.2197031e-39
106.902 -1983.45 630.112 9.2197031e-39
145.668 -1980.5 632.22803 9.2197031e-39
200.655 -1988.1599 638.27399 9.2197031e-39
1072.9399 -1733.72 637.40302 9.2197031e-39
1089.63 -1728.8401 637.38397 9.2197031e-39
1102.9301 -1715.75 634.99902 9.2197031e-39
1119.46 -1710.6101 634.90198 9.2197031e-39
1132.15 -1696.4099 632.185 9.2197031e-39
1148.51 -1691.03 632.01099 9.2197031e-39
1163.72 -1684.8601 631.54901 9.2197031e-39
1179.97 -1679.2 631.297 9.2197031e-39
1211.55 -1667.75 630.69098 9.2197031e-39
237.771 -1992.21 642.06702 9.2197031e-39
256.60199 -1995.49 644.30798 9.2197031e-39
274.56 -1998.51 646.41602 9.2197031e-39
293.71301 -1999.55 648.10303 9.2197031e-39
312.853 -1992.6201 647.737 9.2197031e-39
331.83499 -1994.29 649.57397 9.2197031e-39
219.737 -1989.8501 640.12201 9.2197031e-39
979.37299 -1781.03 642.65198 9.2197031e-39
995.81403 -1774.1399 642.09497 9.2197031e-39
1012.05 -1770.1299 642.26599 9.2197031e-39
1029.0699 -1765.77 642.40503 9.2197031e-39
1042.99 -1753.0901 640.17102 9.2197031e-39
1059.85 -1748.46 640.23102 9.2197031e-39
386.586 -2004 656.13202 9.2197031e-39
405.54401 -2006.96 658.29901 9.2197031e-39
423.992 -2003.9099 658.88202 9.2197031e-39
349.922 -1995.72 651.284 9.2197031e-39
369.02301 -1996.1001 652.797 9.2197031e-39
443.608 -1994.9299 658.02301 9.2197031e-39
461.41199 -2002.22 661.21997 9.2197031e-39
480.50101 -2002.6001 662.73102 9.2197031e-39
498.78101 -1998.9299 663.14099 9.2197031e-39
517.84399 -1998.98 664.56799 9.2197031e-39
536.02802 -1995 664.89099 9.2197031e-39
555.06 -1995.7 666.48102 9.2197031e-39
573.11298 -1987.54 665.71899 9.2197031e-39
