# .PCD v0.7 - Point Cloud Data file format
VERSION 0.7
FIELDS x y z rgb
SIZE 4 4 4 4
TYPE F F F F
COUNT 1 1 1 1
WIDTH 312
HEIGHT 1
VIEWPOINT 0 0 0 1 0 0 0
POINTS 312
DATA ascii
-1244.89 -471.95996 138.246 9.2197031e-39
-1242.65 -454.81006 134 9.2197031e-39
422.31 8.9719849 138.93201 9.2197031e-39
429.69501 17.171021 137.37399 9.2197031e-39
433.71976 17.25827 137.65199 9.2197031e-39
435.66165 23.007996 136.317 9.2197031e-39
694.69366 86.730003 139.25401 9.2197031e-39
706.45697 89.28302 139.47501 9.2197031e-39
710.026 92.473999 138.92101 9.2197031e-39
2983.23 748.83997 139.694 9.2197031e-39
2985.0901 771.50403 134 9.2197031e-39
-1244.09 -504.95996 146.798 9.2197031e-39
-1242.1801 -487.69995 142.50101 9.2197031e-39
266.79401 -64.244019 146.16499 9.2197031e-39
310.54199 -46.91803 144.972 9.2197031e-39
381.52899 -44.853027 149.74001 9.2197031e-39
335.009 -37.853027 144.466 9.2197031e-39
354.80499 -30.562988 144.067 9.2197031e-39
399.98099 -31.182007 147.599 9.2197031e-39
376.24799 -22.062012 143.48 9.2197031e-39
409.117 -7.3519897 142.149 9.2197031e-39
424.854 -0.79901123 141.63699 9.2197031e-39
435.13028 -5.6115112 143.64226 9.2197031e-39
437.771 2.6604919 141.711 9.2197031e-39
443.47501 4.7353311 141.60233 9.2197031e-39
675.10901 49.075012 147.48199 9.2197031e-39
689.06299 48.132996 148.767 9.2197031e-39
695.74695 49.004486 149.0415 9.2197031e-39
697.08252 51.268494 148.558 9.2197031e-39
705.04169 55.315998 148.11067 9.2197031e-39
714.09802 55.468018 148.748 9.2197031e-39
720.24152 57.121002 148.78101 9.2197031e-39
702.47266 68.331017 144.56967 9.2197031e-39
714.44879 63.789795 146.6324 9.2197031e-39
688.71399 75.322021 141.743 9.2197031e-39
693.05762 74.829002 142.19501 9.2197031e-39
705.03027 74.300331 143.22433 9.2197031e-39
696.02502 84.127991 140.02299 9.2197031e-39
706.52863 82.838341 141.13934 9.2197031e-39
715.367 81.062012 142.256 9.2197031e-39
2981.1499 726.25403 145.35201 9.2197031e-39
-1250.23 -540.62 155.51801 9.2197031e-39
-1251.53 -524.14001 151.17999 9.2197031e-39
83.862602 -142.39801 152.623 9.2197031e-39
299.50299 -106.73102 159.541 9.2197031e-39
336.185 -79.203003 155.19501 9.2197031e-39
363.30701 -58.838013 151.978 9.2197031e-39
723.88501 53.320007 150.03101 9.2197031e-39
2990.8799 685.01367 156.69 9.2197031e-39
2986.5901 705.78101 151.026 9.2197031e-39
245.24001 -147.32202 165.936 9.2197031e-39
3000.8301 643.8479 168.02699 9.2197031e-39
2996.9199 664.69141 162.371 9.2197031e-39
194.12 -187.112 172.36 9.2197031e-39
3004.1699 601.22717 179.244 9.2197031e-39
2996.75 621.20551 173.549 9.2197031e-39
122.606 -242.82501 181.35899 9.2197031e-39
3005.55 579.9292 184.828 9.2197031e-39
-8.7319603 -351.35101 199.483 9.2197031e-39
2.1177499 -336.06897 196.36099 9.2197031e-39
3024.3999 540.56891 196.364 9.2197031e-39
3026.3301 562.57501 190.845 9.2197031e-39
-11.5157 -392.06 209.752 9.2197031e-39
-12.412 -384.83002 207.82401 9.2197031e-39
-7.7311902 -373.32898 205.214 9.2197031e-39
-1.06743 -353.06 200.495 9.2197031e-39
8.9560003 -352.85303 201.19 9.2197031e-39
3025.22 519.16602 201.933 9.2197031e-39
-13.0627 -426.34998 218.46001 9.2197031e-39
-5.470715 -407.315 214.129 9.2197031e-39
-5.9245801 -395.52002 211.05901 9.2197031e-39
-8.8614702 -466.63 229.14101 9.2197031e-39
-12.315 -451.79004 225.064 9.2197031e-39
-6.99542 -455.82996 226.5 9.2197031e-39
-10.2088 -441.06995 222.461 9.2197031e-39
-8.69946 -431.06995 220.002 9.2197031e-39
-6.5141501 -492.44995 235.959 9.2197031e-39
6.8422551 -493.38995 237.19901 9.2197031e-39
-6.4626002 -482.89001 233.504 9.2197031e-39
-11.292 -478.18994 231.93401 9.2197031e-39
13.217 -531.47998 247.476 9.2197031e-39
13.3221 -521.13 244.82001 9.2197031e-39
8.8234596 -515.88 243.133 9.2197031e-39
9.85641 -504.85999 240.375 9.2197031e-39
14.2554 -573.29004 258.314 9.2197031e-39
13.1297 -563.53003 255.718 9.2197031e-39
14.7476 -550.81995 252.567 9.2197031e-39
13.257 -541.87 250.153 9.2197031e-39
15.3498 -606.57996 266.96201 9.2197031e-39
13.7838 -596.71997 264.30801 9.2197031e-39
14.2512 -584.59998 261.224 9.2197031e-39
17.665899 -653.31995 279.16299 9.2197031e-39
17.281401 -640.98999 275.961 9.2197031e-39
9.8162804 -638.06995 274.65201 9.2197031e-39
15.2166 -618.79004 270.09299 9.2197031e-39
9.1698503 -691.71997 288.41 9.2197031e-39
13.5588 -672.06006 283.67899 9.2197031e-39
13.4348 -728.60999 298.22299 9.2197031e-39
17.6481 -707.92004 293.21201 9.2197031e-39
15.9208 -696.19995 290.06799 9.2197031e-39
14.5264 -773.20996 309.78101 9.2197031e-39
12.4936 -760.48999 306.35599 9.2197031e-39
15.5832 -740.43005 301.423 9.2197031e-39
15.0063 -805.41003 318.104 9.2197031e-39
12.537 -792.60999 314.62601 9.2197031e-39
20.0112 -831.91003 325.297 9.2197031e-39
12.0398 -827.47998 323.561 9.2197031e-39
13.1312 -861.75 332.461 9.2197031e-39
112.771 -870.77002 342.22198 9.2197031e-39
103.151 -869.78003 341.24899 9.2197031e-39
-31.8729 -959.14001 354.164 9.2197031e-39
60.034 -936.41003 355.17599 9.2197031e-39
13.9311 -1005.89 369.617 9.2197031e-39
81.965202 -983.21997 368.85999 9.2197031e-39
168.45799 -955.17004 368.09698 9.2197031e-39
178.612 -955.5 368.94 9.2197031e-39
58.6404 -1009.58 373.90302 9.2197031e-39
2564.1399 -305.86603 379.83099 9.2197031e-39
2576.54 -290.328 376.758 9.2197031e-39
2579.02 -272.96802 372.47601 9.2197031e-39
-40.197601 -1087.78 386.64801 9.2197031e-39
172.224 -1001.72 380.358 9.2197031e-39
2568.1799 -324.448 384.914 9.2197031e-39
118.528 -1056.8199 390.53 9.2197031e-39
577.29303 -951.23999 397.60501 9.2197031e-39
586.505 -952.80005 398.69199 9.2197031e-39
2570.8601 -360.88898 394.492 9.2197031e-39
2585.6499 -345.90302 391.73999 9.2197031e-39
-104.524 -1185.34 406.95401 9.2197031e-39
154.946 -1115.01 408.22101 9.2197031e-39
149.55901 -1096.99 403.18399 9.2197031e-39
2543.3301 -426.81006 409.401 9.2197031e-39
2541.27 -408.25 404.47198 9.2197031e-39
2587.3401 -400.90002 406.01901 9.2197031e-39
165.118 -1155.65 419.439 9.2197031e-39
161.239 -1131.15 412.84698 9.2197031e-39
598.29498 -1020.03 416.875 9.2197031e-39
637.00598 -1012.42 417.80399 9.2197031e-39
646.23102 -1005.73 416.77301 9.2197031e-39
655.883 -1004.75 417.242 9.2197031e-39
2551.7 -465.43005 419.96399 9.2197031e-39
2554.8101 -447.91003 415.69 9.2197031e-39
667.29602 -1021.01 422.27701 9.2197031e-39
677.30103 -1021.77 423.22 9.2197031e-39
748.00702 -1024.65 429.23901 9.2197031e-39
756.08398 -1013.3101 426.922 9.2197031e-39
766.37097 -1014.24 427.931 9.2197031e-39
786.04199 -1011.11 428.59299 9.2197031e-39
2558.9199 -485.83997 425.755 9.2197031e-39
2755.45 -419.81995 423.436 9.2197031e-39
162.47099 -1202.52 431.30499 9.2197031e-39
569.65802 -1081.28 430.5 9.2197031e-39
778.42902 -1023.61 431.23999 9.2197031e-39
1892.59 -730.78003 439.05099 9.2197031e-39
1901.62 -720.29004 437.02399 9.2197031e-39
1924.1899 -717.52002 437.99701 9.2197031e-39
1944.25 -712.97998 438.328 9.2197031e-39
1954.88 -702.95996 436.54099 9.2197031e-39
1968.03 -694.20996 435.272 9.2197031e-39
1984.61 -687.14001 434.69 9.2197031e-39
2551.8301 -539.70996 439.09 9.2197031e-39
2549.9299 -520.43994 433.98901 9.2197031e-39
2556.4099 -503.68994 430.16299 9.2197031e-39
156.987 -1261.67 446.116 9.2197031e-39
714.77197 -1076.2 440.022 9.2197031e-39
1851.12 -785.13 449.94299 9.2197031e-39
1862.23 -776.10999 448.45099 9.2197031e-39
1869.14 -764.34998 445.94 9.2197031e-39
1876.78 -753.06006 443.603 9.2197031e-39
1880.12 -739.15002 440.27301 9.2197031e-39
2558.79 -579.71997 449.90701 9.2197031e-39
2550.6899 -558.18005 443.759 9.2197031e-39
1848.08 -799.48999 453.41101 9.2197031e-39
2087.6599 -724.55005 452.009 9.2197031e-39
1862.6801 -826.02002 461.327 9.2197031e-39
136.73801 -1375.3 473.84601 9.2197031e-39
1314.9 -1047.1899 477.354 9.2197031e-39
1331.09 -1049.29 479.104 9.2197031e-39
1341.78 -1043.29 478.358 9.2197031e-39
1352.99 -1037.99 477.82901 9.2197031e-39
1360.15 -1027.1 475.56299 9.2197031e-39
1375.89 -1027.83 476.92599 9.2197031e-39
1396.42 -1034.55 480.18799 9.2197031e-39
1410 -1031.8101 480.495 9.2197031e-39
1430.22 -1037.29 483.41501 9.2197031e-39
1457.61 -1030.95 483.82901 9.2197031e-39
1495.13 -1035.86 487.89301 9.2197031e-39
1508.34 -1031.35 487.71899 9.2197031e-39
1437.8199 -1026.64 481.241 9.2197031e-39
1466.97 -1022.35 482.31299 9.2197031e-39
2705.6101 -689.09998 489.01199 9.2197031e-39
2714.54 -671.37 485.116 9.2197031e-39
2723.3201 -653.55005 481.186 9.2197031e-39
1297.58 -1134.38 498.5 9.2197031e-39
1278.12 -1126.73 495.07901 9.2197031e-39
1299.7 -1113.92 493.39401 9.2197031e-39
1346.71 -1116.6 497.59201 9.2197031e-39
1643.55 -1039.63 499.94299 9.2197031e-39
2673.3 -739.98999 499.69699 9.2197031e-39
2679.8899 -721.54004 495.44 9.2197031e-39
2688.1699 -703.70996 491.47198 9.2197031e-39
649.84003 -1355.9301 507.16199 9.2197031e-39
758.58398 -1301.22 501.20099 9.2197031e-39
1253.95 -1160.4 501.939 9.2197031e-39
1264.58 -1153.4 500.93201 9.2197031e-39
1275.64 -1147.15 500.14899 9.2197031e-39
1766.78 -1040.3199 509.319 9.2197031e-39
1715.9 -1032.22 503.43399 9.2197031e-39
1800.79 -1031.54 509.59601 9.2197031e-39
1773.26 -1026.58 506.26599 9.2197031e-39
1997.6801 -975.16003 509.784 9.2197031e-39
1997.65 -955.93005 504.83499 9.2197031e-39
1998.1899 -937.35999 500.09399 9.2197031e-39
2637.02 -788.68005 509.51901 9.2197031e-39
2645.8799 -771.23999 505.69199 9.2197031e-39
2654.5901 -753.71997 501.83401 9.2197031e-39
106.881 -1530.6299 511.591 9.2197031e-39
1364.3199 -1191.33 518.13599 9.2197031e-39
1367.76 -1172.0699 513.43799 9.2197031e-39
1825.5601 -1033.55 511.96301 9.2197031e-39
1878.5 -1039.0699 517.33502 9.2197031e-39
2626.98 -826.82996 518.58899 9.2197031e-39
2628.9099 -806.42004 513.47998 9.2197031e-39
731.12 -1386.23 521.02802 9.2197031e-39
782.45801 -1372.75 521.39001 9.2197031e-39
1278.0699 -1229.87 521.617 9.2197031e-39
1984.64 -1044.47 526.646 9.2197031e-39
2032.24 -1040.26 529.117 9.2197031e-39
1926.73 -1038.8199 520.87097 9.2197031e-39
1949.09 -1036.6899 521.992 9.2197031e-39
2004.13 -1039.26 526.76099 9.2197031e-39
2054.97 -1036.8101 529.92603 9.2197031e-39
2656.3899 -861.22998 529.63501 9.2197031e-39
97.414001 -1621.6001 534.29602 9.2197031e-39
129.118 -1622.9099 536.99799 9.2197031e-39
116.488 -1610.0701 532.75201 9.2197031e-39
643.17499 -1465.0901 534.75702 9.2197031e-39
2670.97 -889.69995 538.05103 9.2197031e-39
135.27299 -1663.1001 547.80103 9.2197031e-39
2686.0801 -918.92004 546.69702 9.2197031e-39
150.104 -1669.1699 550.46899 9.2197031e-39
899.89697 -1476.6599 556.896 9.2197031e-39
2710.6101 -953.09998 557.32501 9.2197031e-39
819.38 -1514.48 560.62097 9.2197031e-39
2682.2 -1008.47 569.453 9.2197031e-39
2683.3101 -985.87 563.71997 9.2197031e-39
2700.1299 -971.06006 561.164 9.2197031e-39
-588.65601 -1971.6699 573.16998 9.2197031e-39
-542.42499 -1971.95 576.69299 9.2197031e-39
-563.37201 -1968.05 574.12701 9.2197031e-39
636.40302 -1612.9399 572.29797 9.2197031e-39
-267.81799 -1943.3999 589.84399 9.2197031e-39
-324.474 -1978.3401 594.60699 9.2197031e-39
-340.703 -1966.6499 590.38702 9.2197031e-39
-298.616 -1967.3501 593.70801 9.2197031e-39
-246.222 -1940.8899 590.81201 9.2197031e-39
1425.97 -1529.23 609.69397 9.2197031e-39
144.843 -1930.6101 617.35699 9.2197031e-39
164.435 -1925.1101 617.40302 9.2197031e-39
128.61 -1919.76 613.35303 9.2197031e-39
1314.45 -1600.4099 619.68903 9.2197031e-39
1329.9399 -1594.53 619.33099 9.2197031e-39
1344.97 -1587.6399 618.67902 9.2197031e-39
1359.9399 -1580.6201 617.99103 9.2197031e-39
1374.85 -1573.48 617.26599 9.2197031e-39
1389.6899 -1566.21 616.50403 9.2197031e-39
1403.58 -1557.1101 615.19702 9.2197031e-39
1421.92 -1556.4299 616.39099 9.2197031e-39
179.244 -1944.28 623.44299 9.2197031e-39
216.95 -1940.1299 625.18903 9.2197031e-39
234.94701 -1942.6001 627.16901 9.2197031e-39
252.968 -1944.9299 629.11102 9.2197031e-39
198.638 -1939.4199 623.63898 9.2197031e-39
1135.38 -1689.8501 629.336 9.2197031e-39
1151.24 -1684.5901 629.16699 9.2197031e-39
1166.74 -1678.28 628.70099 9.2197031e-39
1182.8199 -1673.6599 628.71399 9.2197031e-39
1198.21 -1667.1001 628.17297 9.2197031e-39
1210.78 -1653.1799 625.53003 9.2197031e-39
1226.3199 -1647.29 625.17401 9.2197031e-39
1242.17 -1642.1599 625.03802 9.2197031e-39
1253.9399 -1627.0701 622.03302 9.2197031e-39
1272.63 -1628.8301 623.88098 9.2197031e-39
1287.58 -1621.53 623.11798 9.2197031e-39
1299.3199 -1607.05 620.26599 9.2197031e-39
286.909 -1965.48 636.93298 9.2197031e-39
270.05899 -1953.8301 632.67798 9.2197031e-39
306.332 -1957.72 636.38599 9.2197031e-39
324.49799 -1959.4299 638.18298 9.2197031e-39
999.86798 -1768.6799 639.50897 9.2197031e-39
1014.07 -1755.1899 637.09601 9.2197031e-39
1028.3101 -1742.53 634.90198 9.2197031e-39
1044.63 -1738.1699 634.99701 9.2197031e-39
1060.91 -1733.6699 635.05402 9.2197031e-39
1077.16 -1729.03 635.073 9.2197031e-39
1093.36 -1724.25 635.05402 9.2197031e-39
1106.67 -1710.1101 632.409 9.2197031e-39
1122.71 -1705.0901 632.31403 9.2197031e-39
342.57901 -1961.95 640.18201 9.2197031e-39
360.88101 -1962.3899 641.66101 9.2197031e-39
379.095 -1963.6399 643.34198 9.2197031e-39
397.323 -1964.74 644.98499 9.2197031e-39
415.56299 -1965.6799 646.58801 9.2197031e-39
452.12399 -1966.1201 649.43298 9.2197031e-39
985.466 -1782.0801 641.88202 9.2197031e-39
433.29001 -1975.1699 650.35498 9.2197031e-39
488.45599 -1972.73 653.84497 9.2197031e-39
506.78 -1972.8999 655.25598 9.2197031e-39
525.10699 -1972.9099 656.62598 9.2197031e-39
470.383 -1966.6001 650.91803 9.2197031e-39
543.45398 -1969.8601 657.211 9.2197031e-39
561.685 -1942.4399 651.51703 9.2197031e-39
