# .PCD v0.7 - Point Cloud Data file format
VERSION 0.7
FIELDS x y z rgb
SIZE 4 4 4 4
TYPE F F F F
COUNT 1 1 1 1
WIDTH 322
HEIGHT 1
VIEWPOINT 0 0 0 1 0 0 0
POINTS 322
DATA ascii
-1238.1801 -469.94995 138.231 9.2197031e-39
-1239.77 -453.96997 134 9.2197031e-39
419.55801 7.7800293 139.034 9.2197031e-39
420.89499 9.710022 138.63699 9.2197031e-39
425.7395 14.984009 137.64151 9.2197031e-39
433.16351 17.929504 137.4375 9.2197031e-39
428.733 21.08252 136.29501 9.2197031e-39
433.54199 21.059021 136.66 9.2197031e-39
687.67499 86.494995 138.791 9.2197031e-39
694.19403 87.871986 138.92267 9.2197031e-39
704.64801 87.736023 139.73801 9.2197031e-39
701.93799 92.39801 138.336 9.2197031e-39
2984.1899 749.10999 139.69701 9.2197031e-39
2977.3999 769.27502 134 9.2197031e-39
-1244.09 -504.95996 146.798 9.2197031e-39
-1242.1801 -487.69995 142.50101 9.2197031e-39
266.79401 -64.244019 146.16499 9.2197031e-39
311.44901 -46.497986 144.93201 9.2197031e-39
344.94 -33.145996 143.996 9.2197031e-39
400.82599 -30.651978 147.526 9.2197031e-39
363.79599 -26.208008 143.618 9.2197031e-39
377.14401 -21.619019 143.433 9.2197031e-39
410.89999 -6.4509888 142.05 9.2197031e-39
427.21399 -0.96801758 141.856 9.2197031e-39
434.806 -6.0310059 143.726 9.2197031e-39
441.22501 -1.2559814 142.976 9.2197031e-39
426.629 0.11700439 141.534 9.2197031e-39
435.99936 1.0456747 141.99434 9.2197031e-39
440.05301 0.68200684 142.39 9.2197031e-39
674.92401 48.065002 147.729 9.2197031e-39
688.078 48.271973 148.657 9.2197031e-39
692.20502 48.869019 148.812 9.2197031e-39
679.55603 51.622009 147.159 9.2197031e-39
695.59802 51.423523 148.4075 9.2197031e-39
705.88599 53.502991 148.64 9.2197031e-39
713.52582 56.057995 148.55319 9.2197031e-39
721.04901 54.960999 149.397 9.2197031e-39
706.28851 67.509491 145.06601 9.2197031e-39
711.65503 64.24649 146.306 9.2197031e-39
721.62665 63.361004 147.27867 9.2197031e-39
692.69897 75.572998 141.976 9.2197031e-39
703.99701 74.153435 143.18529 9.2197031e-39
705.41095 84.007347 140.755 9.2197031e-39
715.31451 81.722504 142.082 9.2197031e-39
2980.1899 725.99097 145.347 9.2197031e-39
-1240.27 -554.18005 159.75 9.2197031e-39
-1245.49 -539.03003 155.46201 9.2197031e-39
-1234.42 -518.55005 151.01801 9.2197031e-39
74.726402 -146.448 152.983 9.2197031e-39
298.67801 -107.28998 159.623 9.2197031e-39
346.14801 -72.583008 154.235 9.2197031e-39
364.142 -58.29303 151.901 9.2197031e-39
374.811 -49.153992 150.345 9.2197031e-39
703.60699 44.784973 150.714 9.2197031e-39
2992.8201 685.5058 156.70799 9.2197031e-39
2986.5901 705.78101 151.026 9.2197031e-39
242.778 -149.01801 166.189 9.2197031e-39
2992.0701 641.78113 167.905 9.2197031e-39
2997.8899 664.92932 162.382 9.2197031e-39
200.644 -182.534 171.66901 9.2197031e-39
2995.3799 599.30847 179.082 9.2197031e-39
2996.75 621.20551 173.549 9.2197031e-39
113.691 -249.19501 182.33299 9.2197031e-39
3013.3799 581.56873 184.99001 9.2197031e-39
-7.9317698 -350.758 199.39101 9.2197031e-39
1.31239 -336.65503 196.451 9.2197031e-39
3035.2 542.64111 196.63699 9.2197031e-39
3028.29 562.96838 190.89101 9.2197031e-39
-20.2012 -391.02002 208.83501 9.2197031e-39
-3.7811 -385.81 208.72 9.2197031e-39
-15.5745 -379.453 206.20399 9.2197031e-39
0.79086244 -355.38602 201.2325 9.2197031e-39
3024.23 518.98602 201.90601 9.2197031e-39
-16.0667 -428.94995 218.905 9.2197031e-39
-5.2751698 -411.27002 215.161 9.2197031e-39
-3.3622799 -401.46997 212.78101 9.2197031e-39
-7.4604402 -396.78003 211.269 9.2197031e-39
-13.3798 -466.30499 228.71899 9.2197031e-39
-12.4271 -443.06006 222.808 9.2197031e-39
-7.91362 -447.78003 224.35899 9.2197031e-39
-18.387699 -439.62 221.47701 9.2197031e-39
-7.9209399 -493.84998 236.214 9.2197031e-39
3.3243101 -492.17004 236.62199 9.2197031e-39
10.354 -494.60999 237.77499 9.2197031e-39
-7.88168 -484.28003 233.755 9.2197031e-39
-12.7232 -479.56995 232.181 9.2197031e-39
14.5479 -530.01001 247.198 9.2197031e-39
13.3221 -521.13 244.82001 9.2197031e-39
7.4668899 -517.31995 243.403 9.2197031e-39
9.85641 -504.85999 240.375 9.2197031e-39
14.8945 -572.54004 258.16699 9.2197031e-39
14.4212 -562.03003 255.42799 9.2197031e-39
14.7476 -550.81995 252.567 9.2197031e-39
13.9159 -541.13 250.013 9.2197031e-39
16.4405 -617.22998 269.785 9.2197031e-39
15.9686 -605.81006 266.81 9.2197031e-39
13.7838 -596.71997 264.30801 9.2197031e-39
14.8836 -583.83997 261.07501 9.2197031e-39
17.281401 -640.98999 275.961 9.2197031e-39
16.472099 -629.47998 272.939 9.2197031e-39
16.4907 -695.40002 289.90399 9.2197031e-39
15.5173 -682.91003 286.61899 9.2197031e-39
14.1429 -671.27002 283.51801 9.2197031e-39
11.7545 -661.22998 280.75699 9.2197031e-39
13.9904 -727.80005 298.05499 9.2197031e-39
18.210899 -707.10999 293.04599 9.2197031e-39
14.5264 -773.20996 309.78101 9.2197031e-39
17.3627 -753.07996 304.81299 9.2197031e-39
10.6486 -747.79004 302.952 9.2197031e-39
13.9686 -807.08997 318.457 9.2197031e-39
13.0633 -791.78003 314.45099 9.2197031e-39
15.9797 -838.67004 326.73599 9.2197031e-39
13.0626 -825.80005 323.20499 9.2197031e-39
13.1312 -861.75 332.461 9.2197031e-39
103.578 -868.90002 341.05301 9.2197031e-39
113.19 -869.89001 342.026 9.2197031e-39
-32.361698 -959.98999 354.34698 9.2197031e-39
60.468899 -935.53003 354.98199 9.2197031e-39
82.3685 -982.32996 368.66101 9.2197031e-39
168.11099 -956.07996 368.306 9.2197031e-39
177.59599 -958.25 369.57199 9.2197031e-39
9.9471102 -1013.78 371.34799 9.2197031e-39
55.3507 -1016.7 375.48901 9.2197031e-39
172.88499 -999.88 379.93399 9.2197031e-39
2580.45 -291.02002 377.228 9.2197031e-39
2580.98 -273.297 372.707 9.2197031e-39
-36.594002 -1080.8 385.121 9.2197031e-39
121.722 -1048.62 388.65701 9.2197031e-39
2569.1499 -324.638 385.03601 9.2197031e-39
2571.95 -307.31598 380.78699 9.2197031e-39
577.354 -954.15002 398.35699 9.2197031e-39
586.27502 -945.06006 396.68301 9.2197031e-39
2572.8 -361.30103 394.74301 9.2197031e-39
2586.6299 -346.10101 391.86301 9.2197031e-39
-93.527496 -1164.5 402.41101 9.2197031e-39
154.946 -1115.01 408.22101 9.2197031e-39
149.881 -1096.0699 402.97101 9.2197031e-39
2546.22 -427.53003 409.80099 9.2197031e-39
2565.3701 -414.02002 407.75601 9.2197031e-39
2599.8999 -403.78998 407.70099 9.2197031e-39
168.092 -1146.35 417.26801 9.2197031e-39
164.908 -1120.02 410.25699 9.2197031e-39
598.29498 -1020.03 416.875 9.2197031e-39
637.078 -1013.38 418.05801 9.2197031e-39
646.797 -1012.48 418.55099 9.2197031e-39
656.59998 -1012.46 419.27802 9.2197031e-39
2562.48 -449.89001 416.771 9.2197031e-39
165.651 -1192.27 428.90399 9.2197031e-39
667.39398 -1021.97 422.53201 9.2197031e-39
677.51501 -1023.7 423.73099 9.2197031e-39
746.66998 -1017.04 427.17999 9.2197031e-39
756.08398 -1013.3101 426.922 9.2197031e-39
775.92102 -1011.3 427.88599 9.2197031e-39
764.15802 -1002.86 424.83701 9.2197031e-39
784.63202 -1004.5 426.78601 9.2197031e-39
1914.4301 -680.68994 427.79001 9.2197031e-39
1930.83 -674.16003 427.33401 9.2197031e-39
1949.83 -668.78003 427.36899 9.2197031e-39
1994.02 -660.34998 428.49701 9.2197031e-39
1959.24 -658.18005 425.34201 9.2197031e-39
1991.03 -643.21997 423.86499 9.2197031e-39
2561.78 -486.63 426.172 9.2197031e-39
2562.22 -468.23999 421.47299 9.2197031e-39
2765.1399 -421.95996 424.70999 9.2197031e-39
569.76001 -1090 432.75 9.2197031e-39
713.71002 -1068.54 437.97198 9.2197031e-39
1888.37 -728.27002 438.09 9.2197031e-39
1888.0601 -712.34998 433.97101 9.2197031e-39
1905.45 -706.77002 433.83301 9.2197031e-39
1910 -693.73999 430.81799 9.2197031e-39
2076.4399 -669.08997 436.89801 9.2197031e-39
2550.8799 -539.43005 438.94601 9.2197031e-39
2548.98 -520.16003 433.84601 9.2197031e-39
2556.4099 -503.68994 430.16299 9.2197031e-39
159.795 -1252.3199 443.92099 9.2197031e-39
1872.46 -766.44995 446.72699 9.2197031e-39
1876.78 -753.06006 443.603 9.2197031e-39
1883.47 -741.18994 441.04901 9.2197031e-39
2555.4099 -559.66003 444.492 9.2197031e-39
2576.6699 -585.5 452.728 9.2197031e-39
146.81599 -1340.65 465.681 9.2197031e-39
1913.29 -809.06995 460.74399 9.2197031e-39
1317.08 -1050.39 478.34201 9.2197031e-39
1327.22 -1043.72 477.38101 9.2197031e-39
1380.54 -1034.05 478.87201 9.2197031e-39
1398.09 -1016.48 475.66199 9.2197031e-39
1345.7 -1048.83 480.07599 9.2197031e-39
1358.09 -1045.0601 480.03101 9.2197031e-39
1371.63 -1042.73 480.44199 9.2197031e-39
1397.01 -1035.3199 480.42999 9.2197031e-39
1443.91 -1034.1899 483.64001 9.2197031e-39
1491.36 -1031.42 486.46899 9.2197031e-39
1423.6 -1028.92 480.76599 9.2197031e-39
1453.92 -1026.45 482.39401 9.2197031e-39
1471.33 -1027.5601 483.98099 9.2197031e-39
1498.8 -1020.34 484.172 9.2197031e-39
1546.62 -1015.5601 486.51199 9.2197031e-39
2013.1899 -891.78003 489.48599 9.2197031e-39
2707.48 -689.75 489.32001 9.2197031e-39
2720.1499 -673.29004 486.02899 9.2197031e-39
2726.1399 -654.47998 481.63699 9.2197031e-39
1297.08 -1133.5601 498.25 9.2197031e-39
1278.12 -1126.73 495.07901 9.2197031e-39
1299.1899 -1113.11 493.14401 9.2197031e-39
1531.2 -1037.63 491.04099 9.2197031e-39
1583.65 -1036.13 494.569 9.2197031e-39
1642.1899 -1038.25 499.48401 9.2197031e-39
1996.58 -936.23999 499.686 9.2197031e-39
2005.77 -923.82996 497.17899 9.2197031e-39
2005.91 -905.33997 492.43201 9.2197031e-39
2676.1899 -720.16003 494.81 9.2197031e-39
2690.03 -704.39001 491.78299 9.2197031e-39
114.009 -1505.28 505.60101 9.2197031e-39
649.33197 -1348.21 505.13699 9.2197031e-39
721.992 -1310.4 500.83301 9.2197031e-39
733.89502 -1304.89 500.302 9.2197031e-39
758.15997 -1298.35 500.43201 9.2197031e-39
1258.25 -1167.97 504.20801 9.2197031e-39
1269.4399 -1161.77 503.448 9.2197031e-39
1275.64 -1147.15 500.14899 9.2197031e-39
1361.78 -1139.16 504.522 9.2197031e-39
1668.09 -1044.65 503.06601 9.2197031e-39
1763.1899 -1037.04 508.20401 9.2197031e-39
2017.6 -970.08997 509.96799 9.2197031e-39
2653.21 -774.18005 506.995 9.2197031e-39
2667.46 -758.75 504.09 9.2197031e-39
2675.1399 -740.68994 500.01501 9.2197031e-39
1364.84 -1192.14 518.38501 9.2197031e-39
1374.66 -1182.61 516.664 9.2197031e-39
1787.04 -1038.97 510.48099 9.2197031e-39
1803.71 -1034.12 510.479 9.2197031e-39
1831.46 -1038.67 513.71899 9.2197031e-39
1902.9399 -1039.42 519.24799 9.2197031e-39
2653.45 -816.76001 517.97198 9.2197031e-39
2653.4399 -795.43005 512.48199 9.2197031e-39
112.75 -1565.1599 520.91498 9.2197031e-39
782.90802 -1375.61 522.15997 9.2197031e-39
1291.25 -1253.54 528.69202 9.2197031e-39
1989.27 -1048.0699 527.91803 9.2197031e-39
1925.97 -1038.21 520.65601 9.2197031e-39
1952.16 -1039.12 522.84497 9.2197031e-39
2003.35 -1038.66 526.54999 9.2197031e-39
2047.1 -1031.01 527.84497 9.2197031e-39
2015.03 -1027.35 524.51001 9.2197031e-39
2676.76 -848.31995 527.83398 9.2197031e-39
112.039 -1627.04 536.78601 9.2197031e-39
146.326 -1617.6699 536.935 9.2197031e-39
643.45001 -1469.9199 536.02002 9.2197031e-39
2673.52 -868.80005 532.862 9.2197031e-39
118.853 -1663.53 546.685 9.2197031e-39
2686.0801 -918.92004 546.69702 9.2197031e-39
2685.3301 -896.19995 540.79498 9.2197031e-39
896.11798 -1459.6799 552.24597 9.2197031e-39
2691.9199 -944.25 553.65302 9.2197031e-39
140.345 -1710.8899 560.47699 9.2197031e-39
823.50403 -1539.27 567.30701 9.2197031e-39
-584.80603 -1964.8101 571.69299 9.2197031e-39
-562.42499 -1966.3301 573.75403 9.2197031e-39
-540.09601 -1967.6201 575.75403 9.2197031e-39
636.77197 -1620.6699 574.31598 9.2197031e-39
-342.67999 -1971.1299 591.39301 9.2197031e-39
-324.86099 -1979.24 594.81 9.2197031e-39
-300.89099 -1972.76 594.93201 9.2197031e-39
-271.53 -1952.45 591.89697 9.2197031e-39
-248.037 -1945.4399 591.84497 9.2197031e-39
115.106 -1897.3899 606.58698 9.2197031e-39
134.754 -1891.22 606.466 9.2197031e-39
164.435 -1925.1101 617.40302 9.2197031e-39
182.28999 -1928.03 619.48798 9.2197031e-39
148.37601 -1913.46 613.20599 9.2197031e-39
1344.14 -1585.8899 618.16803 9.2197031e-39
1359.9399 -1580.6201 617.99103 9.2197031e-39
1374.85 -1573.48 617.26599 9.2197031e-39
1394.09 -1574.8301 619.04797 9.2197031e-39
1404.47 -1558.8201 615.70502 9.2197031e-39
1421.92 -1556.4299 616.39099 9.2197031e-39
1434.76 -1545.3701 614.50403 9.2197031e-39
216.62601 -1942.05 625.65802 9.2197031e-39
235.10001 -1941.6499 626.93298 9.2197031e-39
252.823 -1945.8899 629.34802 9.2197031e-39
198.638 -1939.4199 623.63898 9.2197031e-39
1119.47 -1694.97 629.46802 9.2197031e-39
1135.38 -1689.8501 629.336 9.2197031e-39
1151.24 -1684.5901 629.16699 9.2197031e-39
1167.05 -1679.1899 628.95898 9.2197031e-39
1182.8199 -1673.6599 628.71399 9.2197031e-39
1198.21 -1667.1001 628.17297 9.2197031e-39
1210.4399 -1652.28 625.27197 9.2197031e-39
1226.67 -1648.1899 625.43201 9.2197031e-39
1242.17 -1642.1599 625.03802 9.2197031e-39
1257.62 -1636.01 624.60699 9.2197031e-39
1272.26 -1627.9399 623.62402 9.2197031e-39
1287.58 -1621.53 623.11798 9.2197031e-39
1318.86 -1610.0901 622.508 9.2197031e-39
1299.3199 -1607.05 620.26599 9.2197031e-39
1333.61 -1602.4199 621.63397 9.2197031e-39
324.38699 -1960.3899 638.42297 9.2197031e-39
269.923 -1954.79 632.91498 9.2197031e-39
288.05801 -1956.8101 634.789 9.2197031e-39
306.21301 -1958.6799 636.625 9.2197031e-39
983.28198 -1772.6699 639.29797 9.2197031e-39
1000.1 -1769.6201 639.76801 9.2197031e-39
1016.66 -1765.49 639.94098 9.2197031e-39
1030.5 -1750.9399 637.22998 9.2197031e-39
1044.63 -1738.1699 634.99701 9.2197031e-39
1060.91 -1733.6699 635.05402 9.2197031e-39
1074.47 -1719.75 632.48499 9.2197031e-39
1090.59 -1715 632.466 9.2197031e-39
1106.67 -1710.1101 632.409 9.2197031e-39
342.478 -1962.9199 640.42297 9.2197031e-39
360.69501 -1964.3201 642.14398 9.2197031e-39
379.01099 -1964.6101 643.58502 9.2197031e-39
397.24799 -1965.7 645.22803 9.2197031e-39
415.496 -1966.6399 646.83197 9.2197031e-39
433.814 -1966.46 648.15302 9.2197031e-39
452.02499 -1968.0601 649.92401 9.2197031e-39
525.07703 -1974.8501 657.12299 9.2197031e-39
543.43597 -1972.76 657.95801 9.2197031e-39
470.34299 -1967.5701 651.164 9.2197031e-39
488.68201 -1965.95 652.117 9.2197031e-39
506.944 -1966.1201 653.52301 9.2197031e-39
561.69299 -1945.3501 652.26501 9.2197031e-39
