# .PCD v0.7 - Point Cloud Data file format
VERSION 0.7
FIELDS x y z rgb
SIZE 4 4 4 4
TYPE F F F F
COUNT 1 1 1 1
WIDTH 321
HEIGHT 1
VIEWPOINT 0 0 0 1 0 0 0
POINTS 321
DATA ascii
-1247.76 -472.81995 138.25301 9.2197031e-39
-1241.6899 -454.53003 134 9.2197031e-39
421.392 8.5750122 138.966 9.2197031e-39
424.11099 12.366008 138.19366 9.2197031e-39
431.34698 18.428497 137.17349 9.2197031e-39
425.237 20.453003 136.196 9.2197031e-39
434.09299 22.435974 136.347 9.2197031e-39
440.09601 23.513 136.51801 9.2197031e-39
675.51398 86.752991 137.817 9.2197031e-39
688.95398 84.400024 139.425 9.2197031e-39
691.78302 85.937012 139.241 9.2197031e-39
701.51398 88.549988 139.295 9.2197031e-39
706.27502 90.552002 139.13499 9.2197031e-39
735.41803 98.237976 139.332 9.2197031e-39
2983.23 748.83997 139.694 9.2197031e-39
2985.0901 771.50403 134 9.2197031e-39
-1246 -505.56006 146.812 9.2197031e-39
-1240.27 -487.10999 142.492 9.2197031e-39
266.79401 -64.244019 146.16499 9.2197031e-39
310.54199 -46.91803 144.972 9.2197031e-39
335.009 -37.853027 144.466 9.2197031e-39
354.80499 -30.562988 144.067 9.2197031e-39
400.82599 -30.651978 147.526 9.2197031e-39
368.19101 -26.047974 143.905 9.2197031e-39
409.117 -7.3519897 142.149 9.2197031e-39
424.2655 -1.8105164 141.853 9.2197031e-39
433.00916 -4.9866638 143.32298 9.2197031e-39
433.965 1.2620239 141.787 9.2197031e-39
446.12 4.1450195 141.952 9.2197031e-39
678.849 47.440002 148.18201 9.2197031e-39
692.11096 48.29599 148.952 9.2197031e-39
702.25299 48.796997 149.58 9.2197031e-39
695.51801 50.840027 148.552 9.2197031e-39
705.48108 53.565186 148.59401 9.2197031e-39
720.95801 57.777691 148.66534 9.2197031e-39
693.84302 69.809998 143.545 9.2197031e-39
701.82001 68.73999 144.416 9.2197031e-39
714.34399 64.839333 146.35432 9.2197031e-39
721.29468 63.379333 147.24933 9.2197031e-39
695.10217 74.810997 142.35159 9.2197031e-39
706.17999 75.191986 143.08099 9.2197031e-39
714.466 79.63501 142.556 9.2197031e-39
697.01703 84.25 140.06599 9.2197031e-39
706.69348 82.839996 141.151 9.2197031e-39
710.17401 83.229004 141.311 9.2197031e-39
2983.0801 726.77802 145.36099 9.2197031e-39
-1237.4301 -553.19995 159.71001 9.2197031e-39
-1245.49 -539.03003 155.46201 9.2197031e-39
-1248.6801 -523.20996 151.153 9.2197031e-39
83.862602 -142.39801 152.623 9.2197031e-39
298.67801 -107.28998 159.623 9.2197031e-39
342.827 -74.789978 154.55499 9.2197031e-39
364.142 -58.29303 151.901 9.2197031e-39
373.97101 -49.690979 150.42101 9.2197031e-39
708.521 44.046021 151.271 9.2197031e-39
2992.8201 685.5058 156.70799 9.2197031e-39
2986.5901 705.78101 151.026 9.2197031e-39
242.778 -149.01801 166.189 9.2197031e-39
2992.0701 641.78113 167.905 9.2197031e-39
2998.8601 665.16711 162.394 9.2197031e-39
200.644 -182.534 171.66901 9.2197031e-39
3004.1699 601.22717 179.244 9.2197031e-39
2996.75 621.20551 173.549 9.2197031e-39
105.587 -254.98602 183.218 9.2197031e-39
3010.4399 580.95392 184.92999 9.2197031e-39
-2.33044 -346.61102 198.741 9.2197031e-39
6.8822098 -347.06799 199.547 9.2197031e-39
1.31239 -336.65503 196.451 9.2197031e-39
3024.3999 540.56891 196.364 9.2197031e-39
3028.29 562.96838 190.89101 9.2197031e-39
-16.3354 -383.98999 207.315 9.2197031e-39
-5.3280201 -387.06 208.92599 9.2197031e-39
-0.52012497 -360.12201 202.354 9.2197031e-39
3024.23 518.98602 201.90601 9.2197031e-39
-14.5647 -427.65002 218.683 9.2197031e-39
-5.2751698 -411.27002 215.161 9.2197031e-39
-10.2234 -407.20996 213.74699 9.2197031e-39
-8.2283802 -397.40997 211.37399 9.2197031e-39
-13.3798 -466.30499 228.71899 9.2197031e-39
-14.5158 -453.80005 225.416 9.2197031e-39
-12.4271 -443.06006 222.808 9.2197031e-39
-10.9352 -433.05005 220.342 9.2197031e-39
-8.6243401 -494.55005 236.341 9.2197031e-39
5.7995853 -494.45001 237.3945 9.2197031e-39
-7.88168 -484.28003 233.755 9.2197031e-39
-5.5669298 -472.68994 230.946 9.2197031e-39
13.8824 -530.73999 247.33701 9.2197031e-39
12.6502 -521.84998 244.957 9.2197031e-39
13.5715 -510.81995 242.186 9.2197031e-39
9.1717701 -505.57996 240.508 9.2197031e-39
13.6163 -574.05005 258.461 9.2197031e-39
13.7754 -562.78003 255.573 9.2197031e-39
14.7476 -550.81995 252.567 9.2197031e-39
13.257 -541.87 250.153 9.2197031e-39
15.9686 -605.81006 266.81 9.2197031e-39
13.1582 -597.47998 264.45801 9.2197031e-39
14.2512 -584.59998 261.224 9.2197031e-39
18.257099 -652.53003 279.004 9.2197031e-39
17.281401 -640.98999 275.961 9.2197031e-39
9.8162804 -638.06995 274.65201 9.2197031e-39
10.3208 -624.98999 271.32501 9.2197031e-39
16.4907 -695.40002 289.90399 9.2197031e-39
15.5173 -682.91003 286.61899 9.2197031e-39
14.1429 -671.27002 283.51801 9.2197031e-39
13.9904 -727.80005 298.05499 9.2197031e-39
17.6481 -707.92004 293.21201 9.2197031e-39
16.280701 -754.72998 305.15601 9.2197031e-39
16.1315 -739.60999 301.254 9.2197031e-39
13.9686 -807.08997 318.457 9.2197031e-39
18.3263 -783.45996 312.702 9.2197031e-39
13.459 -774.87 310.12799 9.2197031e-39
16.9876 -836.97998 326.37601 9.2197031e-39
11.5283 -828.31995 323.73999 9.2197031e-39
13.1312 -861.75 332.461 9.2197031e-39
107.421 -860.94995 339.29501 9.2197031e-39
113.19 -869.89001 342.026 9.2197031e-39
-34.317101 -963.40002 355.07901 9.2197031e-39
55.685501 -945.19995 357.11401 9.2197031e-39
82.3685 -982.32996 368.66101 9.2197031e-39
177.59599 -958.25 369.57199 9.2197031e-39
171.23199 -947.84998 366.422 9.2197031e-39
9.5044403 -1014.65 371.54001 9.2197031e-39
54.939499 -1017.59 375.68701 9.2197031e-39
2580.45 -291.02002 377.228 9.2197031e-39
2580 -273.13202 372.591 9.2197031e-39
-37.945301 -1083.42 385.69299 9.2197031e-39
121.367 -1049.53 388.86499 9.2197031e-39
172.224 -1001.72 380.358 9.2197031e-39
2572.0801 -325.20599 385.401 9.2197031e-39
2571.95 -307.31598 380.78699 9.2197031e-39
577.354 -954.15002 398.35699 9.2197031e-39
586.56201 -954.72998 399.194 9.2197031e-39
2584.45 -363.77399 396.24899 9.2197031e-39
2584.6799 -345.70502 391.616 9.2197031e-39
-111.856 -1199.24 409.98199 9.2197031e-39
154.31799 -1116.86 408.64999 9.2197031e-39
149.55901 -1096.99 403.18399 9.2197031e-39
2533.71 -424.42004 408.06799 9.2197031e-39
2552.8401 -411.02002 406.048 9.2197031e-39
168.687 -1144.49 416.83401 9.2197031e-39
164.29601 -1121.88 410.68799 9.2197031e-39
598.66901 -1029.7 419.39099 9.2197031e-39
637.367 -1017.24 419.07199 9.2197031e-39
656.77899 -1014.38 419.78699 9.2197031e-39
2547.8701 -464.41003 419.41599 9.2197031e-39
2534.6599 -442.71997 412.85001 9.2197031e-39
2622.1201 -408.91003 410.67801 9.2197031e-39
169.12 -1181.09 426.285 9.2197031e-39
647.52502 -1021.15 420.83801 9.2197031e-39
748.00702 -1024.65 429.23901 9.2197031e-39
666.80499 -1016.2 421.00299 9.2197031e-39
676.55298 -1015.05 421.43301 9.2197031e-39
755.90802 -1012.36 426.66501 9.2197031e-39
767.29303 -1018.98 429.22 9.2197031e-39
774.76398 -1005.62 426.33801 9.2197031e-39
783.82599 -1000.72 425.75299 9.2197031e-39
1956.79 -672.44995 428.83301 9.2197031e-39
1978.46 -668.10999 429.33301 9.2197031e-39
2546.8899 -500.97998 428.754 9.2197031e-39
2537.9199 -480.04004 422.69601 9.2197031e-39
2738.02 -415.95996 421.142 9.2197031e-39
164.84801 -1235.51 439.97 9.2197031e-39
569.93103 -1104.52 436.5 9.2197031e-39
1878.45 -738.13 439.88599 9.2197031e-39
1877.42 -721.72998 435.58899 9.2197031e-39
1894.84 -716.31995 435.49799 9.2197031e-39
1905.45 -706.77002 433.83301 9.2197031e-39
1921.99 -700.46997 433.44601 9.2197031e-39
1930.78 -689.68994 431.328 9.2197031e-39
1948.13 -683.47998 431.026 9.2197031e-39
2535.73 -534.81995 436.63 9.2197031e-39
2538.54 -517.07996 432.27499 9.2197031e-39
715.56897 -1081.9399 441.56 9.2197031e-39
1842.9399 -779.75 447.94601 9.2197031e-39
1847.41 -766.55005 444.88199 9.2197031e-39
1865.83 -762.25 445.15302 9.2197031e-39
1870.95 -749.43005 442.23599 9.2197031e-39
2544.6799 -575.17004 447.67999 9.2197031e-39
2547.8601 -557.30005 443.319 9.2197031e-39
156.077 -1308.8 458.17801 9.2197031e-39
1849.71 -800.57996 453.81299 9.2197031e-39
1327.22 -1043.72 477.38101 9.2197031e-39
1354.12 -1039.5601 478.31799 9.2197031e-39
1364.17 -1032.5699 477.271 9.2197031e-39
1375.3101 -1027.0601 476.68301 9.2197031e-39
1392.89 -1029.92 478.733 9.2197031e-39
1415.76 -1019.02 477.63501 9.2197031e-39
2694.24 -643.88 476.52701 9.2197031e-39
1321.99 -1057.6 480.56299 9.2197031e-39
1351.3 -1056.75 482.53101 9.2197031e-39
1415.95 -1039.47 482.91101 9.2197031e-39
1443.91 -1034.1899 483.64001 9.2197031e-39
1478.8101 -1036.5 486.84 9.2197031e-39
1451.45 -1023.45 481.43799 9.2197031e-39
1496.25 -1017.4 483.22601 9.2197031e-39
1549.91 -1019.15 487.67999 9.2197031e-39
1567.08 -1018.33 488.75299 9.2197031e-39
2697.22 -686.14001 487.62701 9.2197031e-39
2710.8 -670.08997 484.508 9.2197031e-39
1298.09 -1135.2 498.75 9.2197031e-39
1278.12 -1126.73 495.07901 9.2197031e-39
1298.67 -1112.29 492.89499 9.2197031e-39
1501.4301 -1043.26 490.26599 9.2197031e-39
1655.01 -1031.5699 498.724 9.2197031e-39
1997.6899 -918.30005 495.15399 9.2197031e-39
2672.3799 -739.64001 499.53699 9.2197031e-39
2679.8899 -721.54004 495.44 9.2197031e-39
2690.03 -704.39001 491.78299 9.2197031e-39
114.273 -1504.3501 505.379 9.2197031e-39
649.77698 -1354.96 506.909 9.2197031e-39
725.69 -1341.12 509.013 9.2197031e-39
735.38501 -1316.39 503.37299 9.2197031e-39
759.57397 -1307.91 502.99799 9.2197031e-39
1258.25 -1167.97 504.20801 9.2197031e-39
1265.0699 -1154.24 501.18301 9.2197031e-39
1275.64 -1147.15 500.14899 9.2197031e-39
1356.4 -1131.1 502.047 9.2197031e-39
1645.6 -1041.72 500.63199 9.2197031e-39
1771.08 -1024.63 505.60101 9.2197031e-39
1999.25 -957.06995 505.246 9.2197031e-39
1999.79 -938.47998 500.50201 9.2197031e-39
2647.71 -771.96997 506.01801 9.2197031e-39
2652.76 -753 501.51199 9.2197031e-39
1364.3199 -1191.33 518.13599 9.2197031e-39
1369.36 -1174.5 514.18201 9.2197031e-39
1802.98 -1033.48 510.258 9.2197031e-39
1824.8199 -1032.91 511.74399 9.2197031e-39
1873.26 -1034.6801 515.815 9.2197031e-39
2638 -810.25 515.14398 9.2197031e-39
2640.6699 -790.18005 510.17801 9.2197031e-39
105.849 -1590.5601 526.93701 9.2197031e-39
783.50897 -1379.4301 523.18799 9.2197031e-39
1287.01 -1245.9301 526.41803 9.2197031e-39
1932.8199 -1043.72 522.58698 9.2197031e-39
1955.22 -1041.54 523.698 9.2197031e-39
1980.01 -1040.86 525.37402 9.2197031e-39
2025.98 -1035.5601 527.44202 9.2197031e-39
2051.04 -1033.91 528.88501 9.2197031e-39
2064.29 -1023.3101 527.14697 9.2197031e-39
2651.8899 -859.23999 528.78601 9.2197031e-39
2639.6599 -832.30005 520.94202 9.2197031e-39
129.59599 -1621.02 536.54797 9.2197031e-39
144.483 -1625.25 538.74597 9.2197031e-39
116.735 -1609.1299 532.52802 9.2197031e-39
643.45001 -1469.9199 536.02002 9.2197031e-39
2023.55 -1054.09 532.02802 9.2197031e-39
2667.3799 -888.07996 537.36499 9.2197031e-39
151.87801 -1661.5801 548.65002 9.2197031e-39
2687.8701 -919.73999 547.04303 9.2197031e-39
2708.8301 -952.26001 556.97601 9.2197031e-39
150.94 -1737.8101 568.19501 9.2197031e-39
168.543 -1734.22 568.586 9.2197031e-39
824.77301 -1546.8899 569.36401 9.2197031e-39
905.56598 -1502.1201 563.87097 9.2197031e-39
2650.6001 -992.48999 562.98102 9.2197031e-39
2706.24 -997.21997 568.35199 9.2197031e-39
2720.5 -980.93005 565.224 9.2197031e-39
-589.13702 -1972.53 573.35498 9.2197031e-39
-562.42499 -1966.3301 573.75403 9.2197031e-39
-540.09601 -1967.6201 575.75403 9.2197031e-39
636.44897 -1613.8999 572.54999 9.2197031e-39
-344.26099 -1974.72 592.19702 9.2197031e-39
-323.69901 -1976.54 594.20203 9.2197031e-39
-298.616 -1967.3501 593.70801 9.2197031e-39
-273.38599 -1956.98 592.92401 9.2197031e-39
-245.858 -1939.98 590.60498 9.2197031e-39
164.435 -1925.1101 617.40302 9.2197031e-39
182.28999 -1928.03 619.48798 9.2197031e-39
148.57201 -1912.51 612.97601 9.2197031e-39
1329.9399 -1594.53 619.33099 9.2197031e-39
1344.14 -1585.8899 618.16803 9.2197031e-39
1359.9399 -1580.6201 617.99103 9.2197031e-39
1374.85 -1573.48 617.26599 9.2197031e-39
1389.6899 -1566.21 616.50403 9.2197031e-39
1404.47 -1558.8201 615.70502 9.2197031e-39
1421.46 -1555.5701 616.13702 9.2197031e-39
1434.76 -1545.3701 614.50403 9.2197031e-39
216.78799 -1941.0901 625.42297 9.2197031e-39
234.793 -1943.5601 627.40399 9.2197031e-39
253.11301 -1943.97 628.875 9.2197031e-39
200.173 -1930.8 621.53601 9.2197031e-39
1119.47 -1694.97 629.46802 9.2197031e-39
1135.38 -1689.8501 629.336 9.2197031e-39
1151.24 -1684.5901 629.16699 9.2197031e-39
1167.05 -1679.1899 628.95898 9.2197031e-39
1182.8199 -1673.6599 628.71399 9.2197031e-39
1197.87 -1666.1899 627.91498 9.2197031e-39
1210.78 -1653.1799 625.53003 9.2197031e-39
1226.3199 -1647.29 625.17401 9.2197031e-39
1242.17 -1642.1599 625.03802 9.2197031e-39
1253.9399 -1627.0701 622.03302 9.2197031e-39
1272.26 -1627.9399 623.62402 9.2197031e-39
1287.2 -1620.6499 622.86102 9.2197031e-39
1302.85 -1615 622.57501 9.2197031e-39
1318.86 -1610.0901 622.508 9.2197031e-39
269.923 -1954.79 632.91498 9.2197031e-39
288.185 -1955.8501 634.55103 9.2197031e-39
306.21301 -1958.6799 636.625 9.2197031e-39
324.49799 -1959.4299 638.18298 9.2197031e-39
983.28198 -1772.6699 639.29797 9.2197031e-39
1000.1 -1769.6201 639.76801 9.2197031e-39
1016.66 -1765.49 639.94098 9.2197031e-39
1030.5 -1750.9399 637.22998 9.2197031e-39
1044.63 -1738.1699 634.99701 9.2197031e-39
1060.91 -1733.6699 635.05402 9.2197031e-39
1077.16 -1729.03 635.073 9.2197031e-39
1090.59 -1715 632.466 9.2197031e-39
1106.67 -1710.1101 632.409 9.2197031e-39
342.57901 -1961.95 640.18201 9.2197031e-39
360.78799 -1963.3601 641.90302 9.2197031e-39
379.01099 -1964.6101 643.58502 9.2197031e-39
397.323 -1964.74 644.98499 9.2197031e-39
415.496 -1966.6399 646.83197 9.2197031e-39
433.931 -1964.53 647.66302 9.2197031e-39
452.07401 -1967.0901 649.67798 9.2197031e-39
525.07703 -1974.8501 657.12299 9.2197031e-39
543.43597 -1972.76 657.95801 9.2197031e-39
470.42401 -1965.6299 650.672 9.2197031e-39
488.71399 -1964.98 651.87 9.2197031e-39
506.96701 -1965.1499 653.276 9.2197031e-39
561.71399 -1953.1001 654.26099 9.2197031e-39
