# .PCD v0.7 - Point Cloud Data file format
VERSION 0.7
FIELDS x y z rgb
SIZE 4 4 4 4
TYPE F F F F
COUNT 1 1 1 1
WIDTH 318
HEIGHT 1
VIEWPOINT 0 0 0 1 0 0 0
POINTS 318
DATA ascii
-105.141 -422.72998 133.817 9.2197031e-39
-88.363602 -423.41003 135.823 9.2197031e-39
-55.891499 -414.98999 137.32401 9.2197031e-39
-36.582901 -413.68005 139.12199 9.2197031e-39
773.61401 -49.159973 138.856 9.2197031e-39
782.4267 -47.310669 139.37067 9.2197031e-39
793.96698 -40.434998 138.955 9.2197031e-39
3014.3799 951.94 139.843 9.2197031e-39
3004.5901 969.10101 134.575 9.2197031e-39
-23.288099 -413.57996 140.55499 9.2197031e-39
0.35072199 -409.44995 142.14 9.2197031e-39
48.2701 -391.17999 142.927 9.2197031e-39
114.081 -363.85699 143.465 9.2197031e-39
127.699 -361.77802 144.45 9.2197031e-39
136.44099 -363.20599 145.758 9.2197031e-39
164.825 -352.539 146.263 9.2197031e-39
190.83299 -343.68103 146.94901 9.2197031e-39
213.618 -335.15198 147.36301 9.2197031e-39
238.373 -325.95599 147.82899 9.2197031e-39
278.832 -305.94702 147.37399 9.2197031e-39
289.43701 -304.10602 148.08701 9.2197031e-39
352.24899 -268.82898 146.351 9.2197031e-39
380.13699 -254.93298 146.01199 9.2197031e-39
423.43399 -229.86102 144.631 9.2197031e-39
454.83899 -212.12799 143.74001 9.2197031e-39
498.728 -210.33197 148.114 9.2197031e-39
471.591 -203.00897 143.347 9.2197031e-39
489.19699 -193.341 142.914 9.2197031e-39
512.18597 -179.14502 141.965 9.2197031e-39
529.99298 -171.34399 142.011 9.2197031e-39
535.14368 -173.82434 143.18199 9.2197031e-39
528.55402 -169.40503 141.379 9.2197031e-39
538.36047 -165.83701 141.582 9.2197031e-39
759.41602 -88.078003 146.814 9.2197031e-39
784.53241 -83.887596 148.54361 9.2197031e-39
796.474 -74.882507 147.6515 9.2197031e-39
804.31104 -74.332672 148.37666 9.2197031e-39
779.71802 -62.872986 142.87801 9.2197031e-39
787.32147 -63.156006 143.78101 9.2197031e-39
799.12903 -64.757019 145.467 9.2197031e-39
802.73535 -67.06266 146.42667 9.2197031e-39
785.98004 -54.973175 141.63333 9.2197031e-39
795.263 -53.619019 142.32001 9.2197031e-39
794.117 -48.547974 140.955 9.2197031e-39
800.53998 -49.68103 141.937 9.2197031e-39
3011 924.44702 146.19501 9.2197031e-39
418.01401 -291.93402 159.21201 9.2197031e-39
457.854 -252.83301 154.022 9.2197031e-39
472.33899 -237.659 151.901 9.2197031e-39
478.48599 -229.586 150.601 9.2197031e-39
805.065 -90.038025 152.299 9.2197031e-39
795.26202 -85.877991 150.207 9.2197031e-39
3019.3101 880.98999 157.73 9.2197031e-39
3008.4399 902.17999 151.358 9.2197031e-39
380.694 -329.31799 164.259 9.2197031e-39
3028.6399 838.24298 169.20399 9.2197031e-39
3018.1799 859.56396 162.845 9.2197031e-39
287.37299 -426.21997 177.715 9.2197031e-39
330.595 -380.67999 171.323 9.2197031e-39
3024.3101 815.815 174.213 9.2197031e-39
3053.1101 780.57898 185.98599 9.2197031e-39
3029.6599 792.66602 180.45799 9.2197031e-39
133.786 -581.02002 198.717 9.2197031e-39
3053.9099 735.237 197.158 9.2197031e-39
3051.48 754.89001 192.08701 9.2197031e-39
75.843697 -645.51001 208.12801 9.2197031e-39
3052.73 710.00531 203.19701 9.2197031e-39
53.070301 -699.30005 218.783 9.2197031e-39
60.506901 -680.41003 214.979 9.2197031e-39
67.832901 -664.05005 211.783 9.2197031e-39
42.481899 -741.90002 228.036 9.2197031e-39
44.818501 -729.38 225.23199 9.2197031e-39
46.923401 -715.23999 222.006 9.2197031e-39
37.540199 -783.33997 237.625 9.2197031e-39
42.7743 -764.41003 233.57201 9.2197031e-39
43.456299 -753.26001 230.92 9.2197031e-39
31.9223 -825.96997 247.43201 9.2197031e-39
39.557301 -805.43005 243.248 9.2197031e-39
38.512001 -793.12 240.12399 9.2197031e-39
36.291199 -874.03003 259.659 9.2197031e-39
36.2271 -861.68005 256.633 9.2197031e-39
38.735001 -843.72998 252.522 9.2197031e-39
34.035801 -837.66003 250.522 9.2197031e-39
43.0522 -893.46997 265.155 9.2197031e-39
40.294601 -884.23999 262.59601 9.2197031e-39
14.5428 -948.46997 275.47501 9.2197031e-39
192.789 -1001.4399 307.97299 9.2197031e-39
-162.804 -1208.88 319.69 9.2197031e-39
147.41 -1069.52 319.64001 9.2197031e-39
209.29601 -1026.9399 316.01501 9.2197031e-39
226.418 -1022.835 316.89148 9.2197031e-39
240.621 -1024.8 318.92899 9.2197031e-39
197.496 -1010.03 310.58801 9.2197031e-39
251.929 -1018.63 318.66 9.2197031e-39
209.41299 -1007.72 311.32999 9.2197031e-39
294.62701 -1032.8101 326.81 9.2197031e-39
259.871 -1024.77 321.03201 9.2197031e-39
269.922 -1021.13 321.24399 9.2197031e-39
278.298 -1026.2 323.40201 9.2197031e-39
286.14999 -1027.88 324.67499 9.2197031e-39
306.85999 -1022.36 325.595 9.2197031e-39
323.47 -1027.5601 328.69 9.2197031e-39
335.41101 -1021.92 328.61899 9.2197031e-39
343.189 -1023.15 329.77301 9.2197031e-39
318.57001 -1017.84 325.776 9.2197031e-39
352.60599 -1024.77 331.20099 9.2197031e-39
379.76001 -1020.72 333.19101 9.2197031e-39
395.86099 -1026.58 336.388 9.2197031e-39
406.72299 -1022 336.45999 9.2197031e-39
414.44699 -1022.67 337.47 9.2197031e-39
424.03201 -1022.65 338.517 9.2197031e-39
431.53 -1024.13 339.70099 9.2197031e-39
362.384 -1019.29 330.935 9.2197031e-39
372.026 -1019.79 332.11301 9.2197031e-39
390.93799 -1015.38 333.10999 9.2197031e-39
442.55499 -1017.26 339.23001 9.2197031e-39
459.11499 -1020.15 341.754 9.2197031e-39
476.07901 -1020.84 343.78201 9.2197031e-39
493.02701 -1021.23 345.737 9.2197031e-39
500.22699 -1024.11 347.23099 9.2197031e-39
449.81201 -1019.55 340.58701 9.2197031e-39
466.965 -1019.45 342.44199 9.2197031e-39
484.07001 -1019.04 344.21701 9.2197031e-39
514.78149 -1014.015 346.35901 9.2197031e-39
527.58502 -1015.34 348.086 9.2197031e-39
535.271 -1014.09 348.62299 9.2197031e-39
2488.04 -136.97498 348.33899 9.2197031e-39
559.57501 -1030.55 355.31299 9.2197031e-39
551.12 -1022.1899 352.341 9.2197031e-39
544.13599 -1016.78 350.254 9.2197031e-39
601.90997 -1009.88 354.901 9.2197031e-39
595.12701 -998.05005 351.26501 9.2197031e-39
611.42499 -997.38 352.88901 9.2197031e-39
2510.8301 -169.52802 358.797 9.2197031e-39
2491.97 -154.43402 353.039 9.2197031e-39
562.35101 -1089.2 369.957 9.2197031e-39
570.12 -1117.84 377.80899 9.2197031e-39
665.22998 -1062.95 374.82001 9.2197031e-39
686.547 -1060.3199 376.51501 9.2197031e-39
678.49799 -1054.98 374.328 9.2197031e-39
695.396 -1046.08 374.004 9.2197031e-39
773.71002 -1053.77 384.47198 9.2197031e-39
783.35999 -1053.24 385.401 9.2197031e-39
802.20801 -1059.85 389.08499 9.2197031e-39
2695.8 -197.03198 385.80701 9.2197031e-39
574.13702 -1184.2 394.474 9.2197031e-39
613.20398 -1188.85 399.89499 9.2197031e-39
794.20898 -1072.05 391.19101 9.2197031e-39
2628.6201 -277.18799 398.035 9.2197031e-39
2647.28 -263.36798 396.703 9.2197031e-39
2703.8 -248.83301 399.34799 9.2197031e-39
740.52197 -1165.55 408.16101 9.2197031e-39
773.927 -1119.33 400.52499 9.2197031e-39
2590.3401 -341.18903 409.48499 9.2197031e-39
2603.54 -327.49799 407.58499 9.2197031e-39
2606.3 -309.07599 403.383 9.2197031e-39
2616.3101 -294.77301 400.98401 9.2197031e-39
827.40601 -1160.53 416.46201 9.2197031e-39
2592.46 -375.61298 418.13199 9.2197031e-39
2593.1599 -360.29303 414.46399 9.2197031e-39
653.039 -1259.17 421.45599 9.2197031e-39
2598.8101 -411.03003 427.487 9.2197031e-39
2591.01 -394.22998 422.52399 9.2197031e-39
1912.36 -758.76001 437.22101 9.2197031e-39
1924.42 -749.39001 436.25299 9.2197031e-39
1931.72 -740.29004 434.827 9.2197031e-39
1953.3101 -735.43005 436.008 9.2197031e-39
1969.33 -730.35999 436.52399 9.2197031e-39
1983.88 -721.54004 435.96301 9.2197031e-39
1999.89 -716.04004 436.37601 9.2197031e-39
2579.02 -461.07996 437.55399 9.2197031e-39
3039.9399 -256.66901 438.12701 9.2197031e-39
3041.1001 -234.11902 432.741 9.2197031e-39
1879.55 -811.37 446.48401 9.2197031e-39
1890.67 -804.63 446.05701 9.2197031e-39
1893.71 -790.34998 442.89899 9.2197031e-39
1905.58 -783.90002 442.62201 9.2197031e-39
1916.12 -773.73999 441.29501 9.2197031e-39
2563.5801 -508.21997 447.38501 9.2197031e-39
2566.3401 -493.16003 444.00601 9.2197031e-39
2570.71 -475.04004 440.056 9.2197031e-39
2664.77 -457.84998 446.16699 9.2197031e-39
1870.86 -835.69995 451.479 9.2197031e-39
1886.3101 -831.63 452.17801 9.2197031e-39
2118.8799 -754.10999 458.73199 9.2197031e-39
2571.22 -544.95996 457.20401 9.2197031e-39
2566.5801 -528.05005 452.56201 9.2197031e-39
2771.3501 -460.35999 458.46899 9.2197031e-39
1397.76 -1120.77 469.29001 9.2197031e-39
1419.95 -1111.9399 469.564 9.2197031e-39
1424.21 -1100.37 467.203 9.2197031e-39
1432.52 -1090.48 465.698 9.2197031e-39
1443.15 -1087.22 466.06601 9.2197031e-39
1453.74 -1080.2 465.51099 9.2197031e-39
1466.8199 -1079.71 466.82599 9.2197031e-39
1481.1 -1076.9 467.70499 9.2197031e-39
1508.61 -1072.97 469.76099 9.2197031e-39
2566.6499 -579.18005 465.069 9.2197031e-39
2570.95 -564.28003 461.89899 9.2197031e-39
-795.92102 -2128.3799 475.05701 9.2197031e-39
-762.77899 -2114.5701 475.31601 9.2197031e-39
1383.11 -1162.54 477.89401 9.2197031e-39
1384.38 -1141.84 472.974 9.2197031e-39
1395.25 -1139.0601 473.48599 9.2197031e-39
1409.67 -1119.4 470.26199 9.2197031e-39
1523.79 -1074.0601 471.69199 9.2197031e-39
1541.47 -1074.15 473.65201 9.2197031e-39
1586.12 -1070.62 477.686 9.2197031e-39
1927.73 -887.66003 470.41901 9.2197031e-39
2583.3101 -619.42004 476.73499 9.2197031e-39
2583.1699 -603.12 472.73401 9.2197031e-39
-671.99298 -2130.4199 489.14801 9.2197031e-39
-744.28198 -2128.8 480.82401 9.2197031e-39
-719.81897 -2126.6699 482.98499 9.2197031e-39
-693.026 -2128.1001 486.27301 9.2197031e-39
1383.46 -1182.03 482.698 9.2197031e-39
1639.87 -1070.62 483.582 9.2197031e-39
-643.23199 -2127.95 491.69601 9.2197031e-39
-621.80298 -2128.97 494.297 9.2197031e-39
-592.784 -2125.03 496.51599 9.2197031e-39
-572.02502 -2126.4399 499.13599 9.2197031e-39
1682.04 -1095.9 494.38599 9.2197031e-39
1731.03 -1086.49 497.45901 9.2197031e-39
1745.75 -1083.77 498.40799 9.2197031e-39
2641.96 -656.06006 492.12299 9.2197031e-39
-548.771 -2131.27 502.86801 9.2197031e-39
-523.17401 -2123.6899 503.82199 9.2197031e-39
-499.077 -2126.29 507.10001 9.2197031e-39
-477.134 -2124.23 509.004 9.2197031e-39
784.54199 -1530.21 502.14001 9.2197031e-39
1417.76 -1257.75 504.97299 9.2197031e-39
1792.42 -1089.33 504.884 9.2197031e-39
1810.61 -1085.24 505.879 9.2197031e-39
1827.03 -1082.9301 507.11499 9.2197031e-39
2013.58 -1010.1801 509.78799 9.2197031e-39
2020.48 -995.46997 506.948 9.2197031e-39
2023.12 -981.48999 503.82101 9.2197031e-39
2035.47 -970.41003 502.466 9.2197031e-39
-435.07901 -2130.8101 515.22302 9.2197031e-39
-454.09399 -2128.0701 512.46802 9.2197031e-39
-397.59201 -2106.1499 513.30603 9.2197031e-39
1901.4 -1087.6 516.41498 9.2197031e-39
1923.47 -1088.51 519.05499 9.2197031e-39
1945.91 -1085.72 520.83398 9.2197031e-39
1972.8199 -1089.5601 524.72498 9.2197031e-39
1988.41 -1080.88 524.31201 9.2197031e-39
2023.23 -1069.24 525.28497 9.2197031e-39
2709.21 -771.54004 527.73199 9.2197031e-39
2712.27 -754.59998 523.92499 9.2197031e-39
2732.3899 -739.14001 522.354 9.2197031e-39
2758.74 -729.23999 522.82202 9.2197031e-39
2791.9399 -717.01001 523.474 9.2197031e-39
2025 -1090.95 530.78601 9.2197031e-39
2076.8701 -1090.29 536.31299 9.2197031e-39
2074.1399 -1067.75 530.505 9.2197031e-39
2691.76 -827.66003 539.53802 9.2197031e-39
2699.4399 -808.26001 535.63898 9.2197031e-39
2700.95 -790.69995 531.51099 9.2197031e-39
2686.47 -866.30005 548.40503 9.2197031e-39
2694.53 -846.93994 544.55701 9.2197031e-39
818.547 -1714.45 550.91302 9.2197031e-39
2655.2 -913.34998 556.479 9.2197031e-39
2673.1299 -902.08997 555.69299 9.2197031e-39
2684.28 -883.92004 552.474 9.2197031e-39
2654.6299 -935.79004 561.90198 9.2197031e-39
642.74298 -1908.3401 579.03601 9.2197031e-39
2689.6499 -969.67004 574.026 9.2197031e-39
624.39502 -1951.4399 587.56 9.2197031e-39
2719.8401 -1006.49 586.33801 9.2197031e-39
608.73199 -1985.6101 594.19702 9.2197031e-39
788.271 -1910.01 595.40198 9.2197031e-39
1528.05 -1596.72 599.93799 9.2197031e-39
1543.04 -1588 599.45099 9.2197031e-39
1550.26 -1572.49 596.45001 9.2197031e-39
1570.13 -1571.78 598.45502 9.2197031e-39
1583.8 -1566.76 598.72803 9.2197031e-39
1593.78 -1550.23 595.78101 9.2197031e-39
1327.61 -1725.9299 609.54602 9.2197031e-39
1337.52 -1712.3 607.30103 9.2197031e-39
1357.1 -1713.3 609.69098 9.2197031e-39
1366.77 -1699.5 607.38 9.2197031e-39
1382.74 -1692.27 607.362 9.2197031e-39
1395.79 -1686.22 607.315 9.2197031e-39
1411.64 -1678.71 607.21802 9.2197031e-39
1424.59 -1672.4399 607.10602 9.2197031e-39
1435.96 -1656.05 604.34399 9.2197031e-39
1444.76 -1641.8701 601.841 9.2197031e-39
1463.78 -1640.75 603.65503 9.2197031e-39
1472.78 -1627.28 601.349 9.2197031e-39
1488.0601 -1619.0801 601.01801 9.2197031e-39
1500.54 -1612.23 600.71503 9.2197031e-39
1515.6801 -1603.77 600.30603 9.2197031e-39
778.117 -1976.24 610.47998 9.2197031e-39
1173.64 -1830.3401 618.18597 9.2197031e-39
1190.85 -1824.8701 618.73798 9.2197031e-39
1204.95 -1820.27 619.15698 9.2197031e-39
1222.0699 -1814.51 619.62799 9.2197031e-39
1232.9399 -1800.53 617.40198 9.2197031e-39
1246.98 -1786.3201 615.46698 9.2197031e-39
1257.47 -1772.21 613.16901 9.2197031e-39
1274.47 -1766.8799 613.72998 9.2197031e-39
1284.99 -1753.53 611.62 9.2197031e-39
1301.47 -1747.05 611.84198 9.2197031e-39
1314.95 -1741.6101 611.992 9.2197031e-39
865.37097 -2006.3201 627.40503 9.2197031e-39
1059.7 -1921.8799 628.07098 9.2197031e-39
1077.78 -1917.46 628.97302 9.2197031e-39
1088.23 -1895.8601 624.83801 9.2197031e-39
1105.83 -1890.24 625.39398 9.2197031e-39
1117.96 -1876.9199 623.46899 9.2197031e-39
1135.62 -1871.96 624.19397 9.2197031e-39
1147.71 -1859.3999 622.44897 9.2197031e-39
1165.21 -1854.1699 623.08899 9.2197031e-39
986.25 -1982.4299 634.81897 9.2197031e-39
999.42499 -1967.95 632.724 9.2197031e-39
1017.77 -1963.1299 633.55603 9.2197031e-39
1030.78 -1949.3999 631.62799 9.2197031e-39
1047.29 -1936.73 630.34003 9.2197031e-39
