# .PCD v0.7 - Point Cloud Data file format
VERSION 0.7
FIELDS x y z rgb
SIZE 4 4 4 4
TYPE F F F F
COUNT 1 1 1 1
WIDTH 313
HEIGHT 1
VIEWPOINT 0 0 0 1 0 0 0
POINTS 313
DATA ascii
-864.15198 -2166.1001 132.733 9.2197031e-39
-760.46802 -2106.2 139.457 9.2197031e-39
778.29797 -714.81995 139.40401 9.2197031e-39
1125.42 -396.09003 138.42599 9.2197031e-39
1136.825 -392.505 139.76349 9.2197031e-39
1136.91 -389.89001 139.258 9.2197031e-39
1148.6 -378.651 139.12601 9.2197031e-39
3098.54 1402.921 135.401 9.2197031e-39
-781.88202 -2147.8201 143.882 9.2197031e-39
570.34802 -942.04004 147.19901 9.2197031e-39
605.60999 -910.67004 147.302 9.2197031e-39
650.76599 -870.69995 147.47 9.2197031e-39
682.28601 -841.22998 147.278 9.2197031e-39
732.604 -792.32996 146.599 9.2197031e-39
753.84003 -772.38 146.44901 9.2197031e-39
768.70001 -761.40002 146.939 9.2197031e-39
797.10999 -731.75 146.14999 9.2197031e-39
777.12701 -719.25 140.07401 9.2197031e-39
821.521 -707.83997 145.783 9.2197031e-39
854.73602 -670.43994 144.31799 9.2197031e-39
869.31403 -656.5 144.16701 9.2197031e-39
886.65601 -637.07996 143.424 9.2197031e-39
922.55902 -624.15002 147.30499 9.2197031e-39
907.34497 -613.92004 142.537 9.2197031e-39
937.50598 -605.18005 146.21899 9.2197031e-39
942.98547 -604.745 147.11801 9.2197031e-39
922.237 -596.37 141.72501 9.2197031e-39
937.16797 -596.85498 144.504 9.2197031e-39
943.7597 -597.62335 145.842 9.2197031e-39
950.237 -595.09998 146.50301 9.2197031e-39
937.23883 -585.78833 142.31767 9.2197031e-39
942.034 -585.78003 143.17799 9.2197031e-39
952.78802 -588.56006 145.66299 9.2197031e-39
936.70001 -579.73999 141.01801 9.2197031e-39
1142.5901 -431.47998 148.54651 9.2197031e-39
1145.38 -426.97751 148.15324 9.2197031e-39
1154.25 -420.51001 148.461 9.2197031e-39
1145.96 -411.60004 145.2005 9.2197031e-39
1152.21 -412.27002 146.45599 9.2197031e-39
1164.3651 -413.33997 148.85301 9.2197031e-39
1137.0699 -405.38596 142.36861 9.2197031e-39
1144.808 -406.98999 144.0764 9.2197031e-39
1154.35 -409.64001 146.319 9.2197031e-39
1163.8601 -409.21497 147.9435 9.2197031e-39
1137.48 -396.37 140.64999 9.2197031e-39
1143.7721 -393.306 141.17099 9.2197031e-39
3101.1499 1342.6069 147.858 9.2197031e-39
3096.5901 1376.6 140.282 9.2197031e-39
-758.69702 -2160.72 150.61301 9.2197031e-39
-738.185 -2163.3 154.812 9.2197031e-39
1153.0601 -430.19995 150.175 9.2197031e-39
3095.3899 1276.9141 159.881 9.2197031e-39
3092.5 1311.2839 152.53 9.2197031e-39
-692.10498 -2153.2 161.084 9.2197031e-39
-665.40997 -2148.8201 165.011 9.2197031e-39
3099.8601 1257.4619 164.55 9.2197031e-39
836.86401 -816.68994 170.17599 9.2197031e-39
3099.72 1198.863 176.172 9.2197031e-39
3095.75 1218.2119 171.61301 9.2197031e-39
755.38599 -985.14001 189.017 9.2197031e-39
3096.5801 1139.5071 187.407 9.2197031e-39
3094.6899 1159.9661 183 9.2197031e-39
735.39648 -1053.225 198.9585 9.2197031e-39
743.20001 -1017.92 193.342 9.2197031e-39
3093.6201 1081.902 198.32401 9.2197031e-39
3098.6001 1107.041 194.222 9.2197031e-39
746.34448 -1082.895 206.823 9.2197031e-39
741.40802 -1071.65 203.701 9.2197031e-39
743.289 -1057.3 201.186 9.2197031e-39
3094.03 1049.103 204.918 9.2197031e-39
818.41602 -1076.3101 218.465 9.2197031e-39
820.67902 -1083.17 220.23399 9.2197031e-39
843.64301 -1083.21 224.369 9.2197031e-39
851.96997 -1086.25 226.47 9.2197031e-39
829.229 -1078.38 220.819 9.2197031e-39
833.90802 -1077.61 221.506 9.2197031e-39
842.565 -1071.7 221.888 9.2197031e-39
653.23798 -1461.78 265.40201 9.2197031e-39
658.02502 -1502.97 274.448 9.2197031e-39
668.51202 -1494.8201 274.71301 9.2197031e-39
2534.73 -135.34198 339.84201 9.2197031e-39
2526.97 -126.47803 336.68399 9.2197031e-39
2551.72 -103.89099 336.64301 9.2197031e-39
2575.55 -87.189026 337.60501 9.2197031e-39
2604.6001 -62.382996 337.89499 9.2197031e-39
339.711 -2167.74 349.38199 9.2197031e-39
330.185 -2158.8999 345.914 9.2197031e-39
1436.28 -1177.58 349.61899 9.2197031e-39
1442.97 -1171.1801 349.54901 9.2197031e-39
2539.47 -161.58502 345.91 9.2197031e-39
2542.53 -150.33899 344.224 9.2197031e-39
371.25601 -2172.6899 356.03601 9.2197031e-39
361.96701 -2163.1201 352.46301 9.2197031e-39
1422.1801 -1226.09 356.72601 9.2197031e-39
1424.1801 -1217.2 355.32001 9.2197031e-39
1425.845 -1195.0551 351.21649 9.2197031e-39
1433.79 -1184.74 350.59399 9.2197031e-39
1451.9 -1174.71 351.854 9.2197031e-39
1457.5 -1166.53 351.23401 9.2197031e-39
1465.47 -1168.25 353.01001 9.2197031e-39
1478.96 -1161.55 354.10199 9.2197031e-39
1508.23 -1161.08 359.26801 9.2197031e-39
1468.29 -1155.9301 351.06799 9.2197031e-39
1487.04 -1157.15 354.67999 9.2197031e-39
1495.6801 -1159.36 356.67001 9.2197031e-39
1521.12 -1152.8 359.939 9.2197031e-39
2558.3501 -185.21399 353.99799 9.2197031e-39
2555.75 -175.03998 351.51001 9.2197031e-39
2767.1899 -8.0689697 356.314 9.2197031e-39
404.82401 -2171.46 361.823 9.2197031e-39
1416.28 -1284.08 367.194 9.2197031e-39
1418.02 -1273.38 365.38 9.2197031e-39
1418.35 -1252.42 361.271 9.2197031e-39
1423.77 -1249.5 361.66599 9.2197031e-39
1515.3101 -1160.71 360.46701 9.2197031e-39
1529.9301 -1154.63 361.88599 9.2197031e-39
1535.0601 -1145.83 361.05899 9.2197031e-39
1543.92 -1147.5 362.98199 9.2197031e-39
1554.9399 -1146.16 364.694 9.2197031e-39
1565.72 -1149.86 367.36899 9.2197031e-39
1577.46 -1148.97 369.30099 9.2197031e-39
1902.64 -851.04004 368.51599 9.2197031e-39
1912.37 -843.71997 368.80899 9.2197031e-39
1914.2 -837.19995 367.84201 9.2197031e-39
1920.615 -824.77997 366.52649 9.2197031e-39
1925.97 -811.92004 364.931 9.2197031e-39
1926.66 -805.01001 363.68201 9.2197031e-39
1934.9351 -793.19501 362.8215 9.2197031e-39
1947.6899 -782.80005 363.047 9.2197031e-39
1957.41 -778.84998 364.009 9.2197031e-39
1959.14 -768.15002 362.19299 9.2197031e-39
1979.0601 -767.15002 365.57401 9.2197031e-39
2608.0701 -204.19501 366.70599 9.2197031e-39
2583.1799 -197.58002 360.91901 9.2197031e-39
1409.5601 -1348.87 378.86499 9.2197031e-39
1412.03 -1338.0601 377.15799 9.2197031e-39
1409.9399 -1308.9301 370.99301 9.2197031e-39
1416.16 -1306.9301 371.71399 9.2197031e-39
1589.02 -1153.15 372.211 9.2197031e-39
1602.78 -1154.13 374.87799 9.2197031e-39
1612.64 -1155.83 376.98499 9.2197031e-39
1625.28 -1155 379.09201 9.2197031e-39
1629.4301 -1149.99 378.84201 9.2197031e-39
1909.48 -872.98999 374.108 9.2197031e-39
1904.27 -859.06006 370.40302 9.2197031e-39
2008.7 -764.56995 370.38599 9.2197031e-39
2023.09 -761.30005 372.32199 9.2197031e-39
2027.45 -750.75 371.01001 9.2197031e-39
2042.76 -747.40002 373.09399 9.2197031e-39
672.59998 -2051.1101 386.01901 9.2197031e-39
685.96503 -2040.48 386.30701 9.2197031e-39
702.65997 -2043.3401 389.87601 9.2197031e-39
1405.25 -1382.85 384.84399 9.2197031e-39
1411.55 -1379.99 385.40799 9.2197031e-39
1647.35 -1154.5699 382.974 9.2197031e-39
1657.42 -1155.78 385.02399 9.2197031e-39
1675.62 -1159.88 389.108 9.2197031e-39
1680.46 -1155.24 389.05701 9.2197031e-39
1940.04 -894.52002 383.87799 9.2197031e-39
2125.4099 -756.89001 389.83099 9.2197031e-39
3090.46 115.582 389.827 9.2197031e-39
3091.5 139.32401 385.29401 9.2197031e-39
603.25 -2144.0901 392.03799 9.2197031e-39
623.76202 -2136.24 394.164 9.2197031e-39
710.88098 -2057.6699 394.202 9.2197031e-39
1403 -1455.6599 398.91199 9.2197031e-39
1403.14 -1425.0699 392.85599 9.2197031e-39
1406.4 -1414.15 391.272 9.2197031e-39
1728.52 -1163.39 399.311 9.2197031e-39
1693.4301 -1153.4 391.021 9.2197031e-39
1707.8101 -1158.2 394.55801 9.2197031e-39
2641.24 -340.93701 399.84601 9.2197031e-39
2644.6299 -329.633 398.20801 9.2197031e-39
2648.54 -311.92499 395.39001 9.2197031e-39
2655.6599 -300.10101 394.319 9.2197031e-39
2667.1001 -281.29999 392.638 9.2197031e-39
3084.3601 99.026978 392.021 9.2197031e-39
628.17999 -2168.3501 401.34 9.2197031e-39
795.224 -2060.8501 409.98999 9.2197031e-39
1399.28 -1500.1101 407.078 9.2197031e-39
1403.13 -1476.6001 403.09601 9.2197031e-39
1738.97 -1163.75 401.26099 9.2197031e-39
1756.46 -1165.0601 404.664 9.2197031e-39
1766.3199 -1164.47 406.31799 9.2197031e-39
2632.02 -397.84003 409.49899 9.2197031e-39
2631.8601 -386.91998 407.30099 9.2197031e-39
2622.6101 -370.36102 402.34601 9.2197031e-39
2631.1201 -358.90198 401.59698 9.2197031e-39
2736.79 -261.57397 401.23999 9.2197031e-39
710.03802 -2157.3501 413.86301 9.2197031e-39
721.30701 -2159.98 416.409 9.2197031e-39
741.216 -2150.73 418.14999 9.2197031e-39
753.84601 -2144.3799 419.15701 9.2197031e-39
812.80298 -2057.6599 412.51401 9.2197031e-39
823.58398 -2058.6399 414.646 9.2197031e-39
1393.61 -1567.76 419.50601 9.2197031e-39
1398.61 -1557.6101 418.38501 9.2197031e-39
1398.11 -1519.3401 410.69 9.2197031e-39
1801.14 -1170.89 413.85101 9.2197031e-39
1788.29 -1169.2 411.207 9.2197031e-39
2629.1299 -425.96997 414.57199 9.2197031e-39
2626.21 -415.17004 411.89999 9.2197031e-39
2885.8899 -177.74701 411.371 9.2197031e-39
769.23798 -2163.0601 425.63501 9.2197031e-39
1392.98 -1606.22 427.03699 9.2197031e-39
1837.25 -1187.0699 423.55701 9.2197031e-39
1840.11 -1179.45 422.55499 9.2197031e-39
1856.8199 -1177.88 425.246 9.2197031e-39
2058.1699 -1018.23 429.69601 9.2197031e-39
2067.3701 -999.28003 427.58099 9.2197031e-39
2072.0601 -992.46997 427.07001 9.2197031e-39
2069.23 -976.83997 423.453 9.2197031e-39
2080.8 -973.31995 424.83301 9.2197031e-39
2602.6799 -526.34998 429.76901 9.2197031e-39
2599.8301 -509.39001 425.88699 9.2197031e-39
2610.26 -498.82996 425.66299 9.2197031e-39
2616.96 -481.93994 423.509 9.2197031e-39
828.71301 -2165.71 436.85001 9.2197031e-39
840.43903 -2164.6001 438.73599 9.2197031e-39
1392 -1630.26 431.64001 9.2197031e-39
1878.1801 -1185.61 430.61899 9.2197031e-39
1892.85 -1181.65 432.46799 9.2197031e-39
1909.2 -1184.6 435.99399 9.2197031e-39
2010.51 -1112.9301 439.952 9.2197031e-39
2013.46 -1105 438.90701 9.2197031e-39
2069.8899 -1048.72 437.85999 9.2197031e-39
2061.26 -1034.53 433.48901 9.2197031e-39
2069.02 -1014.61 430.92499 9.2197031e-39
2606.3999 -565.09998 438.14001 9.2197031e-39
2614.25 -554.67004 437.478 9.2197031e-39
2599.9299 -537.01001 431.39499 9.2197031e-39
2716.5601 -441.56995 433.383 9.2197031e-39
858.51099 -2165.77 442.216 9.2197031e-39
870.80902 -2157.5901 442.79999 9.2197031e-39
888.73999 -2159.4199 446.38599 9.2197031e-39
900.29901 -2158.8799 448.35501 9.2197031e-39
1390.29 -1699.6101 445.116 9.2197031e-39
1391.83 -1674.5 440.40201 9.2197031e-39
1936.91 -1190.3199 442.10999 9.2197031e-39
2008.0601 -1126.88 442.28601 9.2197031e-39
2609.99 -621.34998 449.966 9.2197031e-39
2607.4399 -610.18005 447.289 9.2197031e-39
2609.4299 -593.22998 444.276 9.2197031e-39
2608.6399 -582.28003 441.95801 9.2197031e-39
2739.4199 -471.12 443.36301 9.2197031e-39
3079.6201 -183.64398 447.35501 9.2197031e-39
3077.1899 -161.85303 442.586 9.2197031e-39
929.36401 -2168.49 455.48801 9.2197031e-39
918.328 -2159.4199 451.70099 9.2197031e-39
947.87201 -2159.8799 457.10199 9.2197031e-39
1379.35 -1744.99 452.172 9.2197031e-39
1384.59 -1730.0801 450.14899 9.2197031e-39
1974.16 -1208.72 452.46201 9.2197031e-39
2618.8201 -650.54004 457.35501 9.2197031e-39
2617.46 -639.33997 454.884 9.2197031e-39
3083.01 -197.289 450.67599 9.2197031e-39
959.03802 -2169.73 461.06699 9.2197031e-39
977.43701 -2159.8201 462.40399 9.2197031e-39
988.94897 -2159.6599 464.44 9.2197031e-39
1007.03 -2157.29 467.21799 9.2197031e-39
1018.53 -2158.8899 469.603 9.2197031e-39
1380.62 -1804.6101 464.24799 9.2197031e-39
2010.92 -1219.79 461.26801 9.2197031e-39
2070.78 -1179.1 463.936 9.2197031e-39
1048.23 -2164.47 476.04901 9.2197031e-39
1066.37 -2163.4299 479.10101 9.2197031e-39
1036.5699 -2156.21 472.31201 9.2197031e-39
1382.12 -1847.78 473.10001 9.2197031e-39
2050.3999 -1238.26 472.03101 9.2197031e-39
2105.48 -1225.5701 479.4075 9.2197031e-39
2671.6599 -674.43005 471.60001 9.2197031e-39
1096.45 -2170.1201 485.836 9.2197031e-39
1077.92 -2162.6699 481.026 9.2197031e-39
1107.85 -2165.24 486.91501 9.2197031e-39
1136.55 -2147.76 488.59601 9.2197031e-39
1153.34 -2131.1599 488.315 9.2197031e-39
1163.4 -2115.2 486.952 9.2197031e-39
1179.6 -2098.3701 486.51501 9.2197031e-39
1189.6 -2086.1699 485.88699 9.2197031e-39
1206.48 -2079.77 487.651 9.2197031e-39
2094.99 -1241.67 480.72198 9.2197031e-39
2725.23 -692.88 484.892 9.2197031e-39
1126.2 -2166.49 490.461 9.2197031e-39
1218.58 -2086.8101 491.22198 9.2197031e-39
1235.55 -2081.0901 493.134 9.2197031e-39
1247.54 -2085.96 496.258 9.2197031e-39
1264.89 -2082.8401 498.755 9.2197031e-39
3072.73 -449.31995 498.92401 9.2197031e-39
1275.9399 -2080.75 500.32599 9.2197031e-39
1295.23 -2088.8601 505.40399 9.2197031e-39
1323.52 -2081.8601 509.09601 9.2197031e-39
1304.61 -2076.97 504.72501 9.2197031e-39
2742.78 -788.43994 507.04001 9.2197031e-39
2753.02 -778.04004 506.81201 9.2197031e-39
2767.46 -761.22998 506.06699 9.2197031e-39
2787.22 -752.06995 507.79501 9.2197031e-39
1356.46 -2097.27 518.07599 9.2197031e-39
1366.8 -2090.75 518.63898 9.2197031e-39
1335.89 -2086.0701 512.15601 9.2197031e-39
2682.3899 -888.5 516.07703 9.2197031e-39
2701.6201 -874.04004 516.659 9.2197031e-39
2722.8101 -866.72998 519.01099 9.2197031e-39
2732.3401 -849.5 517.29901 9.2197031e-39
2738.1499 -838.40002 516.138 9.2197031e-39
2741.6599 -819.76001 513.065 9.2197031e-39
2741.53 -807.43994 510.59 9.2197031e-39
2816.9299 -737.02002 510.14301 9.2197031e-39
1386.61 -2096.8 523.40198 9.2197031e-39
1396.23 -2087.25 523.23199 9.2197031e-39
1414.34 -2085.3701 526.11499 9.2197031e-39
1425.4399 -2082.27 527.492 9.2197031e-39
2877.3201 -732.95996 520.18799 9.2197031e-39
2344.6001 -1434.4399 563.89099 9.2197031e-39
