# .PCD v0.7 - Point Cloud Data file format
VERSION 0.7
FIELDS x y z rgb
SIZE 4 4 4 4
TYPE F F F F
COUNT 1 1 1 1
WIDTH 328
HEIGHT 1
VIEWPOINT 0 0 0 1 0 0 0
POINTS 328
DATA ascii
844.159 -1056.78 133.92599 9.2197031e-39
858.87097 -1053.3199 136.94 9.2197031e-39
866.94653 -1056.345 139.22749 9.2197031e-39
857.922 -1043.76 135.489 9.2197031e-39
1111.1 -610.81006 139.371 9.2197031e-39
1112.5 -607.06 139.21899 9.2197031e-39
1112.11 -591.79004 137.16499 9.2197031e-39
1113.7201 -587.37 136.97501 9.2197031e-39
1115.4 -579.03003 136.297 9.2197031e-39
1250.01 -351.16101 138.662 9.2197031e-39
1255.225 -346.64999 139.30775 9.2197031e-39
3108.3401 3081.29 134.44501 9.2197031e-39
933.77899 -1008.0601 148.735 9.2197031e-39
948.67102 -985.04004 149.278 9.2197031e-39
1032.28 -829.90002 148.996 9.2197031e-39
1074.61 -745.14001 148.056 9.2197031e-39
1133.84 -625.60999 146.62 9.2197031e-39
1143.66 -627.21997 149.13699 9.2197031e-39
1125.1101 -601.87 141.5175 9.2197031e-39
1132.5767 -601.14667 143.17967 9.2197031e-39
1145.005 -606.29999 146.76349 9.2197031e-39
1129.25 -596.83997 141.843 9.2197031e-39
1135.512 -596.15802 143.228 9.2197031e-39
1129.08 -589.51001 140.86301 9.2197031e-39
1267.88 -390.89001 147.968 9.2197031e-39
1273.92 -382.22998 148.27499 9.2197031e-39
1273.415 -379.061 147.75 9.2197031e-39
1280.95 -378.39502 149.437 9.2197031e-39
1264.74 -361.039 143.39301 9.2197031e-39
1285.78 -366.59698 149.05499 9.2197031e-39
1267.042 -353.07462 142.91238 9.2197031e-39
1272.9 -355.082 144.547 9.2197031e-39
1283.8 -350.56702 146.53 9.2197031e-39
1259.23 -346.89301 140.27901 9.2197031e-39
1264.925 -345.755 141.474 9.2197031e-39
1271.79 -341.76099 142.573 9.2197031e-39
1285.245 -346.30399 146.3215 9.2197031e-39
1293.6533 -345.08365 148.14201 9.2197031e-39
1302.9 -340.479 149.724 9.2197031e-39
1270.905 -336.43451 141.68051 9.2197031e-39
3103.5701 3006.22 142.972 9.2197031e-39
1020.55 -871.33997 151.565 9.2197031e-39
1034.52 -843.40002 151.258 9.2197031e-39
1047.36 -816.09998 150.76801 9.2197031e-39
1286.4 -375.76801 150.379 9.2197031e-39
1288.16 -369.71997 150.017 9.2197031e-39
1298.55 -352.29999 150.22099 9.2197031e-39
1300.27 -352.84302 150.694 9.2197031e-39
1304.1932 -343.51367 150.41733 9.2197031e-39
3101.99 2932.47 152.078 9.2197031e-39
1086 -880.31006 168.10699 9.2197031e-39
1097.8101 -806.47998 161.396 9.2197031e-39
3104.9099 2808.0801 168.752 9.2197031e-39
3102.04 2870.1101 160.105 9.2197031e-39
1081.73 -944.26001 175.32201 9.2197031e-39
1085.08 -905.43994 171.12 9.2197031e-39
3097.49 2736.71 176.17799 9.2197031e-39
3102.0701 2681.1101 184.403 9.2197031e-39
3101.4099 2564.4102 199.246 9.2197031e-39
3097.99 2618.8 191.451 9.2197031e-39
1112.02 -1128.54 206.12601 9.2197031e-39
3099.96 2509.29 205.98801 9.2197031e-39
1084.96 -1280.14 219.246 9.2197031e-39
1100.7 -1184.59 210.66901 9.2197031e-39
1119.9301 -1179.6801 214.56 9.2197031e-39
1115.58 -1152.63 210.06 9.2197031e-39
3099.3301 2401.3901 219.70799 9.2197031e-39
3099.02 2451.1001 213.245 9.2197031e-39
1127.8101 -1265.39 227.427 9.2197031e-39
1122.95 -1226.51 221.287 9.2197031e-39
3099 2346.95 226.62801 9.2197031e-39
1136.4301 -1414.4399 248.60899 9.2197031e-39
1130.26 -1359.78 240.133 9.2197031e-39
1028.9 -1714.5601 261.901 9.2197031e-39
1150.37 -1551.3101 269.47699 9.2197031e-39
1141.76 -1506.73 261.724 9.2197031e-39
1158.8101 -1597.8 277.43701 9.2197031e-39
1169 -1627.3 283.625 9.2197031e-39
1432.1801 -1191.38 289.478 9.2197031e-39
1435.11 -1180.6801 288.79099 9.2197031e-39
1434.64 -1159.66 285.98001 9.2197031e-39
1453.12 -1153.75 289.564 9.2197031e-39
1436.8101 -1148.1 285.004 9.2197031e-39
1444.85 -1149.9399 287.13101 9.2197031e-39
936.77899 -2152.24 296.491 9.2197031e-39
922.10303 -2147.5 292.431 9.2197031e-39
951.64899 -2144.8601 299.03799 9.2197031e-39
970.396 -2115.74 299.70401 9.2197031e-39
1178.9301 -1681.51 292.927 9.2197031e-39
1420.46 -1292.95 299.77499 9.2197031e-39
1424.64 -1282.16 299.37201 9.2197031e-39
1426.35 -1261.77 297.15201 9.2197031e-39
1427.05 -1241.67 294.73499 9.2197031e-39
1428.4 -1222.3101 292.564 9.2197031e-39
1431.72 -1211.58 291.966 9.2197031e-39
1473.66 -1150.63 293.99301 9.2197031e-39
1488.85 -1151.86 297.72101 9.2197031e-39
1496.2 -1152.49 299.53201 9.2197031e-39
1458.25 -1148.1801 290.05499 9.2197031e-39
1465.45 -1149.14 291.87 9.2197031e-39
1478.92 -1146.98 294.76099 9.2197031e-39
1190.9399 -1742.5 303.58701 9.2197031e-39
1417.45 -1369.34 308.88599 9.2197031e-39
1416.53 -1334.59 304.20401 9.2197031e-39
1420.9301 -1322.83 303.72501 9.2197031e-39
1502.9 -1150.11 300.79999 9.2197031e-39
1525.36 -1150.13 306.08401 9.2197031e-39
1533.9 -1150.91 308.19199 9.2197031e-39
1509 -1147.97 301.961 9.2197031e-39
1515.6801 -1145.45 303.207 9.2197031e-39
1537.73 -1144.2 308.229 9.2197031e-39
1203.52 -1827.1599 317.427 9.2197031e-39
1215.14 -1807.6101 317.646 9.2197031e-39
1404.8101 -1458.04 317.315 9.2197031e-39
1406.27 -1424.96 313.40601 9.2197031e-39
1410.51 -1408.39 312.27399 9.2197031e-39
1414.03 -1386.84 310.32901 9.2197031e-39
1548.1801 -1148.23 311.20599 9.2197031e-39
1552.89 -1143.14 311.65701 9.2197031e-39
1562.98 -1146.1 314.41199 9.2197031e-39
1576.34 -1141.15 316.91501 9.2197031e-39
1566.16 -1138.38 314.16699 9.2197031e-39
1581.95 -1137.52 317.76801 9.2197031e-39
1397.21 -1549.49 327.27899 9.2197031e-39
1400.64 -1522.25 324.58499 9.2197031e-39
1402.55 -1486.1599 320.396 9.2197031e-39
1592.23 -1140.0601 320.513 9.2197031e-39
1618.66 -1142.02 326.978 9.2197031e-39
1597.3199 -1135.47 321.11801 9.2197031e-39
1608.23 -1138.62 324.08801 9.2197031e-39
1624.87 -1137.61 327.871 9.2197031e-39
1392.1801 -1625.5801 335.87601 9.2197031e-39
1396.28 -1596.3101 333.07901 9.2197031e-39
1637.08 -1143.1899 331.45801 9.2197031e-39
1663.0601 -1140.72 337.25 9.2197031e-39
1641.62 -1136.22 331.63101 9.2197031e-39
1651.16 -1137.58 334.048 9.2197031e-39
1668.6801 -1136.36 338.01199 9.2197031e-39
1386.98 -1715.48 346.207 9.2197031e-39
1391.04 -1679.3401 342.517 9.2197031e-39
1711.35 -1141.76 348.73901 9.2197031e-39
1678.95 -1136.91 340.49701 9.2197031e-39
1689.88 -1139.34 343.379 9.2197031e-39
1695.48 -1133.51 343.94501 9.2197031e-39
1889.36 -823.80005 349.72699 9.2197031e-39
1896.67 -811.17004 349.82199 9.2197031e-39
1721.25 -1141.01 350.97 9.2197031e-39
1753.17 -1142.71 358.69101 9.2197031e-39
1725.04 -1133.91 350.94699 9.2197031e-39
1734.3199 -1132.22 352.91299 9.2197031e-39
1895.53 -843.46997 353.70499 9.2197031e-39
1889.66 -831.72998 350.81601 9.2197031e-39
1895.37 -818.25 350.42499 9.2197031e-39
1906.09 -807.14001 351.51901 9.2197031e-39
1906.42 -799.59998 350.62701 9.2197031e-39
1918.4301 -796.55005 353.06 9.2197031e-39
1928.4 -793.19995 354.97198 9.2197031e-39
1922.64 -782.23999 352.20999 9.2197031e-39
1933.6001 -774.95001 353.84949 9.2197031e-39
1947.22 -768.47998 356.22101 9.2197031e-39
1946.915 -756.08002 354.556 9.2197031e-39
1961.9 -749.32996 357.211 9.2197031e-39
1254.6801 -2126.3301 367.905 9.2197031e-39
1239.33 -2118.5901 363.30099 9.2197031e-39
1394.24 -1830.73 362.72601 9.2197031e-39
1765.16 -1143.61 361.62701 9.2197031e-39
1776.64 -1144.9 364.491 9.2197031e-39
1779.64 -1135.4301 363.98099 9.2197031e-39
1802.6801 -1136.12 369.48499 9.2197031e-39
1939.0699 -874.76001 367.96301 9.2197031e-39
1981.73 -748.64001 361.784 9.2197031e-39
1269.2 -2140.96 373.198 9.2197031e-39
1284.3 -2139.5 376.56201 9.2197031e-39
1297.99 -2138.0701 379.59601 9.2197031e-39
1799.72 -1145.74 370.02701 9.2197031e-39
1821.7 -1144.5699 375.043 9.2197031e-39
1836.09 -1146.6 378.686 9.2197031e-39
1842.48 -1141.45 379.52802 9.2197031e-39
2016.51 -751.90002 370.379 9.2197031e-39
2026.38 -747.07996 372.082 9.2197031e-39
2032.8101 -740.18005 372.707 9.2197031e-39
2041.72 -734.81006 374.10999 9.2197031e-39
2050.8401 -728.54004 375.44901 9.2197031e-39
1313.75 -2144.23 384.09399 9.2197031e-39
1327.49 -2142.54 387.10599 9.2197031e-39
1854.9301 -1141.09 382.40799 9.2197031e-39
1867.54 -1141.85 385.47101 9.2197031e-39
1342.8199 -2142.51 390.707 9.2197031e-39
1357.4301 -2148.4299 394.90201 9.2197031e-39
1372.62 -2146.1599 398.181 9.2197031e-39
1920.47 -1154.25 399.51001 9.2197031e-39
1887.8101 -1148.49 391.09 9.2197031e-39
1899.9 -1148.17 393.89301 9.2197031e-39
1416.98 -2150.71 409.198 9.2197031e-39
1386.38 -2143.97 401.13501 9.2197031e-39
1401.8 -2143.3799 404.686 9.2197031e-39
1939.1801 -1159.39 404.56799 9.2197031e-39
1952.84 -1158.41 407.65701 9.2197031e-39
2047.8101 -996.07996 409.121 9.2197031e-39
2058.9299 -981.06006 409.806 9.2197031e-39
2063.9099 -962.54004 408.59601 9.2197031e-39
2066.48 -953.90002 408.08899 9.2197031e-39
2154.4099 -750.56006 402.63 9.2197031e-39
2528.8999 -116.19598 409.15201 9.2197031e-39
2530.8401 -102.362 407.82901 9.2197031e-39
2530.0801 -90.421021 406.11499 9.2197031e-39
2544.99 -72.75 407.35001 9.2197031e-39
3090.8101 914.07599 408.853 9.2197031e-39
1430.08 -2134.23 410.15701 9.2197031e-39
1972.53 -1163.67 412.961 9.2197031e-39
2050.96 -1009.48 411.58401 9.2197031e-39
2059.8101 -992.93994 411.539 9.2197031e-39
2065.02 -974.34998 410.37399 9.2197031e-39
2542.3999 -163.59198 418.41599 9.2197031e-39
2540.02 -150.87402 416.22198 9.2197031e-39
2540.6299 -138.68298 414.798 9.2197031e-39
2538.97 -125.755 412.74799 9.2197031e-39
2584.53 -48.802002 413.569 9.2197031e-39
2614.0601 -25.765991 417.54999 9.2197031e-39
3089.27 838.60199 418.19199 9.2197031e-39
3091.8899 865.70703 415.32501 9.2197031e-39
3087.1499 885.60699 411.65201 9.2197031e-39
2000.3199 -1174.2 420.84799 9.2197031e-39
2015.17 -1174.4399 424.371 9.2197031e-39
2021.76 -1166.33 424.87601 9.2197031e-39
2581.2 -181.013 429.77802 9.2197031e-39
2563.6399 -171.13702 424.38 9.2197031e-39
3083.74 741.26599 429.401 9.2197031e-39
3081.7 764.10999 425.98499 9.2197031e-39
3087.04 789.71899 423.95099 9.2197031e-39
3083.6499 812.17401 420.26801 9.2197031e-39
2048.7 -1175.97 432.45001 9.2197031e-39
2617.74 -186.29102 439.04599 9.2197031e-39
3079.74 672.28271 437.327 9.2197031e-39
3087 697.88562 435.742 9.2197031e-39
3077 715.41797 431.138 9.2197031e-39
2082.55 -1189.21 442.10999 9.2197031e-39
2085.6101 -1178.89 441.505 9.2197031e-39
3084.29 587.6438 449.27399 9.2197031e-39
3083.8999 607.90741 446.57901 9.2197031e-39
3081.5901 629.36774 443.27701 9.2197031e-39
3080.79 649.73242 440.47198 9.2197031e-39
2135.99 -1203.63 456.53 9.2197031e-39
2621.1201 -342.35901 459.901 9.2197031e-39
2623.3601 -329.83899 458.81699 9.2197031e-39
2631.24 -315.43201 458.81699 9.2197031e-39
2634.22 -302.677 457.88 9.2197031e-39
2641.8401 -288.02197 457.789 9.2197031e-39
2656.24 -273.63501 459.323 9.2197031e-39
2661.6499 -258.89398 458.702 9.2197031e-39
3083.6299 503.022 459.99399 9.2197031e-39
3084.0701 523.02869 457.526 9.2197031e-39
3084.3899 545.19507 454.754 9.2197031e-39
3092.27 569.54663 453.47501 9.2197031e-39
2622.8899 -393.96002 466.948 9.2197031e-39
2623.6001 -381.63 465.53 9.2197031e-39
2615.4199 -368.591 461.92999 9.2197031e-39
2613.98 -356.45001 460.03101 9.2197031e-39
3080.4399 419.98999 469.91599 9.2197031e-39
3071.8601 435.07501 465.95901 9.2197031e-39
3081.1201 460.71301 464.84201 9.2197031e-39
3082.8501 481.008 462.64099 9.2197031e-39
2610.6299 -510.58997 479.05399 9.2197031e-39
2607.49 -497.04004 476.57501 9.2197031e-39
2610.02 -484.89001 475.60599 9.2197031e-39
2619.3 -471.48999 476.06699 9.2197031e-39
2623.5601 -459.20996 475.491 9.2197031e-39
2643.5601 -419.18994 475.05099 9.2197031e-39
2630.8501 -407.20996 470.522 9.2197031e-39
2740.6101 -234.65802 474.15302 9.2197031e-39
2768.1101 -172.83502 472.673 9.2197031e-39
3083.21 360.73599 478.18301 9.2197031e-39
3076.24 378.33701 474.28299 9.2197031e-39
3078.78 398.29999 472.314 9.2197031e-39
2292.0901 -1172.37 489.21201 9.2197031e-39
2610.29 -574.44995 487.181 9.2197031e-39
2611.5 -562.21997 485.89401 9.2197031e-39
2610.77 -548.62 483.97601 9.2197031e-39
2619.54 -536.80005 484.517 9.2197031e-39
2622.47 -523.31995 483.47501 9.2197031e-39
3077.1101 262.72198 489.345 9.2197031e-39
3080.78 282.245 487.698 9.2197031e-39
3081.8301 302.77899 485.30701 9.2197031e-39
3086.9399 323.23901 483.87799 9.2197031e-39
3080.3101 340.88699 480.05099 9.2197031e-39
2300.79 -1192.96 493.90399 9.2197031e-39
2637.6001 -616.92004 499.061 9.2197031e-39
2619.99 -601.32996 492.91501 9.2197031e-39
2620.45 -588.93005 491.431 9.2197031e-39
3082.1101 189.42801 499.939 9.2197031e-39
3077.1899 205.435 496.72501 9.2197031e-39
3080.8701 226.367 494.90201 9.2197031e-39
3083.04 245.08701 493.00601 9.2197031e-39
2637.8701 -629.58997 500.75299 9.2197031e-39
3063.1899 127.30301 503.47699 9.2197031e-39
3073.29 149.608 502.98499 9.2197031e-39
3085.51 171.112 503.09299 9.2197031e-39
2667.7 -647.23999 510.035 9.2197031e-39
2785.5 -443.71997 511.57501 9.2197031e-39
2703.3 -664.90002 520.67401 9.2197031e-39
2663.8401 -884.02002 539.55798 9.2197031e-39
2691.8601 -877.87 545.35498 9.2197031e-39
2689.3701 -861.81995 542.70801 9.2197031e-39
2702.3301 -851.21997 544.39099 9.2197031e-39
2696.75 -834.51001 540.93402 9.2197031e-39
2711.4099 -824.13 543.04602 9.2197031e-39
2715.01 -809.63 542.02802 9.2197031e-39
2727.6201 -798.5 543.56299 9.2197031e-39
2730.99 -783.84998 542.47302 9.2197031e-39
2739.6399 -771.67004 542.93903 9.2197031e-39
2741.8101 -756.75 541.53302 9.2197031e-39
2746.4399 -743.69995 540.94501 9.2197031e-39
2776.0901 -733.40002 546.59198 9.2197031e-39
3072.3999 -168.48798 543.65698 9.2197031e-39
3080.05 -150.888 543.19397 9.2197031e-39
3077.6799 -133.15802 540.35797 9.2197031e-39
2818.8401 -726.15002 555.711 9.2197031e-39
2896.3799 -721.89001 573.396 9.2197031e-39
2921.8999 -710.45996 577.927 9.2197031e-39
3069.0601 -424.30005 575.74799 9.2197031e-39
2600.21 -1539.9299 608.896 9.2197031e-39
2623.4299 -1536 613.85101 9.2197031e-39
2625.4399 -1518.3 612.047 9.2197031e-39
2642.3401 -1509.4199 614.88 9.2197031e-39
2644.05 -1491.6899 613.00201 9.2197031e-39
2653.6201 -1477.6101 613.44501 9.2197031e-39
2657.3899 -1461.54 612.26398 9.2197031e-39
2670.74 -1450 613.91901 9.2197031e-39
