# .PCD v0.7 - Point Cloud Data file format
VERSION 0.7
FIELDS x y z rgb
SIZE 4 4 4 4
TYPE F F F F
COUNT 1 1 1 1
WIDTH 321
HEIGHT 1
VIEWPOINT 0 0 0 1 0 0 0
POINTS 321
DATA ascii
1155.83 -1406.12 136.19299 9.2197031e-39
1179.91 -1276.09 133.894 9.2197031e-39
1214.3101 -1191.85 137.28799 9.2197031e-39
1236.5 -1124.1 138.59399 9.2197031e-39
1436.75 -334.513 138.662 9.2197031e-39
1441.97 -331.289 139.808 9.2197031e-39
1441.5732 -324.61868 139.26534 9.2197031e-39
1440.53 -317.74402 138.541 9.2197031e-39
2620.3899 4399.9697 134.638 9.2197031e-39
1246.65 -1131.4 141.711 9.2197031e-39
1241.34 -1127.22 140.056 9.2197031e-39
1255.71 -1113.85 142.91 9.2197031e-39
1275.28 -1101.16 147.159 9.2197031e-39
1267.34 -1084.52 144.002 9.2197031e-39
1290.1801 -1042.8101 147.19 9.2197031e-39
1287.78 -1000.84 143.806 9.2197031e-39
1304.63 -984.35999 147.09801 9.2197031e-39
1316.885 -945.21002 147.705 9.2197031e-39
1324.51 -933.59998 148.923 9.2197031e-39
1331.87 -908.30005 149.168 9.2197031e-39
1342.64 -878.28003 149.991 9.2197031e-39
1340.52 -864.01001 148.502 9.2197031e-39
1353.67 -799.02002 147.64301 9.2197031e-39
1360.27 -758.45996 146.687 9.2197031e-39
1374.8199 -624.29004 141.64101 9.2197031e-39
1391.14 -621.37 145.688 9.2197031e-39
1375.22 -617.79999 141.31799 9.2197031e-39
1386.066 -605.534 143.3284 9.2197031e-39
1379.01 -597.5 140.966 9.2197031e-39
1383.005 -595.57996 141.87749 9.2197031e-39
1466.88 -363.17401 148.37399 9.2197031e-39
1465.89 -357.21399 147.726 9.2197031e-39
1471.65 -353.56549 148.981 9.2197031e-39
1448.48 -342.20697 142.217 9.2197031e-39
1452.1635 -342.72534 143.20634 9.2197031e-39
1475.23 -340.53601 149.05499 9.2197031e-39
1445.8149 -334.19598 140.99701 9.2197031e-39
1455.7125 -335.70627 143.66725 9.2197031e-39
1464.16 -331.68298 145.59599 9.2197031e-39
1477.1201 -334.10132 149.12199 9.2197031e-39
1448.22 -323.14001 140.896 9.2197031e-39
1452.0449 -325.51547 142.04401 9.2197031e-39
1466.74 -329.77197 146.14101 9.2197031e-39
1475.1949 -324.62225 147.99924 9.2197031e-39
1452.23 -318.94852 141.661 9.2197031e-39
1481.8501 -317.67001 149.27051 9.2197031e-39
2666.6499 4419.0098 145.39999 9.2197031e-39
1403.64 -731.40002 156.174 9.2197031e-39
1400.1801 -712.68005 154.045 9.2197031e-39
1397.24 -692.91003 151.978 9.2197031e-39
1394.83 -684.06995 150.772 9.2197031e-39
1478.66 -344.52502 150.207 9.2197031e-39
1482.28 -346.28699 151.263 9.2197031e-39
1481.79 -329.276 150.017 9.2197031e-39
2712.4099 4416.0601 157.481 9.2197031e-39
1418 -851.12 167.78101 9.2197031e-39
1409.1801 -777.92004 160.673 9.2197031e-39
2755.75 4421.6699 168.371 9.2197031e-39
1428.95 -938.08997 176.345 9.2197031e-39
2802.78 4421.6699 180.58701 9.2197031e-39
1452.89 -1136.79 195.63499 9.2197031e-39
2843.29 4415.8896 191.487 9.2197031e-39
1476.2051 -1211.5 206.606 9.2197031e-39
1465.58 -1204.42 203.383 9.2197031e-39
1482.8 -1186.86 206.7 9.2197031e-39
1486.92 -1174.09 206.92999 9.2197031e-39
1489.74 -1149.39 206.036 9.2197031e-39
1500.88 -1144.29 208.595 9.2197031e-39
1491.96 -1127.77 205.19 9.2197031e-39
2888.98 4410.2197 203.73 9.2197031e-39
1507.89 -1152.01 210.924 9.2197031e-39
1519.76 -1150.49 213.908 9.2197031e-39
1535.97 -1153.825 218.33551 9.2197031e-39
1512.25 -1140.95 211.32899 9.2197031e-39
1525.73 -1148.12 215.30099 9.2197031e-39
2931.5901 4410.3501 214.789 9.2197031e-39
1544.6 -1151.65 220.43401 9.2197031e-39
1569.95 -1152.8 227.09599 9.2197031e-39
1553.29 -1148.285 222.4715 9.2197031e-39
1561.9301 -1144.83 224.489 9.2197031e-39
1575.61 -1149.01 228.317 9.2197031e-39
1581.11 -1147.28 229.632 9.2197031e-39
2921.1201 4231.79 223.815 9.2197031e-39
1592.8301 -1153.88 233.10901 9.2197031e-39
1615.35 -1152.29 238.853 9.2197031e-39
1603.8101 -1147.5 235.5405 9.2197031e-39
2916.6799 4095.0701 231.65601 9.2197031e-39
1620.88 -1150.22 240.15401 9.2197031e-39
1655.27 -1151.27 249.15601 9.2197031e-39
1626.39 -1146 241.30901 9.2197031e-39
1632.55 -1145.7 242.888 9.2197031e-39
1643.325 -1147.1851 245.7845 9.2197031e-39
2917.9399 3967.6399 240.366 9.2197031e-39
1675.51 -1150.91 254.38901 9.2197031e-39
1663.3149 -1146.13 250.9075 9.2197031e-39
1682.865 -1143.1001 255.78549 9.2197031e-39
1694.14 -1144.21 258.789 9.2197031e-39
2950.73 3948.49 250.146 9.2197031e-39
1704.58 -1152.22 262.02701 9.2197031e-39
1709.09 -1145.49 262.75699 9.2197031e-39
1714.58 -1142.64 263.99399 9.2197031e-39
1723.75 -1145.5699 266.56799 9.2197031e-39
1730.13 -1144.34 268.14401 9.2197031e-39
2995.7 3950.0701 261.72101 9.2197031e-39
1738.52 -1145.3199 270.38699 9.2197031e-39
1744.92 -1143.95 271.961 9.2197031e-39
1757.9951 -1146.59 275.53149 9.2197031e-39
1766.42 -1140.41 277.31299 9.2197031e-39
1775.29 -1143.04 279.789 9.2197031e-39
1787.36 -1149.4 283.34399 9.2197031e-39
1792.39 -1145.03 284.36099 9.2197031e-39
1804.85 -1145.0901 287.60303 9.2197031e-39
1816.36 -1143.28 290.474 9.2197031e-39
1826.09 -1146.11 293.18701 9.2197031e-39
1831.71 -1140.98 294.30899 9.2197031e-39
1842.63 -1145.23 297.42401 9.2197031e-39
1854.3 -1148.86 300.69601 9.2197031e-39
1862.0699 -1147.99 302.65601 9.2197031e-39
1871.08 -1147.33 304.953 9.2197031e-39
1870.29 -1134.36 303.896 9.2197031e-39
1934.7 -823.37 300.16599 9.2197031e-39
1938.45 -819.18005 300.86401 9.2197031e-39
1948.25 -818 303.332 9.2197031e-39
1956.91 -816.75 305.49899 9.2197031e-39
1954.5 -804.54498 304.07001 9.2197031e-39
1963.3 -795.85999 305.78448 9.2197031e-39
1966.84 -787.35999 306.14499 9.2197031e-39
1974.59 -785.16003 308.01199 9.2197031e-39
1980.09 -780.88 309.16101 9.2197031e-39
1980.98 -774.88 308.99701 9.2197031e-39
1982.97 -768.72998 309.10999 9.2197031e-39
1892.59 -1151.72 310.82999 9.2197031e-39
1898.73 -1148.09 312.186 9.2197031e-39
1915.2 -1144.75 316.24399 9.2197031e-39
1925 -1144.2 318.75101 9.2197031e-39
1898.98 -1135.3 311.409 9.2197031e-39
1993.26 -767.52002 311.702 9.2197031e-39
1991.71 -759.56006 310.77499 9.2197031e-39
2000.25 -757.30005 312.84399 9.2197031e-39
1995.79 -744.90497 310.87152 9.2197031e-39
2006.15 -739.39001 313.19901 9.2197031e-39
2020.83 -739.48999 317.01901 9.2197031e-39
1936.62 -1147.13 321.96399 9.2197031e-39
1947.76 -1147.8101 324.90201 9.2197031e-39
1958.3 -1148.9301 327.71201 9.2197031e-39
2043.84 -742.09998 323.16599 9.2197031e-39
2049.71 -737.93994 324.418 9.2197031e-39
2068.3701 -738.09998 329.276 9.2197031e-39
1970.8199 -1150.8101 331.08899 9.2197031e-39
1981.48 -1151.64 333.914 9.2197031e-39
1990.29 -1148.78 336.013 9.2197031e-39
2000.39 -1148.62 338.62601 9.2197031e-39
2087.73 -738.97998 334.362 9.2197031e-39
2091.1699 -732.60999 334.83801 9.2197031e-39
2106.98 -731.64001 338.88101 9.2197031e-39
2013.17 -1149.86 342.026 9.2197031e-39
2023.36 -1149.4301 344.647 9.2197031e-39
2066.1599 -1170 357.116 9.2197031e-39
2053.03 -1168.04 353.57599 9.2197031e-39
2103.23 -1001.96 355.69101 9.2197031e-39
2101.8799 -990.43005 354.582 9.2197031e-39
2106.96 -984.83997 355.53101 9.2197031e-39
2113.7949 -974.76001 356.64551 9.2197031e-39
2117.3201 -962.42004 356.74799 9.2197031e-39
2108.5 -947.47998 353.47501 9.2197031e-39
2082.79 -1173.84 361.689 9.2197031e-39
2094.74 -1174.02 364.80301 9.2197031e-39
2128.9299 -1194.5 375.03299 9.2197031e-39
2127.8601 -1181.29 373.88501 9.2197031e-39
2134.3601 -1174.1 375.10199 9.2197031e-39
2249.6399 -1270.02 411.35501 9.2197031e-39
2572.97 -119.323 419.63501 9.2197031e-39
2571.28 -109.02502 418.51901 9.2197031e-39
2566.3799 -98.406982 416.54901 9.2197031e-39
2562.6599 -88.744019 414.94601 9.2197031e-39
2583.54 -69.724976 419.11801 9.2197031e-39
2315.49 -1173.91 422.13699 9.2197031e-39
2590.74 -160.13898 426.93799 9.2197031e-39
2579.2 -140.37701 422.64001 9.2197031e-39
2589.3899 -149.71698 425.901 9.2197031e-39
2586.1299 -127.68103 423.604 9.2197031e-39
2621.8701 -175.60303 436.04001 9.2197031e-39
2603.6201 -169.04102 430.86801 9.2197031e-39
2635.05 -41.210022 430.62299 9.2197031e-39
2650.77 -22.685974 433.48801 9.2197031e-39
2652.6799 -180.97498 444.396 9.2197031e-39
2657.7 -376.97803 458.595 9.2197031e-39
2659.0701 -366.04901 458.233 9.2197031e-39
2650.6201 -354.633 455.28601 9.2197031e-39
2653.75 -343.55103 455.36899 9.2197031e-39
2666.3201 -330.12799 457.75299 9.2197031e-39
2675.8101 -305.74402 458.612 9.2197031e-39
2682.3799 -293.81598 459.535 9.2197031e-39
2685.1399 -185.19598 453.10599 9.2197031e-39
3145.6599 1530.9871 459.82101 9.2197031e-39
3137.78 1558.575 455.95801 9.2197031e-39
3143.71 1598.8 454.853 9.2197031e-39
3138.22 1630.3401 451.35199 9.2197031e-39
2657.8 -549.47998 469.97 9.2197031e-39
2658.71 -537.38 469.41101 9.2197031e-39
2664.01 -514.60999 469.29001 9.2197031e-39
2659.72 -503.58997 467.45099 9.2197031e-39
2667.97 -491.65002 468.806 9.2197031e-39
2659.6201 -480.64001 465.914 9.2197031e-39
2658.95 -468.54004 464.94299 9.2197031e-39
2661.0601 -457.71997 464.78 9.2197031e-39
2665.6799 -411.66003 462.95001 9.2197031e-39
2668.27 -399.37 462.81299 9.2197031e-39
2660.1499 -388.94 460.01901 9.2197031e-39
2678.8899 -317.76599 460.203 9.2197031e-39
2688.7 -280.45398 460.297 9.2197031e-39
2700.8201 -267.427 462.58801 9.2197031e-39
2708.8 -253.453 463.74301 9.2197031e-39
3142.29 1394.8301 467.901 9.2197031e-39
3137.3401 1423.515 464.729 9.2197031e-39
3142.52 1460.04 463.67099 9.2197031e-39
3143.4099 1496.304 461.51599 9.2197031e-39
2670.1899 -631.56995 478.58801 9.2197031e-39
2653.4399 -618.40002 473.37201 9.2197031e-39
2660.73 -606.97998 474.51401 9.2197031e-39
2664.8999 -596.43994 474.90302 9.2197031e-39
2660.46 -583.70996 472.91199 9.2197031e-39
2655.77 -572.37 470.95001 9.2197031e-39
2656.8899 -560.29004 470.44501 9.2197031e-39
2668.1299 -527 471.17499 9.2197031e-39
2728.79 -420.53003 479.92599 9.2197031e-39
3136.71 1207.543 478.77399 9.2197031e-39
3134.04 1235.5869 476.23499 9.2197031e-39
3141.0801 1270.3259 475.78 9.2197031e-39
3135.5601 1296.5029 472.62201 9.2197031e-39
3141.0901 1330.894 471.79599 9.2197031e-39
3144.47 1367.24 470.28299 9.2197031e-39
3136.6799 1042.634 489.616 9.2197031e-39
3136.05 1070.052 487.64899 9.2197031e-39
3138.02 1097.146 486.37601 9.2197031e-39
3137.45 1125.454 484.366 9.2197031e-39
3138.76 1152.797 482.90799 9.2197031e-39
3136.77 1180.655 480.55899 9.2197031e-39
2723.9199 -651.62 493.86499 9.2197031e-39
2782.1499 -443.96997 495.32901 9.2197031e-39
3135.8501 890.66504 499.39899 9.2197031e-39
3130.1399 911.91797 496.517 9.2197031e-39
3135.51 939.45996 496.10001 9.2197031e-39
3130.05 961.43396 493.23499 9.2197031e-39
3132.52 987.35901 492.172 9.2197031e-39
3133.3301 1015.16 490.552 9.2197031e-39
2718.8201 -891.63 508.32901 9.2197031e-39
2719.6201 -879.37 507.73001 9.2197031e-39
2704.99 -861.04004 502.72501 9.2197031e-39
2712.02 -850.85999 503.879 9.2197031e-39
2715.6299 -838.18005 503.98401 9.2197031e-39
2718.76 -826.82996 504.052 9.2197031e-39
2722.1699 -814.08997 504.09698 9.2197031e-39
2731.6599 -804.34998 505.923 9.2197031e-39
2733.9199 -791.27002 505.64999 9.2197031e-39
2744.21 -781.54004 507.681 9.2197031e-39
2752.8601 -769.83997 509.159 9.2197031e-39
3128.6899 701.29749 509.996 9.2197031e-39
3124.1699 721.51202 507.492 9.2197031e-39
3131.0701 747.29498 507.58801 9.2197031e-39
3128.48 769.33002 505.466 9.2197031e-39
3134.01 794.85199 505.224 9.2197031e-39
3129.3201 815.883 502.62 9.2197031e-39
3127.97 836.95398 500.884 9.2197031e-39
3132.24 865.19702 500.13501 9.2197031e-39
2713.6299 -943.51001 510.39401 9.2197031e-39
2720.3401 -933.12 511.453 9.2197031e-39
2736.5701 -924.41003 515.09698 9.2197031e-39
2733.98 -910.73999 513.52399 9.2197031e-39
2766.78 -760.63 512.16901 9.2197031e-39
2776.22 -748.81006 513.84302 9.2197031e-39
2791.9199 -739.56995 517.31201 9.2197031e-39
2803.0901 -727.76001 519.43799 9.2197031e-39
2912.26 -208.02197 513.60199 9.2197031e-39
3124.29 551.90552 518.68103 9.2197031e-39
3133.24 576.53931 519.38702 9.2197031e-39
3124.1399 592.94012 515.94299 9.2197031e-39
3132.6001 617.86517 516.50098 9.2197031e-39
3131.4399 639.50372 514.77698 9.2197031e-39
3131.9199 659.98981 513.55103 9.2197031e-39
3127.8301 680.14117 511.16299 9.2197031e-39
2820.5701 -718.39001 523.362 9.2197031e-39
2828.73 -705.67004 524.64398 9.2197031e-39
3131.6699 416.478 529.50702 9.2197031e-39
3131.8401 436.93799 528.20502 9.2197031e-39
3124.8301 451.608 525.41901 9.2197031e-39
3132.3899 476.31799 525.75897 9.2197031e-39
3126.79 491.92999 523.276 9.2197031e-39
3123.5801 511.16699 521.177 9.2197031e-39
3133.02 535.49878 522.02899 9.2197031e-39
2869.9299 -699.63 534.94897 9.2197031e-39
2856.9299 -683.18994 530.48901 9.2197031e-39
3116.7 209.005 539.26898 9.2197031e-39
3119.6799 226.83701 538.87 9.2197031e-39
3121.8501 246.50601 538.13898 9.2197031e-39
3125.3799 264.89801 537.84601 9.2197031e-39
3126.25 284.37201 536.79102 9.2197031e-39
3130.3101 303.35001 536.59802 9.2197031e-39
3123.6499 319.776 533.78699 9.2197031e-39
3124.6899 337.672 532.87903 9.2197031e-39
3125.6899 357.79901 531.81598 9.2197031e-39
3129.8999 377.534 531.61102 9.2197031e-39
3129.6101 397.41101 530.22699 9.2197031e-39
3108.8101 152.93701 540.90698 9.2197031e-39
3118.1499 174.58499 541.90997 9.2197031e-39
3124.2 193.323 542.24799 9.2197031e-39
3114.8601 -157.39099 562.896 9.2197031e-39
3122.1499 -140.99298 563.711 9.2197031e-39
3118.51 -124.74402 561.69598 9.2197031e-39
3115.99 -110.091 560.07599 9.2197031e-39
3112.23 -424.83997 579.80798 9.2197031e-39
3007.27 -1727.71 638.258 9.2197031e-39
2976.3 -1921.6101 642.96802 9.2197031e-39
2982.3301 -1902.6399 643.289 9.2197031e-39
2991.01 -1883.3301 644.27197 9.2197031e-39
2995.1899 -1863.0701 644.02399 9.2197031e-39
2992.3601 -1834.25 641.39301 9.2197031e-39
2997.52 -1815.3799 641.492 9.2197031e-39
3006.04 -1796.71 642.47699 9.2197031e-39
3010.8201 -1777.8401 642.47699 9.2197031e-39
3012.1101 -1753.6899 641.22198 9.2197031e-39
