# .PCD v0.7 - Point Cloud Data file format
VERSION 0.7
FIELDS x y z rgb
SIZE 4 4 4 4
TYPE F F F F
COUNT 1 1 1 1
WIDTH 322
HEIGHT 1
VIEWPOINT 0 0 0 1 0 0 0
POINTS 322
DATA ascii
1552.15 -1110.49 135.601 9.2197031e-39
1545.11 -1109.78 133.72501 9.2197031e-39
1557.04 -1109.23 136.923 9.2197031e-39
1564.02 -1108.8101 138.797 9.2197031e-39
1530.22 -272.84802 138.392 9.2197031e-39
1532.855 -264.082 139.189 9.2197031e-39
1530.6801 -255.828 138.69299 9.2197031e-39
1416.6899 2344.8301 135.07001 9.2197031e-39
1569.02 -1109.47 140.129 9.2197031e-39
1575.2 -1098.95 141.89101 9.2197031e-39
1578.66 -1082.59 142.98599 9.2197031e-39
1582.45 -1052.08 144.31799 9.2197031e-39
1582.7 -1010.83 144.812 9.2197031e-39
1586.08 -987.30005 145.961 9.2197031e-39
1585.5601 -949.07996 146.216 9.2197031e-39
1588.08 -926.55005 147.123 9.2197031e-39
1588.15 -900.29004 147.414 9.2197031e-39
1591.29 -887.68005 148.386 9.2197031e-39
1590.04 -857.51001 148.36301 9.2197031e-39
1590.1 -830.13 148.662 9.2197031e-39
1588.97 -805.95996 148.61099 9.2197031e-39
1582.83 -750.17004 147.543 9.2197031e-39
1571.74 -679.03003 145.30901 9.2197031e-39
1565.79 -635.37 144.16701 9.2197031e-39
1561.08 -604.69995 143.224 9.2197031e-39
1559.23 -586.68005 142.914 9.2197031e-39
1576.0601 -576.62 147.526 9.2197031e-39
1554.34 -559.10999 141.89 9.2197031e-39
1552.4301 -544.15002 141.534 9.2197031e-39
1554.8033 -535.04163 142.2635 9.2197031e-39
1561.79 -539.34003 144.08951 9.2197031e-39
1553.86 -527.19995 142.091 9.2197031e-39
1561.45 -299.46002 146.48 9.2197031e-39
1565.8 -280.77399 147.83701 9.2197031e-39
1566.7601 -275.80099 148.14568 9.2197031e-39
1572.33 -270.59698 149.692 9.2197031e-39
1548.76 -265.84003 143.431 9.2197031e-39
1536.9066 -255.52434 140.362 9.2197031e-39
1545.9834 -255.38499 142.79449 9.2197031e-39
1552.64 -256.522 144.56601 9.2197031e-39
1569.0367 -257.46533 148.94466 9.2197031e-39
1542.405 -248.28448 141.9095 9.2197031e-39
1557.515 -247.48801 145.964 9.2197031e-39
1565.86 -244.20326 148.23198 9.2197031e-39
1544.3199 -239.479 142.51401 9.2197031e-39
1566 -234.36902 148.37199 9.2197031e-39
1463.6801 2313.1401 147.325 9.2197031e-39
1436.16 2335.47 140.187 9.2197031e-39
1612.89 -667.17004 156.45 9.2197031e-39
1595.02 -621.70996 152.134 9.2197031e-39
1589.03 -611.16003 150.64101 9.2197031e-39
1582.73 -252.39899 152.66499 9.2197031e-39
1509.5 2303.5898 159.495 9.2197031e-39
1482.64 2312.4199 152.395 9.2197031e-39
1656.12 -769.03003 166.97099 9.2197031e-39
1636.76 -724.18005 162.25101 9.2197031e-39
1528.39 2304.54 164.561 9.2197031e-39
1680.17 -820.54004 172.87801 9.2197031e-39
1554.96 2291.22 171.539 9.2197031e-39
1575.61 2381.8 178.005 9.2197031e-39
1729.45 -937.04004 184.866 9.2197031e-39
1775.5 -1035.39 196.179 9.2197031e-39
1826.53 -1111.78 209.054 9.2197031e-39
1814.5699 -1097.5601 205.99699 9.2197031e-39
1800.46 -1083.16 202.368 9.2197031e-39
1838.79 -1120.3199 212.246 9.2197031e-39
1860.05 -1120.96 217.933 9.2197031e-39
1844.1899 -1118.83 213.709 9.2197031e-39
1850.41 -1113.5601 215.42799 9.2197031e-39
1880.49 -1131.64 223.295 9.2197031e-39
1871.91 -1127.16 221.045 9.2197031e-39
1886.3199 -1125.13 224.922 9.2197031e-39
1895 -1129.4399 227.202 9.2197031e-39
1904.01 -1128.95 229.621 9.2197031e-39
1670.64 4609.5801 226.489 9.2197031e-39
1910.48 -1128.6899 231.355 9.2197031e-39
1922.5549 -1127.365 234.60201 9.2197031e-39
1933.1899 -1123.26 237.491 9.2197031e-39
1936.2 -1116.73 238.36501 9.2197031e-39
1919.29 -787.21997 237.24699 9.2197031e-39
1925.21 -784.98999 238.854 9.2197031e-39
1706.76 4639.1797 236.468 9.2197031e-39
1980.09 -1133.14 249.948 9.2197031e-39
1954.85 -1120.14 243.32401 9.2197031e-39
1969.76 -1128.13 247.233 9.2197031e-39
1945.26 -1115.7 240.802 9.2197031e-39
1946.17 -819.03003 244.11501 9.2197031e-39
1930.74 -784.62 240.34 9.2197031e-39
1933.2451 -776.39001 241.09451 9.2197031e-39
1943.73 -775.29004 243.91299 9.2197031e-39
1954.4551 -775.27002 246.78549 9.2197031e-39
1960.74 -771.26001 248.511 9.2197031e-39
1964.36 -766.56995 249.526 9.2197031e-39
1962.72 -752.42004 249.233 9.2197031e-39
1963.59 -747.89001 249.515 9.2197031e-39
1996.12 -1130.52 254.26801 9.2197031e-39
2008.24 -1132.86 257.48801 9.2197031e-39
2017.22 -1134.92 259.87 9.2197031e-39
1986.2 -1126.5699 251.65199 9.2197031e-39
1966.88 -763.23999 250.23599 9.2197031e-39
1965.41 -741.98999 250.063 9.2197031e-39
1968.615 -735.69 250.98599 9.2197031e-39
1969.38 -727.63 251.274 9.2197031e-39
1978.0649 -724.25995 253.634 9.2197031e-39
1986.76 -720.67004 256 9.2197031e-39
1987.245 -712.52002 256.21301 9.2197031e-39
1994.4449 -705.32001 258.21698 9.2197031e-39
2048.3 -1152.52 268.01001 9.2197031e-39
2037.41 -1148.3199 265.138 9.2197031e-39
2004.23 -703.10999 260.858 9.2197031e-39
2003.8199 -695.93994 260.82401 9.2197031e-39
2014.23 -697.30005 263.59698 9.2197031e-39
2024.865 -694.07996 266.47803 9.2197031e-39
2064.6602 -1153.6801 272.37848 9.2197031e-39
2076.3999 -1148.2 275.57999 9.2197031e-39
2080.3899 -1142.45 276.70599 9.2197031e-39
2073.8201 -954.68994 276.89099 9.2197031e-39
2117.79 -1164.0699 286.49701 9.2197031e-39
2094.3201 -1145.08 280.40799 9.2197031e-39
2126.74 -1016.14 290.42401 9.2197031e-39
1905.9 7801.4399 322.495 9.2197031e-39
2296.8501 -836.44995 337.827 9.2197031e-39
1963.2 7799.1699 337.81299 9.2197031e-39
2358.95 -1448.79 348.12299 9.2197031e-39
2045.3199 7810.77 359.922 9.2197031e-39
2495.53 -937.95996 389.974 9.2197031e-39
2485.2 -706.90002 389.59799 9.2197031e-39
2469.5801 -691.02002 385.57999 9.2197031e-39
2458.54 -680.06995 382.737 9.2197031e-39
2464 -670.90002 384.29599 9.2197031e-39
2472.3701 -665.64001 386.591 9.2197031e-39
2474.8999 -655.53003 387.37201 9.2197031e-39
2484.1299 -650.31006 389.897 9.2197031e-39
2498.75 -719.18005 393.10001 9.2197031e-39
2510.95 -646.08997 397.12299 9.2197031e-39
2549.8601 -747.71997 406.48901 9.2197031e-39
2528.6201 -642.47998 401.892 9.2197031e-39
2606.4099 -984.13 419.185 9.2197031e-39
2591.49 -770.53003 417.39899 9.2197031e-39
2567.74 -640.13 412.38901 9.2197031e-39
2581.6399 -634.97998 416.16501 9.2197031e-39
2573.27 -137.28198 419.07199 9.2197031e-39
2568.4299 -109.89301 418.05899 9.2197031e-39
2554.9399 -93.448975 414.61801 9.2197031e-39
2566.3899 -98.515991 417.63 9.2197031e-39
2552.74 -82.198975 414.14301 9.2197031e-39
2557.8401 -72.124023 415.61301 9.2197031e-39
2543.45 -64.765015 411.83801 9.2197031e-39
2568.5801 -47.810974 418.741 9.2197031e-39
2622.49 -982.33997 423.509 9.2197031e-39
2641.1299 -977.30005 428.55399 9.2197031e-39
2643.3601 -968.03003 429.24399 9.2197031e-39
2638.1201 -799.71997 429.582 9.2197031e-39
2614.1799 -630.02002 424.92801 9.2197031e-39
2629 -624.48999 428.95401 9.2197031e-39
2618.23 -589.83997 426.427 9.2197031e-39
2626.1699 -582.70996 428.62701 9.2197031e-39
2615.6201 -440.91003 427.271 9.2197031e-39
2620.1699 -449.31995 428.40201 9.2197031e-39
2623.6399 -429.47998 429.53699 9.2197031e-39
2601.26 -142.37299 426.51199 9.2197031e-39
2579.8101 -127.21399 420.92499 9.2197031e-39
2576.0701 -116.23798 420.03799 9.2197031e-39
2589.6899 -28.075012 424.59601 9.2197031e-39
2608.9199 -12.237 429.91 9.2197031e-39
2657.6001 -960.39001 433.13699 9.2197031e-39
2669.3301 -955.67004 436.327 9.2197031e-39
2676.47 -944.29004 438.35699 9.2197031e-39
2680.0601 -910.69995 439.664 9.2197031e-39
2676.05 -894.57996 438.75699 9.2197031e-39
2679.4299 -885.93005 439.75201 9.2197031e-39
2674.915 -864.92499 438.7605 9.2197031e-39
2670.98 -844.52002 437.918 9.2197031e-39
2662.2 -831.45996 435.702 9.2197031e-39
2649.9299 -813.38 432.604 9.2197031e-39
2652.52 -608.04004 435.42099 9.2197031e-39
2640.29 -572.87 432.51099 9.2197031e-39
2636.6499 -563.79004 431.629 9.2197031e-39
2633.3601 -551.31006 430.87799 9.2197031e-39
2637.23 -543.33997 431.996 9.2197031e-39
2640.45 -531.70996 432.98001 9.2197031e-39
2633.6201 -522.5 431.245 9.2197031e-39
2637.6001 -510.96997 432.431 9.2197031e-39
2634.46 -502.26001 431.67999 9.2197031e-39
2639.21 -490.73999 433.07199 9.2197031e-39
2638.8201 -482.30005 433.05301 9.2197031e-39
2658.8101 -471.60999 438.51599 9.2197031e-39
2636.0801 -461.84998 432.53201 9.2197031e-39
2628.6101 -421.31006 430.952 9.2197031e-39
2643.03 -385.13 435.18649 9.2197031e-39
2638.8 -369.138 434.21899 9.2197031e-39
2649.1399 -360.37 437.077 9.2197031e-39
2643.3799 -340.21997 435.745 9.2197031e-39
2650.5601 -348.30902 437.58301 9.2197031e-39
2637.8601 -328.63 434.38599 9.2197031e-39
2641.1499 -319.97998 435.35599 9.2197031e-39
2646.02 -307.612 436.789 9.2197031e-39
2651.0801 -298.65601 438.23599 9.2197031e-39
2654.77 -286.177 439.353 9.2197031e-39
2631.02 -156.34399 434.336 9.2197031e-39
2624.73 -145.44702 432.76501 9.2197031e-39
2683.74 -937.26001 440.375 9.2197031e-39
2683.6001 -922.53003 440.491 9.2197031e-39
2697.6599 -625.31995 447.328 9.2197031e-39
2663.51 -276.63 441.793 9.2197031e-39
2665.0601 -264.16498 442.33499 9.2197031e-39
2675.54 -254.12201 445.246 9.2197031e-39
2678.77 -241.21198 446.24399 9.2197031e-39
2689.0701 -230.85901 449.108 9.2197031e-39
2711.21 -147.92999 455.89499 9.2197031e-39
2929.9099 -2134.45 493.90302 9.2197031e-39
2964.5801 -2140.71 503.12299 9.2197031e-39
2982.3701 -2136.6799 507.92801 9.2197031e-39
2973.04 -2066.25 506.15701 9.2197031e-39
2980.8301 -2041.24 508.50299 9.2197031e-39
3005.8301 -2128.6101 514.29303 9.2197031e-39
3012.04 -2052.22 516.74597 9.2197031e-39
2952.3101 -400.96002 517.83301 9.2197031e-39
3052.96 -2063.1399 527.58899 9.2197031e-39
3054.3799 -2040.8799 528.19897 9.2197031e-39
3052.76 -2006.0801 528.125 9.2197031e-39
3043.3101 -1973.3999 525.93402 9.2197031e-39
2960.3701 130.69 525.48798 9.2197031e-39
3072.0901 -412.45996 549.78497 9.2197031e-39
3090.1399 -155.10101 557.27802 9.2197031e-39
3096.9199 -141.93799 559.23102 9.2197031e-39
3092.3201 -125.56702 558.16803 9.2197031e-39
3096.8301 -95.322998 559.68799 9.2197031e-39
3096.51 -83.143005 559.729 9.2197031e-39
3101.73 -111.70898 560.82898 9.2197031e-39
3096.1899 194.26199 562.51202 9.2197031e-39
3099.2 214.47501 563.52698 9.2197031e-39
3094.8301 226.28799 562.47803 9.2197031e-39
3097.46 246.64899 563.39301 9.2197031e-39
3100.9099 261.827 564.474 9.2197031e-39
3094.22 278.564 562.85602 9.2197031e-39
3098.27 294.255 564.104 9.2197031e-39
3100.1001 314.97198 564.80902 9.2197031e-39
3101.2 329.64401 565.25201 9.2197031e-39
3093.8401 346.38199 563.45502 9.2197031e-39
3097.28 362.388 564.54303 9.2197031e-39
3096.5601 382.54602 564.55798 9.2197031e-39
3100.54 399.168 565.797 9.2197031e-39
3100.26 419.93298 565.935 9.2197031e-39
3101.3201 435.39099 566.38 9.2197031e-39
3101.46 456.76599 566.63898 9.2197031e-39
3096.25 469.065 565.37 9.2197031e-39
3101.8999 493.89398 567.14099 9.2197031e-39
3096.4199 506.211 565.79999 9.2197031e-39
3094.8601 527.34479 565.60101 9.2197031e-39
3095.8201 543.62982 566.026 9.2197031e-39
3102.1101 569.98792 567.98297 9.2197031e-39
3102.6899 586.4621 568.30902 9.2197031e-39
3101 608.45508 568.08502 9.2197031e-39
3102.05 625.58527 568.54303 9.2197031e-39
3099.8899 647.71838 568.19299 9.2197031e-39
3099.77 664.44171 568.33197 9.2197031e-39
3101.46 731.57703 569.47998 9.2197031e-39
3100.5801 748.57202 569.41998 9.2197031e-39
2992.8 2987.2 563.71802 9.2197031e-39
3105.1499 692.23468 570.06299 9.2197031e-39
3104.6299 709.12799 570.09802 9.2197031e-39
3103.1799 775.78003 570.39899 9.2197031e-39
3103.47 794.09198 570.664 9.2197031e-39
3105.4399 821.58398 571.47699 9.2197031e-39
3104.52 839.46497 571.41602 9.2197031e-39
3099.76 862.33203 570.37701 9.2197031e-39
3105.29 885.85498 572.09998 9.2197031e-39
3107.49 915.10999 572.99298 9.2197031e-39
3105.71 933.28003 572.70398 9.2197031e-39
3105.74 961.53296 573.00598 9.2197031e-39
3110.9099 986.258 574.64502 9.2197031e-39
3104.3799 1009.596 573.13702 9.2197031e-39
3108.26 1033.9189 574.42902 9.2197031e-39
3106.8999 1062.6741 574.36298 9.2197031e-39
3110.21 1087.264 575.50098 9.2197031e-39
3108.8301 1116.948 575.43903 9.2197031e-39
3111.53 1141.796 576.42102 9.2197031e-39
3109.3999 1171.735 576.15802 9.2197031e-39
3105.27 1190.5701 575.24701 9.2197031e-39
3107.22 1225.5969 576.133 9.2197031e-39
3108.72 1250.9099 576.797 9.2197031e-39
3110.45 1287.0071 577.63098 9.2197031e-39
3110.6201 1311.855 577.935 9.2197031e-39
3110.75 1347.5701 578.33899 9.2197031e-39
3110.9399 1373.3679 578.65601 9.2197031e-39
3111.4299 1410.8721 579.177 9.2197031e-39
3116.0901 1442.848 580.755 9.2197031e-39
3114.9099 1479.98 580.823 9.2197031e-39
3112.4399 1504.741 580.41602 9.2197031e-39
3116.54 1549.76 581.97998 9.2197031e-39
3112.74 1573.959 581.21301 9.2197031e-39
3110.1799 1612.436 580.92603 9.2197031e-39
3112.99 1646.1 582.02802 9.2197031e-39
3114.1299 1691.15 582.79901 9.2197031e-39
3110.1101 1717.26 581.992 9.2197031e-39
3111.8201 1765.05 582.94397 9.2197031e-39
3114.5601 1801.72 584.05701 9.2197031e-39
3114.3401 1849.17 584.48798 9.2197031e-39
3113.8101 1882.9399 584.69598 9.2197031e-39
3113.3799 1932.39 585.09198 9.2197031e-39
3113 1968.0699 585.35999 9.2197031e-39
3114.4299 2022.86 586.30902 9.2197031e-39
3112.48 2058 586.151 9.2197031e-39
3109.73 2109.0601 585.94299 9.2197031e-39
3114.1101 2156.1802 587.60303 9.2197031e-39
3111.3601 2210.1699 587.42401 9.2197031e-39
3109.3401 2249.21 587.28802 9.2197031e-39
3110.54 2312.95 588.26898 9.2197031e-39
3110.3201 2357.4199 588.66803 9.2197031e-39
3109.6499 2421.6602 589.15503 9.2197031e-39
3110.51 2470.79 589.89398 9.2197031e-39
3108.8601 2537.25 590.14001 9.2197031e-39
3113.8701 2597.25 592.10101 9.2197031e-39
3112.8701 2669.5 592.58002 9.2197031e-39
3111.1799 2720.26 592.65302 9.2197031e-39
3110.6799 2798.3201 593.32501 9.2197031e-39
3115.71 2866.3601 595.375 9.2197031e-39
3114.4199 2948.5901 595.88202 9.2197031e-39
3114.9299 3011.75 596.67102 9.2197031e-39
3120.97 3116.21 599.37 9.2197031e-39
3095.1299 3125.45 592.547 9.2197031e-39
