# .PCD v0.7 - Point Cloud Data file format
VERSION 0.7
FIELDS x y z rgb
SIZE 4 4 4 4
TYPE F F F F
COUNT 1 1 1 1
WIDTH 313
HEIGHT 1
VIEWPOINT 0 0 0 1 0 0 0
POINTS 313
DATA ascii
2057.0449 -650.72504 134.48 9.2197031e-39
2063.1201 -650.26001 136.02699 9.2197031e-39
2070.4199 -655.75 137.252 9.2197031e-39
2072.77 -646.935 138.75351 9.2197031e-39
1836.02 -86.248009 138.96068 9.2197031e-39
1830.3199 -74.674011 138.76401 9.2197031e-39
-67.540703 4369.1797 135.108 9.2197031e-39
2073.6299 -635.43994 140.16901 9.2197031e-39
2074.8101 -628.16003 141.22099 9.2197031e-39
2074.3301 -614.94501 142.48349 9.2197031e-39
2081.52 -592.83997 146.569 9.2197031e-39
2065.1899 -585.87 143.27 9.2197031e-39
2061.47 -570.83997 143.923 9.2197031e-39
2073.46 -572.10999 146.748 9.2197031e-39
2071.6799 -561.56006 147.412 9.2197031e-39
2056.9299 -556.21997 144.33099 9.2197031e-39
2062.55 -540.22998 147.38901 9.2197031e-39
2037.0601 -491.40002 146.20399 9.2197031e-39
2007.6899 -439.06006 144.42999 9.2197031e-39
1991.11 -408.17004 143.569 9.2197031e-39
1978.55 -385.34998 142.855 9.2197031e-39
1966.98 -364.258 142.207 9.2197031e-39
1988.59 -362.97803 147.673 9.2197031e-39
1956.49 -346.03601 141.52299 9.2197031e-39
1956.1057 -335.05569 142.577 9.2197031e-39
1964.34 -335.15802 144.59801 9.2197031e-39
1953.975 -329.31851 142.651 9.2197031e-39
1874.9399 -93.473022 147.80701 9.2197031e-39
1848.1001 -81.006989 142.48849 9.2197031e-39
1852.6101 -83.64476 143.3255 9.2197031e-39
1836.13 -74.719513 140.1925 9.2197031e-39
1844.4249 -76.571503 142.04576 9.2197031e-39
1854.495 -70.1315 145.2045 9.2197031e-39
1869.05 -71.437988 148.659 9.2197031e-39
1873.0779 -76.501404 149.1228 9.2197031e-39
1837.3966 -66.073326 141.40967 9.2197031e-39
1857.04 -63.575336 146.51698 9.2197031e-39
1864.0699 -64.306 148.17499 9.2197031e-39
1859.47 -59.747986 147.51601 9.2197031e-39
1864.7251 -59.045013 148.88699 9.2197031e-39
-24.966999 4365.29 145.20599 9.2197031e-39
2061.1699 -437.21997 157.81599 9.2197031e-39
2041.09 -417.73999 154.899 9.2197031e-39
2021.04 -396.88 152.134 9.2197031e-39
2011.8101 -389.03998 150.67599 9.2197031e-39
1878.47 -58.853027 152.299 9.2197031e-39
25.0497 4364.0703 157.418 9.2197031e-39
2126.5901 -502.92004 167.09 9.2197031e-39
2087.8 -464.17004 161.569 9.2197031e-39
66.919899 4360.2402 167.34801 9.2197031e-39
2209.8101 -590.07996 178.509 9.2197031e-39
409.88199 3593.3501 171.78799 9.2197031e-39
483.33301 3592.8401 189.856 9.2197031e-39
438.57599 3605.21 180.10699 9.2197031e-39
1057.62 2275.02 193.77299 9.2197031e-39
1075.4301 2284.8301 199.192 9.2197031e-39
991.42297 2395.4102 190.02699 9.2197031e-39
515.737 3593.75 197.94501 9.2197031e-39
2370.9199 -757.03003 200.802 9.2197031e-39
1100.48 2286.21 205.51601 9.2197031e-39
554.75098 3595.5901 207.763 9.2197031e-39
2467.3 -839.51001 215.957 9.2197031e-39
2467.0701 -829.82996 216.914 9.2197031e-39
2436.3501 -818.35999 210.535 9.2197031e-39
2486.6399 -838.22998 220.86301 9.2197031e-39
2492.6699 -834.78003 222.71201 9.2197031e-39
2501.1101 -831.57996 225.129 9.2197031e-39
2506.3899 -827.29004 226.88 9.2197031e-39
2515.53 -824.58997 229.41701 9.2197031e-39
2436.1299 -677.76001 225.1785 9.2197031e-39
2425.6299 -657.13 224.743 9.2197031e-39
2421.8301 -647.25 224.84 9.2197031e-39
2411.51 -631.09998 223.98199 9.2197031e-39
2414.5601 -626.81995 225.181 9.2197031e-39
2403.8701 -610.97998 224.2 9.2197031e-39
2406.76 -606.76001 225.355 9.2197031e-39
2408.01 -596.875 226.6965 9.2197031e-39
2409.1101 -587.02002 227.99699 9.2197031e-39
2514.21 -814.08997 230.188 9.2197031e-39
2514.45 -803.21997 231.38499 9.2197031e-39
2523.98 -802.78003 233.78101 9.2197031e-39
2523.1699 -786.70502 235.26199 9.2197031e-39
2529.6399 -777.18005 237.854 9.2197031e-39
2528.45 -767.52002 238.571 9.2197031e-39
2419.2 -587.72998 230.412 9.2197031e-39
2421.6699 -581.89001 231.633 9.2197031e-39
2432.6299 -582.90002 234.231 9.2197031e-39
2443.3799 -582.23999 236.953 9.2197031e-39
2452.75 -581.89001 239.30099 9.2197031e-39
2462.73 -580.38 241.92 9.2197031e-39
2466.115 -572.28503 243.6015 9.2197031e-39
2480.51 -570.60999 247.32899 9.2197031e-39
2499.95 -573.93005 251.778 9.2197031e-39
2512.8899 -574.68005 254.89101 9.2197031e-39
2526.4399 -574.09998 258.29501 9.2197031e-39
2576.7 -585.71997 269.48001 9.2197031e-39
2540.3301 -574.91003 261.638 9.2197031e-39
2618.6799 -591.26001 279.259 9.2197031e-39
2579.3601 -580.09998 270.724 9.2197031e-39
2634.6499 -591.79004 283.142 9.2197031e-39
2641.48 -586.06995 285.42499 9.2197031e-39
2660.1699 -587.43994 289.89499 9.2197031e-39
2642.8101 -570.37 287.39499 9.2197031e-39
2657.01 -569.43005 290.99701 9.2197031e-39
2648.3501 -556.68994 290.19299 9.2197031e-39
2652.5801 -551.26001 291.80399 9.2197031e-39
2647.3 -540.26001 291.651 9.2197031e-39
2657.79 -537.39001 294.539 9.2197031e-39
2661.1951 -526.40497 296.52802 9.2197031e-39
2675.645 -515.95001 301.185 9.2197031e-39
2678.3 -504.56995 303.03201 9.2197031e-39
2671.05 -494.91003 302.25101 9.2197031e-39
2682.72 -486.67505 305.99249 9.2197031e-39
2683.1201 -474.63 307.349 9.2197031e-39
2690.52 -469.84998 309.67401 9.2197031e-39
2636.8799 -430.78003 300.52701 9.2197031e-39
2642.1201 -425.67004 302.353 9.2197031e-39
2642.6201 -414.565 303.63702 9.2197031e-39
2653.4399 -405.98999 307.202 9.2197031e-39
2666.1299 -402.35999 310.71201 9.2197031e-39
2698.1399 -401.34998 318.71701 9.2197031e-39
2661.5701 -328.98499 317.259 9.2197031e-39
2648.1799 -316.25101 315.28699 9.2197031e-39
2753.6699 -479.94995 324.198 9.2197031e-39
2733.8301 -466.66003 320.69501 9.2197031e-39
2704.1399 -395.73999 320.78299 9.2197031e-39
2687.6299 -306.51001 326.03751 9.2197031e-39
2678.27 -294.28497 325.00699 9.2197031e-39
2685.6602 -284.3815 327.86652 9.2197031e-39
2686.1599 -273.85199 329.09 9.2197031e-39
2616.325 -104.47699 329.56799 9.2197031e-39
2598.97 -90.004028 326.798 9.2197031e-39
2609.8601 -95.588989 328.901 9.2197031e-39
2600.6699 -83.593994 327.88699 9.2197031e-39
2590.98 -74.984009 326.397 9.2197031e-39
2578 -61.288025 324.62601 9.2197031e-39
2582.1599 -66.406982 325.11801 9.2197031e-39
2570.6699 -55.642029 323.41 9.2197031e-39
2695.1799 -266.37201 332.09799 9.2197031e-39
2694.47 -255.646 333.04248 9.2197031e-39
2706.26 -245.37201 337.02701 9.2197031e-39
2708.22 -237.22601 338.36099 9.2197031e-39
2622.72 -113.505 330.20001 9.2197031e-39
2648.8101 -117.66199 336.203 9.2197031e-39
2593.6899 -44.070984 330.29901 9.2197031e-39
2608.73 -32.690002 335.19699 9.2197031e-39
2604.3201 -27.452026 334.659 9.2197031e-39
2719.8201 -230.65302 341.91101 9.2197031e-39
2726.49 -222.35699 344.423 9.2197031e-39
2738.95 -215.42102 348.22101 9.2197031e-39
2630.3101 -12.619019 342.62 9.2197031e-39
2645.3 -1.7730103 347.453 9.2197031e-39
2865.3701 -419.97998 358.02701 9.2197031e-39
2840.22 -361.84802 357.89801 9.2197031e-39
2663.46 11.809021 353.353 9.2197031e-39
2672.6201 21.559998 356.63199 9.2197031e-39
2880.1101 -414.62 362.224 9.2197031e-39
2882.6201 -404.93005 363.85501 9.2197031e-39
2946.27 -407.81006 379.259 9.2197031e-39
2879.46 -95.960999 395.37701 9.2197031e-39
3109.3799 -424.13 417.79401 9.2197031e-39
3110.6799 -414.18994 419.15302 9.2197031e-39
3106.48 -201.90802 440.31 9.2197031e-39
3113.8301 -191.78497 443.18201 9.2197031e-39
3120.99 -179.33801 446.24799 9.2197031e-39
3119.4299 -169.30103 446.914 9.2197031e-39
3119.5801 -156.98999 448.23801 9.2197031e-39
3117.8601 -146.97803 448.85901 9.2197031e-39
3115.8701 -134.79199 449.64099 9.2197031e-39
3125.5701 -123.94702 453.16901 9.2197031e-39
3124.3301 -111.61603 454.15201 9.2197031e-39
3122.25 -101.59302 454.68799 9.2197031e-39
3110.8601 -80.169983 454.117 9.2197031e-39
3121.77 -89.190002 455.86401 9.2197031e-39
3112.1001 166.88501 480.25101 9.2197031e-39
3116.22 179.30099 482.565 9.2197031e-39
3121.3101 194.634 485.42499 9.2197031e-39
3126.0901 207.57199 487.95499 9.2197031e-39
3122.6499 220.29199 488.43701 9.2197031e-39
3126.27 233.06601 490.664 9.2197031e-39
3123.49 246.146 491.34698 9.2197031e-39
3128.6699 259.74899 494.04599 9.2197031e-39
3122.9299 271.83099 493.89401 9.2197031e-39
3126.95 285.237 496.28601 9.2197031e-39
3122.76 298.02899 496.59201 9.2197031e-39
3126.52 311.582 498.935 9.2197031e-39
3129.1699 327.47101 501.25 9.2197031e-39
3124.6899 337.69601 501.21399 9.2197031e-39
3120 350.509 501.397 9.2197031e-39
3131.1101 368.00702 505.966 9.2197031e-39
3125.26 380.48801 505.827 9.2197031e-39
3129.9199 395.35199 508.53101 9.2197031e-39
3122.95 407.39301 508.07101 9.2197031e-39
3124.74 421.09698 509.94501 9.2197031e-39
3126.1001 437.55701 512.00098 9.2197031e-39
3128.4399 451.86902 514.07599 9.2197031e-39
3130.29 468.974 516.31897 9.2197031e-39
3132.3201 483.46399 518.33398 9.2197031e-39
3126.23 496.457 518.19 9.2197031e-39
3133.8201 514.45502 521.94397 9.2197031e-39
3126.6001 526.99017 521.47302 9.2197031e-39
3136.29 546.73901 525.92999 9.2197031e-39
3128.77 559.30493 525.38702 9.2197031e-39
3137.23 578.84473 529.51703 9.2197031e-39
3129.3999 591.4259 528.90198 9.2197031e-39
3130.98 606.99957 530.91901 9.2197031e-39
3129.3201 623.8316 532.26898 9.2197031e-39
3138.54 645.00519 536.758 9.2197031e-39
3129.3 657.0592 535.73901 9.2197031e-39
3136.5 677.40833 539.64099 9.2197031e-39
3136.3701 696.24078 541.57898 9.2197031e-39
3135.29 711.17401 542.87402 9.2197031e-39
3133.97 729.57599 544.46997 9.2197031e-39
3138.7 749.31 547.70099 9.2197031e-39
3138.4399 769.08301 549.70398 9.2197031e-39
3137.3899 784.87097 551.09601 9.2197031e-39
3135.9199 804.19501 552.75201 9.2197031e-39
3132.26 818.245 553.31897 9.2197031e-39
3131.1001 838.29797 555.12903 9.2197031e-39
3135.96 859.94397 558.591 9.2197031e-39
3132.0801 878.29297 559.552 9.2197031e-39
3137.8799 901.479 563.40802 9.2197031e-39
3133.51 919.97498 564.26398 9.2197031e-39
3138.0601 942.78601 567.76898 9.2197031e-39
3133.8999 962.07202 568.76099 9.2197031e-39
3137.2 984.47198 571.91498 9.2197031e-39
3131.8401 1003.21 572.55298 9.2197031e-39
3135.3 1026.511 575.84198 9.2197031e-39
3136.98 1052.921 579.01599 9.2197031e-39
3133.03 1069.573 579.784 9.2197031e-39
3132.72 1094.817 582.34497 9.2197031e-39
3135.01 1118.613 585.39899 9.2197031e-39
3134.6699 1144.818 588.05499 9.2197031e-39
3142.24 1175.332 593.11102 9.2197031e-39
3141.1299 1201.848 595.60999 9.2197031e-39
3142.76 1226.916 598.63397 9.2197031e-39
3140.3 1252.9341 600.745 9.2197031e-39
3141.9099 1278.98 603.86603 9.2197031e-39
3139.3501 1305.9561 606.05402 9.2197031e-39
3137.2 1328.4761 607.87903 9.2197031e-39
3134.53 1356.391 610.13898 9.2197031e-39
3140.8301 1390.5281 615.26202 9.2197031e-39
3136.72 1417.9409 617.11298 9.2197031e-39
3140.95 1450.895 621.60303 9.2197031e-39
3136.6001 1479.3101 623.5 9.2197031e-39
3138.24 1510.2271 627.13702 9.2197031e-39
3138.1799 1545.9661 630.85699 9.2197031e-39
3140.0701 1578.7739 634.75403 9.2197031e-39
3138.4099 1614.0439 638.03198 9.2197031e-39
3144.3301 1654.42 643.71198 9.2197031e-39
3141.5701 1690.03 646.75299 9.2197031e-39
3141.04 1722.64 650.03101 9.2197031e-39
3136.1899 1756.86 652.41302 9.2197031e-39
3142.04 1801.28 658.5 9.2197031e-39
3138.6399 1839.9399 661.703 9.2197031e-39
3142.25 1883.11 667.10699 9.2197031e-39
3138.6299 1923.76 670.46399 9.2197031e-39
3140.05 1965.61 675.18903 9.2197031e-39
3136.1399 2008.26 678.68402 9.2197031e-39
3139.22 2055.5698 684.39001 9.2197031e-39
3138.6399 2107.1299 689.63599 9.2197031e-39
3139.8601 2153.99 694.836 9.2197031e-39
3133.6001 2198.1499 697.90997 9.2197031e-39
3138.4099 2254.9302 705.03101 9.2197031e-39
3138.99 2316.0601 711.565 9.2197031e-39
3140.3601 2369.8198 717.52301 9.2197031e-39
3133.1101 2419.04 720.88 9.2197031e-39
3139.6001 2487.3701 729.62402 9.2197031e-39
3137.55 2552.1001 735.88599 9.2197031e-39
3138.01 2612.03 742.26398 9.2197031e-39
3135.8601 2681.7 749.01703 9.2197031e-39
3136.78 2747.47 756.12 9.2197031e-39
3020.9199 3017.6101 755.776 9.2197031e-39
3137.6499 2830.3101 764.99597 9.2197031e-39
3077.0801 2997 767.479 9.2197031e-39
3055.49 3016.49 764.18701 9.2197031e-39
2933.3601 3351.1399 769.04199 9.2197031e-39
2913.3501 3386.8101 767.836 9.2197031e-39
3137.96 2900.1899 772.37799 9.2197031e-39
2972.77 3358.53 779.53998 9.2197031e-39
3139.0801 2990.9299 782.14001 9.2197031e-39
2999.8401 3346.97 785.00897 9.2197031e-39
3141.02 3071.3899 791.03003 9.2197031e-39
3081.4399 3274.8101 797.59802 9.2197031e-39
3057.48 3314.4399 795.828 9.2197031e-39
3037.1101 3346.1101 794.11298 9.2197031e-39
2932.51 3588.72 793.66901 9.2197031e-39
2909.96 3623.6101 791.755 9.2197031e-39
2582.4199 4455.25 797.88898 9.2197031e-39
2549.04 4480.3799 792.27899 9.2197031e-39
2629.3101 4465.5098 810.52899 9.2197031e-39
2667.24 4469.0801 820.26001 9.2197031e-39
2852.26 4169.9199 834.633 9.2197031e-39
2712.5 4466.75 831.18201 9.2197031e-39
2890.6101 4146.54 841.65002 9.2197031e-39
2751.1799 4472.52 841.32898 9.2197031e-39
2938.23 4194.9297 858.45697 9.2197031e-39
2796.79 4470.3101 852.35101 9.2197031e-39
2575.5 5013.2998 854.51898 9.2197031e-39
2833.76 4465.6699 860.987 9.2197031e-39
2879.6699 4463.5801 872.09399 9.2197031e-39
3001.9099 4271.2803 882.14899 9.2197031e-39
3041.0601 4278.3398 892.547 9.2197031e-39
2234.04 7315.8198 1010.99 9.2197031e-39
2305.78 7329.9502 1030.16 9.2197031e-39
2365.0701 7343.5601 1046.22 9.2197031e-39
2437.1299 7352.3999 1064.92 9.2197031e-39
2496.45 7358.98 1080.24 9.2197031e-39
2569.8501 7376.3799 1100.17 9.2197031e-39
2629.3 7378.8999 1115.1 9.2197031e-39
2703.1499 7392.9502 1134.79 9.2197031e-39
2763.49 7399.29 1150.34 9.2197031e-39
2839.2 7421.7998 1171.37 9.2197031e-39
