# .PCD v0.7 - Point Cloud Data file format
VERSION 0.7
FIELDS x y z rgb
SIZE 4 4 4 4
TYPE F F F F
COUNT 1 1 1 1
WIDTH 327
HEIGHT 1
VIEWPOINT 0 0 0 1 0 0 0
POINTS 327
DATA ascii
2785.95 -1138.15 137.03999 9.2197031e-39
2749.48 -1112.41 133.778 9.2197031e-39
2735.03 -1060.85 139.45 9.2197031e-39
1854.3501 26.76149 139.1465 9.2197031e-39
1861.58 20.575012 139.61099 9.2197031e-39
-811.62 3298.5 134.746 9.2197031e-39
2599.8301 -884.45996 140.992 9.2197031e-39
2414.29 -657.56995 140.549 9.2197031e-39
2389.5901 -619.39001 141.83501 9.2197031e-39
2368.29 -587.45996 142.774 9.2197031e-39
2337.6799 -545.02002 143.54401 9.2197031e-39
2302.4299 -500 143.783 9.2197031e-39
2269.6899 -458.03003 144.032 9.2197031e-39
2248.27 -430.07996 144.276 9.2197031e-39
2237.99 -413.56995 144.91499 9.2197031e-39
2217.9199 -388.41998 144.96899 9.2197031e-39
2207.74 -373.10999 145.427 9.2197031e-39
2184.8301 -346.48401 145.13699 9.2197031e-39
2179.1101 -336.54102 145.621 9.2197031e-39
2162.05 -316.74402 145.401 9.2197031e-39
2150.8101 -302.38898 145.47701 9.2197031e-39
2122.8601 -273.70697 144.483 9.2197031e-39
2093.9199 -244.60199 143.355 9.2197031e-39
2079.3 -229.43298 142.866 9.2197031e-39
2093.3799 -212.63898 148.62801 9.2197031e-39
2059.3301 -209.75403 142.01801 9.2197031e-39
2046.5 -197.073 141.481 9.2197031e-39
2036.984 -184.36919 141.63779 9.2197031e-39
2047.9451 -184.53851 143.89349 9.2197031e-39
2051.5449 -187.203 144.19501 9.2197031e-39
2035.4301 -178.85602 142.243 9.2197031e-39
1864.8899 29.075989 141.733 9.2197031e-39
1873.9 27.088989 143.27533 9.2197031e-39
1853.72 37.925995 140.896 9.2197031e-39
1863.9301 32.902496 142.17751 9.2197031e-39
1871.87 37.784973 144.65401 9.2197031e-39
1887.05 39.934998 148.179 9.2197031e-39
1894.7699 34.976612 148.95259 9.2197031e-39
1869.05 47.405029 145.688 9.2197031e-39
1870.4 47.937988 146.058 9.2197031e-39
1884.665 47.009003 148.875 9.2197031e-39
1890.26 41.85498 149.17101 9.2197031e-39
1868.9399 54.85498 146.92 9.2197031e-39
1875.2859 56.461998 148.51241 9.2197031e-39
1869.0699 62.343018 148.20799 9.2197031e-39
1871.25 61.004028 148.437 9.2197031e-39
-776.97302 3309.5801 143.832 9.2197031e-39
2180.71 -264.87903 158.02499 9.2197031e-39
2130.73 -233.87299 152.834 9.2197031e-39
2113.1201 -224.38 150.763 9.2197031e-39
1889.98 63.265991 152.71899 9.2197031e-39
-771.76703 3367.0801 154.603 9.2197031e-39
2274.8201 -319.21802 168.48199 9.2197031e-39
2220.5601 -287.62299 162.49699 9.2197031e-39
-351.939 2932.78 168.927 9.2197031e-39
-767.17297 3417.3501 164.028 9.2197031e-39
2340 -355.80298 175.90199 9.2197031e-39
-379.98999 3020.3101 177.826 9.2197031e-39
2434.3 -409.62 186.48599 9.2197031e-39
-323.32101 3002.22 186.588 9.2197031e-39
-254.231 2956.98 193.36301 9.2197031e-39
2619.03 -507.78003 208.44501 9.2197031e-39
2586.95 -495.70996 203.793 9.2197031e-39
-237.826 2992.9099 202.83501 9.2197031e-39
2629.48 -505.39001 211.024 9.2197031e-39
2638.5701 -503.27002 213.27699 9.2197031e-39
2646.4299 -499.12 215.614 9.2197031e-39
2654.6499 -496.27002 217.806 9.2197031e-39
-138.12199 2959.21 217.93401 9.2197031e-39
-229.474 3032.6399 211.26801 9.2197031e-39
2696.1899 -502.28003 225.45 9.2197031e-39
2713.8201 -502.43994 229.095 9.2197031e-39
2669.49 -495.66003 221.00101 9.2197031e-39
2634.3301 -454.43994 220.617 9.2197031e-39
2619.4099 -432.26001 221.245 9.2197031e-39
2620.47 -439.52002 220.243 9.2197031e-39
2615.0901 -422.43994 221.99899 9.2197031e-39
2624.6799 -420.30005 224.35899 9.2197031e-39
2629.24 -414.64001 226.261 9.2197031e-39
2639.73 -412.66003 228.78 9.2197031e-39
-115.226 2976.76 225.661 9.2197031e-39
2646.04 -407.62 230.946 9.2197031e-39
2661.0901 -407.29004 234.138 9.2197031e-39
2656.3701 -397.44 234.812 9.2197031e-39
-93.667503 3005.05 234.91901 9.2197031e-39
2734.8401 -413.76001 248.41499 9.2197031e-39
2686.1399 -402.72998 240.12399 9.2197031e-39
2691.1499 -360.12 248.34599 9.2197031e-39
2628.53 -331.38 240.13901 9.2197031e-39
2624.54 -323.92999 240.562 9.2197031e-39
2622.6101 -316.24298 241.455 9.2197031e-39
2619.4199 -309.22601 241.972 9.2197031e-39
2640.0901 -308.38 246.422 9.2197031e-39
2651.0601 -305.39398 249.21001 9.2197031e-39
2667.96 -302.862 253.158 9.2197031e-39
2671.28 -297.43201 254.765 9.2197031e-39
2682.4199 -292.95599 257.841 9.2197031e-39
2685.6699 -287.37201 259.45801 9.2197031e-39
2852.0601 -441.59998 268.151 9.2197031e-39
2819.5 -438.84998 261.82901 9.2197031e-39
2847.0801 -431.48999 268.81601 9.2197031e-39
2686.325 -276.89099 261.3605 9.2197031e-39
2693.6748 -264.73199 264.94 9.2197031e-39
2699.8201 -255.367 267.79901 9.2197031e-39
2699.8799 -248.96399 268.88901 9.2197031e-39
2582.1599 -104.47998 268.698 9.2197031e-39
2551.4399 -93.286987 264.18201 9.2197031e-39
2566.3501 -99.171997 266.297 9.2197031e-39
2549.25 -88.273987 264.57101 9.2197031e-39
2558.71 -82.166016 267.57001 9.2197031e-39
2555.7349 -74.195007 268.29199 9.2197031e-39
2852.6499 -423.90002 271.25601 9.2197031e-39
2710.6899 -243.53302 272.056 9.2197031e-39
2721.3101 -238.95099 275.04099 9.2197031e-39
2602.8501 -111.01898 271.90799 9.2197031e-39
2629.3601 -117.18201 276.39401 9.2197031e-39
2561.45 -65.809998 270.897 9.2197031e-39
2577.2349 -56.184021 275.8075 9.2197031e-39
2576.99 -44.712982 277.68903 9.2197031e-39
2582.73 -35.299011 280.47 9.2197031e-39
2584.49 -26.576019 282.30701 9.2197031e-39
2597.77 -16.35498 286.79501 9.2197031e-39
2621.8799 -6.6829834 293.44901 9.2197031e-39
2638.3101 1.4110107 298.23499 9.2197031e-39
2666.02 12.497009 305.87701 9.2197031e-39
2925.27 -265.60303 313.052 9.2197031e-39
3096.3999 -284.729 345.491 9.2197031e-39
3098.6899 -273.90198 347.79099 9.2197031e-39
3098.76 -264.31201 349.422 9.2197031e-39
3090.1299 -252.01898 349.69501 9.2197031e-39
3091.98 -242.75299 351.64099 9.2197031e-39
3092.9099 -231.80902 353.677 9.2197031e-39
3093.6201 -222.39398 355.41199 9.2197031e-39
3093.3799 -211.33502 357.224 9.2197031e-39
3094.8999 -201.99799 359.11401 9.2197031e-39
3095.4399 -191.01599 361.077 9.2197031e-39
3094.8501 -181.50098 362.556 9.2197031e-39
3096.1799 -170.57397 364.67401 9.2197031e-39
3096.3999 -161.11798 366.31299 9.2197031e-39
3088.73 -149.763 366.62601 9.2197031e-39
3076.05 -139.90302 365.646 9.2197031e-39
2955.3999 64.840027 374.99399 9.2197031e-39
3080.24 96.036987 406.263 9.2197031e-39
3095.5801 108.495 411.55899 9.2197031e-39
3101.8401 121.185 415 9.2197031e-39
3099.72 130.758 416.17099 9.2197031e-39
3099.0601 142.26999 417.97299 9.2197031e-39
3096.77 151.82501 419.10599 9.2197031e-39
3094.02 162.922 420.401 9.2197031e-39
3091.5701 172.44101 421.49399 9.2197031e-39
3098.0601 185.79501 425.09698 9.2197031e-39
3095.4199 195.353 426.15799 9.2197031e-39
3101.6599 208.91699 429.741 9.2197031e-39
3098.8401 218.509 430.76901 9.2197031e-39
3095.46 229.64401 431.94 9.2197031e-39
3092.47 239.19101 432.92599 9.2197031e-39
3098.1899 253.07101 436.457 9.2197031e-39
3093.1599 262.07001 436.92499 9.2197031e-39
3097.6899 275.83099 440.18701 9.2197031e-39
3094.3401 285.40799 441.10101 9.2197031e-39
3099.52 299.646 444.578 9.2197031e-39
3095.97 309.24301 445.45499 9.2197031e-39
3099.95 323.33801 448.659 9.2197031e-39
3096.21 332.944 449.49799 9.2197031e-39
3100.8201 347.53799 452.91699 9.2197031e-39
3105.9099 360.68399 456.19299 9.2197031e-39
3101.2 371.92499 457.10501 9.2197031e-39
3105.1399 384.871 460.10599 9.2197031e-39
3100.2 396.112 460.97101 9.2197031e-39
3095.8799 405.737 461.69199 9.2197031e-39
3099.6001 420.827 465.01001 9.2197031e-39
3103.01 434.05798 467.94901 9.2197031e-39
3095.8701 444.474 468.215 9.2197031e-39
3101.6499 459.07001 471.87701 9.2197031e-39
3103.8501 474.11798 474.871 9.2197031e-39
3098.8999 483.79199 475.46899 9.2197031e-39
3101.6599 499.39999 478.67401 9.2197031e-39
3102.51 512.19202 481.00601 9.2197031e-39
3105.78 528.45117 484.42599 9.2197031e-39
3100.3999 538.15393 484.93799 9.2197031e-39
3100.79 553.1557 487.548 9.2197031e-39
3101.9399 566.64423 490.05899 9.2197031e-39
3104.5 583.24579 493.39001 9.2197031e-39
3106.1699 597.38422 496.11801 9.2197031e-39
3100.9099 609.69342 497.09601 9.2197031e-39
3100.6299 622.92786 499.26801 9.2197031e-39
3103.29 640.37433 502.76099 9.2197031e-39
3097.01 650.08368 503.08801 9.2197031e-39
3096.8799 666.08893 505.75601 9.2197031e-39
3096.02 679.50873 507.83801 9.2197031e-39
3095.53 695.64252 510.453 9.2197031e-39
3095.95 710.26099 513.00299 9.2197031e-39
3095.8701 727.08997 515.82098 9.2197031e-39
3102.99 746.93298 520.64899 9.2197031e-39
3103.24 764.552 523.66901 9.2197031e-39
3102.9299 779.50403 526.12097 9.2197031e-39
3101.99 796.698 528.82202 9.2197031e-39
3101.3201 811.77301 531.22198 9.2197031e-39
3099.22 828.49701 533.60101 9.2197031e-39
3098.1899 843.67999 535.94598 9.2197031e-39
3102.4099 866.03198 540.58899 9.2197031e-39
3101.73 881.99097 543.13501 9.2197031e-39
3103.9099 903.37299 547.19202 9.2197031e-39
3110.8401 926.45496 552.52399 9.2197031e-39
3105.9099 942.38196 554.18103 9.2197031e-39
3104.3899 958.65198 556.604 9.2197031e-39
1264.99 3241.3999 557.84497 9.2197031e-39
1225.11 3300.9299 559.56299 9.2197031e-39
3109.05 983.76697 561.80499 9.2197031e-39
3106.3701 999.54199 563.90399 9.2197031e-39
3106.8899 1021.625 567.73297 9.2197031e-39
3106.5801 1040.194 570.79602 9.2197031e-39
3107.9099 1063.849 575.05798 9.2197031e-39
3111.1899 1086.709 579.59198 9.2197031e-39
1287.62 3290.3501 570.80603 9.2197031e-39
3113.21 1112.026 584.27899 9.2197031e-39
3109.1799 1128.203 586.16199 9.2197031e-39
1305.75 3343.3401 583.51099 9.2197031e-39
3109.8999 1153.053 590.5 9.2197031e-39
3111.3401 1175.704 594.61401 9.2197031e-39
3111.3799 1200.814 598.85303 9.2197031e-39
1080.1801 3673.6201 592.14301 9.2197031e-39
3112.8401 1224.423 603.13397 9.2197031e-39
3112.8201 1250.512 607.52502 9.2197031e-39
3106.7 1266.307 608.909 9.2197031e-39
1105.5601 3700.73 601.99902 9.2197031e-39
3105.3999 1291.8401 612.94098 9.2197031e-39
3111.2 1322.557 619.32397 9.2197031e-39
1304.03 3543.45 616.85999 9.2197031e-39
3115.8501 1356.615 626.02899 9.2197031e-39
3114.71 1380.193 629.763 9.2197031e-39
3112.4399 1407.02 633.80902 9.2197031e-39
3111.24 1431.547 637.69098 9.2197031e-39
3113.47 1465.52 643.87903 9.2197031e-39
3112.1201 1491.05 647.89801 9.2197031e-39
1312.05 3675.5801 640.789 9.2197031e-39
3113.97 1526.1379 654.19397 9.2197031e-39
3110.73 1550.322 657.59198 9.2197031e-39
3111.6001 1585.724 663.73798 9.2197031e-39
3113.6799 1618.8621 669.75201 9.2197031e-39
3112.3999 1653.01 675.23901 9.2197031e-39
3108.1699 1678.38 678.63098 9.2197031e-39
858.58398 4460.4502 678.51001 9.2197031e-39
3110.6899 1720.09 686.18103 9.2197031e-39
1308.47 3929.8201 682.87201 9.2197031e-39
3112.4199 1756.28 692.63702 9.2197031e-39
3111.6201 1795.11 699.01202 9.2197031e-39
3113.8 1834.11 706.03601 9.2197031e-39
3113.79 1876.61 713.19299 9.2197031e-39
3109.3899 1906.77 717.35797 9.2197031e-39
3111.54 1955.48 726.01001 9.2197031e-39
1307.73 4158.1499 721.17999 9.2197031e-39
3110.4399 1993.47 732.18103 9.2197031e-39
3110.6599 2041.75 740.35901 9.2197031e-39
3108.3799 2080.04 746.33398 9.2197031e-39
3108.04 2130.4102 754.74902 9.2197031e-39
3109.46 2178.47 763.14001 9.2197031e-39
1313.64 4407.8501 764.47198 9.2197031e-39
3108.3999 2230.99 771.76599 9.2197031e-39
3107.05 2276.8301 779.20599 9.2197031e-39
1345.3 4444.8799 777.30701 9.2197031e-39
3103.5 2327.98 787.08398 9.2197031e-39
3105.3101 2383.79 796.86298 9.2197031e-39
1384.09 4477.2803 790.849 9.2197031e-39
1421.61 4471.48 797.69 9.2197031e-39
3107.4099 2451.21 808.65503 9.2197031e-39
1463.98 4475.6201 807.21698 9.2197031e-39
3107.4199 2507.48 818.13702 9.2197031e-39
1501.64 4466.2002 813.47601 9.2197031e-39
3104.6399 2569.1899 827.95099 9.2197031e-39
1582.9301 4439.7998 825.96698 9.2197031e-39
1544.91 4458.7598 821.23999 9.2197031e-39
3107.8899 2637.47 840.13202 9.2197031e-39
3107.53 2710.3999 852.341 9.2197031e-39
3108.25 2778.3101 863.93201 9.2197031e-39
1613.1899 4618.9502 862.45099 9.2197031e-39
1651.5 4610.2197 868.96399 9.2197031e-39
3108.3799 2858.99 877.54901 9.2197031e-39
3060.98 2969.52 886.289 9.2197031e-39
3030.6499 2977.3701 881.29303 9.2197031e-39
3022.6599 3035.8601 889.48102 9.2197031e-39
3109.02 2932.8301 890.12 9.2197031e-39
3102.3501 3003.1399 900.57501 9.2197031e-39
2885.0801 3315.1101 907.85101 9.2197031e-39
2922.0601 3321.73 916.67297 9.2197031e-39
3032.3701 3253.8601 928.22601 9.2197031e-39
2949.71 3312.6201 920.90002 9.2197031e-39
2986.6899 3317.6101 929.44501 9.2197031e-39
3061.6799 3250.3501 933.742 9.2197031e-39
3017.8701 3319.1399 936.20001 9.2197031e-39
2912.5901 3527.4399 949.35101 9.2197031e-39
2904.55 3637.99 966.29901 9.2197031e-39
1657.51 5366.8501 997.672 9.2197031e-39
2530.1499 4417.5703 1019.6 9.2197031e-39
2500.2 4475.1699 1023.07 9.2197031e-39
2575.73 4433.5801 1031.8 9.2197031e-39
2613.0801 4432.77 1039.45 9.2197031e-39
2657.0701 4434.3604 1048.88 9.2197031e-39
2693.73 4428.04 1055.45 9.2197031e-39
2737.3501 4425.9399 1064.1899 9.2197031e-39
2904.8401 4263.7197 1071.76 9.2197031e-39
2775.4099 4426.6699 1072.24 9.2197031e-39
2983.1899 4252.8604 1086.26 9.2197031e-39
2948 4262.46 1080.55 9.2197031e-39
2887.47 4355.9697 1083.6801 9.2197031e-39
2819.73 4426.6499 1081.47 9.2197031e-39
2857.97 4426.6699 1089.45 9.2197031e-39
3024.05 4241.3301 1092.83 9.2197031e-39
1600.3101 7768.8799 1390.38 9.2197031e-39
1673.6 7768.1699 1405.53 9.2197031e-39
1736.58 7767.8599 1418.6 9.2197031e-39
2201.1799 7270.1699 1431.58 9.2197031e-39
1809.87 7766.8398 1433.7 9.2197031e-39
2261.1299 7284.4102 1446.47 9.2197031e-39
1872.9301 7756.5498 1445.11 9.2197031e-39
1946.16 7754.25 1459.98 9.2197031e-39
2332.6101 7325.79 1468.33 9.2197031e-39
2009.09 7751.7202 1472.66 9.2197031e-39
2394.95 7364.4399 1487.83 9.2197031e-39
2082.3 7748.1401 1487.3199 9.2197031e-39
2144.6699 7724.8101 1496.39 9.2197031e-39
2522.5 7325.2402 1507.8101 9.2197031e-39
2466.6899 7385.8101 1506.38 9.2197031e-39
2593.8799 7339.48 1525.08 9.2197031e-39
2655.0701 7346.4902 1539.01 9.2197031e-39
2726.25 7351.5898 1554.7 9.2197031e-39
2788.27 7361.3901 1569.28 9.2197031e-39
