# .PCD v0.7 - Point Cloud Data file format
VERSION 0.7
FIELDS x y z rgb
SIZE 4 4 4 4
TYPE F F F F
COUNT 1 1 1 1
WIDTH 325
HEIGHT 1
VIEWPOINT 0 0 0 1 0 0 0
POINTS 325
DATA ascii
2653.6001 -43.349976 133.966 9.2197031e-39
2626.8501 -23.338013 135.326 9.2197031e-39
2620.1599 -14.492981 136.57401 9.2197031e-39
2592.9951 7.1825256 138.276 9.2197031e-39
1985.8624 333.47824 138.91275 9.2197031e-39
1990.5449 333.54199 139.519 9.2197031e-39
2595.1201 13.846008 140.119 9.2197031e-39
2592.49 20.004028 141.244 9.2197031e-39
2580.8 30.47998 142.248 9.2197031e-39
2564.27 44.96701 143.58951 9.2197031e-39
2543.8 60.619019 144.711 9.2197031e-39
2520.49 74.849976 145.138 9.2197031e-39
2512.6299 82.059998 145.85201 9.2197031e-39
2496.3899 92.632019 146.306 9.2197031e-39
2477.1499 103.84601 146.532 9.2197031e-39
2455.1101 119.173 147.379 9.2197031e-39
2468.0801 110.97198 147.07401 9.2197031e-39
2417.6499 136.10999 146.66299 9.2197031e-39
2363.8601 157.90701 145.03799 9.2197031e-39
2323.02 174.367 143.782 9.2197031e-39
2293.27 186.25201 142.843 9.2197031e-39
2260.8999 199.90302 141.992 9.2197031e-39
2280.47 192.177 142.631 9.2197031e-39
2243.145 208.63699 141.82001 9.2197031e-39
2250.79 204.44699 141.79201 9.2197031e-39
2290.8401 208.90399 147.89301 9.2197031e-39
2228.7 214.50699 141.38699 9.2197031e-39
2237.72 217.948 143.33701 9.2197031e-39
2244.5801 213.24924 143.09125 9.2197031e-39
2255.47 215.12399 144.907 9.2197031e-39
1986.4301 339.67801 140.45 9.2197031e-39
1992.76 336.42499 140.48 9.2197031e-39
2000.48 339.41299 142.159 9.2197031e-39
1986.3325 345.52774 141.82176 9.2197031e-39
1995.1799 344.70203 142.7415 9.2197031e-39
2003.958 342.30438 143.2812 9.2197031e-39
1994.91 358.15399 145.88901 9.2197031e-39
2001.5166 355.24802 146.03433 9.2197031e-39
2016.885 359.435 148.961 9.2197031e-39
2025.02 355.77197 149.12 9.2197031e-39
1995.4299 364.76773 147.51799 9.2197031e-39
2003.2524 365.68823 148.7215 9.2197031e-39
2014.985 361.72302 149.26251 9.2197031e-39
2325.3101 203.40701 150.938 9.2197031e-39
2335.4399 203.39499 152.21201 9.2197031e-39
2354.3799 201.79901 154.22099 9.2197031e-39
1999.63 373.05099 150.006 9.2197031e-39
-4965.2202 4094.49 152.183 9.2197031e-39
2472.9199 185.936 165.411 9.2197031e-39
2425.3701 191.32101 160.69 9.2197031e-39
-2472.02 2839.48 169.644 9.2197031e-39
2531.4099 179.76599 171.323 9.2197031e-39
-4956.1602 4168.9902 170.939 9.2197031e-39
2652.01 164.92001 183.01199 9.2197031e-39
-2419.0701 2861.3799 181.496 9.2197031e-39
-2319.77 2852.8 191.98399 9.2197031e-39
2920.72 131.04999 208.869 9.2197031e-39
-2160.6599 2809.0601 201.69299 9.2197031e-39
2963.9299 132.07101 214.55701 9.2197031e-39
-2070.22 2801.74 211.36 9.2197031e-39
3032.8799 130.92801 222.976 9.2197031e-39
3053.4099 136.30099 226.834 9.2197031e-39
3054.1499 144.58401 228.886 9.2197031e-39
-2062.27 2846.6101 222.974 9.2197031e-39
3067.6499 151.17599 232.146 9.2197031e-39
3072.22 159.22198 234.62399 9.2197031e-39
3072.72 167.26901 236.59 9.2197031e-39
3071.1899 175.87701 238.433 9.2197031e-39
-2045.64 2883.9199 233.88901 9.2197031e-39
3071.55 183.91901 240.379 9.2197031e-39
3071.8501 192.37201 242.416 9.2197031e-39
3087.9399 199.63501 246.161 9.2197031e-39
3080.1499 208.55899 247.28999 9.2197031e-39
3083.2 216.586 249.573 9.2197031e-39
-1984.74 2895.1299 244.216 9.2197031e-39
3092.1299 224.936 252.673 9.2197031e-39
3079.1599 233.362 253.03 9.2197031e-39
3087.9399 241.83301 256.13901 9.2197031e-39
3087.5649 254.32451 259.04651 9.2197031e-39
-1955.1 2923.6001 254.685 9.2197031e-39
3083.0801 266.758 261.42099 9.2197031e-39
3084.6001 275.38501 263.65302 9.2197031e-39
3084.1001 283.56 265.522 9.2197031e-39
3093.3799 292.58801 268.827 9.2197031e-39
-2003.8 3006.9099 268.246 9.2197031e-39
3090.74 300.73401 270.42099 9.2197031e-39
3101.4199 314.28351 274.97101 9.2197031e-39
3118.8301 328.67001 280.56601 9.2197031e-39
3131.6499 338.353 284.47101 9.2197031e-39
3117.72 346.129 284.55499 9.2197031e-39
3129.3701 355.94 288.34299 9.2197031e-39
3119.25 363.92899 288.95599 9.2197031e-39
3117.96 372.41199 290.79999 9.2197031e-39
3126.3301 382.60199 294.263 9.2197031e-39
3114.48 398.802 296.60101 9.2197031e-39
3125.8501 391.285 296.25699 9.2197031e-39
3121.6699 408.63699 299.832 9.2197031e-39
3120.8799 417.741 301.88599 9.2197031e-39
3127.8701 427.785 305.142 9.2197031e-39
3117.2 435.172 305.54401 9.2197031e-39
3124 445.33899 308.806 9.2197031e-39
3121.8999 454.30902 310.66199 9.2197031e-39
3120.8 463.03699 312.586 9.2197031e-39
3127.1899 473.89502 315.95999 9.2197031e-39
3123.99 482.24701 317.53101 9.2197031e-39
3121.55 491.224 319.34698 9.2197031e-39
3120.1201 499.98999 321.23801 9.2197031e-39
3124.8101 515.43701 325.48248 9.2197031e-39
3120.75 528.7005 328.10699 9.2197031e-39
3127.49 539.92969 331.61099 9.2197031e-39
3124.52 548.95068 333.371 9.2197031e-39
3121.6299 557.51611 335.03101 9.2197031e-39
3127.8799 569.435 338.63699 9.2197031e-39
3124.8 578.03271 340.28299 9.2197031e-39
3121.49 587.03851 341.995 9.2197031e-39
3127.55 598.77179 345.53299 9.2197031e-39
3132.3799 610.74695 348.97299 9.2197031e-39
3128.9399 619.39087 350.58401 9.2197031e-39
3126.1699 628.78467 352.45599 9.2197031e-39
3121.6699 637.03003 353.83801 9.2197031e-39
3126.03 649.24811 357.27701 9.2197031e-39
3122.26 657.84711 358.836 9.2197031e-39
3127.28 670.59088 362.48099 9.2197031e-39
3132.3401 683.02399 366.05899 9.2197031e-39
3128.0701 692.11871 367.67099 9.2197031e-39
3130.1899 703.52612 370.63599 9.2197031e-39
3125.73 712.60638 372.22101 9.2197031e-39
3121.4199 721.216 373.71301 9.2197031e-39
3126.51 734.85199 377.57901 9.2197031e-39
3130.78 747.75598 381.16901 9.2197031e-39
3125.05 756.41498 382.49399 9.2197031e-39
3128.1799 769.01898 385.86899 9.2197031e-39
3131.79 782.60803 389.53699 9.2197031e-39
3135.48 795.86798 393.138 9.2197031e-39
3130.1799 805.01501 394.633 9.2197031e-39
3132.74 817.94202 398.01199 9.2197031e-39
3127.24 827.07001 399.47699 9.2197031e-39
3128.6799 839.62201 402.62701 9.2197031e-39
3130.54 853.17999 406.06699 9.2197031e-39
3135.02 867.89398 410.11099 9.2197031e-39
3129.0701 877.052 411.526 9.2197031e-39
3129.9199 889.86304 414.66299 9.2197031e-39
3133.6101 905.27698 418.77301 9.2197031e-39
3133.3301 917.71399 421.67801 9.2197031e-39
3126.9199 926.86902 423.035 9.2197031e-39
3130.4099 942.08301 427.07199 9.2197031e-39
3130.1799 955.64099 430.25 9.2197031e-39
3132.5 970.49597 434.05499 9.2197031e-39
3133.51 985.323 437.68799 9.2197031e-39
3126.8301 994.05499 438.91 9.2197031e-39
3134.53 1014.2 444.64499 9.2197031e-39
3127.5901 1022.946 445.83801 9.2197031e-39
3128.6799 1038.609 449.67899 9.2197031e-39
3128.3999 1052.718 452.98001 9.2197031e-39
3135.1499 1073.401 458.72198 9.2197031e-39
3134.47 1087.691 462.01401 9.2197031e-39
3133.97 1103.099 465.595 9.2197031e-39
3132.9299 1117.5029 468.86899 9.2197031e-39
3130.5701 1131.767 471.94501 9.2197031e-39
3128.45 1145.624 474.95401 9.2197031e-39
3132.25 1165.776 480.198 9.2197031e-39
3131.1699 1181.061 483.67599 9.2197031e-39
3135.1499 1202.1179 489.15799 9.2197031e-39
3132.9299 1216.895 492.37201 9.2197031e-39
3130.0801 1232.155 495.621 9.2197031e-39
3133.72 1253.104 501.03299 9.2197031e-39
3130.4299 1268.488 504.25601 9.2197031e-39
3134.2 1290.355 509.90302 9.2197031e-39
3135.8501 1311.426 515.09198 9.2197031e-39
3132.3401 1326.558 518.22803 9.2197031e-39
3138.0601 1352.772 525.14801 9.2197031e-39
3135.3799 1369.463 528.75702 9.2197031e-39
3137.8101 1393.115 534.65503 9.2197031e-39
3137.8401 1413.562 539.49402 9.2197031e-39
294.51099 2907.9399 534.50299 9.2197031e-39
323.88501 2914.8 539.828 9.2197031e-39
3139.6001 1437.4709 545.36902 9.2197031e-39
3135.8899 1454.442 548.91498 9.2197031e-39
26.069799 3088.1201 543.27698 9.2197031e-39
3137.6299 1479.308 555.01398 9.2197031e-39
323.254 2964.5901 551.52197 9.2197031e-39
44.556198 3115.21 552.01099 9.2197031e-39
74.1707 3124.3201 557.90002 9.2197031e-39
3138.3301 1502.3679 560.55499 9.2197031e-39
3139.3501 1527.494 566.625 9.2197031e-39
317.034 3026.95 565.48199 9.2197031e-39
116.927 3116.8301 561.51703 9.2197031e-39
3139.3701 1550.783 572.13397 9.2197031e-39
3138.47 1574.626 577.65802 9.2197031e-39
3137.8101 1598.1179 583.13098 9.2197031e-39
3136.21 1622.1599 588.61298 9.2197031e-39
3140.04 1652.84 596.35199 9.2197031e-39
3142.76 1684.16 604.09998 9.2197031e-39
3140.0601 1707.3101 609.23401 9.2197031e-39
3142.4399 1739.71 617.19501 9.2197031e-39
3137.9099 1761.45 621.76398 9.2197031e-39
3144.2 1801.36 631.99402 9.2197031e-39
3141.02 1826.51 637.53998 9.2197031e-39
3140.9399 1858.6899 645.14001 9.2197031e-39
3142.1201 1892.1899 653.20898 9.2197031e-39
3140.52 1923.83 660.48901 9.2197031e-39
3140.6899 1957.61 668.49799 9.2197031e-39
3144 1999.47 678.81299 9.2197031e-39
3140.6299 2029.38 685.46198 9.2197031e-39
3141.26 2069.0801 694.927 9.2197031e-39
3142.55 2109.3198 704.60699 9.2197031e-39
3140.98 2147.6602 713.474 9.2197031e-39
3141.47 2189.0801 723.33099 9.2197031e-39
3143.5601 2237.1299 734.95502 9.2197031e-39
3138.3 2270.3 742.13397 9.2197031e-39
1274.27 3263.0701 741.95697 9.2197031e-39
1303.35 3262.8401 745.56702 9.2197031e-39
3140.24 2321.28 754.435 9.2197031e-39
3141.01 2369.4199 765.914 9.2197031e-39
1346.58 3315.55 763.48102 9.2197031e-39
1309.79 3344.7 765.73798 9.2197031e-39
3140.8899 2419.9399 777.84601 9.2197031e-39
-144.08501 4173.2197 778.414 9.2197031e-39
-216.22099 4217.5801 779.81 9.2197031e-39
3143.3501 2475.45 791.28198 9.2197031e-39
-13.8236 4175.8203 795.44501 9.2197031e-39
-569.37598 4480.6299 797.50299 9.2197031e-39
3141.9199 2527.25 803.349 9.2197031e-39
-516.216 4478.4199 803.67999 9.2197031e-39
-465.10501 4474.5898 809.216 9.2197031e-39
3142.6101 2583.1802 816.66101 9.2197031e-39
1320.92 3539.4199 813.18298 9.2197031e-39
1093.59 3682.29 818.315 9.2197031e-39
-411.89899 4470.3799 814.92499 9.2197031e-39
1124.15 3692.04 824.47198 9.2197031e-39
188.289 4202.2998 827.17902 9.2197031e-39
3142.5 2642.4302 830.65698 9.2197031e-39
1327.55 3646.6001 839.362 9.2197031e-39
112.84 4266.8799 832.94 9.2197031e-39
-258.92999 4454.8999 830.54602 9.2197031e-39
-213.44501 4460.54 837.61102 9.2197031e-39
3143.22 2703.2 845.12 9.2197031e-39
1016.02 3832.46 844.047 9.2197031e-39
27.1436 4352.4502 842.375 9.2197031e-39
343.45901 4227.3301 852.65503 9.2197031e-39
3145.8899 2774.49 862.31299 9.2197031e-39
1336.02 3746.8899 864.14398 9.2197031e-39
3148.5 2845.5801 879.45001 9.2197031e-39
121.836 4428.6299 872.32202 9.2197031e-39
207.785 4432.9199 884.16803 9.2197031e-39
153.709 4457.3398 883.12701 9.2197031e-39
3143.48 2903.8999 892.60797 9.2197031e-39
285.52499 4453.6499 898.867 9.2197031e-39
3094.95 2995.0701 908.04999 9.2197031e-39
3069.29 3003.4199 906.79199 9.2197031e-39
1333.41 3915.55 903.69598 9.2197031e-39
330.004 4452.9297 904.30402 9.2197031e-39
372.90201 4450.1899 909.06097 9.2197031e-39
3149 2988.99 913.42401 9.2197031e-39
3127.05 3007.79 915.10498 9.2197031e-39
3051.3201 3030.3501 910.89301 9.2197031e-39
417.095 4448.6001 914.25702 9.2197031e-39
501.465 4448.1104 924.77197 9.2197031e-39
543.776 4443.7197 929.06799 9.2197031e-39
456.44501 4453.2803 920.32098 9.2197031e-39
584.04303 4449.71 935.55902 9.2197031e-39
626.74701 4442.6899 939.28003 9.2197031e-39
1334.85 4070.72 940.56897 9.2197031e-39
669.77899 4439.5303 943.95801 9.2197031e-39
708.35199 4442.8896 949.61298 9.2197031e-39
748.41803 4447.3604 955.71997 9.2197031e-39
3070.95 3265.8 969.04102 9.2197031e-39
2941.99 3338.0701 969.87799 9.2197031e-39
2914.2 3342.8899 967.51398 9.2197031e-39
3101.28 3268.8301 973.58099 9.2197031e-39
2972.4399 3337.28 973.52698 9.2197031e-39
3001.5901 3336.6101 977.04303 9.2197031e-39
768.39099 4509.1001 972.83502 9.2197031e-39
3059.73 3328.5 982.453 9.2197031e-39
3031.8899 3334.3201 980.32202 9.2197031e-39
1337.15 4244.5898 981.97101 9.2197031e-39
1340.5699 4419.3101 1023.72 9.2197031e-39
1370.04 4472.98 1040.12 9.2197031e-39
1404.33 4491.4502 1048.8101 9.2197031e-39
1444.53 4485.73 1052.52 9.2197031e-39
1480.89 4492 1058.59 9.2197031e-39
1601.16 4451.1299 1064.08 9.2197031e-39
1520.79 4486.54 1062.33 9.2197031e-39
1558.47 4482.4902 1066.12 9.2197031e-39
1633.86 4487.1699 1076.73 9.2197031e-39
1696.6801 4625.6001 1117.38 9.2197031e-39
1657.4 4636.6899 1115.05 9.2197031e-39
2925.3301 4087.9399 1145.09 9.2197031e-39
2901.0701 4141.1299 1154.61 9.2197031e-39
2873.8401 4192.6899 1163.37 9.2197031e-39
2574.1201 4419.0801 1179.13 9.2197031e-39
2990.6499 4214.75 1183.3101 9.2197031e-39
3028.3301 4219.46 1189.17 9.2197031e-39
2540.3201 4466.5703 1186.1 9.2197031e-39
1712.61 4910.79 1186.8199 9.2197031e-39
3099.5801 4202.0098 1194.02 9.2197031e-39
3064.75 4210.1899 1191.5699 9.2197031e-39
2614.6201 4448.6699 1191.23 9.2197031e-39
2690.5 4443.9502 1199.6801 9.2197031e-39
2654.1699 4451.6201 1196.91 9.2197031e-39
2729.8899 4444.29 1204.72 9.2197031e-39
2877.3701 4404.7402 1213.96 9.2197031e-39
2806.0701 4438.5098 1212.96 9.2197031e-39
2767.8 4446.52 1210.03 9.2197031e-39
2844.1101 4440.0801 1218.12 9.2197031e-39
1682.02 5849.3398 1404.89 9.2197031e-39
2262.78 7246.1602 1808.38 9.2197031e-39
2324.1001 7260.3799 1819.47 9.2197031e-39
2201.0601 7411.5 1839.6899 9.2197031e-39
2390.51 7316.6099 1841.13 9.2197031e-39
1606.33 7751.5 1845.14 9.2197031e-39
2577.4099 7295.8901 1859.79 9.2197031e-39
2453.74 7349.1299 1856.79 9.2197031e-39
1671.87 7744.8101 1851.8199 9.2197031e-39
2519.3 7356.5898 1866.8199 9.2197031e-39
1805.55 7737.6099 1866.96 9.2197031e-39
1740.14 7746.3901 1860.79 9.2197031e-39
2642.8799 7304.1899 1870 9.2197031e-39
1873.78 7738.02 1875.66 9.2197031e-39
2705.6499 7314.1699 1880.28 9.2197031e-39
1938.74 7738.8398 1884.04 9.2197031e-39
2772.48 7330.98 1892.67 9.2197031e-39
2072.05 7727.0698 1898.0601 9.2197031e-39
2007.01 7738.0801 1892.46 9.2197031e-39
2140.25 7725.1499 1906.2 9.2197031e-39
