# .PCD v0.7 - Point Cloud Data file format
VERSION 0.7
FIELDS x y z rgb
SIZE 4 4 4 4
TYPE F F F F
COUNT 1 1 1 1
WIDTH 327
HEIGHT 1
VIEWPOINT 0 0 0 1 0 0 0
POINTS 327
DATA ascii
3020.1899 435.73499 133.64301 9.2197031e-39
3018.3101 445.08002 136.064 9.2197031e-39
3022.01 451.086 137.785 9.2197031e-39
1966.5649 587.85162 138.6895 9.2197031e-39
1970.63 589.55432 139.27901 9.2197031e-39
1951.58 591.80212 139.23599 9.2197031e-39
1974.15 590.92609 139.76166 9.2197031e-39
-1153.84 969.31897 135.28101 9.2197031e-39
3019.97 460.39999 140.19299 9.2197031e-39
3022.5601 466.56201 141.918 9.2197031e-39
3000.4199 477.49899 144.082 9.2197031e-39
2927.1201 489.37201 144.776 9.2197031e-39
2775.03 507.64001 144.52299 9.2197031e-39
2726.3999 515.203 144.89999 9.2197031e-39
2663.3701 526.3761 145.75351 9.2197031e-39
2592.26 539.50098 146.854 9.2197031e-39
2626.1499 535.01788 146.8 9.2197031e-39
2541.3601 548.09369 147.42799 9.2197031e-39
2571.3301 544.60291 147.507 9.2197031e-39
2372.3 558.4682 144.507 9.2197031e-39
2453.29 558.07031 147.12199 9.2197031e-39
2484.3401 554.92053 147.328 9.2197031e-39
2518.3601 552.33661 147.783 9.2197031e-39
2239.5701 566.15009 142.091 9.2197031e-39
2244.0732 567.54291 142.61232 9.2197031e-39
2256.1423 563.72241 142.00226 9.2197031e-39
2276.1101 561.69733 142.13499 9.2197031e-39
2312.1001 562.38989 143.528 9.2197031e-39
2334.1799 561.30798 143.98199 9.2197031e-39
2343.24 560.05621 143.953 9.2197031e-39
2255.3101 572.34735 144.267 9.2197031e-39
2308.71 582.55902 148.77499 9.2197031e-39
1966.62 596.99487 141.12199 9.2197031e-39
1974.0425 597.07202 141.39175 9.2197031e-39
1983.0701 598.57434 142.0945 9.2197031e-39
1958.9 602.23608 142.256 9.2197031e-39
1977.0468 606.66199 144.04201 9.2197031e-39
1983.0067 602.88812 143.23901 9.2197031e-39
1968.7334 615.75287 146.17967 9.2197031e-39
1974.2151 616.77307 146.63501 9.2197031e-39
1980.22 618.60724 147.32401 9.2197031e-39
1998.9 619.01556 148.06 9.2197031e-39
1969.58 621.91992 147.8475 9.2197031e-39
1974.7567 624.49219 148.705 9.2197031e-39
1986.27 623.14282 148.73349 9.2197031e-39
1992.9 622.02979 148.66 9.2197031e-39
-1158.77 993.15399 141.452 9.2197031e-39
2331.1001 587.59778 150.867 9.2197031e-39
2340.52 591.46661 152.21201 9.2197031e-39
2358.8501 596.40808 154.14101 9.2197031e-39
2414.1599 609.42163 159.459 9.2197031e-39
1974.03 639.05072 152.55099 9.2197031e-39
-1165.11 1027.012 150.239 9.2197031e-39
-1150.8 1048.197 156.351 9.2197031e-39
2476.29 623.83459 165.377 9.2197031e-39
-1155.54 1081.991 165.17599 9.2197031e-39
2543.77 641.57501 172.36 9.2197031e-39
-612.93701 1060.854 177.784 9.2197031e-39
-809.39099 1076.496 175.343 9.2197031e-39
-1160.58 1106.262 171.459 9.2197031e-39
2662.8701 670.25452 183.98399 9.2197031e-39
-616.47998 1089.465 185.27 9.2197031e-39
2805.3501 708.01331 198.808 9.2197031e-39
-622.35901 1110.468 190.65601 9.2197031e-39
-626.32397 1139.5229 198.24699 9.2197031e-39
-629.84198 1160.321 203.658 9.2197031e-39
2988.4199 755.61798 217.612 9.2197031e-39
-631.29401 1189.155 211.274 9.2197031e-39
3041.28 777.67999 225.25301 9.2197031e-39
3049.1699 786.60303 227.89 9.2197031e-39
3056.1899 798.40503 231.263 9.2197031e-39
3065.8 808.11096 234.166 9.2197031e-39
3073.8799 824.2865 238.7375 9.2197031e-39
3076.9299 839.30798 242.83299 9.2197031e-39
3074.7 846.06799 244.55499 9.2197031e-39
3081.8799 858.91003 248.21001 9.2197031e-39
3078.55 865.39899 249.82401 9.2197031e-39
3083.5801 877.82397 253.29601 9.2197031e-39
3088.5701 887.20801 255.95799 9.2197031e-39
3084.8899 896.89502 258.409 9.2197031e-39
3090.6299 906.75403 261.22299 9.2197031e-39
3084.8799 915.76697 263.42599 9.2197031e-39
3094.1299 927.18201 266.771 9.2197031e-39
3095.4551 943.09351 271.04498 9.2197031e-39
3096.52 959.13 275.34399 9.2197031e-39
3102.52 969.87903 278.40302 9.2197031e-39
3100.6899 980.888 281.26801 9.2197031e-39
3110.99 993.82202 285.05301 9.2197031e-39
3126.9199 1013.145 290.724 9.2197031e-39
3127.8799 1022.338 293.20099 9.2197031e-39
3133.49 1037.511 297.422 9.2197031e-39
3122.6399 1041.229 298.04599 9.2197031e-39
3124.4199 1054.7739 301.707 9.2197031e-39
3131.1599 1067.2219 305.242 9.2197031e-39
3133.47 1081.426 309.09601 9.2197031e-39
3130.3 1089.051 311.01599 9.2197031e-39
3124.48 1099.157 313.50699 9.2197031e-39
3127.23 1110.062 316.49899 9.2197031e-39
3129.79 1124.978 320.54999 9.2197031e-39
3133.99 1137.0171 323.892 9.2197031e-39
3133.8901 1155.7395 328.86499 9.2197031e-39
3133.46 1174.582 333.85999 9.2197031e-39
3135.4299 1185.9 336.93399 9.2197031e-39
3129.4099 1196.5869 339.573 9.2197031e-39
3132.79 1209.056 343.00201 9.2197031e-39
3133.9299 1224.603 347.173 9.2197031e-39
3128 1231.228 348.73499 9.2197031e-39
3133.46 1255.4565 355.35901 9.2197031e-39
568.55103 1572.3091 353.43301 9.2197031e-39
594.24701 1570.808 353.897 9.2197031e-39
611.51703 1581.171 357.23199 9.2197031e-39
3132.01 1275.4241 360.61899 9.2197031e-39
3133.71 1287.754 363.953 9.2197031e-39
3133.7 1303.725 368.19901 9.2197031e-39
2787.0801 1324.688 362.12799 9.2197031e-39
2797.4099 1325.004 362.55899 9.2197031e-39
2810.21 1323.165 362.5 9.2197031e-39
2780.0801 1332.8889 364.073 9.2197031e-39
2757.3401 1345.7681 366.733 9.2197031e-39
2765.78 1344.187 366.59601 9.2197031e-39
2777.3301 1341.321 366.22198 9.2197031e-39
2837.1699 1341.21 368.203 9.2197031e-39
2855.5901 1344.593 369.72101 9.2197031e-39
2731.8401 1359.876 369.62701 9.2197031e-39
2745.5352 1354.057 368.53949 9.2197031e-39
611.01001 1597.2261 361.483 9.2197031e-39
603.427 1625.15 368.651 9.2197031e-39
3133.51 1315.0129 371.19299 9.2197031e-39
3133.8999 1331.7119 375.64499 9.2197031e-39
2870.98 1349.223 371.46899 9.2197031e-39
2882.8501 1345.0911 370.76901 9.2197031e-39
3136.53 1345.5 379.39899 9.2197031e-39
2715.9099 1368.7939 371.46301 9.2197031e-39
2727.52 1366.574 371.26199 9.2197031e-39
2916.3 1367.458 377.83899 9.2197031e-39
2690.28 1376.793 372.728 9.2197031e-39
2709.76 1373.052 372.388 9.2197031e-39
2683.1299 1384.963 374.659 9.2197031e-39
2702.6799 1381.385 374.36499 9.2197031e-39
2679.03 1392.214 376.45001 9.2197031e-39
2662.6399 1400.177 378.01599 9.2197031e-39
2673.8201 1403.5439 379.28699 9.2197031e-39
610.58502 1636.1599 371.819 9.2197031e-39
3134.9299 1361.157 383.50699 9.2197031e-39
3135.6899 1373.87 386.91199 9.2197031e-39
2657.76 1412.228 381.05499 9.2197031e-39
2656.95 1425.1421 384.461 9.2197031e-39
2628.3401 1449.198 389.89499 9.2197031e-39
2633.0901 1442.1531 388.18201 9.2197031e-39
2648.54 1446.848 389.94901 9.2197031e-39
2653.72 1440.525 388.44199 9.2197031e-39
3133.6899 1389.636 391.03601 9.2197031e-39
3134.8899 1403.085 394.65201 9.2197031e-39
2613.8701 1461.3311 392.634 9.2197031e-39
2624.49 1464.5 393.83401 9.2197031e-39
3139.95 1425.307 400.729 9.2197031e-39
3133.3401 1432.5281 402.427 9.2197031e-39
3137.1399 1454.329 408.35001 9.2197031e-39
2614.4751 1493.741 401.27051 9.2197031e-39
2608.01 1514.2991 406.51801 9.2197031e-39
3136.1599 1466.751 411.61899 9.2197031e-39
3052.1201 1485.437 413.76401 9.2197031e-39
3139.3799 1488.804 417.59 9.2197031e-39
3138.04 1501.343 420.87799 9.2197031e-39
3141.3899 1524.307 427.095 9.2197031e-39
3139.6899 1536.958 430.40201 9.2197031e-39
3138.9299 1556.749 435.63699 9.2197031e-39
2653.8799 1622.4299 436.80399 9.2197031e-39
2784.6899 1915.48 519.10199 9.2197031e-39
-243.177 3016.1399 709.98901 9.2197031e-39
-2043.62 3241.22 709.34399 9.2197031e-39
-218.097 3025.1899 713.237 9.2197031e-39
-1376.29 3164.3701 711.33002 9.2197031e-39
-1464.9 3191.3401 715.52301 9.2197031e-39
-194.688 3050.78 720.82397 9.2197031e-39
-186.047 3077.5901 728.24298 9.2197031e-39
-360.487 3086.8899 724.854 9.2197031e-39
-1342.48 3193.6799 720.25702 9.2197031e-39
-1288.4301 3190.8301 721.315 9.2197031e-39
-148.27299 3087.46 732.13397 9.2197031e-39
3153.1201 2700.72 740.21997 9.2197031e-39
-143.707 3119.29 740.74902 9.2197031e-39
-98.655998 3120.3301 742.54102 9.2197031e-39
-67.460503 3121.28 743.83899 9.2197031e-39
-25.9044 3125.05 746.23999 9.2197031e-39
5.07166 3125.29 747.34302 9.2197031e-39
3154.6599 2762.8 756.77698 9.2197031e-39
112.687 3136.52 753.94299 9.2197031e-39
143.823 3134.6201 754.48297 9.2197031e-39
65.527901 3142.3 753.896 9.2197031e-39
24.228701 3155.73 756.078 9.2197031e-39
-1373.97 3313.9099 751.16101 9.2197031e-39
166.968 3159.22 761.80103 9.2197031e-39
-779.60199 3279.1101 761.87701 9.2197031e-39
3160.04 2817.6499 771.539 9.2197031e-39
-780.737 3319.55 772.58698 9.2197031e-39
-1437.58 3405.6499 773.414 9.2197031e-39
3157.01 2874.9299 786.66302 9.2197031e-39
-781.927 3377.4199 787.93201 9.2197031e-39
-771.44098 3407.79 796.35901 9.2197031e-39
3158.74 2925.74 800.22803 9.2197031e-39
-753.81897 3448.53 807.78003 9.2197031e-39
3079.6499 2979.26 811.79901 9.2197031e-39
3031.4299 2984.75 811.638 9.2197031e-39
3104.76 2989.3101 815.31299 9.2197031e-39
3156 2988.7 816.87299 9.2197031e-39
3057.6699 2998.8601 816.271 9.2197031e-39
1281.39 3258.5701 825.64502 9.2197031e-39
1313.29 3255.21 825.82501 9.2197031e-39
3164.72 3060.3601 836.216 9.2197031e-39
1351 3308.0901 841.14801 9.2197031e-39
1316.59 3319.3401 842.98401 9.2197031e-39
1239.39 3322.3899 841.20001 9.2197031e-39
-45.4389 3488.27 842.138 9.2197031e-39
-1338.38 3740.97 865.88501 9.2197031e-39
3079.21 3257.1299 885.65302 9.2197031e-39
3102.79 3259.21 886.99799 9.2197031e-39
1330.65 3465.98 882.43701 9.2197031e-39
2938.22 3327.76 899.69202 9.2197031e-39
2958.98 3321.73 898.78699 9.2197031e-39
2991.24 3322.1699 899.98602 9.2197031e-39
3014.97 3324.96 901.52698 9.2197031e-39
3046.51 3322.04 901.80902 9.2197031e-39
3070.3999 3324.3999 903.23901 9.2197031e-39
1338.3101 3563.52 908.62299 9.2197031e-39
-1568.61 3905.3999 901.86401 9.2197031e-39
-2080.0701 3992.51 907.841 9.2197031e-39
1342.29 3643.03 929.89301 9.2197031e-39
-2118.3999 4074.6899 928.39899 9.2197031e-39
-2064.7 4101.9297 937.44397 9.2197031e-39
2969.74 3548.8401 959.52301 9.2197031e-39
1350.1 3754.9399 959.90601 9.2197031e-39
2948.0601 3557.75 961.16101 9.2197031e-39
1347.3 3876.23 992.05499 9.2197031e-39
2954.5701 3709.9399 1001.84 9.2197031e-39
993.01099 3980.0801 1007.76 9.2197031e-39
-177.869 4176.2402 1020.58 9.2197031e-39
48.820202 4172.4297 1027.1801 9.2197031e-39
-97.214401 4188.6699 1026.59 9.2197031e-39
-43.348801 4183.9102 1027.14 9.2197031e-39
-6.9327402 4182.5801 1028.01 9.2197031e-39
-223.784 4190.0703 1022.71 9.2197031e-39
-134.98199 4190.8799 1025.91 9.2197031e-39
1352.63 4019.71 1030.38 9.2197031e-39
165.425 4175 1031.78 9.2197031e-39
76.268303 4185.6602 1031.62 9.2197031e-39
127.756 4181.2598 1032.1801 9.2197031e-39
208.215 4185.0801 1035.89 9.2197031e-39
-2496.74 4526.2002 1035.72 9.2197031e-39
-2380.76 4563.2402 1049.46 9.2197031e-39
-2458.5801 4574.4902 1049.83 9.2197031e-39
1351.3101 4153.7002 1065.95 9.2197031e-39
155.78999 4352.6001 1078.67 9.2197031e-39
-653.21301 4457.4902 1079.38 9.2197031e-39
-700.46698 4463.8301 1079.47 9.2197031e-39
-551.23901 4456.7803 1082.61 9.2197031e-39
-494.80099 4459.73 1085.29 9.2197031e-39
-451.72601 4456.2803 1085.8199 9.2197031e-39
-596.92102 4462.5098 1082.6 9.2197031e-39
451.94601 4429.9199 1109.17 9.2197031e-39
197.672 4438.73 1102.97 9.2197031e-39
249.687 4434.23 1103.52 9.2197031e-39
284.84799 4433.6499 1104.55 9.2197031e-39
333.55801 4434.3203 1106.36 9.2197031e-39
369.681 4430.3799 1106.53 9.2197031e-39
417.276 4431.8701 1108.52 9.2197031e-39
160.496 4442.0898 1102.61 9.2197031e-39
1357.1 4322.2803 1110.96 9.2197031e-39
535.15198 4424.27 1110.46 9.2197031e-39
613.46198 4427.8896 1114.0601 9.2197031e-39
659.18903 4429.3999 1115.99 9.2197031e-39
737.29102 4429.7998 1118.72 9.2197031e-39
499.26501 4430.4902 1110.91 9.2197031e-39
578.56403 4432.9697 1114.23 9.2197031e-39
691.10999 4430.9697 1117.48 9.2197031e-39
767.79797 4434.46 1120.99 9.2197031e-39
1369.51 4409.0498 1134.4399 9.2197031e-39
795.26801 4487.7598 1136.08 9.2197031e-39
2954.3201 4237.5801 1142.1 9.2197031e-39
3000.5601 4258.79 1149.29 9.2197031e-39
1622.24 4426.9502 1147.6899 9.2197031e-39
1402.34 4459.6899 1149.01 9.2197031e-39
3029.9099 4258.8101 1150.28 9.2197031e-39
3071.8301 4259.48 1151.87 9.2197031e-39
1650.37 4436.75 1151.24 9.2197031e-39
1473.03 4469.5 1153.99 9.2197031e-39
1575.41 4465.4199 1156.35 9.2197031e-39
1429.52 4475.7402 1154.1899 9.2197031e-39
1502.12 4474.5703 1156.3101 9.2197031e-39
1544.5601 4473.3301 1157.41 9.2197031e-39
2602.6299 4397.8896 1172.9 9.2197031e-39
2891.24 4412.6699 1186.52 9.2197031e-39
2922.0901 4416.3398 1188.53 9.2197031e-39
2964.46 4414.3701 1189.4301 9.2197031e-39
2635.27 4422.8301 1180.62 9.2197031e-39
2678.0601 4429.52 1183.84 9.2197031e-39
2706.75 4423.2998 1183.15 9.2197031e-39
2749.6201 4428.2998 1185.92 9.2197031e-39
2778.6001 4423.4902 1185.61 9.2197031e-39
2821.3201 4425.8398 1187.67 9.2197031e-39
2850.28 4420.54 1187.24 9.2197031e-39
2567.27 4448.9502 1185.28 9.2197031e-39
1705.62 4591.6001 1194.26 9.2197031e-39
1740.58 4681.7598 1219.4 9.2197031e-39
1658.6899 4744.77 1233.4 9.2197031e-39
1743.8 5020.4302 1309.54 9.2197031e-39
2286.1201 7215.8198 1911.37 9.2197031e-39
2356.7 7215.0801 1913.54 9.2197031e-39
2407.04 7225.3198 1917.96 9.2197031e-39
2652 7261.23 1935.73 9.2197031e-39
2724.6699 7273.21 1941.36 9.2197031e-39
2775.76 7276.98 1944.08 9.2197031e-39
2604.02 7295.1201 1943.13 9.2197031e-39
2482.1599 7303.4399 1941.25 9.2197031e-39
2533.3899 7312.7798 1945.45 9.2197031e-39
2850.29 7300.1802 1952.75 9.2197031e-39
1615.33 7482.4702 1959.73 9.2197031e-39
1655.23 7670.6201 2011.08 9.2197031e-39
1782.6899 7698.3599 2022.74 9.2197031e-39
1987.46 7694 2028.46 9.2197031e-39
1728.8199 7705.9902 2022.96 9.2197031e-39
1858.29 7700.6001 2025.87 9.2197031e-39
1911.65 7702.7002 2028.22 9.2197031e-39
2169.6299 7682.6099 2031.55 9.2197031e-39
2245.0701 7681.0298 2033.66 9.2197031e-39
2040.8101 7694.23 2030.3101 9.2197031e-39
2116.3701 7693.9102 2032.76 9.2197031e-39
