# .PCD v0.7 - Point Cloud Data file format
VERSION 0.7
FIELDS x y z rgb
SIZE 4 4 4 4
TYPE F F F F
COUNT 1 1 1 1
WIDTH 327
HEIGHT 1
VIEWPOINT 0 0 0 1 0 0 0
POINTS 327
DATA ascii
-1158.26 684.00537 134.36 9.2197031e-39
3023.74 686.58313 133.895 9.2197031e-39
3023.7 694.94067 136.13499 9.2197031e-39
1916.53 705.79456 139.349 9.2197031e-39
1933.54 708.12268 139.968 9.2197031e-39
1943.1399 704.86481 139.09201 9.2197031e-39
3028.5901 702.60101 138.186 9.2197031e-39
-1150.16 709.88861 141.293 9.2197031e-39
1933.73 709.28571 140.27901 9.2197031e-39
1925.8601 715.96265 142.0705 9.2197031e-39
1935.486 714.06757 141.56041 9.2197031e-39
1946.13 717.23108 142.405 9.2197031e-39
2214.0576 714.49701 141.59875 9.2197031e-39
2220.6699 719.06799 142.821 9.2197031e-39
2248.54 717.98981 142.52499 9.2197031e-39
3026.2649 714.74506 141.44049 9.2197031e-39
1936.375 724.97876 144.48375 9.2197031e-39
1943.3401 722.203 143.73801 9.2197031e-39
2219.74 722.58698 143.76401 9.2197031e-39
2223.8149 723.71899 144.06674 9.2197031e-39
2278.3 721.93903 143.575 9.2197031e-39
2299.3101 723.70801 144.043 9.2197031e-39
2309.49 723.54297 143.996 9.2197031e-39
2338.48 725.901 144.62 9.2197031e-39
2673.26 726.52502 144.694 9.2197031e-39
2739.46 725.71899 144.46001 9.2197031e-39
2924.55 729.33997 145.379 9.2197031e-39
3015.8101 726.48798 144.59 9.2197031e-39
-1151.8 738.47699 148.95399 9.2197031e-39
1927.01 733.46252 146.75949 9.2197031e-39
1932.5074 734.85425 147.13074 9.2197031e-39
1954.88 737.86902 147.933 9.2197031e-39
2263.74 739.138 148.187 9.2197031e-39
2417.9199 735.32098 147.12199 9.2197031e-39
2455.01 737.31598 147.646 9.2197031e-39
2478.24 737.22198 147.614 9.2197031e-39
2504.51 736.763 147.48399 9.2197031e-39
2534.74 736.66003 147.448 9.2197031e-39
2559.0701 735.06299 147.01401 9.2197031e-39
2582.3601 733.36499 146.552 9.2197031e-39
2624.6299 732.47101 146.30099 9.2197031e-39
2655.9099 730.47498 145.758 9.2197031e-39
1927.7666 741.83105 149.00166 9.2197031e-39
1937.0901 741.84552 149.00301 9.2197031e-39
1946.895 741.89453 149.0135 9.2197031e-39
1950.8101 740.92401 148.752 9.2197031e-39
1942.5701 747.896 150.623 9.2197031e-39
2293.8701 749.67499 151.002 9.2197031e-39
2305.6499 755.36304 152.52299 9.2197031e-39
-1150.24 764.341 155.884 9.2197031e-39
2324.0701 763.16101 154.60699 9.2197031e-39
2369.78 780.39398 159.21201 9.2197031e-39
-1149.36 792.89502 163.535 9.2197031e-39
2427.5701 802.25598 165.054 9.2197031e-39
-1147.33 818.72101 170.45399 9.2197031e-39
2497.1201 829.59198 172.36 9.2197031e-39
-1145.9301 847.24799 178.097 9.2197031e-39
2600.1599 869.67499 183.071 9.2197031e-39
-1153.42 873.60699 185.16299 9.2197031e-39
-1153.49 902.31799 192.856 9.2197031e-39
-1156.51 928.58899 199.896 9.2197031e-39
2772.5601 937.37701 201.16499 9.2197031e-39
-1151.08 956.94104 207.491 9.2197031e-39
-1154.62 983.36597 214.573 9.2197031e-39
-1149.67 1011.749 222.17599 9.2197031e-39
3027.05 1038.28 228.131 9.2197031e-39
3067.3899 1063.3359 234.834 9.2197031e-39
3071.53 1074.146 237.729 9.2197031e-39
3076.1201 1086.245 240.96899 9.2197031e-39
3083.6899 1098.76 244.321 9.2197031e-39
3087.99 1111.105 247.62801 9.2197031e-39
3086.1299 1119.965 250.002 9.2197031e-39
3091.0701 1132.871 253.459 9.2197031e-39
3094.4399 1144.239 256.504 9.2197031e-39
3101.78 1158.62 260.35501 9.2197031e-39
3103.46 1175.15 264.784 9.2197031e-39
3106.6599 1192.688 269.48199 9.2197031e-39
3110.6799 1206.2261 273.10901 9.2197031e-39
3112.3601 1217.657 276.17099 9.2197031e-39
3129.24 1238.321 281.703 9.2197031e-39
3136.7 1253.2839 285.711 9.2197031e-39
3133.8899 1264.046 288.595 9.2197031e-39
3128.02 1271.998 290.728 9.2197031e-39
3131.03 1286.165 294.52301 9.2197031e-39
3134.4099 1299.557 298.10999 9.2197031e-39
3137.0701 1313.923 301.95901 9.2197031e-39
3129.1001 1320.8459 303.81601 9.2197031e-39
3139.05 1339.9861 308.94199 9.2197031e-39
3135.0801 1349.5139 311.496 9.2197031e-39
3135.4099 1363.1 315.13599 9.2197031e-39
3137.02 1376.4099 318.702 9.2197031e-39
2743.47 1388.1589 321.95901 9.2197031e-39
2796.26 1386.2905 321.444 9.2197031e-39
2818.3701 1389.5171 322.302 9.2197031e-39
2763.05 1395.681 323.96899 9.2197031e-39
2771.8701 1392.979 323.24301 9.2197031e-39
2784.79 1393.077 323.26501 9.2197031e-39
2837.23 1394.3611 323.595 9.2197031e-39
2854.1599 1398.2429 324.63 9.2197031e-39
3138.6599 1391.22 322.67001 9.2197031e-39
2750.79 1407.827 327.22699 9.2197031e-39
2894.1599 1409.2371 327.565 9.2197031e-39
3140.76 1405.235 326.42499 9.2197031e-39
2744.5801 1414.464 329.00699 9.2197031e-39
2885.73 1413.769 328.78201 9.2197031e-39
3133.0801 1414.0349 328.785 9.2197031e-39
2738.3 1419.7739 330.43201 9.2197031e-39
2684.9299 1423.6689 331.48999 9.2197031e-39
2695.6699 1422.783 331.25 9.2197031e-39
2708.97 1426.02 332.11301 9.2197031e-39
2719.8101 1424.8579 331.79901 9.2197031e-39
2728.73 1422.636 331.20099 9.2197031e-39
3134.8799 1428.1421 332.564 9.2197031e-39
2685.3401 1436.8779 335.02899 9.2197031e-39
2668.6799 1443.13 336.70901 9.2197031e-39
2681.8501 1446.812 337.69199 9.2197031e-39
3135.03 1442.63 336.44601 9.2197031e-39
2666.23 1454.531 339.76501 9.2197031e-39
3137.28 1457.468 340.422 9.2197031e-39
2667.24 1469.376 343.742 9.2197031e-39
2651.28 1476.802 345.73599 9.2197031e-39
2987.1399 1477.0229 345.703 9.2197031e-39
3136.26 1471.5081 344.18399 9.2197031e-39
2648.28 1488.2051 348.793 9.2197031e-39
2665.5901 1482.418 347.237 9.2197031e-39
3136.5701 1485.312 347.883 9.2197031e-39
2641.3701 1492.741 350.01001 9.2197031e-39
2617.8799 1505.283 353.37701 9.2197031e-39
2634.8601 1506.7634 353.76898 9.2197031e-39
3143.8101 1506.074 353.444 9.2197031e-39
3137.5 1515.189 355.888 9.2197031e-39
2618.24 1521.048 357.60101 9.2197031e-39
3144.25 1536.207 361.51801 9.2197031e-39
2619.6899 1540.6179 362.845 9.2197031e-39
3142.27 1549.0659 364.96399 9.2197031e-39
2619.02 1555.6909 366.884 9.2197031e-39
2612.27 1562.931 368.82501 9.2197031e-39
3143.1599 1565.9719 369.49301 9.2197031e-39
2611.22 1578.0549 372.87799 9.2197031e-39
3142.3601 1580.179 373.29999 9.2197031e-39
3139.8201 1594.675 377.185 9.2197031e-39
2614.04 1602.074 379.31299 9.2197031e-39
2613.4199 1619.009 383.85101 9.2197031e-39
577.591 1643.55 390.98999 9.2197031e-39
2618.8401 1649.1801 391.93301 9.2197031e-39
590.87903 1654.09 393.811 9.2197031e-39
616.565 1654.51 393.91599 9.2197031e-39
612.69598 1676.26 399.74399 9.2197031e-39
2634.9399 1697.84 404.96701 9.2197031e-39
3166.8401 2710 676.02698 9.2197031e-39
3166.2 2750.5 686.88 9.2197031e-39
3165.29 2796.3601 699.16699 9.2197031e-39
3168.5801 2847.54 712.88202 9.2197031e-39
-1578.49 2890.3899 725.67401 9.2197031e-39
3167.8 2897.21 726.19202 9.2197031e-39
-2319.6599 2941.5901 739.59998 9.2197031e-39
3169.46 2948.77 740.00702 9.2197031e-39
3174.8601 3015.48 757.88 9.2197031e-39
3083.1599 3034.9399 763.11798 9.2197031e-39
3039.8301 3049.71 767.08899 9.2197031e-39
3065.9399 3050.0701 767.17798 9.2197031e-39
3171.47 3060.3799 769.90997 9.2197031e-39
-2474.23 3067.8501 773.47198 9.2197031e-39
-218.73399 3102.8201 782.21997 9.2197031e-39
-269.44199 3115.3899 785.60199 9.2197031e-39
3174.78 3127.54 787.90601 9.2197031e-39
-204.431 3132.3701 790.133 9.2197031e-39
-174.713 3141.1899 792.48798 9.2197031e-39
-1386.83 3157.6101 797.22302 9.2197031e-39
-1320.11 3156.79 796.98602 9.2197031e-39
-162.505 3173.3999 801.11603 9.2197031e-39
-128.056 3176.6001 801.96503 9.2197031e-39
3171.72 3177.1499 801.20001 9.2197031e-39
-1296.38 3182.1899 803.784 9.2197031e-39
-104.354 3196.02 807.15997 9.2197031e-39
10.6508 3192.0801 806.07397 9.2197031e-39
-75.074997 3204.49 809.42297 9.2197031e-39
-34.106899 3203.1799 809.06 9.2197031e-39
70.268097 3208.96 810.57898 9.2197031e-39
-1280.46 3217.8799 813.34198 9.2197031e-39
105.11 3212.74 811.58197 9.2197031e-39
24.020201 3223.2 814.409 9.2197031e-39
128.66901 3226.1399 815.16699 9.2197031e-39
-2075.0601 3236.1899 818.46997 9.2197031e-39
-2248.49 3241.3501 819.90002 9.2197031e-39
154.007 3241.72 819.33398 9.2197031e-39
3094.6399 3246.75 819.87 9.2197031e-39
-2042.3199 3267.5701 826.86798 9.2197031e-39
1295.76 3317.8401 839.414 9.2197031e-39
1319.74 3319.3701 839.81897 9.2197031e-39
3095.1299 3319.8899 839.46698 9.2197031e-39
1260.02 3345.98 846.966 9.2197031e-39
3084.0801 3358.8101 849.89899 9.2197031e-39
1357.88 3367.29 852.64899 9.2197031e-39
-802.35199 3370.1899 854.02301 9.2197031e-39
2958.22 3389.77 858.229 9.2197031e-39
2985.6599 3387.3899 857.58398 9.2197031e-39
3038.5601 3383.5701 856.54602 9.2197031e-39
3064.6899 3383.98 856.64899 9.2197031e-39
3012.6299 3391.03 858.55103 9.2197031e-39
-780.62299 3394.54 860.54199 9.2197031e-39
1322.95 3404.3301 862.58398 9.2197031e-39
2937.3 3404.1101 862.078 9.2197031e-39
-3469.3799 3412.3799 866.06299 9.2197031e-39
-3420.03 3443.8401 874.47998 9.2197031e-39
-776.052 3440.2 872.77301 9.2197031e-39
-747.383 3458.1699 877.58002 9.2197031e-39
-748.78802 3510.8201 891.69 9.2197031e-39
1341.63 3534.74 897.52002 9.2197031e-39
-747.85303 3557.1799 904.112 9.2197031e-39
-3388.47 3608.98 918.71997 9.2197031e-39
1347.84 3613.79 918.70001 9.2197031e-39
2946.6599 3615.98 918.84399 9.2197031e-39
2974.0601 3616.3301 918.93201 9.2197031e-39
-3386.6899 3665.51 933.86798 9.2197031e-39
1355.1 3705.77 943.34302 9.2197031e-39
2946.27 3719.4299 946.56403 9.2197031e-39
-3382.47 3727.23 950.40503 9.2197031e-39
-3379.4299 3784.1101 965.64398 9.2197031e-39
-1303.97 3780.28 964.04401 9.2197031e-39
1360.84 3799.1399 968.362 9.2197031e-39
-3381.5601 3850.6399 983.47198 9.2197031e-39
-1553.62 3953.8501 1010.62 9.2197031e-39
1357.24 3955.5701 1010.28 9.2197031e-39
1028.9399 3995.96 1021.19 9.2197031e-39
1362.51 4069.1201 1040.7 9.2197031e-39
-4975.0498 4074.1001 1043.79 9.2197031e-39
-2339.45 4073.3999 1042.87 9.2197031e-39
-2272.9399 4085.6001 1046.12 9.2197031e-39
-2228.1399 4108.0898 1052.14 9.2197031e-39
-2161.8 4118.7402 1054.97 9.2197031e-39
-2122.27 4144.4697 1061.85 9.2197031e-39
-2062.8799 4159.3203 1065.8199 9.2197031e-39
1366.86 4212.79 1079.2 9.2197031e-39
-7.3849401 4239.1699 1086.64 9.2197031e-39
-183.692 4244.04 1088 9.2197031e-39
-140.59 4249 1089.3199 9.2197031e-39
-94.6549 4241.71 1087.35 9.2197031e-39
-51.848801 4245.7402 1088.42 9.2197031e-39
32.693401 4246.4902 1088.6 9.2197031e-39
74.821503 4242.4102 1087.49 9.2197031e-39
114.728 4248.8999 1089.22 9.2197031e-39
156.504 4243.9697 1087.89 9.2197031e-39
194.40199 4253.0801 1090.3199 9.2197031e-39
229.57899 4259.4199 1092.01 9.2197031e-39
2973.0801 4300.1699 1102.17 9.2197031e-39
3015.02 4322.1104 1108.03 9.2197031e-39
3048.72 4323.8398 1108.49 9.2197031e-39
3084.71 4320.71 1107.64 9.2197031e-39
-3260.76 4356.7402 1119.05 9.2197031e-39
1369.88 4359.8604 1118.6 9.2197031e-39
-3262.97 4429.8999 1138.65 9.2197031e-39
2624.3201 4451.2197 1142.74 9.2197031e-39
2977.9099 4457.8203 1144.41 9.2197031e-39
2589.6399 4463.5498 1146.05 9.2197031e-39
2910.8601 4478.0703 1149.85 9.2197031e-39
279.60901 4489.1396 1153.55 9.2197031e-39
363.78799 4485.25 1152.48 9.2197031e-39
523.78497 4487.7598 1153.11 9.2197031e-39
564.91302 4488.73 1153.36 9.2197031e-39
604.65302 4482.6499 1151.71 9.2197031e-39
643.10199 4489.1699 1153.45 9.2197031e-39
682.17999 4483.2598 1151.86 9.2197031e-39
720.84302 4488.1499 1153.16 9.2197031e-39
758.005 4486.0801 1152.59 9.2197031e-39
1383.83 4480.1104 1150.8199 9.2197031e-39
2662.95 4487.8101 1152.53 9.2197031e-39
2733.03 4485.96 1152.01 9.2197031e-39
2770.5801 4488.5801 1152.71 9.2197031e-39
2803.04 4481.96 1150.92 9.2197031e-39
2840.7 4483.9297 1151.4399 9.2197031e-39
2875.28 4487.1602 1152.3 9.2197031e-39
2945.5601 4480.7002 1150.55 9.2197031e-39
150.73801 4498.6797 1156.14 9.2197031e-39
194.341 4492.21 1154.39 9.2197031e-39
238.117 4492.9697 1154.58 9.2197031e-39
320.216 4495.1899 1155.16 9.2197031e-39
402.61301 4494.04 1154.8199 9.2197031e-39
441.90302 4492.1797 1154.3101 9.2197031e-39
484.80399 4490.3799 1153.8199 9.2197031e-39
1625.39 4495.6104 1154.91 9.2197031e-39
1662.05 4494.6602 1154.64 9.2197031e-39
2700.3701 4491.0703 1153.39 9.2197031e-39
-443.51999 4501.6797 1157.11 9.2197031e-39
-393.453 4502.54 1157.3199 9.2197031e-39
793.15399 4500.3604 1156.41 9.2197031e-39
-496.92499 4512.1001 1159.91 9.2197031e-39
1411.46 4514.1299 1159.9301 9.2197031e-39
-650.18903 4512.96 1160.1801 9.2197031e-39
-598.12598 4514.52 1160.59 9.2197031e-39
-549.11603 4512.5 1160.03 9.2197031e-39
-704.20801 4520.2197 1162.14 9.2197031e-39
1446.21 4529.4102 1164.01 9.2197031e-39
1480.29 4527.6699 1163.54 9.2197031e-39
1517.15 4529.9297 1164.13 9.2197031e-39
1551.37 4525.6797 1162.98 9.2197031e-39
1587.91 4529.23 1163.9301 9.2197031e-39
814.19897 4546.4502 1168.75 9.2197031e-39
2568.0901 4553.7998 1170.24 9.2197031e-39
1688.1 4564.2002 1173.27 9.2197031e-39
-2501.4099 4591.9297 1181.86 9.2197031e-39
-2449.3201 4619.3604 1189.1899 9.2197031e-39
-2374.05 4619.02 1189.08 9.2197031e-39
1716.54 4658.9102 1198.64 9.2197031e-39
1745.6801 4722.3398 1215.62 9.2197031e-39
1761.73 5029.5898 1297.95 9.2197031e-39
1774.79 5408.9302 1399.59 9.2197031e-39
2312.99 7272.6401 1898.8199 9.2197031e-39
2369.99 7280.1899 1900.83 9.2197031e-39
2433.1001 7288.9199 1903.15 9.2197031e-39
2677 7334.5601 1915.3101 9.2197031e-39
2735.03 7339.1499 1916.52 9.2197031e-39
2799.1101 7342.6802 1917.45 9.2197031e-39
2858.6201 7356.8398 1921.23 9.2197031e-39
2494.79 7365.8901 1923.75 9.2197031e-39
2558.51 7367.71 1924.23 9.2197031e-39
2616.2 7367.4902 1924.15 9.2197031e-39
2007.64 7749.48 2026.67 9.2197031e-39
2074.5901 7749.8101 2026.74 9.2197031e-39
2135.2 7740.9199 2024.34 9.2197031e-39
2202.22 7748.8198 2026.4399 9.2197031e-39
2262.8899 7747.5898 2026.09 9.2197031e-39
1819.0601 7754.04 2027.95 9.2197031e-39
1879.78 7755.8799 2028.42 9.2197031e-39
1946.8 7757.3501 2028.8 9.2197031e-39
1751.62 7761.0898 2029.85 9.2197031e-39
1690.49 7764.98 2030.91 9.2197031e-39
