# .PCD v0.7 - Point Cloud Data file format
VERSION 0.7
FIELDS x y z rgb
SIZE 4 4 4 4
TYPE F F F F
COUNT 1 1 1 1
WIDTH 329
HEIGHT 1
VIEWPOINT 0 0 0 1 0 0 0
POINTS 329
DATA ascii
3031.98 875.06201 134.21201 9.2197031e-39
-1153 887.94501 133.282 9.2197031e-39
3032.97 882.31604 136.157 9.2197031e-39
1931.91 897.70001 139.12601 9.2197031e-39
1944.7749 895.98102 138.679 9.2197031e-39
3035.8799 891.20001 138.53999 9.2197031e-39
1932.86 900.65698 139.92 9.2197031e-39
3035.74 898.479 140.491 9.2197031e-39
1929.51 907.06946 141.634 9.2197031e-39
1933.3075 904.427 140.93001 9.2197031e-39
2213.8999 907.19373 141.96524 9.2197031e-39
2224.1001 906.12097 141.688 9.2197031e-39
2246.9199 909.17896 142.532 9.2197031e-39
3032.5 907.25403 142.839 9.2197031e-39
-1151.76 917.84802 141.29601 9.2197031e-39
1920.9301 912.27197 143.019 9.2197031e-39
1935.6649 914.70135 143.68565 9.2197031e-39
1944.655 912.40503 143.0795 9.2197031e-39
2214.4741 912.85461 143.48259 9.2197031e-39
2277.72 912.95099 143.575 9.2197031e-39
2288.8401 913.24402 143.66499 9.2197031e-39
2308.9199 914.401 143.996 9.2197031e-39
2337.8701 916.93896 144.70599 9.2197031e-39
2640.4099 918.54401 145.453 9.2197031e-39
2681.6299 916.90503 145.05701 9.2197031e-39
2771.8401 916.27002 144.981 9.2197031e-39
2921.95 918.11804 145.634 9.2197031e-39
3021.23 914.086 144.657 9.2197031e-39
1925.6768 926.4057 146.81099 9.2197031e-39
1931.8 921.65698 145.545 9.2197031e-39
2414.4399 925.22699 147.007 9.2197031e-39
2457.4099 928.31799 147.88 9.2197031e-39
2497.5701 929.69 148.28999 9.2197031e-39
2505.9199 927.41699 147.69 9.2197031e-39
2538.2 926.82703 147.56599 9.2197031e-39
2571.4199 926.55896 147.528 9.2197031e-39
2580.8401 922.78601 146.52699 9.2197031e-39
2615.0701 921.72198 146.278 9.2197031e-39
1922.955 935.35498 149.20651 9.2197031e-39
1936.02 933.98969 148.85399 9.2197031e-39
1945.23 934.36597 148.965 9.2197031e-39
1953.3575 932.36975 148.43849 9.2197031e-39
2266.1201 931.034 148.408 9.2197031e-39
-1151.34 942.39099 147.87199 9.2197031e-39
1870.1801 947.823 152.492 9.2197031e-39
1940.14 942.16101 151.048 9.2197031e-39
2293.3401 940.87799 151.07401 9.2197031e-39
2315.74 949.39404 153.379 9.2197031e-39
2324.54 954.54797 154.769 9.2197031e-39
1823.8101 966.04901 157.327 9.2197031e-39
2365.6899 969.742 158.884 9.2197031e-39
-1150.5601 972.28796 155.884 9.2197031e-39
1798.25 977.30896 160.317 9.2197031e-39
-1156.7 997.07703 162.52 9.2197031e-39
2441.4299 997.638 166.438 9.2197031e-39
2475.3601 1012.19 170.373 9.2197031e-39
-1157.37 1027.113 170.567 9.2197031e-39
-1156.0699 1051.6951 177.155 9.2197031e-39
-623.85199 1068.848 182.30901 9.2197031e-39
2615.1201 1064.985 184.66499 9.2197031e-39
-1154.2 1081.631 185.17799 9.2197031e-39
-609.88202 1092.8989 188.76801 9.2197031e-39
-608.05402 1113.318 194.241 9.2197031e-39
-616.54797 1139.238 201.177 9.2197031e-39
2813.3701 1140.334 205.062 9.2197031e-39
-624.284 1160.746 206.93201 9.2197031e-39
3107 1255.952 236.349 9.2197031e-39
3118.8 1269.3669 239.95599 9.2197031e-39
3123.22 1282.217 243.40401 9.2197031e-39
3130.0701 1294.175 246.61501 9.2197031e-39
3133.26 1306.895 250.02699 9.2197031e-39
3139.8401 1319.1 253.304 9.2197031e-39
3136.3201 1329.302 256.034 9.2197031e-39
3132.6101 1337.332 258.181 9.2197031e-39
3137.0801 1351.131 261.884 9.2197031e-39
2733.52 1369.5701 266.40201 9.2197031e-39
2743.1399 1366.9861 265.71899 9.2197031e-39
2751.9099 1365.3879 265.29999 9.2197031e-39
2777.6399 1365.821 265.44299 9.2197031e-39
2784.8999 1360.9929 264.15701 9.2197031e-39
2798.6699 1362.223 264.50101 9.2197031e-39
2819.96 1366.4041 265.64401 9.2197031e-39
3139.52 1362.052 264.81201 9.2197031e-39
2707.26 1375.054 267.84399 9.2197031e-39
2775.26 1372.2671 267.168 9.2197031e-39
2846.3501 1375.2639 268.04599 9.2197031e-39
2861.28 1374.484 267.85199 9.2197031e-39
3135.5601 1372.28 267.54901 9.2197031e-39
2736.22 1389.63 271.78 9.2197031e-39
2742.05 1384.109 270.306 9.2197031e-39
3139.5701 1384.151 270.73401 9.2197031e-39
2692.3601 1390.678 272.01401 9.2197031e-39
2707.3401 1393.0811 272.67401 9.2197031e-39
2721.5 1396.322 273.55701 9.2197031e-39
2912.3601 1397.8311 274.16101 9.2197031e-39
3144.3101 1398.751 274.651 9.2197031e-39
3140.04 1406.8401 276.814 9.2197031e-39
2661.5701 1419.0339 279.57999 9.2197031e-39
2682.99 1419.615 279.758 9.2197031e-39
2694.96 1415.549 278.68149 9.2197031e-39
2708.45 1412.5339 277.88699 9.2197031e-39
2663.5801 1429.522 282.392 9.2197031e-39
2680.74 1426.1841 281.51599 9.2197031e-39
3138.24 1428.783 282.69101 9.2197031e-39
3142.7 1420.707 280.53201 9.2197031e-39
2658.0801 1434.9199 283.83301 9.2197031e-39
2655.28 1446.447 286.91901 9.2197031e-39
3140.6101 1442.766 286.44101 9.2197031e-39
3143.8201 1455.075 289.742 9.2197031e-39
3028.23 1457.636 290.30701 9.2197031e-39
2648.55 1465.4099 291.99301 9.2197031e-39
2658.5 1464.287 291.702 9.2197031e-39
3145.8501 1469.2419 293.54001 9.2197031e-39
2644.5 1476.2595 294.89551 9.2197031e-39
3142.73 1478.313 295.96799 9.2197031e-39
2618.75 1484.787 297.15302 9.2197031e-39
2629.6001 1487.2 297.811 9.2197031e-39
2639.6201 1486.3879 297.604 9.2197031e-39
3143.5901 1492.105 299.664 9.2197031e-39
2621.0901 1499.3611 301.061 9.2197031e-39
2619.8401 1507.927 303.35501 9.2197031e-39
3139.4099 1500.686 301.95901 9.2197031e-39
2614.8301 1514.4141 305.08801 9.2197031e-39
3140.8201 1515.0701 305.815 9.2197031e-39
2619.01 1529.7781 309.20901 9.2197031e-39
2610.6599 1532.4819 309.92499 9.2197031e-39
2608.3701 1540.3301 312.02499 9.2197031e-39
2604.6899 1560.012 317.29501 9.2197031e-39
2621.1101 1569.839 319.94501 9.2197031e-39
2606.3 1587.609 324.69101 9.2197031e-39
2615.01 1587.468 324.66299 9.2197031e-39
2611.3301 1609.048 330.44101 9.2197031e-39
2611.6201 1621.8101 333.862 9.2197031e-39
2779.99 1876.83 402.36899 9.2197031e-39
3161.5 2446.0601 555.29102 9.2197031e-39
3167.22 2487.55 566.41498 9.2197031e-39
3163.8101 2510.4102 572.53601 9.2197031e-39
3167.79 2551.45 583.539 9.2197031e-39
3171.99 2587.6201 593.23401 9.2197031e-39
3167.3999 2617.51 601.23798 9.2197031e-39
3170.5601 2653.97 611.01001 9.2197031e-39
3169.46 2691.5601 621.08197 9.2197031e-39
3166.55 2719.9299 628.68103 9.2197031e-39
3166.25 2761.1399 639.72101 9.2197031e-39
3171.54 2805.77 651.68701 9.2197031e-39
3171.24 2849.8701 663.50201 9.2197031e-39
3174.21 2893.1799 675.10901 9.2197031e-39
-1613.97 2914.4099 675.784 9.2197031e-39
3170.6001 2934.1699 686.09003 9.2197031e-39
3172.6899 2978.6499 698.00897 9.2197031e-39
-1835.71 2988.9299 695.521 9.2197031e-39
-2264.0701 2990.05 695.37 9.2197031e-39
3073.23 3020.1001 709.01202 9.2197031e-39
3172.52 3029.4299 711.617 9.2197031e-39
3033.98 3035.6699 713.14398 9.2197031e-39
3058.1599 3032.9099 712.42798 9.2197031e-39
-238.21201 3051.76 714.02802 9.2197031e-39
-212.987 3069.7 718.862 9.2197031e-39
3171.45 3070.75 722.68799 9.2197031e-39
-194.364 3086.3501 723.34302 9.2197031e-39
-335.345 3107.55 728.87402 9.2197031e-39
-168.161 3103.1399 727.867 9.2197031e-39
-146.50999 3116.6499 731.51001 9.2197031e-39
3048.04 3115.9299 734.66302 9.2197031e-39
3147.97 3123.0801 736.68402 9.2197031e-39
3176.4299 3135.8501 740.13599 9.2197031e-39
-139.967 3153.3101 741.341 9.2197031e-39
-104.374 3152.3799 741.12799 9.2197031e-39
-65.561798 3155.3201 741.95697 9.2197031e-39
4.27212 3159.8799 743.25201 9.2197031e-39
-1340.64 3166.79 743.69598 9.2197031e-39
-38.280602 3162.1799 743.823 9.2197031e-39
22.9179 3175.5601 747.474 9.2197031e-39
133.549 3174.53 747.31299 9.2197031e-39
57.445499 3181.21 749.02399 9.2197031e-39
89.0746 3181.6499 749.17499 9.2197031e-39
158.58099 3181.7 749.26099 9.2197031e-39
-2052.8999 3198.3201 751.39899 9.2197031e-39
-1321.08 3192.1399 750.508 9.2197031e-39
166.65601 3217.5701 758.87903 9.2197031e-39
-2017.66 3229.55 759.802 9.2197031e-39
-1311.77 3233.0901 761.48999 9.2197031e-39
-2434.23 3266.98 769.396 9.2197031e-39
-1998.39 3260.5901 768.14099 9.2197031e-39
-1971.16 3296.1899 777.70697 9.2197031e-39
1273.49 3293.78 780.45898 9.2197031e-39
1299.28 3295.5801 780.96802 9.2197031e-39
1321.6 3293.0901 780.32599 9.2197031e-39
3079.23 3306.03 785.63098 9.2197031e-39
3100.8701 3302.8101 784.79199 9.2197031e-39
-1950.5 3326.3701 785.815 9.2197031e-39
1355.25 3339.8501 792.88898 9.2197031e-39
-782.40601 3341.8401 791.18298 9.2197031e-39
2950.46 3365.24 801.36298 9.2197031e-39
2973.98 3367.6499 802.03302 9.2197031e-39
3001.6799 3367.4199 801.99902 9.2197031e-39
3025.04 3368.47 802.30701 9.2197031e-39
3053.6001 3369.52 802.61798 9.2197031e-39
3073.8701 3362.02 800.63 9.2197031e-39
-777.82098 3377.1101 800.64001 9.2197031e-39
1322.6 3376.01 802.54498 9.2197031e-39
-1955.48 3381.8301 800.66998 9.2197031e-39
-783.755 3430.96 815.06299 9.2197031e-39
-745.37402 3436.76 816.65698 9.2197031e-39
1338.59 3491.79 833.58301 9.2197031e-39
2966.8899 3494.3501 835.97302 9.2197031e-39
1344.28 3554.28 850.33502 9.2197031e-39
2943.3899 3583.6899 859.88898 9.2197031e-39
-3391.76 3590.8799 855.18103 9.2197031e-39
2975.3799 3591.1899 861.93103 9.2197031e-39
-1189.89 3638.98 870.37598 9.2197031e-39
1349.9 3640.52 873.44702 9.2197031e-39
2937.4299 3641.99 875.50403 9.2197031e-39
-3388.5 3653.53 871.96997 9.2197031e-39
-3382.49 3703.6399 885.40601 9.2197031e-39
1355.9301 3710.6799 892.25299 9.2197031e-39
1086.9399 3775.5701 909.35797 9.2197031e-39
1357.42 3826.28 923.22998 9.2197031e-39
1358.5699 3928.6699 950.66602 9.2197031e-39
-2317.22 4045.48 978.11603 9.2197031e-39
1361.4301 4056.95 985.039 9.2197031e-39
-2269.77 4063.02 982.86401 9.2197031e-39
-2209.5 4081.8401 987.96997 9.2197031e-39
-2140.8301 4082.0701 988.104 9.2197031e-39
-2101.8301 4115.54 997.11298 9.2197031e-39
-2046.65 4124.6201 999.60303 9.2197031e-39
1362.74 4175.7402 1016.87 9.2197031e-39
-2620.5 4196.8203 1018.35 9.2197031e-39
-152.589 4217.6104 1026.5 9.2197031e-39
-102.793 4212.7803 1025.26 9.2197031e-39
-69.239403 4219.3896 1027.0699 9.2197031e-39
-21.447701 4215.9902 1026.21 9.2197031e-39
16.0516 4215.2402 1026.05 9.2197031e-39
58.840099 4218.3203 1026.92 9.2197031e-39
143.459 4210.5498 1024.92 9.2197031e-39
218.172 4217.1201 1026.76 9.2197031e-39
-195.082 4223.1699 1027.95 9.2197031e-39
93.07 4221.8203 1027.89 9.2197031e-39
173.07001 4220.9102 1027.73 9.2197031e-39
-3260.0601 4249.27 1031.73 9.2197031e-39
2967.1599 4280.25 1046.55 9.2197031e-39
3038.1799 4299.2197 1051.71 9.2197031e-39
3102.9199 4292.7002 1050.03 9.2197031e-39
3008.76 4300.8101 1052.11 9.2197031e-39
3077.24 4307.8203 1054.0601 9.2197031e-39
-3265.47 4323.7402 1051.6801 9.2197031e-39
1365.36 4328.0898 1057.7 9.2197031e-39
-3262.8999 4381.0498 1067.04 9.2197031e-39
-741.63501 4385.75 1070.9399 9.2197031e-39
161.849 4384.0601 1071.4301 9.2197031e-39
1375.0699 4426.3701 1084.04 9.2197031e-39
2606.1599 4432.75 1087.04 9.2197031e-39
2975.7 4430.4697 1086.8101 9.2197031e-39
-735.77899 4448.5801 1087.78 9.2197031e-39
358.19299 4468.1797 1094.1801 9.2197031e-39
400.47501 4469.8398 1094.67 9.2197031e-39
479.85101 4465.6104 1093.62 9.2197031e-39
554.76703 4468.75 1094.54 9.2197031e-39
591.495 4462.27 1092.84 9.2197031e-39
664.65503 4466 1093.91 9.2197031e-39
706.56299 4462.6001 1093.05 9.2197031e-39
739.19202 4463.8203 1093.41 9.2197031e-39
2647.9299 4468.7402 1096.73 9.2197031e-39
2677.1599 4464.29 1095.5601 9.2197031e-39
2713.9099 4465.23 1095.86 9.2197031e-39
2743.1101 4460.2803 1094.5601 9.2197031e-39
2780.3 4462.4902 1095.1899 9.2197031e-39
2811.03 4464.6201 1095.79 9.2197031e-39
2848.6201 4467.1104 1096.5 9.2197031e-39
2877.8301 4461.1396 1094.9301 9.2197031e-39
2915.3301 4462.04 1095.21 9.2197031e-39
2946.55 4464.02 1095.77 9.2197031e-39
159.136 4472.0303 1095 9.2197031e-39
196.13901 4471.8398 1094.99 9.2197031e-39
239.412 4474.3701 1095.71 9.2197031e-39
276.16599 4473.4399 1095.5 9.2197031e-39
321.32001 4470.73 1094.8199 9.2197031e-39
433.41599 4474.52 1095.95 9.2197031e-39
512.22198 4470.5098 1094.96 9.2197031e-39
628.94397 4471.3604 1095.3101 9.2197031e-39
774.83398 4476.04 1096.72 9.2197031e-39
1632.3101 4470.77 1096.21 9.2197031e-39
2582.8301 4476.8604 1098.83 9.2197031e-39
-617.30499 4484.1104 1097.42 9.2197031e-39
-566.38397 4488.3896 1098.62 9.2197031e-39
-520.336 4485.3701 1097.86 9.2197031e-39
-469.78 4488.4902 1098.75 9.2197031e-39
-422.48199 4482.0601 1097.08 9.2197031e-39
-668.48297 4492.3398 1099.58 9.2197031e-39
1400.13 4486.8799 1100.28 9.2197031e-39
1665.6801 4494.8896 1102.7 9.2197031e-39
-731.19397 4501.5498 1101.98 9.2197031e-39
1427.33 4504.29 1104.97 9.2197031e-39
1463.5 4509.1797 1106.3199 9.2197031e-39
1494.48 4505.1396 1105.27 9.2197031e-39
1531.9399 4500.8101 1104.15 9.2197031e-39
1561.6 4503.8799 1105 9.2197031e-39
1598.62 4500.8203 1104.22 9.2197031e-39
788.35999 4530.6201 1111.36 9.2197031e-39
-2384.8201 4589.1201 1123.71 9.2197031e-39
-2555.78 4597.3101 1125.73 9.2197031e-39
-2481.03 4596.25 1125.52 9.2197031e-39
1718.38 4634.0098 1140.04 9.2197031e-39
1673.2 4705.4697 1159.14 9.2197031e-39
1738.03 4761.7402 1174.28 9.2197031e-39
1756.9399 5018.04 1242.97 9.2197031e-39
1764.0699 5403.9199 1346.38 9.2197031e-39
2327.9299 7258.1401 1843.8 9.2197031e-39
2391.71 7265.1602 1845.75 9.2197031e-39
2444.6101 7278 1849.25 9.2197031e-39
2626.73 7302.6201 1856.03 9.2197031e-39
2681.1201 7320.3599 1860.84 9.2197031e-39
2745.9199 7323.1099 1861.65 9.2197031e-39
2800.4399 7336.0698 1865.1801 9.2197031e-39
2513.0901 7348.5098 1868.21 9.2197031e-39
2866.6001 7346.3398 1868 9.2197031e-39
2920.51 7349.71 1868.96 9.2197031e-39
2566.51 7354.6299 1869.9 9.2197031e-39
2280.45 7404.6802 1883.02 9.2197031e-39
1677.9399 7613.0601 1938.22 9.2197031e-39
2166.53 7719.1001 1967.14 9.2197031e-39
2042.87 7728.27 1969.47 9.2197031e-39
2098.6599 7728.3101 1969.54 9.2197031e-39
2222.4299 7726.8901 1969.29 9.2197031e-39
1726.53 7738.3999 1971.86 9.2197031e-39
1850.86 7733.5898 1970.7 9.2197031e-39
1918.9 7735.3599 1971.24 9.2197031e-39
1974.76 7736.3398 1971.5699 9.2197031e-39
1794.67 7740.3501 1972.45 9.2197031e-39
