# .PCD v0.7 - Point Cloud Data file format
VERSION 0.7
FIELDS x y z rgb
SIZE 4 4 4 4
TYPE F F F F
COUNT 1 1 1 1
WIDTH 302
HEIGHT 1
VIEWPOINT 0 0 0 1 0 0 0
POINTS 302
DATA ascii
14.1693 -857.41504 137.136 9.2197031e-39
13.0829 -840.09998 133.32201 9.2197031e-39
706.90936 -315.49466 138.95967 9.2197031e-39
703.01099 -309.18201 136.985 9.2197031e-39
711.97449 -306.229 137.86 9.2197031e-39
717.95251 -297.32999 136.98999 9.2197031e-39
928.90503 -138.06152 138.75299 9.2197031e-39
934.88751 -135.42249 139.19699 9.2197031e-39
968.12799 -110.20697 139.45 9.2197031e-39
2715.29 1296.752 135.62 9.2197031e-39
2825.8501 1364.823 139.776 9.2197031e-39
13.4652 -884.69995 142.743 9.2197031e-39
27.7136 -887.45996 145.696 9.2197031e-39
9.4573898 -879.95996 141.08 9.2197031e-39
100.952 -831.44995 146.158 9.2197031e-39
286.54199 -679 145.12399 9.2197031e-39
350.83401 -626.34998 144.799 9.2197031e-39
623.30402 -422.16003 147.395 9.2197031e-39
695.98102 -369.92499 148.55499 9.2197031e-39
687.94153 -342.64999 141.493 9.2197031e-39
710.48199 -324.55603 141.45599 9.2197031e-39
725.05768 -323.29166 143.62067 9.2197031e-39
723.48358 -316.66916 141.96901 9.2197031e-39
730.01398 -314.57599 142.619 9.2197031e-39
941.9743 -173.74303 148.41699 9.2197031e-39
950.54199 -167.802 148.59851 9.2197031e-39
961.97546 -160.68649 149.01251 9.2197031e-39
929.79999 -155.16199 142.489 9.2197031e-39
931.69867 -153.71635 142.50267 9.2197031e-39
945.21234 -152.38734 144.47701 9.2197031e-39
956.46851 -155.80051 147.0695 9.2197031e-39
962.92969 -154.39832 147.85266 9.2197031e-39
938.74902 -144.82098 141.8125 9.2197031e-39
945.20551 -142.0715 142.312 9.2197031e-39
959.76501 -149.44397 146.286 9.2197031e-39
937.59198 -137.13702 140.007 9.2197031e-39
943.67377 -137.3885 141.07425 9.2197031e-39
2991.51 1456.2109 148.22501 9.2197031e-39
658.79999 -432.59998 155.502 9.2197031e-39
674.42499 -407.08997 152.757 9.2197031e-39
683.73102 -389.33002 150.582 9.2197031e-39
954.03705 -174.489 150.584 9.2197031e-39
967.13397 -162.45502 150.244 9.2197031e-39
2994.96 1438.395 152.537 9.2197031e-39
597.61401 -534.21997 166.617 9.2197031e-39
624.88599 -488.98999 161.67599 9.2197031e-39
2991.6201 1378.9031 164.46001 9.2197031e-39
2989.4299 1397.198 160.256 9.2197031e-39
566.86298 -590.16003 173.224 9.2197031e-39
2986.8701 1319.9661 176.03 9.2197031e-39
2993.27 1343.9199 172.073 9.2197031e-39
510.104 -685.03003 183.66 9.2197031e-39
2988.1699 1266.6631 187.427 9.2197031e-39
2995.9099 1290.939 183.62601 9.2197031e-39
2989.0901 1214.269 198.57201 9.2197031e-39
2989.01 1232.7639 194.679 9.2197031e-39
426.55899 -832.29004 200.621 9.2197031e-39
2989.1799 1180.6 205.649 9.2197031e-39
337.17801 -987.60999 218.299 9.2197031e-39
349.66101 -1028.64 228.98599 9.2197031e-39
335.13651 -1016.195 223.95551 9.2197031e-39
349.12299 -1018.2 226.707 9.2197031e-39
366.71701 -1030.77 232.27699 9.2197031e-39
374.08801 -1038.91 235.213 9.2197031e-39
382.81201 -1034.3199 235.70599 9.2197031e-39
396.1665 -1036.8301 238.459 9.2197031e-39
362.202 -1027.34 230.80499 9.2197031e-39
413.56299 -1037.135 241.42349 9.2197031e-39
429.78799 -1032.86 243.23199 9.2197031e-39
435.23499 -1034.1 244.399 9.2197031e-39
462.79501 -1034.54 249.086 9.2197031e-39
448.12799 -1029.78 245.642 9.2197031e-39
454.33499 -1029.0699 246.53 9.2197031e-39
467.84698 -1036.47 250.33501 9.2197031e-39
483.00848 -1032.585 252.04749 9.2197031e-39
515.14453 -1033.155 257.52399 9.2197031e-39
498.35599 -1027.53 253.54601 9.2197031e-39
503.37201 -1029.25 254.743 9.2197031e-39
533.49146 -1025.9551 259.07251 9.2197031e-39
569.203 -1001.75 259.94901 9.2197031e-39
549.81403 -1032.28 263.12201 9.2197031e-39
545.07397 -1029.9 261.832 9.2197031e-39
575.52551 -1014.63 263.70599 9.2197031e-39
588.20398 -1005.6 263.92599 9.2197031e-39
648.73401 -1070.79 287.69199 9.2197031e-39
658.50201 -1072.23 289.621 9.2197031e-39
634.88599 -1062.5699 283.65799 9.2197031e-39
631.06897 -1054.91 281.41501 9.2197031e-39
645.49701 -1059.33 284.74701 9.2197031e-39
671.91699 -1025.41 282.03799 9.2197031e-39
749.69397 -1081.24 306.715 9.2197031e-39
740.49902 -1072.02 303.25 9.2197031e-39
755.65198 -1072.6 305.897 9.2197031e-39
765.47498 -1072.84 307.58401 9.2197031e-39
771.09399 -1067.04 307.306 9.2197031e-39
724.35901 -1194.97 326.34799 9.2197031e-39
776.586 -1189.51 333.91101 9.2197031e-39
2464.3999 77.02002 349.64301 9.2197031e-39
2457.0801 86 346.539 9.2197031e-39
2471.78 107.69098 344.44 9.2197031e-39
2498.3701 123.32501 345.59399 9.2197031e-39
2466.9299 58.554993 353.93799 9.2197031e-39
2487.8101 51.541016 358.88901 9.2197031e-39
2581.6201 160.16 351.746 9.2197031e-39
663.53998 -1406.16 360.508 9.2197031e-39
2490.1001 3.4429932 369.36099 9.2197031e-39
2488.21 22.192993 365.11301 9.2197031e-39
2491.01 32.947021 363.32401 9.2197031e-39
661.13098 -1490.72 377.84399 9.2197031e-39
777.68201 -1362.83 370.448 9.2197031e-39
2505.78 -4.9920044 373.745 9.2197031e-39
683.81201 -1490.4099 381.56 9.2197031e-39
2511.04 -122.44 399.258 9.2197031e-39
2511.8101 -112.02301 397.202 9.2197031e-39
2981.5901 257.26901 398.061 9.2197031e-39
2993.4299 285.15201 394.18701 9.2197031e-39
2520.1899 -151.56097 406.892 9.2197031e-39
2507.3301 -141.65002 402.668 9.2197031e-39
2583.25 -88.054016 404.08401 9.2197031e-39
2683.51 -4.7059937 403.31601 9.2197031e-39
612.47302 -1683.5701 410.18399 9.2197031e-39
1868.86 -731.34998 419.91599 9.2197031e-39
1887.3 -716.78003 419.93399 9.2197031e-39
2513.25 -210.74902 418.14999 9.2197031e-39
2515.55 -200.34497 416.35199 9.2197031e-39
2517.97 -181.18597 412.73499 9.2197031e-39
2518.1201 -170.77002 410.57501 9.2197031e-39
1357.49 -1168.36 426.32501 9.2197031e-39
1360.64 -1159.78 425.05099 9.2197031e-39
1374.875 -1151.7849 425.74652 9.2197031e-39
1389.52 -1144.42 426.64301 9.2197031e-39
1395.4301 -1140.67 426.84201 9.2197031e-39
1404.66 -1131.26 426.40701 9.2197031e-39
1414.1899 -1133.09 428.379 9.2197031e-39
1847.29 -791.76001 428.992 9.2197031e-39
1852.8 -786.23999 428.75201 9.2197031e-39
1858.85 -773.82996 427.15799 9.2197031e-39
1865.12 -768.67004 427.121 9.2197031e-39
1867.52 -754.37 424.51999 9.2197031e-39
1867.63 -746.03003 422.79001 9.2197031e-39
1877.54 -727.31995 420.51801 9.2197031e-39
1909.1801 -718.68005 423.98099 9.2197031e-39
1925.1 -710.52002 424.922 9.2197031e-39
1924.86 -702.03003 423.10101 9.2197031e-39
1954.37 -695.16504 426.58148 9.2197031e-39
2540.54 -240.76801 428.99701 9.2197031e-39
2528.25 -230.04498 424.698 9.2197031e-39
582.53699 -1830.6599 436.04501 9.2197031e-39
1343.83 -1228.12 436.58301 9.2197031e-39
1350.25 -1224.64 436.922 9.2197031e-39
1349.9399 -1196.0699 430.87799 9.2197031e-39
1354.75 -1190.02 430.41199 9.2197031e-39
1431.37 -1135.53 431.75601 9.2197031e-39
1436.14 -1129.9399 431.379 9.2197031e-39
1447.9399 -1124.1 432.12 9.2197031e-39
1459.3 -1127.89 434.811 9.2197031e-39
1476.21 -1128.8101 437.823 9.2197031e-39
1839.62 -811.93994 431.94501 9.2197031e-39
1840.1899 -803.57996 430.28699 9.2197031e-39
1992.0601 -690.87 431.965 9.2197031e-39
2826.3999 -59.11499 438.55301 9.2197031e-39
1341.95 -1270.67 445.19601 9.2197031e-39
1348.63 -1267.1899 445.57901 9.2197031e-39
1487.75 -1132.33 440.48499 9.2197031e-39
1504.895 -1126.735 442.16998 9.2197031e-39
1524.99 -1124.6801 445.08899 9.2197031e-39
1535 -1125.41 446.91101 9.2197031e-39
1583.11 -1095.62 448.68301 9.2197031e-39
1590.67 -1092.88 449.36801 9.2197031e-39
1599.05 -1081.58 448.39499 9.2197031e-39
1603.95 -1075.86 448.013 9.2197031e-39
2582.75 -261.46503 440.37601 9.2197031e-39
328.53699 -2145.71 459.78201 9.2197031e-39
295.32501 -2136.29 452.26901 9.2197031e-39
306.92801 -2139.96 454.97299 9.2197031e-39
1342.49 -1321.37 455.91901 9.2197031e-39
1341.46 -1301.34 451.54501 9.2197031e-39
1569.8199 -1134.59 454.64099 9.2197031e-39
1555.4 -1128.89 451.04099 9.2197031e-39
1626.63 -1079.97 452.65601 9.2197031e-39
1666.75 -1079.2 459.185 9.2197031e-39
1679.6801 -1071.9301 459.81601 9.2197031e-39
2997.8 -21.776001 459.298 9.2197031e-39
2997.0601 -8.46698 456.38101 9.2197031e-39
2995.46 15.978027 450.98801 9.2197031e-39
340.45401 -2148.21 462.29401 9.2197031e-39
365.06799 -2141.0901 464.905 9.2197031e-39
376.10001 -2147.23 468.03 9.2197031e-39
1347.5 -1366.3101 466.18201 9.2197031e-39
1598 -1146.37 461.811 9.2197031e-39
1696.9301 -1077.9301 463.95001 9.2197031e-39
1937.85 -887.16003 464.10101 9.2197031e-39
621.56403 -2005.6399 479.255 9.2197031e-39
1347.4301 -1385.66 470.228 9.2197031e-39
1637.14 -1180.34 475.46201 9.2197031e-39
1781.61 -1063.01 474.93799 9.2197031e-39
2522.78 -481.44995 476.522 9.2197031e-39
2522.8601 -470.64001 474.267 9.2197031e-39
2543.8799 -453.78003 474.23499 9.2197031e-39
2544.75 -443.01001 472.121 9.2197031e-39
2597.6799 -429.57996 478.129 9.2197031e-39
516.90198 -2138.8701 489.75201 9.2197031e-39
510.85999 -2100.51 480.698 9.2197031e-39
1361.1801 -1454.03 486.862 9.2197031e-39
1843.41 -1064.34 485.522 9.2197031e-39
1989.24 -957.56995 487.44 9.2197031e-39
1995.75 -951.23999 487.19601 9.2197031e-39
1997.13 -933.06995 483.61401 9.2197031e-39
2542.79 -515.84998 487.073 9.2197031e-39
2547.9199 -505.69995 485.79901 9.2197031e-39
1363.37 -1480.71 492.823 9.2197031e-39
1866.89 -1072.54 491.15399 9.2197031e-39
1980.86 -982.06006 491.17801 9.2197031e-39
1985.0601 -974.20996 490.23199 9.2197031e-39
2549.73 -569.22998 499.427 9.2197031e-39
2546.6899 -548.06006 494.479 9.2197031e-39
2541.4099 -535.93005 491.05499 9.2197031e-39
1941.05 -1067.17 502.39301 9.2197031e-39
1971.41 -1069.09 507.858 9.2197031e-39
1970.71 -1057.24 505.255 9.2197031e-39
2551.8899 -580.93994 502.24301 9.2197031e-39
2737.9399 -434.83997 502.617 9.2197031e-39
779.23602 -2031.4299 510.953 9.2197031e-39
790.46503 -2037.0801 514.01099 9.2197031e-39
2035.24 -1071.08 518.91699 9.2197031e-39
2006.76 -1062.4 512.349 9.2197031e-39
2047.74 -1047.05 515.96002 9.2197031e-39
2591.73 -622.31995 517.56598 9.2197031e-39
2575.52 -607.05005 511.66101 9.2197031e-39
2993.6799 -311.547 519.39301 9.2197031e-39
2985.7 -286.65503 512.841 9.2197031e-39
811.297 -2051.1699 520.44 9.2197031e-39
822.73199 -2052.71 522.66901 9.2197031e-39
843.64398 -2045.8899 524.724 9.2197031e-39
854.89801 -2039.3999 525.24103 9.2197031e-39
875.80798 -2039.0701 528.65698 9.2197031e-39
2067.8201 -1072.3 524.60498 9.2197031e-39
2456.5801 -780.12 528.13397 9.2197031e-39
2487.75 -757.85999 528.66101 9.2197031e-39
2493.3301 -748.08997 527.54199 9.2197031e-39
2988.8999 -362.745 529.33502 9.2197031e-39
3000.0901 -350.04401 528.53601 9.2197031e-39
2992.55 -324.89203 522.005 9.2197031e-39
908.66302 -2048.29 536.07001 9.2197031e-39
920.20099 -2049.23 538.19 9.2197031e-39
887.16699 -2038.26 530.38098 9.2197031e-39
2412.1001 -850.44995 535.46899 9.2197031e-39
2473.6799 -819.29004 539.20203 9.2197031e-39
2459.4299 -802.40002 533.28302 9.2197031e-39
2477.98 -775.91003 530.81799 9.2197031e-39
2555.0701 -745.91003 537.37799 9.2197031e-39
2994.3799 -401.40997 538.35999 9.2197031e-39
2995.98 -388.03998 535.82202 9.2197031e-39
941.90002 -2056.9199 543.42102 9.2197031e-39
953.383 -2055.7 545.08002 9.2197031e-39
974.21698 -2050.3601 547.43298 9.2197031e-39
985.66498 -2048.95 549.04498 9.2197031e-39
1016.26 -2028.0801 549.76801 9.2197031e-39
2482.6101 -856.45996 548.487 9.2197031e-39
2495.1399 -849.21997 549.05701 9.2197031e-39
2610.1599 -750.60999 547.54999 9.2197031e-39
2616.9099 -730.18005 544.388 9.2197031e-39
2622.3601 -719.56995 543.07098 9.2197031e-39
2653.29 -705.62 545.30298 9.2197031e-39
2675.6299 -699.22998 547.68701 9.2197031e-39
2989.3799 -439.32996 545.47998 9.2197031e-39
3000.02 -426.84998 544.63702 9.2197031e-39
1007 -2049.0801 552.62903 9.2197031e-39
1038.38 -2035.6001 555.03497 9.2197031e-39
1048.23 -2022.21 553.867 9.2197031e-39
2750.1201 -695.19995 559.26099 9.2197031e-39
1083.83 -2040.8301 563.71002 9.2197031e-39
1071.45 -2036.0901 560.651 9.2197031e-39
1104.1801 -2033.1101 565.48102 9.2197031e-39
1116.35 -2035.7 568.05499 9.2197031e-39
1137.26 -2031.46 570.65198 9.2197031e-39
1171.36 -2034 576.86902 9.2197031e-39
1182.55 -2030.4299 577.98602 9.2197031e-39
1148.62 -2029.0601 572.04199 9.2197031e-39
2835.24 -703.18994 575.12903 9.2197031e-39
1218.99 -2041.6101 586.40802 9.2197031e-39
1205.48 -2034.95 582.758 9.2197031e-39
1240.01 -2036.22 588.78003 9.2197031e-39
1483.76 -1837.1799 587.66901 9.2197031e-39
1489.1 -1821.1001 585.18701 9.2197031e-39
1276.41 -2043.4299 596.36298 9.2197031e-39
1288.36 -2042.05 598.06598 9.2197031e-39
1253.02 -2039.79 591.69897 9.2197031e-39
1429.4 -1933.6201 598.83502 9.2197031e-39
1445.2 -1915.01 597.56598 9.2197031e-39
1451.4301 -1898.97 595.24103 9.2197031e-39
1467.71 -1882.9199 594.586 9.2197031e-39
1474.97 -1870.4299 593.17902 9.2197031e-39
1311.45 -2043.3701 602.19202 9.2197031e-39
1322.4 -2038.03 602.896 9.2197031e-39
1345.04 -2037.0601 606.46899 9.2197031e-39
1356.75 -2034.3201 607.84601 9.2197031e-39
1374.26 -2016.26 606.97803 9.2197031e-39
1380.86 -1997.6299 604.16901 9.2197031e-39
1395.3199 -1972.02 601.20898 9.2197031e-39
1405.4301 -1965.3 601.48401 9.2197031e-39
1422.42 -1948.7 600.83502 9.2197031e-39
