# .PCD v0.7 - Point Cloud Data file format
VERSION 0.7
FIELDS x y z rgb
SIZE 4 4 4 4
TYPE F F F F
COUNT 1 1 1 1
WIDTH 325
HEIGHT 1
VIEWPOINT 0 0 0 1 0 0 0
POINTS 325
DATA ascii
-960.76001 1309.6589 139.534 9.2197031e-39
-963.09198 1319.772 136.769 9.2197031e-39
-978.24597 1328.402 134 9.2197031e-39
389.17899 1469.0811 139.203 9.2197031e-39
398.11899 1467.6179 139.871 9.2197031e-39
360.27399 1472.562 137.375 9.2197031e-39
388.24399 1471.384 138.561 9.2197031e-39
395.21201 1470.1179 139.11501 9.2197031e-39
2406.6499 1706.65 138.892 9.2197031e-39
2409.5801 1725.37 134 9.2197031e-39
-910.10602 1276.3259 149.98399 9.2197031e-39
-934.46198 1282.499 147.58099 9.2197031e-39
-958.33698 1299.574 142.293 9.2197031e-39
-949.89203 1290.418 144.993 9.2197031e-39
-509.65201 1337.296 146.246 9.2197031e-39
-419.00601 1347.5281 146.349 9.2197031e-39
-364.90601 1352.199 146.793 9.2197031e-39
-337.388 1352.3831 147.60201 9.2197031e-39
-299.16199 1355.308 148.01601 9.2197031e-39
-270.79199 1356.708 148.528 9.2197031e-39
-195.73 1369.3401 147.507 9.2197031e-39
-143.28999 1377.881 146.869 9.2197031e-39
-116.408 1377.6841 147.75999 9.2197031e-39
-115.286 1381.282 146.83701 9.2197031e-39
-90.4543 1381.255 147.619 9.2197031e-39
-60.737999 1386.314 147.19901 9.2197031e-39
25.563499 1407.9819 144.12399 9.2197031e-39
38.6022 1409.723 144.067 9.2197031e-39
114.93967 1406.4821 147.31 9.2197031e-39
126.814 1409.5239 146.871 9.2197031e-39
53.505199 1412.2571 143.858 9.2197031e-39
119.629 1417.5859 144.5015 9.2197031e-39
125.35486 1426.6544 142.26686 9.2197031e-39
132.39301 1425.819 142.70799 9.2197031e-39
119.837 1431.0911 140.914 9.2197031e-39
129.717 1433.022 140.70799 9.2197031e-39
383.40524 1433.9573 148.37024 9.2197031e-39
393.00903 1434.1206 148.62599 9.2197031e-39
402.33051 1438.4965 147.752 9.2197031e-39
411.3335 1433.59 149.3385 9.2197031e-39
382.82501 1449.283 144.27299 9.2197031e-39
393.78302 1445.7393 145.55826 9.2197031e-39
403.28699 1440.2891 147.30499 9.2197031e-39
379.49899 1453.1841 143.132 9.2197031e-39
384.93469 1455.7765 142.61099 9.2197031e-39
393.09351 1456.5245 142.6665 9.2197031e-39
402.82333 1463.035 141.23717 9.2197031e-39
2383.3601 1667.84 148.492 9.2197031e-39
2400.5701 1687.6899 143.748 9.2197031e-39
-48.105202 1340.884 159.683 9.2197031e-39
-24.505199 1354.002 156.92799 9.2197031e-39
391.27499 1427.748 150.26801 9.2197031e-39
2387.26 1631.97 158.16 9.2197031e-39
2382.8999 1649.71 153.30299 9.2197031e-39
-141.78 1291.87 169.806 9.2197031e-39
-118.804 1306.1909 166.71201 9.2197031e-39
2378.53 1595.3301 167.64 9.2197031e-39
2377.49 1613.248 162.839 9.2197031e-39
2395.1001 1560.079 177.53799 9.2197031e-39
2385.3999 1577.698 172.54601 9.2197031e-39
2376.0701 1523.459 186.69 9.2197031e-39
2375.6799 1541.364 181.91299 9.2197031e-39
2402.28 1505.952 192.166 9.2197031e-39
-1347.36 638.93347 305.97699 9.2197031e-39
-1342.3 658.74689 300.862 9.2197031e-39
-1344.59 587.7959 319.672 9.2197031e-39
-1341.91 606.9458 314.66 9.2197031e-39
-1344.28 623.18152 310.26501 9.2197031e-39
-1344.97 551.65698 329.27802 9.2197031e-39
-1345.3101 569.51648 324.51401 9.2197031e-39
-1346.99 532.2262 334.38599 9.2197031e-39
-1267.74 489.14502 348.323 9.2197031e-39
-1294.0601 490.771 347.069 9.2197031e-39
-1267.27 452.14999 358.18301 9.2197031e-39
-1261.39 474.77899 352.34399 9.2197031e-39
1913.2 819.46204 359.60901 9.2197031e-39
1930.26 829.271 357.53101 9.2197031e-39
-1471.4399 398.76401 366.02301 9.2197031e-39
1923.83 781.98804 369.914 9.2197031e-39
1908.96 804.69397 363.40799 9.2197031e-39
-1730.77 283.802 388.53101 9.2197031e-39
-1704.83 276.51501 391.27899 9.2197031e-39
2091.76 694.02399 398.56 9.2197031e-39
2247.5801 727.03101 394.63501 9.2197031e-39
-1643.13 176.20999 419.897 9.2197031e-39
-1363.76 218.48499 417.35901 9.2197031e-39
-1611.14 174.521 421.345 9.2197031e-39
-1305.84 197.67401 424.703 9.2197031e-39
-1348.61 208.04501 420.60999 9.2197031e-39
-1313.3199 213.88901 420.155 9.2197031e-39
-1686.86 96.969971 439.62201 9.2197031e-39
-1340.01 146.67899 437.20901 9.2197031e-39
-1676.92 79.007019 444.71201 9.2197031e-39
-1352.25 112.92099 445.811 9.2197031e-39
-1718.71 22.942017 458.32901 9.2197031e-39
-1650.9399 47.437012 453.92401 9.2197031e-39
-1339.5699 75.796021 456.086 9.2197031e-39
-1352.76 88.546021 452.28201 9.2197031e-39
-1692.52 -9.9099731 467.88901 9.2197031e-39
-1337.01 28.734985 468.69101 9.2197031e-39
-1349.88 42.106995 464.73099 9.2197031e-39
2924.6299 525.62091 469.349 9.2197031e-39
2924.8201 551.17719 462.55399 9.2197031e-39
-1344.35 -3.2960205 476.98599 9.2197031e-39
2925.1299 499.65399 476.27499 9.2197031e-39
-1343.3101 -28.114014 483.62399 9.2197031e-39
-1327.51 -65.630005 494.10001 9.2197031e-39
-1341.9399 -53.023987 490.29501 9.2197031e-39
-1341.02 -105.87598 504.38901 9.2197031e-39
-1340.74 -161.25598 519.13702 9.2197031e-39
-1346.97 -139.45801 513.14099 9.2197031e-39
2414.75 280.92001 518.57098 9.2197031e-39
-1333.54 -182.35699 524.97601 9.2197031e-39
2370.21 232.85999 529.97198 9.2197031e-39
2369.48 257.73901 523.328 9.2197031e-39
2398.5901 265.552 522.15698 9.2197031e-39
2471.6599 274.38901 522.08398 9.2197031e-39
2927.3999 312.923 526.03998 9.2197031e-39
-1340.28 -218.51801 534.39001 9.2197031e-39
2361.3301 213.44101 534.86298 9.2197031e-39
2923.8899 287.108 532.80103 9.2197031e-39
-1329.62 -266.76801 547.56299 9.2197031e-39
-1332.4301 -239.73297 540.28003 9.2197031e-39
-1026.42 -237.495 549.22699 9.2197031e-39
-997.07898 -229.12799 547.91602 9.2197031e-39
-968.55701 -221.19501 546.69397 9.2197031e-39
-948.20599 -224.11798 548.10602 9.2197031e-39
-916.70099 -210.72498 545.52502 9.2197031e-39
-894.91602 -210.698 546.19702 9.2197031e-39
-875.94299 -214.505 547.80103 9.2197031e-39
2348.8799 171.12 545.73798 9.2197031e-39
2361.54 188.42899 541.526 9.2197031e-39
2920.5701 233.29599 547.01801 9.2197031e-39
2930.9399 256.34399 541.20801 9.2197031e-39
-1310.54 -307.01898 558.87 9.2197031e-39
-1329.72 -297.54999 555.75201 9.2197031e-39
-1269.45 -290.974 555.88098 9.2197031e-39
-1249.76 -299.13098 558.66602 9.2197031e-39
-1208.63 -281.40399 555.23102 9.2197031e-39
-1175.41 -272.25098 553.83099 9.2197031e-39
-1143.0699 -263.44 552.495 9.2197031e-39
-1114.04 -258.073 551.97101 9.2197031e-39
-1085.22 -252.35101 551.34802 9.2197031e-39
-1056.6 -246.27698 550.62299 9.2197031e-39
-851.83502 -242.94598 556.12201 9.2197031e-39
-870.42798 -238.58899 554.383 9.2197031e-39
2925.1899 203.103 555.19702 9.2197031e-39
-842.659 -262.01703 561.48401 9.2197031e-39
2407.72 108.55899 564.22198 9.2197031e-39
2922.3401 176.19501 562.27002 9.2197031e-39
-844.56097 -299.36401 571.36298 9.2197031e-39
2407.1599 55.976013 578.198 9.2197031e-39
2431.6101 66.817993 576.07501 9.2197031e-39
2924.6201 117.74899 577.89502 9.2197031e-39
2928.0801 144.83401 570.79498 9.2197031e-39
-849.935 -343.55701 582.95697 9.2197031e-39
2388.28 14.650024 588.60699 9.2197031e-39
2402.3201 32.27301 584.35602 9.2197031e-39
2930.54 85.614014 586.63202 9.2197031e-39
-849.59003 -379.56201 592.54999 9.2197031e-39
2378.9299 -6.2210083 593.87 9.2197031e-39
2917.73 62.981018 592.25598 9.2197031e-39
2383.02 -36.724976 602.11603 9.2197031e-39
2527.9299 -169.35797 641.93201 9.2197031e-39
-1013.78 -698.62 672.33899 9.2197031e-39
2482.6899 -353.62903 689.56097 9.2197031e-39
2506.1299 -340.164 686.70898 9.2197031e-39
2589.29 -340.79498 689.46997 9.2197031e-39
2623.72 -334.59998 688.89398 9.2197031e-39
2449.0701 -391.22998 698.51801 9.2197031e-39
2470.49 -376.27002 695.20599 9.2197031e-39
2566.5 -355.68799 692.72302 9.2197031e-39
2716.46 -371.578 701.62799 9.2197031e-39
1911.27 -532.64001 719.38202 9.2197031e-39
2803.72 -402.46002 712.56702 9.2197031e-39
1829.6899 -577.88 728.87799 9.2197031e-39
1851.85 -568.95996 727.19598 9.2197031e-39
1877.02 -563.64001 726.56403 9.2197031e-39
1888.0699 -540.64001 720.78699 9.2197031e-39
1949.53 -542.32996 723.15302 9.2197031e-39
2044.73 -544.29004 726.64398 9.2197031e-39
1974.13 -535.20996 722.026 9.2197031e-39
2009 -539.59998 724.28302 9.2197031e-39
1777.87 -623.81006 739.48401 9.2197031e-39
1805.54 -622.45996 739.98798 9.2197031e-39
1809.83 -589.68994 731.40198 9.2197031e-39
2545.5801 -507.94995 732.59003 9.2197031e-39
84.139099 -843.06995 745.01898 9.2197031e-39
1771.79 -654.95996 747.586 9.2197031e-39
209.424 -860.05005 753.44397 9.2197031e-39
230.478 -860.16003 754.13202 9.2197031e-39
251.534 -860.09998 754.77301 9.2197031e-39
188.37199 -859.75 752.70898 9.2197031e-39
272.57501 -857.93005 754.85199 9.2197031e-39
293.646 -859.44995 755.91302 9.2197031e-39
314.69699 -858.85999 756.41101 9.2197031e-39
335.74399 -858.08997 756.86298 9.2197031e-39
481.573 -835.23999 755.33002 9.2197031e-39
1760.8 -679.80005 753.85303 9.2197031e-39
2149.48 -624.62 751.289 9.2197031e-39
-1046.45 -1053.09 765.65601 9.2197031e-39
-814.63898 -1023.04 764.888 9.2197031e-39
-787.64502 -1021 765.18597 9.2197031e-39
99.416 -932.06006 769.17798 9.2197031e-39
164.868 -925.93005 769.58899 9.2197031e-39
1772.0699 -737.5 769.56 9.2197031e-39
2497.4099 -645.10999 767.591 9.2197031e-39
2566.76 -635.01001 767.06598 9.2197031e-39
2511.5601 -621.28003 761.69202 9.2197031e-39
2591.71 -620.48999 763.98102 9.2197031e-39
2621.72 -610.25 762.19202 9.2197031e-39
-953.18799 -1091.1801 778.70001 9.2197031e-39
-915.83099 -1070.08 774.25 9.2197031e-39
-779.84998 -1065.58 777.29401 9.2197031e-39
-882.53601 -1056.55 771.68903 9.2197031e-39
359.01401 -907.32996 770.69299 9.2197031e-39
2428.4199 -691.27002 777.72498 9.2197031e-39
2448.72 -673.37 773.59399 9.2197031e-39
2470.98 -657.32996 770.01898 9.2197031e-39
-1061.4399 -1138.75 787.98401 9.2197031e-39
-1025.84 -1125.05 785.44897 9.2197031e-39
-985.93103 -1101.29 780.37 9.2197031e-39
-742.08398 -1103.15 788.46899 9.2197031e-39
-756.97198 -1074.03 780.25403 9.2197031e-39
623.34601 -930.31006 785.04999 9.2197031e-39
2415.52 -716.65002 784.078 9.2197031e-39
-1211.86 -1198.02 799.06799 9.2197031e-39
-1175.33 -1186.86 797.23798 9.2197031e-39
-1136.8199 -1170.98 794.21002 9.2197031e-39
-898.08398 -1153.3101 796.95398 9.2197031e-39
-701.92603 -1136.55 798.60901 9.2197031e-39
-721.94897 -1119.47 793.43903 9.2197031e-39
652.362 -971.73999 796.97998 9.2197031e-39
1804.16 -827.81995 794.59698 9.2197031e-39
1768.74 -819.06995 791.16498 9.2197031e-39
-684.60101 -1161.73 805.85101 9.2197031e-39
523.26501 -1026.1 807.42102 9.2197031e-39
-673.24902 -1205.1899 817.771 9.2197031e-39
-403.918 -1170.49 816.93402 9.2197031e-39
-380.08099 -1175.75 819.078 9.2197031e-39
-427.70401 -1165.02 814.73901 9.2197031e-39
846.138 -1013.64 814.17603 9.2197031e-39
893.42499 -1012.27 815.28601 9.2197031e-39
917.87097 -1014.0699 816.52698 9.2197031e-39
965.151 -1010.5 817.04999 9.2197031e-39
990.336 -1013.49 818.633 9.2197031e-39
1014.78 -1013.48 819.39099 9.2197031e-39
868.367 -1007.4301 813.21698 9.2197031e-39
940.33899 -1008.2 815.664 9.2197031e-39
1037.25 -1006.79 818.31 9.2197031e-39
1061.45 -1005.42 818.70203 9.2197031e-39
-650.34601 -1216.4 821.46899 9.2197031e-39
-514.28101 -1201.5601 821.76202 9.2197031e-39
-233.843 -1190.67 827.60901 9.2197031e-39
-307.08701 -1184.62 823.716 9.2197031e-39
-257.83099 -1186.64 825.78998 9.2197031e-39
-208.493 -1186.86 827.38501 9.2197031e-39
-355.54401 -1177.97 820.43402 9.2197031e-39
-329.55301 -1173.35 820.01599 9.2197031e-39
-281.20499 -1179.5601 823.177 9.2197031e-39
1115.35 -1017.5699 823.61603 9.2197031e-39
1163.63 -1011.38 823.47498 9.2197031e-39
1189.15 -1011.59 824.32501 9.2197031e-39
1292.35 -1010.86 827.34802 9.2197031e-39
1346.13 -1012.99 829.59497 9.2197031e-39
1086.9301 -1007.5 820.04999 9.2197031e-39
1135.59 -1003.65 820.54199 9.2197031e-39
1236.48 -1001.37 823.08099 9.2197031e-39
1262.87 -1002.67 824.25 9.2197031e-39
1210.2 -999.81006 821.84802 9.2197031e-39
1389.77 -991.18994 825.15198 9.2197031e-39
1416.6 -990.96997 825.93201 9.2197031e-39
1443.51 -990.48999 826.64301 9.2197031e-39
1500.21 -993.92004 829.32397 9.2197031e-39
1308.3101 -986.68994 821.414 9.2197031e-39
1546.54 -975.58997 825.89099 9.2197031e-39
2526.99 -870.44995 828.48199 9.2197031e-39
-611.45898 -1261.4301 834.66498 9.2197031e-39
-633.935 -1247.75 830.32397 9.2197031e-39
-137.401 -1203.78 834.10602 9.2197031e-39
-185.28799 -1195.24 830.341 9.2197031e-39
-161.22 -1198.66 832 9.2197031e-39
131.521 -1180.22 836.22198 9.2197031e-39
1385.71 -1041.49 838.41302 9.2197031e-39
-592.21503 -1286.0699 841.823 9.2197031e-39
-578.11298 -1329.21 853.74402 9.2197031e-39
100.903 -1300.92 867.38898 9.2197031e-39
398.49799 -1242.86 861.216 9.2197031e-39
862.87402 -1190.16 861.67297 9.2197031e-39
-519.95898 -1415.26 878.45697 9.2197031e-39
425.54599 -1281.83 872.43201 9.2197031e-39
1673.3 -1158.26 878.45697 9.2197031e-39
454.96701 -1343.67 889.80798 9.2197031e-39
-574.99701 -1513.5701 902.90503 9.2197031e-39
-123.885 -1482.24 908.633 9.2197031e-39
-150.123 -1476.27 906.22803 9.2197031e-39
8.5523996 -1507.8 919.565 9.2197031e-39
-43.827599 -1490.1499 913.23602 9.2197031e-39
-17.181601 -1493.3 914.90601 9.2197031e-39
-97.225502 -1485.1001 910.22699 9.2197031e-39
-70.538902 -1487.74 911.76099 9.2197031e-39
620.06897 -1430.01 917.93298 9.2197031e-39
661.33002 -1537.6299 947.862 9.2197031e-39
2098.6499 -1372.8101 948.81799 9.2197031e-39
2934.73 -1339.8199 966.112 9.2197031e-39
2935.1101 -1390.36 979.573 9.2197031e-39
-1681.89 -1982.0901 993.073 9.2197031e-39
798.11102 -1684.9299 991.32599 9.2197031e-39
2928.1699 -1433.9399 990.953 9.2197031e-39
530.422 -1961.74 1056.64 9.2197031e-39
561.43103 -1959.03 1056.89 9.2197031e-39
655.31897 -1957.97 1059.54 9.2197031e-39
745.94 -1930.6001 1055.08 9.2197031e-39
867.76599 -1906.2 1052.39 9.2197031e-39
910.62097 -1965.1799 1069.42 9.2197031e-39
1002.79 -1942.8701 1066.35 9.2197031e-39
976.44397 -1971.05 1073.03 9.2197031e-39
943.57202 -1968.73 1071.39 9.2197031e-39
2136.6399 -1943.25 1101.8101 9.2197031e-39
2180.3899 -1949.8301 1104.9301 9.2197031e-39
2219.5701 -1947.52 1105.53 9.2197031e-39
2261.8101 -1949.8201 1107.47 9.2197031e-39
2297.26 -1940.01 1105.96 9.2197031e-39
2340.8 -1943.1201 1108.14 9.2197031e-39
2381.47 -1940.8101 1108.8 9.2197031e-39
