# .PCD v0.7 - Point Cloud Data file format
VERSION 0.7
FIELDS x y z rgb
SIZE 4 4 4 4
TYPE F F F F
COUNT 1 1 1 1
WIDTH 316
HEIGHT 1
VIEWPOINT 0 0 0 1 0 0 0
POINTS 316
DATA ascii
2094.5701 -643.08997 139.698 9.2197031e-39
2044.9651 -573.07501 137.1265 9.2197031e-39
2024.79 -562.08997 133.817 9.2197031e-39
2030.91 -562.10999 135.24899 9.2197031e-39
1709.33 43.895996 138.271 9.2197031e-39
1713.12 49.562012 139.895 9.2197031e-39
1707.4967 54.611652 139.22968 9.2197031e-39
1710.8101 52.987 139.79601 9.2197031e-39
10.9793 3097.3999 135.21001 9.2197031e-39
2146.24 -715.83997 142.39999 9.2197031e-39
2137.1201 -690.92004 143.487 9.2197031e-39
2111.49 -637.32996 144.41299 9.2197031e-39
2069.5801 -563.25 144.172 9.2197031e-39
2052.3 -526.75 144.84399 9.2197031e-39
2012.27 -459.70996 144.13499 9.2197031e-39
2003.3734 -432.6467 145.55133 9.2197031e-39
1994.04 -407.80005 146.578 9.2197031e-39
1987.16 -391.77002 147.03999 9.2197031e-39
1960.21 -350.76703 146.028 9.2197031e-39
1945.92 -326.47302 145.821 9.2197031e-39
1920.29 -289.44598 144.60201 9.2197031e-39
1909.97 -272.12799 144.423 9.2197031e-39
1896.41 -252.258 143.815 9.2197031e-39
1890.51 -241.59497 143.811 9.2197031e-39
1893.29 -214.53998 147.967 9.2197031e-39
1861.1899 -203.617 141.849 9.2197031e-39
1843.74 -180.42999 140.75999 9.2197031e-39
1854.413 -183.79541 142.82672 9.2197031e-39
1848.385 -178.271 142.12799 9.2197031e-39
1723.9399 45.565002 141.91499 9.2197031e-39
1719.4 57.776978 142.431 9.2197031e-39
1724.3134 53.212666 142.99367 9.2197031e-39
1745.425 58.776001 148.6665 9.2197031e-39
1751.09 55.611023 149.58501 9.2197031e-39
1714.1179 61.216198 141.63802 9.2197031e-39
1726.3724 63.565735 144.81674 9.2197031e-39
1734.0574 66.714005 147.02725 9.2197031e-39
1744.7649 64.934998 149.30899 9.2197031e-39
1707.3 73.950989 141.688 9.2197031e-39
1727.1799 73.901489 146.3445 9.2197031e-39
1736.22 74.319763 148.51924 9.2197031e-39
54.318699 3072.0601 142.095 9.2197031e-39
1968.4399 -280.14001 157.10201 9.2197031e-39
1931.26 -246.94202 152.679 9.2197031e-39
1915.49 -234.60303 150.578 9.2197031e-39
1748.53 72.406982 151.159 9.2197031e-39
84.441597 3089.26 151.38901 9.2197031e-39
109.58 3096.74 158.255 9.2197031e-39
2044.41 -338.65198 167.349 9.2197031e-39
2003.91 -306.27698 162.039 9.2197031e-39
1992.86 -299.20502 160.362 9.2197031e-39
84.342499 3223.0801 168.692 9.2197031e-39
2119.74 -402.28003 176.78101 9.2197031e-39
-436.69 4328.6899 189.61301 9.2197031e-39
2281.72 -531.41003 198.062 9.2197031e-39
2243.3301 -504.40002 192.554 9.2197031e-39
2310.5 -540.15002 203.68201 9.2197031e-39
2296.6101 -535.19995 201.064 9.2197031e-39
2315.6101 -535.27002 205.511 9.2197031e-39
2327.3101 -538.01001 207.90199 9.2197031e-39
2330.8401 -531.70996 209.545 9.2197031e-39
-385.55301 4332.5 202.103 9.2197031e-39
2336.3501 -529.30005 211.14999 9.2197031e-39
2343.73 -525.93994 213.317 9.2197031e-39
2356.085 -523.98999 216.46851 9.2197031e-39
-345.11301 4329.6299 211.218 9.2197031e-39
2375.73 -527.06006 220.67999 9.2197031e-39
2387.9448 -523.14502 224.05051 9.2197031e-39
2394.4299 -515.05005 226.62 9.2197031e-39
-298.03101 4340.5303 223.674 9.2197031e-39
2413.0901 -520.87 230.244 9.2197031e-39
2438.51 -521.30005 236.15199 9.2197031e-39
2455.1699 -522.45996 239.91 9.2197031e-39
2424.6499 -519.22998 233.16901 9.2197031e-39
159.103 3586.4399 233.27699 9.2197031e-39
46.121799 3769.55 230.481 9.2197031e-39
-258.23801 4337.7598 232.651 9.2197031e-39
2469.1599 -524.10999 242.978 9.2197031e-39
2491.04 -527.83997 247.627 9.2197031e-39
195.951 3598.75 243.51601 9.2197031e-39
2528.96 -533.08997 255.845 9.2197031e-39
2505.1599 -529.03003 250.78799 9.2197031e-39
2531.22 -526.84998 257.18301 9.2197031e-39
2553.2651 -525.38995 262.54248 9.2197031e-39
2551.05 -510.17004 263.995 9.2197031e-39
2553.1299 -503.78003 265.30801 9.2197031e-39
2564.5898 -495.98499 269.00751 9.2197031e-39
2563.6101 -481.76001 270.62 9.2197031e-39
2561.02 -473.13 271.13 9.2197031e-39
2572.6399 -468.88 274.40399 9.2197031e-39
2567.23 -459.02002 274.41199 9.2197031e-39
2570.6699 -450.87 276.276 9.2197031e-39
2581.29 -448.42004 279.08301 9.2197031e-39
2584.6299 -440.13 280.94 9.2197031e-39
2584.3301 -432.78003 281.82199 9.2197031e-39
2589.3401 -425.19995 283.97699 9.2197031e-39
2591.6599 -418.97998 285.32599 9.2197031e-39
2585.53 -406.93994 285.44901 9.2197031e-39
2599.6699 -405.37 288.96799 9.2197031e-39
2565.74 -360.43903 286.82599 9.2197031e-39
2558.3701 -345.68201 287.009 9.2197031e-39
2551.72 -331.45599 287.29001 9.2197031e-39
2558.0601 -326.95099 289.35999 9.2197031e-39
2644.0801 -412.46997 298.46701 9.2197031e-39
2584.7 -326.16199 295.71201 9.2197031e-39
2598.5601 -323.51202 299.30701 9.2197031e-39
2666.6299 -413.29004 303.64999 9.2197031e-39
2654.75 -398.84003 302.73599 9.2197031e-39
2615.8 -319.23401 303.905 9.2197031e-39
2557.1799 -185.92297 307.41299 9.2197031e-39
2560.6599 -180.26099 308.96399 9.2197031e-39
2554.5801 -171.33197 308.69199 9.2197031e-39
2551.1599 -164.90802 308.72299 9.2197031e-39
2542.78 -142.02197 309.72 9.2197031e-39
2645.77 -320.49902 310.772 9.2197031e-39
2554.335 -154.08652 310.8685 9.2197031e-39
2544.99 -136.23602 310.98599 9.2197031e-39
2551.1851 -125.5925 313.81949 9.2197031e-39
2545.5701 -114.27899 313.966 9.2197031e-39
2536.8601 -108.01501 312.73401 9.2197031e-39
2529.03 -94.060974 312.703 9.2197031e-39
2530.05 -99.914978 312.18399 9.2197031e-39
2532.72 -83.3125 314.961 9.2197031e-39
2543.0901 -72.385986 318.80801 9.2197031e-39
2540.8899 -66.47998 319.05801 9.2197031e-39
2556.05 -58.070007 323.702 9.2197031e-39
2568.3201 -51.58197 327.422 9.2197031e-39
2447.99 136.02899 323.48401 9.2197031e-39
2463.5801 135.00101 327.00699 9.2197031e-39
2476.0701 130.74799 329.388 9.2197031e-39
2453.22 159.495 327.74899 9.2197031e-39
2457.6799 167.05801 329.77399 9.2197031e-39
2782.72 -346.63898 339.51501 9.2197031e-39
2775.8501 -336.77301 339.181 9.2197031e-39
2510.51 77.271973 330.543 9.2197031e-39
2537.8999 74.661011 336.63101 9.2197031e-39
2517.6899 84.848999 333.20901 9.2197031e-39
2515.085 95.511993 333.978 9.2197031e-39
2508.5901 105.20697 333.70801 9.2197031e-39
2505.9751 114.76099 334.3335 9.2197031e-39
2494.22 125.8765 333.01501 9.2197031e-39
2469.51 156.92899 331.237 9.2197031e-39
2474.1299 152.388 331.73499 9.2197031e-39
2474.3901 184.4565 335.9465 9.2197031e-39
2480.8301 198.54999 339.284 9.2197031e-39
2778.98 -326.69397 341.21899 9.2197031e-39
2782.4399 -319.461 342.96701 9.2197031e-39
2490.3 208.689 342.81799 9.2197031e-39
2784.79 -226.659 355.535 9.2197031e-39
2686.27 -37.908997 356.85999 9.2197031e-39
2602.95 80.908997 352.70001 9.2197031e-39
3022.7 -362.28699 393.78601 9.2197031e-39
3034.03 -354.83099 397.41 9.2197031e-39
3034.3799 -341.49799 399.216 9.2197031e-39
3026.3601 -329.98999 398.82599 9.2197031e-39
3030.3101 -317.48199 401.371 9.2197031e-39
3029.8 -307.54999 402.53799 9.2197031e-39
3031.6001 -294.64203 404.63101 9.2197031e-39
3024.1599 -283.64301 404.31 9.2197031e-39
3017.99 -269.62201 404.67801 9.2197031e-39
2996.3701 -14.322021 432.66199 9.2197031e-39
3014.6899 -0.45001221 438.75699 9.2197031e-39
3022.53 9.7000122 441.90799 9.2197031e-39
3021.21 22.611023 443.26999 9.2197031e-39
3020.1499 32.192993 444.26199 9.2197031e-39
3017.6399 44.989014 445.33099 9.2197031e-39
3017.3799 54.651978 446.521 9.2197031e-39
3014.6599 67.408997 447.534 9.2197031e-39
3013.27 76.950012 448.444 9.2197031e-39
3011.29 89.78302 449.642 9.2197031e-39
3019.3501 100.68201 452.94199 9.2197031e-39
3016.1699 113.435 453.849 9.2197031e-39
3014.45 122.99701 454.68301 9.2197031e-39
3010.1101 135.52399 455.28601 9.2197031e-39
3002.5 144.01099 454.60101 9.2197031e-39
3000.01 425.15302 490.41699 9.2197031e-39
3003.1499 437.62299 492.76801 9.2197031e-39
3005.6201 453.867 495.45099 9.2197031e-39
3001.4099 463.414 495.70001 9.2197031e-39
3002.6899 479.39301 498.06799 9.2197031e-39
3009.71 494.16602 501.62701 9.2197031e-39
3001 505.827 501.09601 9.2197031e-39
3005.1201 519.539 503.83701 9.2197031e-39
3000.53 533.25348 504.535 9.2197031e-39
3001.78 545.81958 506.45499 9.2197031e-39
3004.6299 563.53009 509.418 9.2197031e-39
2999.6201 573.08978 509.48001 9.2197031e-39
2999.5701 589.57727 511.60199 9.2197031e-39
3001.99 603.29419 513.94598 9.2197031e-39
3002.4099 620.40979 516.26099 9.2197031e-39
2998.6599 630.92517 516.74298 9.2197031e-39
2998.73 648.14978 518.99103 9.2197031e-39
2998.9099 661.1524 520.716 9.2197031e-39
3001.0801 680.03522 523.66901 9.2197031e-39
3000.96 693.16608 525.341 9.2197031e-39
3009.22 716.41022 530.28802 9.2197031e-39
3003.0901 726.034 530.09601 9.2197031e-39
3000.3701 742.659 531.61102 9.2197031e-39
3001.26 757.08301 533.68799 9.2197031e-39
3002.1399 776.54102 536.414 9.2197031e-39
3000.3301 789.45099 537.659 9.2197031e-39
3000.77 809.07898 540.30499 9.2197031e-39
3006.47 827.75903 544.06097 9.2197031e-39
3004.0901 845.89899 545.85101 9.2197031e-39
3003.96 860.75598 547.74298 9.2197031e-39
3001.1599 879.00403 549.44897 9.2197031e-39
3002.21 895.164 551.78802 9.2197031e-39
2998.98 913.52802 553.40802 9.2197031e-39
2998.1599 928.60699 555.16901 9.2197031e-39
2995.99 948.297 557.20898 9.2197031e-39
2994.8201 963.48303 558.901 9.2197031e-39
2998.78 988.98199 563.13 9.2197031e-39
2997.21 1004.317 564.74799 9.2197031e-39
2993.3301 1023.664 566.34198 9.2197031e-39
2998.5701 1045.59 570.40997 9.2197031e-39
2993.45 1064.433 571.65002 9.2197031e-39
2998.8799 1087.2781 575.88098 9.2197031e-39
2993.25 1106.251 577.01703 9.2197031e-39
2996.75 1128.005 580.65399 9.2197031e-39
2991.29 1147.7629 581.93298 9.2197031e-39
2994.27 1169.7361 585.47601 9.2197031e-39
2994.3501 1195.869 588.87903 9.2197031e-39
2991.4099 1212.485 590.34003 9.2197031e-39
2990.8301 1238.832 593.61603 9.2197031e-39
2986.8 1254.838 594.742 9.2197031e-39
2985.5701 1281.376 597.88898 9.2197031e-39
2987.54 1304.7119 601.37402 9.2197031e-39
2986.21 1332.2261 604.625 9.2197031e-39
2987.5701 1355.8 607.995 9.2197031e-39
2984.8601 1382.814 610.85699 9.2197031e-39
2984.98 1405.856 613.86902 9.2197031e-39
2980.9199 1432.317 616.34198 9.2197031e-39
2981.05 1456.301 619.47699 9.2197031e-39
2982.8101 1491.363 624.42999 9.2197031e-39
2982.8401 1516.3521 627.67297 9.2197031e-39
2977.79 1543.991 630.06702 9.2197031e-39
2977.1699 1569.168 633.17999 9.2197031e-39
2976.46 1604.0549 637.53198 9.2197031e-39
2975.6799 1630.24 640.73999 9.2197031e-39
2973.99 1665.41 644.89697 9.2197031e-39
2976.3201 1697.42 649.58801 9.2197031e-39
2974.1101 1733.72 653.76898 9.2197031e-39
2974.48 1764.4 657.82703 9.2197031e-39
2970.6699 1800.16 661.56403 9.2197031e-39
2971.22 1832.72 665.90997 9.2197031e-39
2967.8799 1871.22 670.10999 9.2197031e-39
2969.53 1907.37 675.17902 9.2197031e-39
2966.5 1948.6801 679.81598 9.2197031e-39
2963.6799 1979.24 683.112 9.2197031e-39
2963.8 2028.4301 689.508 9.2197031e-39
2960.03 2059.22 692.60901 9.2197031e-39
2962 2114.76 700.26398 9.2197031e-39
2953.99 2139.76 701.62097 9.2197031e-39
2956.24 2199.1499 709.83801 9.2197031e-39
2952.26 2233.8198 713.39301 9.2197031e-39
2951.8899 2291.9199 720.83002 9.2197031e-39
2948.96 2331.1899 725.22601 9.2197031e-39
2947.26 2390.5898 732.51801 9.2197031e-39
2945.5901 2435.4199 737.92999 9.2197031e-39
2940.4199 2491.6602 744.00098 9.2197031e-39
2940.6001 2543.8999 750.80798 9.2197031e-39
2936.75 2607.6699 758.15997 9.2197031e-39
2934.1899 2657.5601 764.01801 9.2197031e-39
2932.8501 2732.54 773.41302 9.2197031e-39
2929.4099 2784.5701 779.341 9.2197031e-39
2930.0701 2870.9399 790.67999 9.2197031e-39
2927 2928.77 797.448 9.2197031e-39
2825.71 3084.46 793.84497 9.2197031e-39
2815.8101 3134.1599 797.95697 9.2197031e-39
2923.9299 3012.95 807.62598 9.2197031e-39
2858.0701 3075.27 800.245 9.2197031e-39
2680.04 3450.2 807.026 9.2197031e-39
2923.04 3082.1499 816.37799 9.2197031e-39
2901.0801 3121.5801 816.33197 9.2197031e-39
2739.03 3424.8601 817.58398 9.2197031e-39
2712.9299 3432.01 812.38501 9.2197031e-39
2778.3999 3429.7 827.44598 9.2197031e-39
2850.6699 3356.24 834.88702 9.2197031e-39
2829.6499 3379.23 832.93298 9.2197031e-39
2806.77 3429.5901 834.08502 9.2197031e-39
2671.03 3683.02 835.05701 9.2197031e-39
2705.1299 3660.03 840.08002 9.2197031e-39
2673.1799 3818.1001 853.05103 9.2197031e-39
2295.24 4506.8799 853.56897 9.2197031e-39
2266.54 4557.0098 853.32703 9.2197031e-39
2345.0901 4536.1001 869.04498 9.2197031e-39
2378.52 4527.5898 875.78802 9.2197031e-39
2425.4099 4529.46 887.02899 9.2197031e-39
2460.1001 4529.1299 895.125 9.2197031e-39
2507.1899 4530.1299 906.30103 9.2197031e-39
2641.98 4377.1201 918.10999 9.2197031e-39
2541.8301 4528.2002 914.17798 9.2197031e-39
2678.0801 4385.7402 927.69598 9.2197031e-39
2589.1001 4528.3301 925.28302 9.2197031e-39
2724.1101 4383.4902 938.20203 9.2197031e-39
2624.9199 4531.5703 934.10602 9.2197031e-39
2760.77 4392.3799 947.953 9.2197031e-39
2297.54 5336.5801 961.53497 9.2197031e-39
1319.29 7845.0801 1056.84 9.2197031e-39
1397.41 7840.8999 1074.62 9.2197031e-39
1455.2 7841.6899 1088.28 9.2197031e-39
1533.05 7842.0801 1106.59 9.2197031e-39
1856.05 7350.1899 1118.6801 9.2197031e-39
1590.6899 7850.77 1121.24 9.2197031e-39
1929.75 7372.4102 1138.84 9.2197031e-39
1803.14 7598.2402 1138.38 9.2197031e-39
1668.76 7840.8398 1138.27 9.2197031e-39
1984.67 7384.1401 1153.25 9.2197031e-39
1726.5601 7849.5 1152.95 9.2197031e-39
2058.78 7395.1099 1172.05 9.2197031e-39
2114.6599 7416.73 1187.96 9.2197031e-39
2189.5601 7429.2998 1207.16 9.2197031e-39
2245.78 7443.9502 1222.25 9.2197031e-39
2321.74 7461.0698 1242.28 9.2197031e-39
2377.99 7467.77 1256.34 9.2197031e-39
2454.73 7484.46 1276.51 9.2197031e-39
