# .PCD v0.7 - Point Cloud Data file format
VERSION 0.7
FIELDS x y z rgb
SIZE 4 4 4 4
TYPE F F F F
COUNT 1 1 1 1
WIDTH 326
HEIGHT 1
VIEWPOINT 0 0 0 1 0 0 0
POINTS 326
DATA ascii
2382.1899 -522.64001 133.95399 9.2197031e-39
2399.73 -528.41003 135.909 9.2197031e-39
2406.54 -525.08997 137.783 9.2197031e-39
2417.3899 -524.64001 139.8 9.2197031e-39
1672.45 129.48401 138.942 9.2197031e-39
1666.48 133.58051 138.7065 9.2197031e-39
1672.66 130.97 139.27901 9.2197031e-39
-3218.52 4429.3999 134.37 9.2197031e-39
2424.97 -521.77002 141.72 9.2197031e-39
2422.6699 -510.33997 143.608 9.2197031e-39
2395.78 -479.93005 144.94099 9.2197031e-39
2184.48 -305.40698 142.485 9.2197031e-39
2158.6599 -279.93799 143.017 9.2197031e-39
2116.6299 -242.69397 143.037 9.2197031e-39
2100.3601 -226.02802 143.496 9.2197031e-39
2074.25 -202.43701 143.60001 9.2197031e-39
2104.8301 -207.44897 148.02 9.2197031e-39
2068.79 -194.59802 144.20599 9.2197031e-39
2097.5701 -198.49298 148.53 9.2197031e-39
2077.75 -181.315 148.461 9.2197031e-39
2049.4299 -175.1835 144.6665 9.2197031e-39
2023.13 -142.44 146.575 9.2197031e-39
1967.12 -103.86603 144.38 9.2197031e-39
1949.49 -90.572021 143.92 9.2197031e-39
1932.55 -78.028015 143.433 9.2197031e-39
1911.9399 -63.802979 142.633 9.2197031e-39
1941.01 -59.629028 148.62801 9.2197031e-39
1881.645 -42.299988 141.57401 9.2197031e-39
1877.2233 -37.858013 141.68134 9.2197031e-39
1885.1975 -38.200745 143.02776 9.2197031e-39
1891.88 -37.58197 144.33701 9.2197031e-39
1683.4099 138.98251 142.795 9.2197031e-39
1666.7032 143.26299 140.68933 9.2197031e-39
1674.2643 144.76028 142.33171 9.2197031e-39
1680.3199 148.89499 144.237 9.2197031e-39
1704.2 148.147 148.32401 9.2197031e-39
1659.11 153.41199 141.38 9.2197031e-39
1677.875 156.188 145.26649 9.2197031e-39
1696.46 154.79832 148.28566 9.2197031e-39
1702.2749 152.1835 148.793 9.2197031e-39
1677.2975 165.41251 147.01675 9.2197031e-39
1684.4941 163.9874 148.00699 9.2197031e-39
1690.46 164.80399 149.23 9.2197031e-39
-3133.05 4426.0703 148.867 9.2197031e-39
1981.37 -74.35199 152.834 9.2197031e-39
1998.54 -79.830994 154.78101 9.2197031e-39
1959.75 -66.56897 150.56 9.2197031e-39
1701.8199 159.026 150.08701 9.2197031e-39
1700.54 164.94699 151.048 9.2197031e-39
2120.6201 -123.41199 167.694 9.2197031e-39
2086.3799 -112.48999 163.811 9.2197031e-39
2063.3501 -105.63599 161.101 9.2197031e-39
-1616.92 3167.75 165.261 9.2197031e-39
-3045.3899 4422.9199 163.791 9.2197031e-39
2205.76 -154.52899 176.554 9.2197031e-39
-1580.15 3187.8201 175.815 9.2197031e-39
-1586.4 3246.3201 186.452 9.2197031e-39
2447.02 -245.63202 201.07401 9.2197031e-39
-2732.52 4424.0703 219.53799 9.2197031e-39
2630.21 -309.90997 220.675 9.2197031e-39
2734.47 -340.51202 233.03101 9.2197031e-39
2754.635 -333.815 237.95349 9.2197031e-39
2576.3899 -203.97498 232.39301 9.2197031e-39
2571.3799 -195.29498 233.24699 9.2197031e-39
2554.8401 -183.33099 232.715 9.2197031e-39
2561.1799 -177.88599 234.933 9.2197031e-39
2542.5 -165.85101 234.033 9.2197031e-39
2544.575 -155.8085 236.41901 9.2197031e-39
-2658.48 4423.3604 232.533 9.2197031e-39
2772.8999 -326.021 242.759 9.2197031e-39
2787.02 -320.93298 246.286 9.2197031e-39
2567.0449 -146.54099 242.26651 9.2197031e-39
2574.22 -137.27002 245.39999 9.2197031e-39
2569.605 -125.46399 246.952 9.2197031e-39
2575.5701 -115.66199 249.979 9.2197031e-39
-2580.8101 4421.3799 245.91901 9.2197031e-39
2744.3201 -260.65997 250.811 9.2197031e-39
2571.6299 -107.98999 250.82001 9.2197031e-39
2580.3701 -102.03497 253.567 9.2197031e-39
2583.1499 -95.414978 255.39 9.2197031e-39
2583.96 -88.130981 256.995 9.2197031e-39
2590.55 -81.953979 259.40399 9.2197031e-39
2577.49 -72.937012 258.897 9.2197031e-39
-1593.71 3597.21 255.603 9.2197031e-39
-2512.97 4424.5 258.582 9.2197031e-39
3019.1899 -387.84998 274.048 9.2197031e-39
3022.47 -376.763 276.85699 9.2197031e-39
3023.6001 -365.58698 279.30099 9.2197031e-39
2528.76 73.051025 279.56201 9.2197031e-39
2508.76 84.934998 278.39801 9.2197031e-39
2480 108.04001 277.93399 9.2197031e-39
2479.99 114.57999 279.24399 9.2197031e-39
2475.1001 120.17801 279.50201 9.2197031e-39
-2442.1399 4427.0703 271.668 9.2197031e-39
3020.02 -352.448 281.30301 9.2197031e-39
2717.53 -81.744019 281.979 9.2197031e-39
2559.79 68.145996 284.082 9.2197031e-39
2530.03 80.033997 281.189 9.2197031e-39
2506.1799 97.854004 280.535 9.2197031e-39
2510.8999 91.862976 280.16901 9.2197031e-39
2502.3501 104.19397 281.12799 9.2197031e-39
2472.0701 126.28299 280.189 9.2197031e-39
2465.8999 138.06 281.45901 9.2197031e-39
2470.97 132.33099 281.20901 9.2197031e-39
2469.54 144.871 283.47198 9.2197031e-39
2467.085 154.14101 284.89752 9.2197031e-39
2476.05 165.61301 288.79199 9.2197031e-39
2475.5801 171.901 289.97 9.2197031e-39
2477.8401 179.117 291.82101 9.2197031e-39
2482.02 186.505 294.04501 9.2197031e-39
2484.1299 193.849 295.89401 9.2197031e-39
-2295.6299 4419.75 296.19501 9.2197031e-39
2541.3101 214.246 310.13699 9.2197031e-39
3013.01 -103.80798 329.98001 9.2197031e-39
3011.74 -93.044006 331.91599 9.2197031e-39
3014.3401 -82.111023 334.573 9.2197031e-39
3014.8501 -71.517029 336.79001 9.2197031e-39
3015.29 -60.380981 339.104 9.2197031e-39
3015.6201 -49.773987 341.29099 9.2197031e-39
3013.8899 -38.523987 343.24399 9.2197031e-39
3016 -28.007019 345.729 9.2197031e-39
3014.0701 -16.781982 347.642 9.2197031e-39
3016 -6.223999 350.103 9.2197031e-39
3015.8501 4.9400024 352.31799 9.2197031e-39
3015.6201 15.56897 354.41 9.2197031e-39
3007.3899 26.729004 355.19199 9.2197031e-39
3005.99 37.28302 357.06299 9.2197031e-39
3006.4399 48.387024 359.371 9.2197031e-39
3005.8401 58.947998 361.38501 9.2197031e-39
3006.0901 70.072998 363.66299 9.2197031e-39
2993.52 80.117004 363.44901 9.2197031e-39
2974.96 330.73199 410.47198 9.2197031e-39
2991.79 346.26599 416.578 9.2197031e-39
3003.5601 361.38199 421.70099 9.2197031e-39
2999.3401 371.73599 423.03101 9.2197031e-39
3005.1699 385.56299 426.84201 9.2197031e-39
3001.6799 396.19901 428.35901 9.2197031e-39
2997.9199 407.34302 429.92899 9.2197031e-39
2994.25 417.92401 431.40201 9.2197031e-39
2998.6299 431.742 434.953 9.2197031e-39
3003.98 445.452 438.655 9.2197031e-39
2999.78 456.63 440.15399 9.2197031e-39
2995.6899 467.23801 441.55801 9.2197031e-39
2999.51 481.37399 445.07401 9.2197031e-39
2996.1201 492.33099 446.672 9.2197031e-39
3000.5701 506.97299 450.401 9.2197031e-39
2996.05 517.60199 451.73199 9.2197031e-39
2999.3 532.0412 455.20901 9.2197031e-39
2994.5601 542.66522 456.50101 9.2197031e-39
2990.3799 554.16888 458.069 9.2197031e-39
2996.1299 569.42273 462.151 9.2197031e-39
2990.8101 580.5636 463.44501 9.2197031e-39
2991.8401 593.979 466.32001 9.2197031e-39
2995.96 609.65588 470.19901 9.2197031e-39
2990.5601 620.27155 471.37201 9.2197031e-39
2991.75 634.82202 474.505 9.2197031e-39
2986.1399 645.40833 475.634 9.2197031e-39
2987.04 660.04858 478.733 9.2197031e-39
2988.9299 674.68231 482.00699 9.2197031e-39
2990.3501 689.93787 485.32199 9.2197031e-39
2984.26 700.52661 486.36801 9.2197031e-39
2984.53 715.40668 489.40302 9.2197031e-39
2986.6299 730.78802 492.86401 9.2197031e-39
2988.22 746.79797 496.36099 9.2197031e-39
2988.3 761.37 499.29999 9.2197031e-39
2989.53 777.552 502.767 9.2197031e-39
2987.6201 791.23401 505.17599 9.2197031e-39
2990.1201 808.604 509.10599 9.2197031e-39
2988.7 822.914 511.728 9.2197031e-39
2981.1201 834.05603 512.61902 9.2197031e-39
2981.02 849.48102 515.69897 9.2197031e-39
2981.1599 866.05298 519.052 9.2197031e-39
2988.6201 887.17499 524.61603 9.2197031e-39
2988.3301 903.96704 527.93402 9.2197031e-39
2980.4099 914.59302 528.66302 9.2197031e-39
2977.4399 929.72699 531.17401 9.2197031e-39
2985.5 952.53003 537.18201 9.2197031e-39
2982.1001 967.815 539.64899 9.2197031e-39
2982.01 984.979 543.078 9.2197031e-39
2979.75 1001.546 546.005 9.2197031e-39
2978.5 1018.236 549.133 9.2197031e-39
2975.8501 1034.901 552.00897 9.2197031e-39
2980.8401 1057.319 557.39502 9.2197031e-39
2977 1073.5029 559.96399 9.2197031e-39
2982.8999 1097.465 565.82001 9.2197031e-39
2980.05 1115.071 568.849 9.2197031e-39
2976.05 1130.884 571.315 9.2197031e-39
2972.0701 1147.9089 574.02802 9.2197031e-39
2976.1299 1171.723 579.52899 9.2197031e-39
2970.99 1188.204 581.92499 9.2197031e-39
2968.24 1206.188 585.04901 9.2197031e-39
2969.53 1229.527 589.96301 9.2197031e-39
247.85699 3625.04 587.96997 9.2197031e-39
2966.3 1247.645 593.02698 9.2197031e-39
2968.3401 1272.5859 598.396 9.2197031e-39
2968.5901 1295.0381 602.94897 9.2197031e-39
2970.6101 1320.958 608.51099 9.2197031e-39
266.97101 3668.52 600.09003 9.2197031e-39
2965.6599 1338.661 611.18799 9.2197031e-39
2964.4299 1361.9409 615.64398 9.2197031e-39
321.15601 3714.8799 619.01398 9.2197031e-39
270.418 3748.1899 616.698 9.2197031e-39
2964.1299 1385.5081 620.32098 9.2197031e-39
2969.22 1417.009 627.54901 9.2197031e-39
350.927 3729.6001 627.25 9.2197031e-39
2969.46 1442.306 632.66998 9.2197031e-39
2968.0901 1467.519 637.48901 9.2197031e-39
381.75601 3746.46 636.10602 9.2197031e-39
2967.01 1492.298 642.27301 9.2197031e-39
2965.54 1518.4661 647.26703 9.2197031e-39
1019.84 3246.5701 648.96802 9.2197031e-39
407.49301 3772.8 645.961 9.2197031e-39
2963.1799 1542.688 651.71002 9.2197031e-39
2966.9099 1576.681 659.198 9.2197031e-39
1048.58 3252.0601 655.16998 9.2197031e-39
433.89001 3803.2 656.75 9.2197031e-39
2964.97 1602.6599 664.06897 9.2197031e-39
2961.3799 1628.5 668.62 9.2197031e-39
2958.1499 1653.87 673.14099 9.2197031e-39
1095.61 3307.51 674.64697 9.2197031e-39
1062.46 3320.8 671.43402 9.2197031e-39
2960.6201 1689.27 680.685 9.2197031e-39
2961.6201 1721.95 687.42499 9.2197031e-39
2956.4299 1748.1801 691.77002 9.2197031e-39
2957.0701 1781.92 698.659 9.2197031e-39
2951.6101 1809.12 703.14899 9.2197031e-39
857.047 3664.9299 704.07703 9.2197031e-39
807.47101 3730.98 708.539 9.2197031e-39
2952.8999 1845.55 710.69299 9.2197031e-39
2952.3201 1881.87 717.88098 9.2197031e-39
877.08099 3723.6399 719.41699 9.2197031e-39
339.401 4182.77 716.19 9.2197031e-39
2949.95 1914.54 724.02002 9.2197031e-39
1067.05 3602.72 728.84998 9.2197031e-39
2951.8401 1956.91 732.862 9.2197031e-39
2948.9299 1990.67 739.12402 9.2197031e-39
2944.1599 2024.24 745.01898 9.2197031e-39
2947.54 2070.76 754.95801 9.2197031e-39
306.65601 4403.7197 754.74103 9.2197031e-39
2945.9399 2112.1499 762.98499 9.2197031e-39
1069.02 3769.6899 762.72101 9.2197031e-39
345.85999 4408.02 762.56097 9.2197031e-39
2943.22 2150.6299 770.22803 9.2197031e-39
2939.8999 2191.47 777.83899 9.2197031e-39
386.927 4412.5 770.74701 9.2197031e-39
426.689 4414.1899 778.14203 9.2197031e-39
2941.9199 2241.3101 788.20099 9.2197031e-39
464.08099 4430.2598 788.00299 9.2197031e-39
2937.7 2283.3101 795.88599 9.2197031e-39
2934.7 2326.6401 804.05298 9.2197031e-39
2926.1399 2362.8301 809.80103 9.2197031e-39
491.90799 4473.1201 801.547 9.2197031e-39
533.63202 4475.2598 809.37903 9.2197031e-39
2925.28 2413.3398 819.789 9.2197031e-39
1051.1801 4056.03 817.04602 9.2197031e-39
573.66998 4475.6104 816.55402 9.2197031e-39
2925.8999 2471.5601 831.58801 9.2197031e-39
2922.5701 2520.7 840.86401 9.2197031e-39
2921.3799 2579.3398 852.42499 9.2197031e-39
2917.6201 2631.46 862.22198 9.2197031e-39
2914.97 2691.3701 873.78003 9.2197031e-39
1041.1801 4336.1899 871.521 9.2197031e-39
2914.04 2754.51 886.29102 9.2197031e-39
2911.25 2819.29 898.80402 9.2197031e-39
1060.4301 4450.8999 897.96698 9.2197031e-39
2907.5601 2881.05 910.54797 9.2197031e-39
1094.9 4489.73 911.87903 9.2197031e-39
1134.01 4486.1104 918.09198 9.2197031e-39
2902.3301 2945.3201 922.52197 9.2197031e-39
1174.04 4489.1797 925.81201 9.2197031e-39
2903.8899 3026.45 939.08899 9.2197031e-39
2823.52 3059.99 931.56201 9.2197031e-39
2854.6799 3059.52 936.99701 9.2197031e-39
1253.0601 4487.2402 939.44299 9.2197031e-39
1211.95 4493.6699 933.44 9.2197031e-39
2884.95 3060.1699 942.49902 9.2197031e-39
1293.87 4463.6602 941.95203 9.2197031e-39
1330.98 4493.7002 954.56799 9.2197031e-39
2848.8 3221.4199 968.45801 9.2197031e-39
2677.3 3397.3401 973.34698 9.2197031e-39
2709.9399 3395.5 978.77002 9.2197031e-39
2649.3899 3410.6799 971.07202 9.2197031e-39
2850.1299 3324.1599 989.323 9.2197031e-39
2820.6799 3331.47 985.56201 9.2197031e-39
2741.99 3396.6201 984.68103 9.2197031e-39
1357.63 4626.1797 985.89502 9.2197031e-39
2775.6201 3396.95 990.71503 9.2197031e-39
2807.8799 3397.45 996.539 9.2197031e-39
1384.3199 4812.4302 1028.03 9.2197031e-39
2271.98 4464.04 1115.59 9.2197031e-39
2235.4199 4502.7998 1116.88 9.2197031e-39
2624.9099 4217.8203 1128.78 9.2197031e-39
2314.26 4492.1699 1128.74 9.2197031e-39
2665.0801 4228.1602 1137.98 9.2197031e-39
2355.7 4494.3999 1136.54 9.2197031e-39
2395.4399 4497.5601 1144.23 9.2197031e-39
2814.1799 4193.8604 1157.5601 9.2197031e-39
2436.0801 4492.29 1150.38 9.2197031e-39
2475.8401 4493.77 1157.73 9.2197031e-39
2720.99 4298.4399 1162.02 9.2197031e-39
2759.1101 4294.5898 1168.01 9.2197031e-39
2618.49 4387.2402 1161.66 9.2197031e-39
2517.3101 4492.5898 1164.85 9.2197031e-39
2797.73 4284.2197 1172.78 9.2197031e-39
2594.73 4469.3799 1173.9301 9.2197031e-39
2555.71 4484.71 1170.09 9.2197031e-39
2270.71 5267.6401 1276.71 9.2197031e-39
1217.03 7773.8599 1592.92 9.2197031e-39
1825.61 7297.21 1605.21 9.2197031e-39
1286.5 7776.02 1605.6801 9.2197031e-39
1887.99 7304.0698 1617.65 9.2197031e-39
1352.66 7777.5 1617.71 9.2197031e-39
1422.59 7769.6201 1628.54 9.2197031e-39
1760.21 7522.2798 1638.79 9.2197031e-39
1955.51 7379.73 1644.83 9.2197031e-39
1488.74 7769.9502 1640.34 9.2197031e-39
1558.24 7769.6899 1652.63 9.2197031e-39
2019.65 7409.9302 1662.27 9.2197031e-39
1624.27 7777.7002 1665.95 9.2197031e-39
2147.21 7360.79 1675.04 9.2197031e-39
2086.28 7409.9502 1674.1 9.2197031e-39
1693.88 7776.23 1678.01 9.2197031e-39
2214.3601 7373.3599 1689.48 9.2197031e-39
2278.96 7390.52 1704.39 9.2197031e-39
2346.51 7398.9502 1718.0699 9.2197031e-39
2411.6101 7412.9902 1732.4399 9.2197031e-39
