# .PCD v0.7 - Point Cloud Data file format
VERSION 0.7
FIELDS x y z rgb
SIZE 4 4 4 4
TYPE F F F F
COUNT 1 1 1 1
WIDTH 329
HEIGHT 1
VIEWPOINT 0 0 0 1 0 0 0
POINTS 329
DATA ascii
2691.3999 112.465 137.71201 9.2197031e-39
2589.6799 145.02301 133.948 9.2197031e-39
2595.99 149.086 135.65601 9.2197031e-39
1819.23 527.35437 138.317 9.2197031e-39
1812.61 533.66901 139.089 9.2197031e-39
1804.9301 540.14398 139.77699 9.2197031e-39
-5225.6201 3842.9299 134.565 9.2197031e-39
2947.6799 7.0629883 141.534 9.2197031e-39
2943.04 18.960022 143.88499 9.2197031e-39
2940.3401 30.513 146.373 9.2197031e-39
2879.98 65.098999 147.838 9.2197031e-39
2600.4099 187.25601 145.408 9.2197031e-39
2555.1101 211.396 146.067 9.2197031e-39
2498.3701 239.37799 146.347 9.2197031e-39
2464.52 257.32999 146.817 9.2197031e-39
2435.2 273.272 147.321 9.2197031e-39
2418.76 283.75699 147.97701 9.2197031e-39
2362.5701 307.89899 147.39 9.2197031e-39
2340.05 319.39499 147.59599 9.2197031e-39
2325.05 328.23999 148.02 9.2197031e-39
2302.24 339.02701 148.021 9.2197031e-39
2258.3301 356.07999 147.12199 9.2197031e-39
2192.1001 378.78 145.034 9.2197031e-39
2164.9099 389.11301 144.423 9.2197031e-39
2145.23 396.698 144.007 9.2197031e-39
2135.1201 401.44901 143.99899 9.2197031e-39
2106.5601 410.72601 142.97501 9.2197031e-39
2059.74 425.319 141.14799 9.2197031e-39
2066.29 426.13922 142.0965 9.2197031e-39
2072.6299 423.48102 142.179 9.2197031e-39
2128.52 424.28601 148.77499 9.2197031e-39
2065.3799 430.53598 143.0575 9.2197031e-39
2072.1499 431.69501 144.11401 9.2197031e-39
1809.67 539.97791 140.27901 9.2197031e-39
1812.05 539.87518 140.52699 9.2197031e-39
1798.21 546.25983 140.489 9.2197031e-39
1809.45 544.78271 141.418 9.2197031e-39
1814.308 545.50012 142.14879 9.2197031e-39
1823.3041 546.09387 143.3228 9.2197031e-39
1854.23 548.93518 147.5535 9.2197031e-39
1800.54 552.8783 142.35899 9.2197031e-39
1818.42 557.10358 145.43034 9.2197031e-39
1838.17 558.22632 147.965 9.2197031e-39
1843.64 556.33105 148.13199 9.2197031e-39
1815.98 564.65509 146.98067 9.2197031e-39
1824.8119 566.26672 148.382 9.2197031e-39
1839.3 560.48987 148.642 9.2197031e-39
1840.83 560.46771 148.812 9.2197031e-39
1815.79 571.45618 148.6055 9.2197031e-39
-2758.54 2722.6299 145.763 9.2197031e-39
2242.04 416.405 159.869 9.2197031e-39
2150.4199 422.53302 150.86 9.2197031e-39
2170.3999 421.56 152.912 9.2197031e-39
2180.52 422.16602 154.218 9.2197031e-39
-2501.9299 2646.3799 156.685 9.2197031e-39
2309.5801 410.80298 166.24699 9.2197031e-39
-2370.46 2625.3 166.636 9.2197031e-39
2367.3101 407.66699 172.10001 9.2197031e-39
-2348.6899 2661.2 177.827 9.2197031e-39
2491.46 398.35699 184.065 9.2197031e-39
-2338.4199 2700.2 188.45 9.2197031e-39
2652.45 387.96399 199.98599 9.2197031e-39
-2249.9099 2700.3 198.612 9.2197031e-39
-2228.6799 2732.8501 208.927 9.2197031e-39
2893.8899 372.92499 223.998 9.2197031e-39
-2255.7 2795.1799 220.92999 9.2197031e-39
2948.98 377.121 231.32401 9.2197031e-39
2949.3999 385.52698 233.408 9.2197031e-39
2962.6799 393.69702 236.909 9.2197031e-39
2966.9299 402.009 239.409 9.2197031e-39
-2308.4099 2870.24 233.077 9.2197031e-39
2970.6851 415.271 243.05099 9.2197031e-39
2976.26 428.57098 246.912 9.2197031e-39
2980.21 437.138 249.439 9.2197031e-39
-2309.52 2919.96 244.994 9.2197031e-39
2978.1001 446.39899 251.44099 9.2197031e-39
2978.9099 455.05798 253.632 9.2197031e-39
2984.5901 464.33398 256.52899 9.2197031e-39
2977.3 472.944 257.78 9.2197031e-39
-2289.8999 2954.8899 255.702 9.2197031e-39
2984.8 482.35901 260.91901 9.2197031e-39
2983.3101 491.04901 262.853 9.2197031e-39
2984.8501 504.79401 266.3595 9.2197031e-39
-2277.1699 2997.05 267.37299 9.2197031e-39
2993.1499 519.00403 270.75201 9.2197031e-39
2989.3701 527.60449 272.40201 9.2197031e-39
2994.3501 537.39368 275.34399 9.2197031e-39
2991.3999 546.03961 277.10001 9.2197031e-39
3008.04 557.05341 281.67401 9.2197031e-39
3013.79 566.68219 284.66501 9.2197031e-39
3016.4099 576.67969 287.38699 9.2197031e-39
3018.03 586.03223 289.83899 9.2197031e-39
3016.54 595.63641 291.99399 9.2197031e-39
3014.0701 604.5094 293.86099 9.2197031e-39
3012.4099 614.0824 295.98901 9.2197031e-39
3020.54 624.56293 299.45999 9.2197031e-39
3008.9299 632.60602 300.078 9.2197031e-39
3016.8701 643.2287 303.561 9.2197031e-39
3014.8501 652.83411 305.65601 9.2197031e-39
3012.8701 661.83777 307.60999 9.2197031e-39
3009.71 671.21918 309.521 9.2197031e-39
3007.3599 685.15417 312.62701 9.2197031e-39
3013.51 701.03369 317.17801 9.2197031e-39
3011.9099 710.84668 319.37201 9.2197031e-39
3008.48 719.60352 321.10001 9.2197031e-39
3005.76 729.15002 323.10101 9.2197031e-39
3012.6499 740.59399 326.66299 9.2197031e-39
3009.73 750.18103 328.651 9.2197031e-39
3006.9199 759.16101 330.50299 9.2197031e-39
3013.28 771.45001 334.20999 9.2197031e-39
3010.28 780.46301 336.04901 9.2197031e-39
3005.4199 794.52051 338.897 9.2197031e-39
3009.73 811.59698 343.52701 9.2197031e-39
3007.3101 820.90302 345.504 9.2197031e-39
2999.22 839.07397 348.979 9.2197031e-39
3012.9399 833.69202 349.24701 9.2197031e-39
3004.6201 851.95502 352.71799 9.2197031e-39
3000.9199 860.91199 354.46399 9.2197031e-39
3006.05 873.97101 358.215 9.2197031e-39
3002.1599 882.94397 359.944 9.2197031e-39
3006.1101 895.80499 363.51099 9.2197031e-39
3002.04 904.78198 365.21899 9.2197031e-39
3005.72 917.78699 368.79099 9.2197031e-39
3000.5601 926.37201 370.28 9.2197031e-39
3003.53 944.80353 375.08502 9.2197031e-39
3004.4399 962.57996 379.495 9.2197031e-39
2999.79 971.55701 381.13699 9.2197031e-39
3003.53 985.40302 384.91901 9.2197031e-39
3005.6699 997.896 388.19101 9.2197031e-39
3000.3899 1007.474 389.90601 9.2197031e-39
3003.1399 1020.52 393.38101 9.2197031e-39
2997.6499 1030.0811 395.06799 9.2197031e-39
3000.1201 1043.243 398.54001 9.2197031e-39
3002.95 1057.556 402.33099 9.2197031e-39
2997.48 1066.5391 403.88 9.2197031e-39
2999.1499 1080.489 407.45099 9.2197031e-39
3001.03 1093.938 410.92401 9.2197031e-39
2994.8601 1103.494 412.53299 9.2197031e-39
2998.1201 1118.0701 416.436 9.2197031e-39
2998.3301 1131.775 419.78 9.2197031e-39
3000.4099 1146.015 423.46799 9.2197031e-39
2994.74 1169.3821 428.478 9.2197031e-39
3001.1001 1160.395 427.03 9.2197031e-39
2995.9199 1184.3931 432.25 9.2197031e-39
2996.55 1198.348 435.703 9.2197031e-39
2997.3701 1213.521 439.47101 9.2197031e-39
731.40002 2264.4199 434.49799 9.2197031e-39
2990.55 1222.4871 440.862 9.2197031e-39
2998.0901 1242.943 446.681 9.2197031e-39
2991.02 1251.921 448.04599 9.2197031e-39
2998.8601 1273.2361 454.10699 9.2197031e-39
2991.52 1282.225 455.44501 9.2197031e-39
2991.24 1297.777 459.17999 9.2197031e-39
2989.75 1311.593 462.35501 9.2197031e-39
2989.0901 1327.2671 466.07599 9.2197031e-39
2987.99 1341.7991 469.47101 9.2197031e-39
2986.9399 1357.594 473.177 9.2197031e-39
2985.48 1372.23 476.55499 9.2197031e-39
2984.76 1388.781 480.48099 9.2197031e-39
2982.2 1402.87 483.60101 9.2197031e-39
2986.0701 1424.127 489.194 9.2197031e-39
2984.53 1439.6589 492.78 9.2197031e-39
2987.1499 1460.499 498.12799 9.2197031e-39
2983.77 1474.821 501.211 9.2197031e-39
2980.3301 1490.426 504.59601 9.2197031e-39
76.568703 2873.77 507.10199 9.2197031e-39
2988.24 1516.4609 511.80899 9.2197031e-39
2984.97 1532.9141 515.41998 9.2197031e-39
98.298103 2886.8899 512.76801 9.2197031e-39
2986.8201 1553.708 520.66901 9.2197031e-39
2983.0901 1570.275 524.25403 9.2197031e-39
2985.72 1592.679 529.98199 9.2197031e-39
81.3405 2954.97 527.31799 9.2197031e-39
-177.416 3062.1599 523.64502 9.2197031e-39
-145.825 3069.8899 529.13599 9.2197031e-39
2986.71 1615.0859 535.52399 9.2197031e-39
2982.24 1630.53 538.75403 9.2197031e-39
-110.191 3069.1699 533.04199 9.2197031e-39
2983.29 1653.85 544.52197 9.2197031e-39
2979 1670.11 547.96899 9.2197031e-39
2979.4299 1693.62 553.71301 9.2197031e-39
2980.8601 1717.4 559.638 9.2197031e-39
2980.5901 1741.14 565.35901 9.2197031e-39
2980.1299 1763.65 570.75702 9.2197031e-39
2980.3799 1789.12 576.95502 9.2197031e-39
2974.51 1805.7 580.29999 9.2197031e-39
2978.1699 1836.74 588.23901 9.2197031e-39
2976.95 1860.4 593.83099 9.2197031e-39
2973.4399 1883.17 598.94397 9.2197031e-39
2977.75 1915.64 607.302 9.2197031e-39
2976.27 1942.55 613.651 9.2197031e-39
2971.95 1964.21 618.40198 9.2197031e-39
2973.5 1996.89 626.49799 9.2197031e-39
2970.0801 2021.11 631.97198 9.2197031e-39
2970.1499 2053.26 639.76801 9.2197031e-39
2966.49 2078.45 645.45001 9.2197031e-39
2971.26 2119.8501 656.02502 9.2197031e-39
2966.72 2145.24 661.65698 9.2197031e-39
2963.8201 2176.24 668.83398 9.2197031e-39
2962.9099 2209.26 676.72803 9.2197031e-39
2960.49 2242.97 684.617 9.2197031e-39
2959.51 2277.9102 692.96698 9.2197031e-39
2954.1399 2308.47 699.75598 9.2197031e-39
2954.4199 2347.8701 709.33301 9.2197031e-39
2951.6399 2385.45 718.11603 9.2197031e-39
1034.59 3270.3401 712.89398 9.2197031e-39
1060.48 3271.3899 716.11298 9.2197031e-39
2949.8201 2423.4199 727.10498 9.2197031e-39
2952.8101 2475.01 739.94598 9.2197031e-39
1102.79 3310.8701 730.52399 9.2197031e-39
1071.03 3329 731.276 9.2197031e-39
2945.8201 2505.49 746.52802 9.2197031e-39
2943.51 2549.6201 756.95398 9.2197031e-39
2942.51 2595.0698 767.84802 9.2197031e-39
-506.87299 4197.9502 761.03699 9.2197031e-39
-461.73001 4200.8501 766.90997 9.2197031e-39
-881.35999 4394.7598 765.82001 9.2197031e-39
2939.96 2642.1201 778.95203 9.2197031e-39
1077.3101 3501.3999 773.75702 9.2197031e-39
-310.25601 4169.5601 776.67999 9.2197031e-39
-832.48999 4395.0801 771.49298 9.2197031e-39
-785.552 4401.98 778.54199 9.2197031e-39
844.12299 3672.6699 788.53699 9.2197031e-39
-260.418 4161.02 780.31897 9.2197031e-39
-227.33501 4175.6001 787.64203 9.2197031e-39
-735.87701 4399.6104 783.65698 9.2197031e-39
2939.8799 2693.1399 791.30298 9.2197031e-39
1079.61 3595.6101 796.841 9.2197031e-39
864.66302 3702.27 798.05798 9.2197031e-39
2934.96 2738.73 801.78302 9.2197031e-39
-529.763 4378.9502 802.26099 9.2197031e-39
2932.8999 2789.1799 813.76801 9.2197031e-39
-491.04199 4394.46 810.453 9.2197031e-39
2932.04 2848.3799 828.00897 9.2197031e-39
1080.83 3707.4199 824.06403 9.2197031e-39
63.02 4179.1201 821.75098 9.2197031e-39
-122.341 4294.0601 828.36298 9.2197031e-39
-311.73999 4401.4902 832.69397 9.2197031e-39
-268.45401 4401.75 837.71198 9.2197031e-39
2929.3701 2901.8301 840.651 9.2197031e-39
-221.22301 4399.2002 842.505 9.2197031e-39
2926.21 2960.49 854.5 9.2197031e-39
-137.804 4407.27 854.01501 9.2197031e-39
-96.850197 4409.29 859.19501 9.2197031e-39
2925.6101 3024.1499 869.85101 9.2197031e-39
1071.13 3862.6599 860.56097 9.2197031e-39
-9.5527 4406.0601 868.41101 9.2197031e-39
2866.46 3082.6899 877.255 9.2197031e-39
2846.3701 3099.1399 878.94 9.2197031e-39
2819.9399 3102.24 876.664 9.2197031e-39
28.9727 4416.7002 875.40198 9.2197031e-39
71.2183 4413.5498 879.47699 9.2197031e-39
2925.54 3096.72 887.422 9.2197031e-39
2902.1299 3104.54 886.63599 9.2197031e-39
113.435 4415.3799 884.75598 9.2197031e-39
154.966 4412.2998 888.76599 9.2197031e-39
1065.59 4020.54 898.16901 9.2197031e-39
194.183 4419.6104 895.02899 9.2197031e-39
234.688 4417.5498 899.16803 9.2197031e-39
274.60001 4422.29 904.888 9.2197031e-39
313.38501 4423.1001 909.52698 9.2197031e-39
395.38901 4418 917.685 9.2197031e-39
355.746 4420.6899 913.79498 9.2197031e-39
433.974 4423.9697 923.55103 9.2197031e-39
469.67001 4430.7002 929.26898 9.2197031e-39
2870.9199 3337.03 939.37701 9.2197031e-39
2693.5 3418.05 938.68201 9.2197031e-39
1062.8101 4169.71 933.98499 9.2197031e-39
2848.22 3358.79 942.04797 9.2197031e-39
2829.1299 3387.26 946.75897 9.2197031e-39
2723.1599 3418.8999 942.28601 9.2197031e-39
2750.98 3419.03 945.50098 9.2197031e-39
2781.0801 3420.26 949.24701 9.2197031e-39
2671.8999 3441.8201 941.966 9.2197031e-39
532.06097 4476.3799 947.47998 9.2197031e-39
489.75101 4487.7803 945.39697 9.2197031e-39
2806.8501 3412.45 950.30798 9.2197031e-39
1054.4301 4365.3398 980.414 9.2197031e-39
2696.72 3669.1201 999.86902 9.2197031e-39
1069.52 4457.6201 1004.5 9.2197031e-39
1099.28 4497.6001 1017.59 9.2197031e-39
1172.9301 4499.6899 1026.53 9.2197031e-39
1134.23 4502.46 1022.77 9.2197031e-39
1324.84 4467.21 1036.0601 9.2197031e-39
1207.9 4503.9399 1031.5601 9.2197031e-39
1246.48 4500.5 1035.15 9.2197031e-39
1281.45 4504.1299 1040.04 9.2197031e-39
1351.8199 4524.2998 1052.98 9.2197031e-39
1374.87 4635.6001 1082.58 9.2197031e-39
1402.46 4706.8604 1103 9.2197031e-39
2666.05 4293.6299 1147.63 9.2197031e-39
2294.8201 4478.54 1149.91 9.2197031e-39
2260.52 4489.0898 1148.53 9.2197031e-39
2640.5801 4356.1201 1159.85 9.2197031e-39
2708.8701 4333.9902 1162.3101 9.2197031e-39
2747.9099 4341.1899 1168.53 9.2197031e-39
2335.28 4507.9697 1161.67 9.2197031e-39
2371 4509.3398 1166.09 9.2197031e-39
2816.4099 4320.1104 1171.27 9.2197031e-39
2782.26 4336.25 1171.27 9.2197031e-39
2409.76 4515.8701 1172.11 9.2197031e-39
2446.02 4519.5 1177.15 9.2197031e-39
2519.6699 4514.8896 1184.46 9.2197031e-39
2558.47 4517.1699 1189.46 9.2197031e-39
2484.4399 4520.5303 1181.8 9.2197031e-39
1401.8101 5055.1699 1187.3 9.2197031e-39
2632.1299 4509.6602 1196.08 9.2197031e-39
2595.0901 4519.52 1194.22 9.2197031e-39
1267.47 6694.6001 1569.04 9.2197031e-39
1814.54 7292.29 1776.49 9.2197031e-39
1877.33 7305.9702 1786.99 9.2197031e-39
1936.52 7322.1099 1797.6801 9.2197031e-39
2000.45 7392.02 1821.9399 9.2197031e-39
1221.08 7766.6401 1823.42 9.2197031e-39
1284.97 7760.8901 1829.34 9.2197031e-39
2183.6699 7369.5298 1837.47 9.2197031e-39
2124.4299 7393.3301 1836.45 9.2197031e-39
2060.72 7407.1099 1832.49 9.2197031e-39
1352.08 7764.52 1837.91 9.2197031e-39
2247.9299 7377.96 1846.88 9.2197031e-39
1415.13 7767.3901 1845.8199 9.2197031e-39
2308.6001 7388.0601 1856.27 9.2197031e-39
1482.79 7762.1001 1852.29 9.2197031e-39
1545.84 7763.8901 1859.95 9.2197031e-39
2374.1399 7408.9199 1868.83 9.2197031e-39
1613.03 7765.2202 1867.96 9.2197031e-39
2435.8601 7424.7202 1879.73 9.2197031e-39
1676.13 7765.9302 1875.36 9.2197031e-39
1743.36 7766.1099 1883.11 9.2197031e-39
