# .PCD v0.7 - Point Cloud Data file format
VERSION 0.7
FIELDS x y z rgb
SIZE 4 4 4 4
TYPE F F F F
COUNT 1 1 1 1
WIDTH 329
HEIGHT 1
VIEWPOINT 0 0 0 1 0 0 0
POINTS 329
DATA ascii
-2467.8301 1285.519 134.483 9.2197031e-39
1697.8 1827.36 139.67749 9.2197031e-39
1707.225 1823.75 138.403 9.2197031e-39
1713.74 1825.4 138.625 9.2197031e-39
2519.3799 1908.73 133.924 9.2197031e-39
2546.3501 1918.4399 135.606 9.2197031e-39
2565.3701 1926.9 137.22099 9.2197031e-39
1685.89 1829.58 140.664 9.2197031e-39
1686.35 1836.21 142.412 9.2197031e-39
1694.166 1833.5461 141.44299 9.2197031e-39
1702.9434 1838.0299 142.343 9.2197031e-39
1695.15 1848.72 145.4435 9.2197031e-39
1702.89 1844.1658 143.9762 9.2197031e-39
1710.4 1843.33 143.502 9.2197031e-39
1689.64 1856.3301 147.65201 9.2197031e-39
1694.91 1856.825 147.608 9.2197031e-39
1705.525 1855.9351 147.0175 9.2197031e-39
1689.54 1863.83 149.649 9.2197031e-39
1698.85 1860.17 148.36501 9.2197031e-39
1706.5601 1864.995 149.392 9.2197031e-39
1710.42 1860.77 148.13901 9.2197031e-39
1968.645 1867.7251 141.38049 9.2197031e-39
1976.3101 1868.49 141.327 9.2197031e-39
1967.485 1872.1399 142.593 9.2197031e-39
1973.1179 1875.2061 143.2198 9.2197031e-39
2024.28 1882.53 143.461 9.2197031e-39
1988.05 1898.65 148.95599 9.2197031e-39
2056.23 1890.86 144.612 9.2197031e-39
2076.9299 1895.03 145.02901 9.2197031e-39
2036.1 1907.04 149.584 9.2197031e-39
2147.5 1913.65 147.627 9.2197031e-39
2205.03 1927.01 149.263 9.2197031e-39
2363.75 1948.6801 149.73399 9.2197031e-39
2382.3999 1948.09 148.95399 9.2197031e-39
2409.76 1949.58 148.438 9.2197031e-39
2426.53 1947.87 147.423 9.2197031e-39
2488.28 1955.53 147.403 9.2197031e-39
2514.97 1954.76 146.30901 9.2197031e-39
2723.6101 1957.36 140.04401 9.2197031e-39
2608.4199 1966.54 146.325 9.2197031e-39
2976.28 2004.86 144.25101 9.2197031e-39
2972.6399 2014.5601 146.94901 9.2197031e-39
2955.29 2020.83 149.19501 9.2197031e-39
-5219.3101 999.10596 150.05701 9.2197031e-39
-1148.4399 1525.7109 154.36 9.2197031e-39
1694.55 1866.63 150.22701 9.2197031e-39
1694.575 1871.4 151.49399 9.2197031e-39
2061.8999 1920.16 152.211 9.2197031e-39
2116.52 1946.91 157.504 9.2197031e-39
2270.4399 1941.84 151.024 9.2197031e-39
2343.29 1948.0601 150.25 9.2197031e-39
2316.8999 1950.09 151.668 9.2197031e-39
2333.4199 1950.25 151.162 9.2197031e-39
-5228.2598 1061.3779 166.912 9.2197031e-39
-1134.97 1553.621 161.33099 9.2197031e-39
2174.4099 1976.02 163.314 9.2197031e-39
2212.71 1997.52 167.75301 9.2197031e-39
2256.2 2021.95 172.797 9.2197031e-39
2323.27 2059.26 180.481 9.2197031e-39
2414.8701 2109.75 190.85201 9.2197031e-39
-5219.75 1239.551 213.99899 9.2197031e-39
-1910.09 1640.5901 210.293 9.2197031e-39
-1895.4 1674.4399 218.80299 9.2197031e-39
-3327.1299 1529.745 228.06 9.2197031e-39
-1883.3 1704.83 226.48 9.2197031e-39
-5208.48 1303.229 230.55299 9.2197031e-39
-1866.99 1738.2 234.808 9.2197031e-39
-5215.2002 1359.577 245.758 9.2197031e-39
2968.95 2410.04 252.22 9.2197031e-39
2971.3501 2424.1602 255.892 9.2197031e-39
2982.8701 2442.1699 260.29501 9.2197031e-39
2986.6399 2457.49 264.245 9.2197031e-39
2981.24 2466.6099 266.85001 9.2197031e-39
2982.96 2481.0898 270.642 9.2197031e-39
2985.9399 2495.21 274.29599 9.2197031e-39
2988.1599 2510.3701 278.25201 9.2197031e-39
2982.3101 2519.49 280.87399 9.2197031e-39
2982.52 2533.71 284.646 9.2197031e-39
2985.7 2548.6401 288.508 9.2197031e-39
2986.3899 2563.53 292.44501 9.2197031e-39
2986.73 2577 296.01501 9.2197031e-39
2987.8899 2592.5801 300.11801 9.2197031e-39
2988.71 2606.73 303.853 9.2197031e-39
2980.53 2616.22 306.64999 9.2197031e-39
2981.8701 2631.01 310.53601 9.2197031e-39
2981.51 2646.23 314.595 9.2197031e-39
2981.6899 2660.5698 318.401 9.2197031e-39
2980.1599 2675.3101 322.371 9.2197031e-39
2977.6299 2687.95 325.81699 9.2197031e-39
2979.6799 2705.8 330.49301 9.2197031e-39
2984.6001 2724.6399 335.34 9.2197031e-39
2983.0701 2740.23 339.53601 9.2197031e-39
2982.1499 2754.9299 343.47299 9.2197031e-39
2980.22 2770.6101 347.70599 9.2197031e-39
2979.7 2786.03 351.82401 9.2197031e-39
2984.1299 2807.6101 357.41299 9.2197031e-39
2982.4299 2822.53 361.43799 9.2197031e-39
2978.9199 2837.78 365.608 9.2197031e-39
2978.3201 2854.1001 369.966 9.2197031e-39
2981.6699 2876.1001 375.70401 9.2197031e-39
2979.8899 2891.8899 379.96201 9.2197031e-39
2981.96 2913.4399 385.62201 9.2197031e-39
2979.74 2929.3501 389.92599 9.2197031e-39
2977.73 2947.6201 394.85101 9.2197031e-39
2981.3501 2969.9099 400.65601 9.2197031e-39
2975.3701 2984.8 404.815 9.2197031e-39
2979.8 3008.71 411.02301 9.2197031e-39
2975.3799 3025.8101 415.71799 9.2197031e-39
2977.1799 3047.79 421.5 9.2197031e-39
2972.9299 3065.7 426.405 9.2197031e-39
2975.46 3089.3201 432.599 9.2197031e-39
2974.5801 3111.77 438.59799 9.2197031e-39
2977.1001 3136.3601 445.05099 9.2197031e-39
2971.0801 3153.75 449.87601 9.2197031e-39
2971.0601 3176.26 455.862 9.2197031e-39
2796.95 3195.29 466.72299 9.2197031e-39
2819.97 3203.6799 468.18701 9.2197031e-39
2975.1399 3206.6399 463.80099 9.2197031e-39
2791.1899 3214.1001 471.91901 9.2197031e-39
2761.25 3222.3401 475.10699 9.2197031e-39
2779.8401 3222.3899 474.5 9.2197031e-39
2975.04 3230.1299 470.04999 9.2197031e-39
2974.5701 3256.1799 476.992 9.2197031e-39
-451.51501 2844.6299 481.785 9.2197031e-39
-443.41699 2863.48 486.526 9.2197031e-39
2966.54 3270.55 481.07901 9.2197031e-39
2971.3601 3304.54 489.95599 9.2197031e-39
-481.76001 2906.3201 499.19501 9.2197031e-39
2783.3 3282.24 490.29599 9.2197031e-39
2969.8899 3328.3701 496.34201 9.2197031e-39
-485.634 2931.3799 505.98599 9.2197031e-39
95.892899 3017.8501 509.59 9.2197031e-39
2938.1299 3340.6001 500.651 9.2197031e-39
2962.6699 3347.6699 501.71301 9.2197031e-39
-480.20599 2954.6201 511.98499 9.2197031e-39
21.817499 3046.55 519.69098 9.2197031e-39
-493.29099 2984.74 520.42902 9.2197031e-39
-489.07101 3009.04 526.74902 9.2197031e-39
-449.69699 3012.76 526.42499 9.2197031e-39
-410.224 3018.28 526.57501 9.2197031e-39
88.315201 3092.6001 529.716 9.2197031e-39
-416.25201 3045.3201 533.966 9.2197031e-39
-397.5 3061.53 537.651 9.2197031e-39
55.375198 3091.73 530.58301 9.2197031e-39
-10.4695 3115.55 539.10999 9.2197031e-39
78.794998 3121.8701 537.81598 9.2197031e-39
2867.97 3445.97 531.00598 9.2197031e-39
2852.54 3451.54 533 9.2197031e-39
-387.505 3080.03 542.23602 9.2197031e-39
-372.77701 3098.3301 546.61102 9.2197031e-39
73.997299 3150.51 545.58899 9.2197031e-39
2840.71 3497.51 545.617 9.2197031e-39
2860.05 3497.9199 545.08099 9.2197031e-39
-370.12201 3121.1399 552.586 9.2197031e-39
-344.87601 3133.1699 554.94202 9.2197031e-39
-321.62299 3143.5701 556.93201 9.2197031e-39
-173.302 3151.1399 554 9.2197031e-39
-308.86801 3162.77 561.612 9.2197031e-39
-273.84299 3165.29 561.11499 9.2197031e-39
-235.237 3167.48 560.40997 9.2197031e-39
30.8836 3206.48 561.909 9.2197031e-39
2711.1101 3545.8899 562.79901 9.2197031e-39
2734.74 3556.3301 564.78802 9.2197031e-39
2755.1399 3556.26 564.09003 9.2197031e-39
2775 3558.46 564.01202 9.2197031e-39
2795.55 3557.97 563.19501 9.2197031e-39
2812.72 3554.6399 561.73798 9.2197031e-39
2834.3401 3555.4399 561.229 9.2197031e-39
2856 3559.3601 561.54999 9.2197031e-39
1080.51 3404.6201 579.59601 9.2197031e-39
1097.46 3403.77 578.80603 9.2197031e-39
1061.23 3406.3799 580.70801 9.2197031e-39
1102.8 3431.54 586.01202 9.2197031e-39
-82.979202 3321.51 596.28699 9.2197031e-39
1097.22 3480.8301 599.30103 9.2197031e-39
-1565.21 3166.71 604.53998 9.2197031e-39
-1506.13 3178.3301 605.65997 9.2197031e-39
-101.504 3362 607.66998 9.2197031e-39
1107.9399 3499.01 603.77899 9.2197031e-39
1115.92 3520.1001 609.11798 9.2197031e-39
-112.693 3400.22 618.20398 9.2197031e-39
1117.54 3561.4399 620.05603 9.2197031e-39
-2245.8401 3197.1299 635.31799 9.2197031e-39
-1639.79 3265.54 633.302 9.2197031e-39
-1592.88 3282.47 636.23999 9.2197031e-39
1119.02 3600.49 630.38898 9.2197031e-39
-2273.6399 3247.6599 649.67798 9.2197031e-39
1121.6801 3642.95 641.59003 9.2197031e-39
-2208.6001 3262.1201 651.35602 9.2197031e-39
-2169.3201 3288.8401 657.151 9.2197031e-39
-1637.26 3334.9399 651.66998 9.2197031e-39
1120.64 3692.1399 654.70099 9.2197031e-39
-2120.0801 3307.51 660.47101 9.2197031e-39
-2094.45 3338.3601 667.82001 9.2197031e-39
-251.50999 3541.1001 660.28497 9.2197031e-39
890.56598 3711.6699 667.56403 9.2197031e-39
1122.4399 3741.1699 667.677 9.2197031e-39
1122.6899 3791.54 681.06097 9.2197031e-39
2934.8999 4039.97 686.69897 9.2197031e-39
1124.59 3845.3899 695.31403 9.2197031e-39
2713.8899 4075.74 703.57599 9.2197031e-39
2745.1899 4093.4199 707.23499 9.2197031e-39
2911.54 4093.04 701.58801 9.2197031e-39
2936.29 4090.6799 700.13501 9.2197031e-39
1120.55 3913.3899 713.52899 9.2197031e-39
2708.7 4119.8203 715.46997 9.2197031e-39
2906.3999 4132.3799 712.21698 9.2197031e-39
2697.04 4154.6201 725.10999 9.2197031e-39
2902.5901 4181.5303 725.41199 9.2197031e-39
1120.79 3978.5601 730.84497 9.2197031e-39
2693.4399 4207.0303 739.16302 9.2197031e-39
2891.03 4209.4199 733.21198 9.2197031e-39
2880 4245.29 743.11499 9.2197031e-39
2833.72 4255.77 747.44501 9.2197031e-39
1116.63 4054.3201 751.12598 9.2197031e-39
2866.79 4271.3301 750.47998 9.2197031e-39
1118.6801 4121.6899 768.97101 9.2197031e-39
2626 4292.8799 764.23602 9.2197031e-39
2654.3501 4308.8398 767.53601 9.2197031e-39
2702.46 4305.23 764.96997 9.2197031e-39
2680.5801 4310.0303 766.97699 9.2197031e-39
1112.22 4213.5801 793.61603 9.2197031e-39
2631.2 4392.3799 790.51703 9.2197031e-39
1116.0601 4284.1104 812.23901 9.2197031e-39
-374.25101 4195.2803 838.30402 9.2197031e-39
-356.97601 4216.75 843.43402 9.2197031e-39
-443.96799 4224.9399 848.513 9.2197031e-39
-252.688 4230.2998 843.56299 9.2197031e-39
-127.729 4255.5303 846.104 9.2197031e-39
129.435 4275.4199 842.81799 9.2197031e-39
1108.3 4391.3398 841.00598 9.2197031e-39
2675.51 4620.8896 849.79303 9.2197031e-39
-996.98798 4196.5601 859.40198 9.2197031e-39
-118.799 4286.6699 854.086 9.2197031e-39
-63.6749 4306.6104 857.54999 9.2197031e-39
2353 4598.73 854.65399 9.2197031e-39
2326.9099 4603.8799 856.89203 9.2197031e-39
2435.45 4627.4199 859.53302 9.2197031e-39
2516.55 4629.71 857.43701 9.2197031e-39
2463.8101 4630.79 859.48199 9.2197031e-39
2490.01 4635.3501 859.82098 9.2197031e-39
2542.8999 4633.8101 857.64899 9.2197031e-39
2571.8601 4637.1001 857.55701 9.2197031e-39
2624.76 4633.1797 854.75299 9.2197031e-39
2651.74 4637.27 854.93903 9.2197031e-39
2598.4399 4640.71 857.633 9.2197031e-39
-994.27002 4234.6699 869.44397 9.2197031e-39
42.3424 4349.5303 865.427 9.2197031e-39
1105.75 4495.77 868.85699 9.2197031e-39
2384.8401 4636.6001 863.659 9.2197031e-39
2411.4099 4631.8896 861.52197 9.2197031e-39
2309.26 4644.75 868.34601 9.2197031e-39
-1000.76 4285.5498 883.18701 9.2197031e-39
1112.59 4562.48 886.36499 9.2197031e-39
1368.13 4584.1299 883.60199 9.2197031e-39
1394.48 4587.4697 883.612 9.2197031e-39
-998.466 4325.29 893.677 9.2197031e-39
-115.506 4423.96 890.47601 9.2197031e-39
-203.216 4442.3701 898.29602 9.2197031e-39
1132.38 4593.3799 893.91998 9.2197031e-39
1152.97 4612.2998 898.26501 9.2197031e-39
1180.35 4614.7402 898.00098 9.2197031e-39
1205.87 4613.5601 896.83502 9.2197031e-39
1232.36 4619.29 897.47498 9.2197031e-39
1258.78 4612.9297 894.90399 9.2197031e-39
1284.88 4620.0898 895.93701 9.2197031e-39
1309.29 4622.7598 895.83301 9.2197031e-39
1337.0601 4620.9199 894.41901 9.2197031e-39
1411.37 4636.04 895.961 9.2197031e-39
-995.59601 4369.5098 905.33801 9.2197031e-39
2.07532 4505.8398 908.32599 9.2197031e-39
249.218 4542.8896 909.93597 9.2197031e-39
282.879 4543.6104 909.00598 9.2197031e-39
310.18301 4549.4502 909.64801 9.2197031e-39
344.58801 4547.7998 908.06299 9.2197031e-39
375.93799 4545.3896 906.37701 9.2197031e-39
437.5 4546.8398 904.71198 9.2197031e-39
404.595 4553.3101 907.53003 9.2197031e-39
-992.99902 4410.2002 916.06897 9.2197031e-39
-149.159 4515.7002 915.98901 9.2197031e-39
-120.002 4528.7002 918.47198 9.2197031e-39
24.978001 4526.2598 912.99103 9.2197031e-39
55.855598 4529.5703 912.84302 9.2197031e-39
88.5522 4534.8701 913.16199 9.2197031e-39
121.373 4534.27 911.90698 9.2197031e-39
150.834 4543.8203 913.46503 9.2197031e-39
184.468 4540.8999 911.56702 9.2197031e-39
216.867 4544.8301 911.53198 9.2197031e-39
-996.87 4462.0601 929.987 9.2197031e-39
1447.0601 4756.25 926.73199 9.2197031e-39
1420.79 4760.4199 928.71802 9.2197031e-39
-942.052 4503.8501 939.26898 9.2197031e-39
-896.38397 4504.3701 937.88599 9.2197031e-39
-850.58301 4508.6797 937.50403 9.2197031e-39
-755.74597 4507.04 933.90601 9.2197031e-39
-807.34497 4510.1797 936.46198 9.2197031e-39
-1002.4 4511.8398 943.40503 9.2197031e-39
1457.63 4897.8701 964.03198 9.2197031e-39
2373.53 5231.25 1022.13 9.2197031e-39
1449.92 5194.6602 1043.2 9.2197031e-39
2358.4199 5330.9502 1049.14 9.2197031e-39
1444.2 5551.7202 1138.3199 9.2197031e-39
1901.58 7410.1899 1617.1801 9.2197031e-39
1954.76 7424.3501 1619.17 9.2197031e-39
2002.84 7424.6201 1617.64 9.2197031e-39
2056.55 7441.75 1620.4 9.2197031e-39
2262.1299 7473.2598 1621.9301 9.2197031e-39
2312.24 7490.3398 1624.8 9.2197031e-39
2367.6299 7505.6499 1627.02 9.2197031e-39
2418.1799 7519.9302 1629.13 9.2197031e-39
2472.6799 7520.7998 1627.55 9.2197031e-39
2523.6799 7534.2002 1629.41 9.2197031e-39
2578.6599 7536.0498 1628.0699 9.2197031e-39
2107.95 7508.8101 1636.52 9.2197031e-39
2162.29 7516.3101 1636.7 9.2197031e-39
2211.6599 7522.6299 1636.73 9.2197031e-39
2630.76 7553.3701 1630.9301 9.2197031e-39
1271.91 7641.1699 1699.58 9.2197031e-39
1854.63 7866.2402 1739.99 9.2197031e-39
1527.63 7854.9399 1747.89 9.2197031e-39
1579.46 7856.7202 1746.63 9.2197031e-39
1636.58 7860.2202 1745.66 9.2197031e-39
1688.4399 7860.1602 1743.91 9.2197031e-39
1745.5699 7864.6299 1743.2 9.2197031e-39
1797.42 7865.6299 1741.73 9.2197031e-39
1308.35 7858.1099 1756.04 9.2197031e-39
1360.49 7858.7598 1754.47 9.2197031e-39
1418.17 7856.5 1751.95 9.2197031e-39
1469.86 7862.04 1751.7 9.2197031e-39
