# .PCD v0.7 - Point Cloud Data file format
VERSION 0.7
FIELDS x y z rgb
SIZE 4 4 4 4
TYPE F F F F
COUNT 1 1 1 1
WIDTH 329
HEIGHT 1
VIEWPOINT 0 0 0 1 0 0 0
POINTS 329
DATA ascii
-1590 1264.095 134 9.2197031e-39
1526.485 2363.0752 139.422 9.2197031e-39
1534.89 2361.7703 138.356 9.2197031e-39
1799.9399 2445.01 136.228 9.2197031e-39
2968.22 2840.1599 134 9.2197031e-39
2973.8101 2854.4399 137.12601 9.2197031e-39
-1715.01 1252.72 142.06599 9.2197031e-39
1519.0601 2364.9102 140.536 9.2197031e-39
1522.2749 2367.0527 140.798 9.2197031e-39
1518.745 2370.7251 142.037 9.2197031e-39
1525.64 2377.1399 143.05833 9.2197031e-39
1534.655 2376.9399 142.21899 9.2197031e-39
1544.5699 2377.98 141.61301 9.2197031e-39
1524.4399 2387.29 145.73376 9.2197031e-39
1535.4825 2383.615 143.83626 9.2197031e-39
1514.3781 2394.384 148.41119 9.2197031e-39
1524.12 2396.4631 148.08499 9.2197031e-39
1527.77 2400.98 148.908 9.2197031e-39
1535.45 2402.7549 148.685 9.2197031e-39
1543.0699 2403.72 148.26199 9.2197031e-39
1784.6 2464.4419 142.49179 9.2197031e-39
1793.3766 2465.05 141.87733 9.2197031e-39
1787.475 2471.5698 144.04401 9.2197031e-39
1790.51 2488.79 148.14 9.2197031e-39
1860.5 2500.0601 144.86501 9.2197031e-39
1899.79 2519.9102 146.452 9.2197031e-39
1961.34 2551.1201 148.966 9.2197031e-39
2162.8501 2624.8701 149.99699 9.2197031e-39
2181.1599 2628.28 149.259 9.2197031e-39
2208.6599 2635.53 148.686 9.2197031e-39
2226.27 2637.8701 147.73801 9.2197031e-39
2271.48 2651.8599 147.321 9.2197031e-39
2305.9099 2660.4302 146.476 9.2197031e-39
2980.1799 2869.1799 140.30099 9.2197031e-39
2967.6599 2877.05 143.39 9.2197031e-39
2971.8899 2891.1899 146.601 9.2197031e-39
2968.53 2902.51 149.75999 9.2197031e-39
-1863.23 1235.922 150.78999 9.2197031e-39
-1935.6899 1245.775 159.631 9.2197031e-39
1851.74 2518.8599 150.392 9.2197031e-39
1861.17 2527.9102 151.858 9.2197031e-39
1894.65 2554.71 155.714 9.2197031e-39
1901.23 2562.51 157.114 9.2197031e-39
2008.47 2573.26 150.446 9.2197031e-39
2045.39 2589.03 151.20799 9.2197031e-39
2087.04 2606.49 151.98 9.2197031e-39
2120.1001 2618.74 152.19 9.2197031e-39
2133.6799 2620.71 151.49899 9.2197031e-39
2151.8301 2624.6499 150.907 9.2197031e-39
2965.0701 2913.8 152.923 9.2197031e-39
-1158.75 1518.7849 160.737 9.2197031e-39
-1181.26 1538.092 167.59801 9.2197031e-39
1937.14 2592.6201 161.59399 9.2197031e-39
2016.04 2656.6802 170.907 9.2197031e-39
2074.2 2706.74 178.494 9.2197031e-39
-2196.6101 1269.696 188.535 9.2197031e-39
2144.76 2768.3201 187.91 9.2197031e-39
-2328.0601 1268.022 199.62 9.2197031e-39
-2466.52 1266.662 211.399 9.2197031e-39
-2623.6101 1262.741 224.162 9.2197031e-39
2721.1599 3255.4199 260.793 9.2197031e-39
-4454.52 836.60803 276.565 9.2197031e-39
2802.9099 3338.8799 274.76901 9.2197031e-39
2798.3701 3351.52 278.367 9.2197031e-39
2817.76 3384.98 285.14401 9.2197031e-39
2832.9099 3415.55 291.55899 9.2197031e-39
2816.99 3436.78 298.328 9.2197031e-39
2843.1599 3442.46 297.47501 9.2197031e-39
-5217.6699 704.59009 309.95499 9.2197031e-39
2806.3301 3444.9399 301.328 9.2197031e-39
2799.21 3456.4099 304.854 9.2197031e-39
2827.1201 3501.53 313.83899 9.2197031e-39
-5236.1099 761.69098 326.03 9.2197031e-39
2836.53 3529.8501 320.186 9.2197031e-39
2773.8799 3545 329.50699 9.2197031e-39
2797.1399 3549.3101 328.561 9.2197031e-39
2817.76 3550.49 327.05499 9.2197031e-39
2837.77 3550.7 325.358 9.2197031e-39
2719.0601 3545.6699 334.47699 9.2197031e-39
2733.8999 3542.02 332.255 9.2197031e-39
2756.8999 3546.8899 331.47299 9.2197031e-39
2711.51 3557.28 338.07901 9.2197031e-39
2936.03 3833.28 388.314 9.2197031e-39
2936.23 3858.72 394.73801 9.2197031e-39
2939.9199 3888.79 402.03101 9.2197031e-39
2938.0901 3912.9399 408.306 9.2197031e-39
2937.1799 3938.7 414.90799 9.2197031e-39
2941.49 3971.48 422.83301 9.2197031e-39
2939.1699 3996.6799 429.418 9.2197031e-39
-465.491 2846.5901 436.28601 9.2197031e-39
-452.22501 2862.8601 439.24399 9.2197031e-39
92.854599 3026.3301 432.91501 9.2197031e-39
1083.39 3388.3501 437.85999 9.2197031e-39
1096.33 3386.78 436.328 9.2197031e-39
1106.8199 3389.27 436.04099 9.2197031e-39
1069.88 3390.6201 439.616 9.2197031e-39
2935.8799 4021.1699 435.90601 9.2197031e-39
71.644699 3083.8701 449.34201 9.2197031e-39
1104.21 3415.3601 442.87601 9.2197031e-39
1116.28 3415.21 441.78101 9.2197031e-39
1113.84 3442.28 448.85101 9.2197031e-39
2933.45 4047.28 442.733 9.2197031e-39
2930.6499 4073.47 449.60999 9.2197031e-39
-475.05801 2926.3701 457.32599 9.2197031e-39
80.914902 3096.3501 451.69 9.2197031e-39
1118.96 3455.75 451.81201 9.2197031e-39
2938.02 4114.0601 459.24301 9.2197031e-39
-431.09201 2973.47 465.405 9.2197031e-39
-423.495 2990.8501 469.142 9.2197031e-39
-70.362396 3109.72 468.32401 9.2197031e-39
28.505699 3136.79 466.522 9.2197031e-39
1114.67 3488.1799 460.401 9.2197031e-39
1115.63 3511.25 466.15799 9.2197031e-39
2933.1799 4138.8604 465.948 9.2197031e-39
-625.48901 2942.96 474.702 9.2197031e-39
-409.11801 3006.2 471.76999 9.2197031e-39
-378.57001 3016.45 471.69 9.2197031e-39
-376.26901 3035.1201 476.21799 9.2197031e-39
-367.215 3051.6799 479.61899 9.2197031e-39
51.322701 3195.7 479.44299 9.2197031e-39
72.909798 3202.45 479.26199 9.2197031e-39
998.177 3487.6001 470.45401 9.2197031e-39
1114.87 3538.74 473.18799 9.2197031e-39
1117.86 3559.3501 478.14499 9.2197031e-39
2933.1299 4170.9502 474.07901 9.2197031e-39
2920.75 4186.1499 479.01099 9.2197031e-39
-356.151 3067.52 482.66101 9.2197031e-39
-350.56201 3085.1499 486.63501 9.2197031e-39
-285.729 3120.24 489.84601 9.2197031e-39
-223.938 3134.8899 488.14499 9.2197031e-39
-140.576 3157.22 486.49899 9.2197031e-39
-20.600401 3176.95 480.992 9.2197031e-39
-0.745906 3185.52 481.422 9.2197031e-39
25.3102 3190.8 480.479 9.2197031e-39
85.773499 3213.4199 480.91299 9.2197031e-39
97.840103 3224.7 482.71201 9.2197031e-39
1125.63 3570.3501 480.25101 9.2197031e-39
1128 3593.6499 485.944 9.2197031e-39
1135.4 3606.3899 488.521 9.2197031e-39
2825.99 4178.9902 485.495 9.2197031e-39
2846.6499 4176.8501 483.14401 9.2197031e-39
2805.8899 4181.7402 487.953 9.2197031e-39
2872.3101 4181.8701 482.16901 9.2197031e-39
2897.5801 4185.77 480.94501 9.2197031e-39
-660.151 3015.3799 496.07599 9.2197031e-39
-346.673 3103.3999 490.91599 9.2197031e-39
-325.927 3115.5801 492.185 9.2197031e-39
-271.38599 3134.1399 492.10901 9.2197031e-39
1133.1 3642.1799 497.78799 9.2197031e-39
2717.8799 4177.1299 494.48999 9.2197031e-39
2761.1799 4179.0703 491.19 9.2197031e-39
2743.79 4185.3999 494.31699 9.2197031e-39
2784.79 4182.6201 490.02301 9.2197031e-39
-729.302 3011.8101 501.22501 9.2197031e-39
1135.12 3669.21 504.45401 9.2197031e-39
2724.6101 4224.8999 505.99899 9.2197031e-39
-35.803902 3314.79 517.22998 9.2197031e-39
1137.59 3696.3 511.099 9.2197031e-39
1137.65 3730.6399 519.78998 9.2197031e-39
1136.89 3768.7 529.49298 9.2197031e-39
-1669.84 2808.97 532.21198 9.2197031e-39
-1667.3101 2837.6599 539.25598 9.2197031e-39
-101.804 3370.7 537.16803 9.2197031e-39
1136.77 3806.8701 539.172 9.2197031e-39
2709.1799 4352.9902 539.78802 9.2197031e-39
2732.6299 4355.7002 538.422 9.2197031e-39
2760.96 4366.7803 538.74701 9.2197031e-39
2782.79 4365.5303 536.51801 9.2197031e-39
-93.473503 3386.3799 540.40802 9.2197031e-39
-98.588097 3409.8201 546.79199 9.2197031e-39
1141.62 3833.3799 545.45898 9.2197031e-39
2707.5901 4391.9297 549.789 9.2197031e-39
2699.1399 4418.71 557.30798 9.2197031e-39
462.81299 3694.5901 569.74799 9.2197031e-39
501.05701 3699.45 567.63098 9.2197031e-39
478.69601 3700.72 569.91101 9.2197031e-39
518.17603 3703.73 567.21698 9.2197031e-39
1132.33 3900.8701 563.36401 9.2197031e-39
2692.04 4449 565.60101 9.2197031e-39
-206.46899 3494.01 577.55798 9.2197031e-39
373.38901 3694.5601 577.57098 9.2197031e-39
396.23801 3694.6399 575.591 9.2197031e-39
421.672 3691.6299 572.60199 9.2197031e-39
438.948 3696.77 572.39001 9.2197031e-39
517.26202 3753.21 579.82599 9.2197031e-39
1130.84 3949.48 575.80402 9.2197031e-39
-2197.99 2841.51 586.69897 9.2197031e-39
212.205 3684.5 589.13702 9.2197031e-39
237.13699 3685.3201 587.16199 9.2197031e-39
261.96201 3685.8201 585.11499 9.2197031e-39
280.284 3691.98 585.07202 9.2197031e-39
304.94 3691.8999 582.89099 9.2197031e-39
330.875 3690.1399 580.17499 9.2197031e-39
347.67001 3696.9199 580.42102 9.2197031e-39
511.142 3785.5801 588.56 9.2197031e-39
1129.26 4000.99 588.98602 9.2197031e-39
130.09599 3685.71 596.633 9.2197031e-39
161.297 3682.5 593.08899 9.2197031e-39
184.967 3685.27 591.716 9.2197031e-39
517.16699 3803.8899 592.66998 9.2197031e-39
33.892899 3693.9199 607.13702 9.2197031e-39
59.578098 3696.95 605.65601 9.2197031e-39
94.202301 3692.2 601.42102 9.2197031e-39
511.30801 3837.3501 601.65601 9.2197031e-39
512.55603 3862.6499 607.953 9.2197031e-39
1130.96 4045.3101 600.06201 9.2197031e-39
2719.02 4599.2402 601.28699 9.2197031e-39
2761.78 4638.3799 607.453 9.2197031e-39
-132.82401 3676.55 617.33698 9.2197031e-39
-106.666 3681.72 616.35498 9.2197031e-39
-81.3479 3687.1299 615.50702 9.2197031e-39
-49.063499 3686.9099 612.62598 9.2197031e-39
-24.670099 3692.1899 611.82703 9.2197031e-39
1.21422 3695.96 610.51501 9.2197031e-39
512.39398 3890.3401 614.97998 9.2197031e-39
1128.1801 4106.3203 615.75598 9.2197031e-39
2592.5 4629.0703 619.91803 9.2197031e-39
2615.8 4629.6899 618.03601 9.2197031e-39
2639.5601 4630.9902 616.284 9.2197031e-39
2663.01 4631.1602 614.27301 9.2197031e-39
2690.1899 4639.1396 613.91602 9.2197031e-39
2710.54 4631.7002 610.24902 9.2197031e-39
-226.186 3668.8101 623.55103 9.2197031e-39
-190.125 3668.5 620.315 9.2197031e-39
-266.48499 3671.3 627.711 9.2197031e-39
-167.03999 3676.6499 620.35602 9.2197031e-39
516.737 3912.75 620.27502 9.2197031e-39
520.23798 3936.77 626.04901 9.2197031e-39
2503.1299 4632.6001 628.63702 9.2197031e-39
2526.1899 4634.0898 626.99402 9.2197031e-39
2549.3401 4635.3604 625.289 9.2197031e-39
2572.5601 4636.3999 623.521 9.2197031e-39
-1783.41 3189.99 638.64697 9.2197031e-39
-349.33301 3675.5601 636.04401 9.2197031e-39
-304.52301 3671.6101 631.11798 9.2197031e-39
516.65698 3971.02 635.03699 9.2197031e-39
529.39502 3983.4099 637.05902 9.2197031e-39
1121.09 4185.0801 636.32001 9.2197031e-39
2359.8701 4597.6299 632.32599 9.2197031e-39
2340.75 4604.8701 635.83301 9.2197031e-39
2433.8201 4624.96 632.77197 9.2197031e-39
2457.26 4628.96 631.73199 9.2197031e-39
2391.8101 4630.25 637.78998 9.2197031e-39
2414.2 4631.8799 636.24103 9.2197031e-39
2480.1499 4630.8896 630.216 9.2197031e-39
-406.00601 3686.1101 643.67603 9.2197031e-39
534.46899 4006.8 642.53802 9.2197031e-39
1129.36 4216.8701 643.64697 9.2197031e-39
2309.99 4646.1104 648.96997 9.2197031e-39
2331.1799 4644.75 646.77197 9.2197031e-39
-2388.96 3040.6699 653.85498 9.2197031e-39
-2309.8501 3063.02 652.58801 9.2197031e-39
-2276.5701 3092.24 657.073 9.2197031e-39
-462.20499 3695.27 650.91699 9.2197031e-39
-524.62402 3707.1001 659.37799 9.2197031e-39
533.83099 4039 650.75 9.2197031e-39
534.22699 4070.55 658.70398 9.2197031e-39
-2584.29 2997.4299 660.00897 9.2197031e-39
-2261.6001 3124.3999 663.909 9.2197031e-39
532.42902 4106.2598 667.90399 9.2197031e-39
1126.45 4289.5303 662.30103 9.2197031e-39
-2260.9399 3159.24 672.672 9.2197031e-39
1125.85 4358.6699 679.86401 9.2197031e-39
-2259.97 3194.1201 681.422 9.2197031e-39
486.87201 4210.29 698.23901 9.2197031e-39
166.017 4136.4199 707.62598 9.2197031e-39
1123.2 4440.1299 700.724 9.2197031e-39
1372.28 4591.8301 717.33002 9.2197031e-39
1392.09 4594.6797 716.31897 9.2197031e-39
1411.13 4604.0898 717.03497 9.2197031e-39
457.681 4292.4199 721.59198 9.2197031e-39
1123.1801 4517.1201 720.224 9.2197031e-39
1309.12 4606.1201 726.47998 9.2197031e-39
1329.0699 4609.5098 725.59302 9.2197031e-39
1349.46 4609.8604 723.896 9.2197031e-39
1287.73 4611.1396 729.62402 9.2197031e-39
1132.63 4561.4697 730.62799 9.2197031e-39
1149.98 4575.7598 732.72601 9.2197031e-39
1164.3101 4604.0498 738.63501 9.2197031e-39
1184.6899 4606.7803 737.54303 9.2197031e-39
1206.0601 4604.6104 735.12201 9.2197031e-39
1226.4 4606.98 733.94202 9.2197031e-39
1267.76 4607.3896 730.42401 9.2197031e-39
1246.37 4611.0801 733.22998 9.2197031e-39
1423.27 4678.77 734.88202 9.2197031e-39
1436.63 4754.3901 752.86298 9.2197031e-39
1457.88 4756.7202 751.59302 9.2197031e-39
1473.55 4828.3398 768.35699 9.2197031e-39
2372.9099 5143.54 769.42999 9.2197031e-39
2425.79 5146.3301 765.505 9.2197031e-39
2401.6899 5154.02 769.56299 9.2197031e-39
2350.6599 5158.3701 775.133 9.2197031e-39
330.93301 4533.5601 793.758 9.2197031e-39
2350.6499 5267.9302 802.87903 9.2197031e-39
2350.8999 5387.1699 833.05298 9.2197031e-39
2345.52 5490.3799 859.66101 9.2197031e-39
1461.6 5304.5 889.98499 9.2197031e-39
2347.7 5638.52 896.98602 9.2197031e-39
2345.9299 5780.1802 933.013 9.2197031e-39
1472.53 5551.1899 951.5 9.2197031e-39
2343.3201 5930.6099 971.336 9.2197031e-39
-5189.7998 3428.73 997.37299 9.2197031e-39
2594.24 7495.4702 1345.65 9.2197031e-39
2553.04 7528.0801 1357.52 9.2197031e-39
2218.8999 7459.9302 1369.51 9.2197031e-39
2266.3999 7474.3599 1369.01 9.2197031e-39
2314.05 7487.4102 1368.14 9.2197031e-39
2361.0601 7493.2998 1365.52 9.2197031e-39
2408.8999 7503.5898 1363.9301 9.2197031e-39
2456.0601 7507.6899 1360.84 9.2197031e-39
2505.8501 7526.75 1361.3101 9.2197031e-39
1987.89 7414.5898 1378.26 9.2197031e-39
2079.1799 7426.75 1373.35 9.2197031e-39
2034.14 7430.0601 1378.13 9.2197031e-39
2126 7443.3701 1373.45 9.2197031e-39
2171.98 7447.98 1370.6 9.2197031e-39
1942.35 7406.4702 1380.1899 9.2197031e-39
1819.88 7860.7202 1505.95 9.2197031e-39
1869.12 7866.0801 1502.99 9.2197031e-39
1918.62 7874.8901 1500.89 9.2197031e-39
1721.86 7867.1802 1516.17 9.2197031e-39
1770.98 7868.5298 1512.21 9.2197031e-39
1574.58 7860.6602 1527.41 9.2197031e-39
1623.65 7863.25 1523.77 9.2197031e-39
1672.75 7866.3999 1520.27 9.2197031e-39
1476.4399 7856.1699 1534.87 9.2197031e-39
1525.51 7858.6201 1531.1899 9.2197031e-39
1377.85 7859.6802 1544.39 9.2197031e-39
1426.97 7862.9702 1540.92 9.2197031e-39
