# .PCD v0.7 - Point Cloud Data file format
VERSION 0.7
FIELDS x y z rgb
SIZE 4 4 4 4
TYPE F F F F
COUNT 1 1 1 1
WIDTH 332
HEIGHT 1
VIEWPOINT 0 0 0 1 0 0 0
POINTS 332
DATA ascii
-1007 1253.996 134.48199 9.2197031e-39
1499.01 2363.6899 139.73801 9.2197031e-39
1503.1951 2361.665 138.79349 9.2197031e-39
1514.71 2366.8901 138.849 9.2197031e-39
1762.67 2464.6001 136.397 9.2197031e-39
1771.1801 2467.73 136.259 9.2197031e-39
2953.79 2971.1599 133.76199 9.2197031e-39
2958.6399 2987.46 137.25 9.2197031e-39
-844.659 1347.377 140.105 9.2197031e-39
-814.35797 1386.3879 146.459 9.2197031e-39
1488.5701 2366.53 141.54999 9.2197031e-39
1495.335 2366.095 140.7215 9.2197031e-39
1502.27 2367.1299 140.237 9.2197031e-39
1496.0635 2372.1533 142.13234 9.2197031e-39
1506.64 2379.1965 142.735 9.2197031e-39
1511.27 2377.74 141.882 9.2197031e-39
1494.8268 2388.73 146.33833 9.2197031e-39
1509.1699 2385.4048 143.9915 9.2197031e-39
1513.2051 2385.1799 143.50549 9.2197031e-39
1487.53 2394.71 148.58701 9.2197031e-39
1494.532 2394.2581 147.72899 9.2197031e-39
1509.34 2399.23 147.371 9.2197031e-39
1504.0499 2401.5 148.49268 9.2197031e-39
1514.89 2404.385 148.04449 9.2197031e-39
1532.34 2405.6001 146.48 9.2197031e-39
1751.1851 2479.3049 141.23801 9.2197031e-39
1753.134 2485.6562 142.59039 9.2197031e-39
1763.65 2485.9199 141.534 9.2197031e-39
1756.51 2493.5698 144.175 9.2197031e-39
1750.3101 2501.97 146.901 9.2197031e-39
1769.67 2522.05 149.771 9.2197031e-39
1843 2538 145.862 9.2197031e-39
1864.04 2549.72 146.49899 9.2197031e-39
1933.16 2591.9302 149.494 9.2197031e-39
2136.47 2678.99 149.192 9.2197031e-39
2162.29 2688.1499 148.686 9.2197031e-39
2188.6599 2696.24 147.86 9.2197031e-39
2224.55 2709.72 147.342 9.2197031e-39
2954.03 2997.7 140.25999 9.2197031e-39
2956.74 3013.3201 143.811 9.2197031e-39
2960.95 3027.8301 146.927 9.2197031e-39
-881.52002 1381.62 152.45599 9.2197031e-39
1479.77 2408.26 152.745 9.2197031e-39
1819.22 2547.6001 150.75999 9.2197031e-39
1848.66 2574.53 154.237 9.2197031e-39
1868.3101 2594.46 157.037 9.2197031e-39
1875.8101 2604.01 158.58501 9.2197031e-39
1975.03 2615.55 150.83099 9.2197031e-39
2002.36 2628.5 151.097 9.2197031e-39
2046.66 2651.96 152.133 9.2197031e-39
2076.29 2664.8701 152.14301 9.2197031e-39
2089.53 2668.1299 151.533 9.2197031e-39
2099.72 2668.6299 150.567 9.2197031e-39
2126.1101 2678.96 150.28999 9.2197031e-39
2955.21 3039.72 150.46001 9.2197031e-39
2951.96 3050.8101 153.534 9.2197031e-39
-1305.13 1267.717 169.675 9.2197031e-39
-1114.8199 1316.1899 161.276 9.2197031e-39
1905.33 2633.75 162.744 9.2197031e-39
1948.01 2675.6399 168.483 9.2197031e-39
-1306.77 1297.6489 177.207 9.2197031e-39
-1394.1 1291.9 185.11501 9.2197031e-39
2042.63 2766.96 180.826 9.2197031e-39
-1505.65 1283.317 194.912 9.2197031e-39
-1605.8 1276.213 203.856 9.2197031e-39
-1752.14 1259.8049 215.442 9.2197031e-39
-1915.63 1235.631 226.951 9.2197031e-39
-1669.58 1349.4829 228.67101 9.2197031e-39
2802.4399 3513.73 283.26599 9.2197031e-39
2827.6201 3558.79 291.65302 9.2197031e-39
2794.01 3564.8601 296.73199 9.2197031e-39
2818.97 3568.5701 294.98001 9.2197031e-39
2781.8101 3570.8201 299.49799 9.2197031e-39
2702.9099 3566.71 306.91199 9.2197031e-39
2721.0701 3568.04 305.29999 9.2197031e-39
2736.03 3562.74 302.39999 9.2197031e-39
2758.4399 3567.97 301.29401 9.2197031e-39
2730.3501 3619.0601 316.84799 9.2197031e-39
2927.8401 3863.0901 355.746 9.2197031e-39
2929.01 3891.73 362.659 9.2197031e-39
2930.4099 3917.4199 368.823 9.2197031e-39
2927.5701 3942.5 375.289 9.2197031e-39
2928.8999 3969.1499 381.698 9.2197031e-39
2925.3301 3994.3799 388.28201 9.2197031e-39
2927.78 4023.5701 395.19199 9.2197031e-39
2929.52 4056.79 403.172 9.2197031e-39
2925.0901 4078.3601 408.94699 9.2197031e-39
2925.9199 4111.8203 417.082 9.2197031e-39
2923.1799 4136.6899 423.487 9.2197031e-39
1086.0601 3402.1201 439.03101 9.2197031e-39
1096.27 3406.5701 439.035 9.2197031e-39
1107.4399 3405.95 437.69101 9.2197031e-39
2922.48 4169.5898 431.647 9.2197031e-39
2921.29 4197.8301 438.71399 9.2197031e-39
1058.8101 3407.8899 443.358 9.2197031e-39
1074.83 3402.52 440.328 9.2197031e-39
1110.51 3423.8999 441.77399 9.2197031e-39
1111.17 3443.76 446.58701 9.2197031e-39
2828.5601 4194.9697 447.90799 9.2197031e-39
2852.5 4199.8799 446.56 9.2197031e-39
2903.74 4208.21 443.138 9.2197031e-39
2885.0901 4212.0098 446.064 9.2197031e-39
85.780502 3033.6001 455.224 9.2197031e-39
1107.92 3475.6299 454.76501 9.2197031e-39
2749.3401 4207.4102 459.422 9.2197031e-39
2768.72 4206.54 457.13901 9.2197031e-39
2790.5 4204.0898 454.21399 9.2197031e-39
2809.97 4202.8203 451.82199 9.2197031e-39
-460.755 2853.55 469.306 9.2197031e-39
1107.17 3500 460.836 9.2197031e-39
1107.86 3526.05 467.16299 9.2197031e-39
2726.6399 4207.7002 461.91699 9.2197031e-39
2711.8899 4215.8301 465.48801 9.2197031e-39
-469.33499 2875.9199 475.72 9.2197031e-39
71.221901 3104.47 474.19601 9.2197031e-39
1109.11 3547.98 472.41901 9.2197031e-39
1111.45 3572.4299 478.181 9.2197031e-39
2726.77 4280.7002 479.84201 9.2197031e-39
-36.48 3101.5 484.96201 9.2197031e-39
62.342201 3126.3401 480.51999 9.2197031e-39
1115.76 3589.1899 481.83899 9.2197031e-39
1122.29 3605.77 485.21701 9.2197031e-39
1126.72 3623.4399 489.086 9.2197031e-39
-482.67801 2935.73 491.845 9.2197031e-39
-484.60699 2957.29 497.349 9.2197031e-39
-65.269897 3148.79 499.65799 9.2197031e-39
1126.4301 3657.8799 497.58099 9.2197031e-39
2753.74 4363.54 497.32501 9.2197031e-39
-495.70599 2978.54 503.75699 9.2197031e-39
-454.78101 3006.74 506.31799 9.2197031e-39
-410.61801 3014.8101 503.59 9.2197031e-39
-405.06601 3031.1399 507.01001 9.2197031e-39
-8.6578999 3194.1399 504.76099 9.2197031e-39
-8.7599497 3210.77 508.858 9.2197031e-39
21.355499 3215.0901 506.70599 9.2197031e-39
61.602699 3211.1101 501.43301 9.2197031e-39
78.478798 3221.22 502.11499 9.2197031e-39
90.804703 3230.95 503.19199 9.2197031e-39
1126.85 3687.27 504.76001 9.2197031e-39
2716.6599 4376.9697 504.58301 9.2197031e-39
2696.0701 4382.75 508.202 9.2197031e-39
2739.9199 4381.7803 503.284 9.2197031e-39
-506.67801 3003.01 510.94101 9.2197031e-39
-396.58401 3049.4199 510.59698 9.2197031e-39
-385.13199 3063.8101 512.91199 9.2197031e-39
-371.689 3080.3201 515.534 9.2197031e-39
-357.233 3093.46 517.22101 9.2197031e-39
-247.722 3150.8201 519.63 9.2197031e-39
-170.32001 3174.4199 517.16901 9.2197031e-39
-54.7658 3196.6399 510.29599 9.2197031e-39
910.83698 3638.25 515.76801 9.2197031e-39
1130.17 3715.6399 511.37799 9.2197031e-39
1131.17 3746.0901 518.75598 9.2197031e-39
2697.1899 4423.8203 518.17603 9.2197031e-39
-735.00702 2978.72 529.34198 9.2197031e-39
-360.23999 3115.53 522.96698 9.2197031e-39
-352.01901 3130.8101 525.84302 9.2197031e-39
-309.49701 3136.0901 522.60303 9.2197031e-39
-280.95001 3143.1699 521.297 9.2197031e-39
1130.4399 3788.1799 529.17798 9.2197031e-39
2685.6001 4447.8301 525.31201 9.2197031e-39
1129.5601 3827 538.81299 9.2197031e-39
2690.8799 4499.6499 537.48602 9.2197031e-39
-95.799599 3351.6599 552.77502 9.2197031e-39
1124.54 3885.78 553.79498 9.2197031e-39
-108.907 3377.4399 560.51001 9.2197031e-39
-111.813 3400.9199 566.591 9.2197031e-39
1120.73 3937.6899 566.95898 9.2197031e-39
2711.8999 4638 569.245 9.2197031e-39
2740.9399 4652.0801 569.60699 9.2197031e-39
-109.904 3418.8701 570.79901 9.2197031e-39
483.40799 3712.1201 579.54602 9.2197031e-39
505.83301 3712.03 577.13 9.2197031e-39
1123.1899 3980.3899 577.19202 9.2197031e-39
2672.26 4654.8799 577.62598 9.2197031e-39
2694.8201 4656.0703 575.51001 9.2197031e-39
393.48901 3715.55 589.98602 9.2197031e-39
417.02899 3715.9099 587.56299 9.2197031e-39
436.715 3716.55 585.617 9.2197031e-39
460.043 3716.3301 583.07397 9.2197031e-39
2553.73 4653.6299 589.96899 9.2197031e-39
2578.47 4653.9102 587.396 9.2197031e-39
2600.3401 4655.0601 585.34497 9.2197031e-39
2625.6201 4655.75 582.81799 9.2197031e-39
2647.6399 4656.48 580.64502 9.2197031e-39
-1697.98 2822.2 593.65601 9.2197031e-39
285.82001 3708.1899 599.66803 9.2197031e-39
332.642 3709.1201 594.89899 9.2197031e-39
301.11099 3715.0601 599.72601 9.2197031e-39
350.58099 3712.79 593.88702 9.2197031e-39
377.01099 3710.9399 590.61298 9.2197031e-39
508.52899 3780.4399 593.65503 9.2197031e-39
1120.4399 4034.45 590.77301 9.2197031e-39
2439.71 4644.77 599.96198 9.2197031e-39
2461.1001 4647.1699 598.26801 9.2197031e-39
2485.8601 4649.3203 596.15302 9.2197031e-39
2507.4299 4651.3101 594.34003 9.2197031e-39
2532.01 4652.0601 591.901 9.2197031e-39
171.674 3694.8101 608.56299 9.2197031e-39
201.86501 3692.98 604.89301 9.2197031e-39
220.071 3698.05 604.19501 9.2197031e-39
237.88499 3706.71 604.422 9.2197031e-39
263.84698 3704.05 600.99701 9.2197031e-39
505.02802 3812.1799 601.83099 9.2197031e-39
454.62299 3821.6201 609.53101 9.2197031e-39
504.92001 3836.5701 607.83698 9.2197031e-39
2343.25 4616.23 603.242 9.2197031e-39
2321.5701 4620.1396 606.51599 9.2197031e-39
2373.23 4647.4502 607.716 9.2197031e-39
2396.75 4647.71 605.27002 9.2197031e-39
2418.3501 4651.4297 603.87799 9.2197031e-39
-270.37299 3536.1699 616.75702 9.2197031e-39
150.424 3691.77 610.08502 9.2197031e-39
104.369 3706.01 618.49902 9.2197031e-39
505.32001 3864.8401 614.742 9.2197031e-39
513.573 3879.46 617.45398 9.2197031e-39
1112.78 4115.2402 611.44702 9.2197031e-39
1120.6801 4141.0098 616.93799 9.2197031e-39
2313.3799 4658.77 616.88599 9.2197031e-39
-1890.33 2879.46 628.26099 9.2197031e-39
-23.2997 3692.97 628.92297 9.2197031e-39
-2.28333 3698.53 628.04602 9.2197031e-39
28.8251 3699.23 624.89801 9.2197031e-39
53.503101 3701.1299 622.73102 9.2197031e-39
78.368797 3705.99 621.27002 9.2197031e-39
512.38202 3910.99 625.33002 9.2197031e-39
-51.518501 3689.1201 630.98798 9.2197031e-39
-117.472 3690.5 638.367 9.2197031e-39
-89.003799 3695.23 636.48999 9.2197031e-39
510.77899 3939.6499 632.54498 9.2197031e-39
521.31299 3956.5901 635.58502 9.2197031e-39
530.52002 3971.24 638.203 9.2197031e-39
1117.83 4213.8896 635.15198 9.2197031e-39
-166.422 3703.5901 646.80701 9.2197031e-39
526.55798 4009.53 648.03497 9.2197031e-39
2318.8401 4758.3999 640.78998 9.2197031e-39
-2360.22 2803.4399 659.72998 9.2197031e-39
-219.90401 3715.27 655.388 9.2197031e-39
529.21198 4034.6001 653.91302 9.2197031e-39
553.78699 4032.26 650.71399 9.2197031e-39
1115.9301 4278.8301 651.315 9.2197031e-39
-2307.6599 2829.9099 660.625 9.2197031e-39
-2309.3401 2866.97 669.914 9.2197031e-39
-271.17899 3727.99 663.98602 9.2197031e-39
1116.9 4347.46 668.08099 9.2197031e-39
-353.69601 3757.1499 679.961 9.2197031e-39
-1711.5699 3182.1201 683.56598 9.2197031e-39
502.23499 4140.54 682.82898 9.2197031e-39
1116.21 4416.48 685.11603 9.2197031e-39
-413.96799 3773.51 690.414 9.2197031e-39
-501.07999 3802.27 706.78198 9.2197031e-39
1113.51 4509.8301 708.34698 9.2197031e-39
1395.47 4606.6104 702.03998 9.2197031e-39
1375.9 4614.71 706.11798 9.2197031e-39
459.09 4244.8301 713.06702 9.2197031e-39
1292.85 4627.1396 718.03699 9.2197031e-39
1334.02 4625.1299 713.15002 9.2197031e-39
1352.61 4627 711.62402 9.2197031e-39
1311.35 4630.29 716.83698 9.2197031e-39
1412.13 4653.6499 711.82098 9.2197031e-39
-2348.9299 3081.8301 726.94501 9.2197031e-39
-2294.6499 3104.97 726.83698 9.2197031e-39
1116.25 4575.4502 724.18298 9.2197031e-39
1133.3101 4597.6499 727.81897 9.2197031e-39
1150.33 4607.7197 728.47699 9.2197031e-39
1188.09 4626.25 729 9.2197031e-39
1209.74 4629.8999 727.586 9.2197031e-39
1229.6899 4626.1001 724.52197 9.2197031e-39
1251.15 4630.3203 723.27002 9.2197031e-39
1269.84 4632.8398 721.896 9.2197031e-39
-2261.53 3136.4099 731.03101 9.2197031e-39
-2254.53 3167.3701 737.89301 9.2197031e-39
428.16699 4328.0601 736.82397 9.2197031e-39
1169.4 4623.0703 730.21301 9.2197031e-39
1462.64 4772.27 735.58398 9.2197031e-39
2359.77 5167.9199 737.07001 9.2197031e-39
2383.76 5167.4702 734.39899 9.2197031e-39
2412.7 5170.6602 732.09399 9.2197031e-39
-2243.2 3202.6101 745.34399 9.2197031e-39
1442.02 4781.8701 740.14398 9.2197031e-39
2341.8799 5207.8701 748.79797 9.2197031e-39
-697.95801 3903.5 752.67401 9.2197031e-39
1409.48 4881.6201 768.13202 9.2197031e-39
2340.49 5303.04 772.33698 9.2197031e-39
-993.422 3993.46 806.32001 9.2197031e-39
307.759 4564.8604 807.87402 9.2197031e-39
334.99301 4560.8999 803.995 9.2197031e-39
2341.97 5435.2998 804.685 9.2197031e-39
-994.047 4028.1599 814.914 9.2197031e-39
-992.37402 4057.05 821.836 9.2197031e-39
2337.9299 5534.5498 829.51001 9.2197031e-39
1455.8101 5218.4502 845.97198 9.2197031e-39
2341.01 5695.8198 868.81702 9.2197031e-39
2337.8 5818.2798 899.255 9.2197031e-39
-3863.1201 3286.9299 938.96997 9.2197031e-39
1458.87 5567.9702 931.54901 9.2197031e-39
2340.01 6003.8999 944.64099 9.2197031e-39
-5795.54 2694.24 999.55701 9.2197031e-39
-5792.6401 2762.49 1016.02 9.2197031e-39
-5787.8999 2821.27 1029.96 9.2197031e-39
-5781.79 2889.3799 1046.05 9.2197031e-39
-5768.0898 2947.51 1058.88 9.2197031e-39
-5751.8799 3014.73 1073.67 9.2197031e-39
-5745.0601 3073.23 1087.3199 9.2197031e-39
-5190.23 3379.6699 1103.41 9.2197031e-39
-5188.7202 3443.9099 1119.04 9.2197031e-39
2501.4099 7549.8398 1307.36 9.2197031e-39
2544.6599 7548.7598 1302.48 9.2197031e-39
2309.48 7508.5898 1317.71 9.2197031e-39
2352.79 7512.8999 1314.15 9.2197031e-39
2404.5 7526.6899 1312.02 9.2197031e-39
2449.3101 7537.9399 1310 9.2197031e-39
2121.3899 7462.6001 1326.48 9.2197031e-39
2164.1599 7469.3901 1323.59 9.2197031e-39
2214.49 7482.0601 1321.33 9.2197031e-39
2258.6201 7496.7998 1320.24 9.2197031e-39
1938.11 7427.6401 1337.46 9.2197031e-39
1980.35 7436.8599 1335.21 9.2197031e-39
2029.83 7451.25 1333.47 9.2197031e-39
2072.3501 7458.7598 1330.78 9.2197031e-39
1867.09 7889.1099 1458.45 9.2197031e-39
1912.83 7896.0601 1455.28 9.2197031e-39
1769.13 7891.6001 1469.52 9.2197031e-39
1814.5699 7892.52 1464.9 9.2197031e-39
1671.05 7888.5298 1479.23 9.2197031e-39
1716.45 7889.2598 1474.5699 9.2197031e-39
1573.04 7882.8301 1488.29 9.2197031e-39
1618.4 7887.2402 1484.54 9.2197031e-39
1520.1899 7891.3101 1496.02 9.2197031e-39
1376.62 7882.8901 1509.27 9.2197031e-39
1422.08 7884.98 1504.9301 9.2197031e-39
1474.76 7888.0698 1500.0699 9.2197031e-39
