# .PCD v0.7 - Point Cloud Data file format
VERSION 0.7
FIELDS x y z rgb
SIZE 4 4 4 4
TYPE F F F F
COUNT 1 1 1 1
WIDTH 316
HEIGHT 1
VIEWPOINT 0 0 0 1 0 0 0
POINTS 316
DATA ascii
-1293.51 135.17599 137.05299 9.2197031e-39
1303.73 2498.6602 139.77699 9.2197031e-39
1312.1649 2503.145 139.14975 9.2197031e-39
1510.1851 2667.02 136.1145 9.2197031e-39
1519.29 2679.05 136.868 9.2197031e-39
1520.21 2676.8101 136.256 9.2197031e-39
1519.52 2681.5601 137.32401 9.2197031e-39
1524.1399 2689.4849 138.0685 9.2197031e-39
1526.8201 2695.75 138.8315 9.2197031e-39
1526.49 2700.5901 139.853 9.2197031e-39
1531.08 2701.98 139.304 9.2197031e-39
2894.6399 3900.6599 132.35699 9.2197031e-39
2894.78 3931.7 138.49899 9.2197031e-39
-1284.0699 169.63199 142.201 9.2197031e-39
1295.92 2499.8 141.405 9.2197031e-39
1297.134 2503.646 141.95158 9.2197031e-39
1302.78 2500.1299 140.23801 9.2197031e-39
1289.29 2519.1401 146.439 9.2197031e-39
1304.14 2515.76 143.09949 9.2197031e-39
1313.78 2518.8301 141.97501 9.2197031e-39
1279.91 2523.8301 149.058 9.2197031e-39
1280.5699 2522.0801 148.593 9.2197031e-39
1292.688 2525.0581 147.0054 9.2197031e-39
1305.1633 2523.5234 144.459 9.2197031e-39
1311.135 2522.9451 143.2695 9.2197031e-39
1288.9399 2535.9448 149.8425 9.2197031e-39
1295.7233 2533.8235 148.201 9.2197031e-39
1300.37 2537.71 148.13901 9.2197031e-39
1320.83 2548.99 146.702 9.2197031e-39
1507.125 2698.0498 142.8295 9.2197031e-39
1514.1599 2696.946 141.34579 9.2197031e-39
1494.745 2702.4351 145.927 9.2197031e-39
1507.1768 2708.0066 144.799 9.2197031e-39
1513.5699 2700.3201 142.123 9.2197031e-39
1527.88 2707.1401 140.9045 9.2197031e-39
1530.29 2706.51 140.34599 9.2197031e-39
1505.024 2714.2798 146.43221 9.2197031e-39
1515.65 2723.8799 146.429 9.2197031e-39
2896.3701 3947.6399 141.382 9.2197031e-39
2899.3301 3982.3899 147.754 9.2197031e-39
-1285.29 224.08899 153.241 9.2197031e-39
-1279.5699 254.22299 158.201 9.2197031e-39
1285.96 2537.22 150.631 9.2197031e-39
2899.78 3997.8 150.735 9.2197031e-39
2896.1299 4027.27 157.245 9.2197031e-39
-1261.78 322.99701 168.66901 9.2197031e-39
-1288.34 325.23099 173.886 9.2197031e-39
-1596.72 127.48901 190.032 9.2197031e-39
-1615.13 139.28799 195.686 9.2197031e-39
-1532.8101 261.078 205.08701 9.2197031e-39
-1551.36 272.03 210.597 9.2197031e-39
-1191.0601 599.40979 210.877 9.2197031e-39
-1203.88 611.64795 215.614 9.2197031e-39
-1655.61 328.55499 240.569 9.2197031e-39
2538.4199 4696.1699 354.461 9.2197031e-39
1056.4 3417.3101 366.76999 9.2197031e-39
1068.51 3417.5801 364.647 9.2197031e-39
1073.2 3419.7 364.22699 9.2197031e-39
1086.72 3416.1499 361.09 9.2197031e-39
1047.72 3423.9199 369.64301 9.2197031e-39
1078.3199 3450.55 369.43399 9.2197031e-39
1088.9 3455.02 368.422 9.2197031e-39
1091.01 3464.29 369.883 9.2197031e-39
2462.26 4696.1396 368.14401 9.2197031e-39
2495.1699 4700.5498 363.10501 9.2197031e-39
2509.3701 4700.3896 360.51999 9.2197031e-39
1031.34 3432.1299 374.22 9.2197031e-39
1089.3 3502.3 377.742 9.2197031e-39
1092.14 3510.71 378.90302 9.2197031e-39
2400.3401 4687.7598 377.61099 9.2197031e-39
2415.5701 4690.9102 375.49701 9.2197031e-39
2447.73 4695.1104 370.54999 9.2197031e-39
1090.95 3550.78 387.07999 9.2197031e-39
2302.8899 4660.0498 389.62399 9.2197031e-39
2318.0901 4664.7598 387.82501 9.2197031e-39
2356.28 4685.7998 385.142 9.2197031e-39
2371.3601 4689.2402 383.11401 9.2197031e-39
1090.38 3570.26 391.05099 9.2197031e-39
1091.46 3607.8401 398.32599 9.2197031e-39
1091.22 3628.3601 402.44601 9.2197031e-39
2293.6201 4707.1797 400.65399 9.2197031e-39
2286.46 4722.5498 404.995 9.2197031e-39
1092.72 3668.9399 410.23999 9.2197031e-39
1093.71 3687.72 413.79199 9.2197031e-39
1091.42 3746.24 425.83301 9.2197031e-39
1092.87 3766.0701 429.51199 9.2197031e-39
2309.49 4856.7202 427.51501 9.2197031e-39
920.58099 3652.8701 437.991 9.2197031e-39
1090.4399 3832.4399 443.13599 9.2197031e-39
1090.9399 3858.96 448.31601 9.2197031e-39
1090.97 3924.76 461.38699 9.2197031e-39
1091.9399 3953.3201 466.884 9.2197031e-39
76.811798 3054.27 470.73199 9.2197031e-39
50.343601 3072.1899 479.052 9.2197031e-39
2433.1599 5218.2202 477.112 9.2197031e-39
48.6549 3119.9399 488.84299 9.2197031e-39
55.5233 3126.1799 488.84799 9.2197031e-39
1089.99 4037.45 483.953 9.2197031e-39
1091.84 4067.1001 489.51099 9.2197031e-39
2380.01 5213.1802 485.66501 9.2197031e-39
2398.8101 5220.5298 483.746 9.2197031e-39
34.823002 3154.1599 498.12701 9.2197031e-39
2328.25 5209.9199 494.323 9.2197031e-39
2342.26 5204.5098 490.729 9.2197031e-39
1096.54 4133.54 501.867 9.2197031e-39
1097.62 4171.8799 509.29099 9.2197031e-39
50.849899 3235.8899 511.48599 9.2197031e-39
55.616798 3243.1499 512.07098 9.2197031e-39
55.509201 3264.04 516.24298 9.2197031e-39
2316.8799 5279.6299 510.21701 9.2197031e-39
2312.8 5316.96 518.36798 9.2197031e-39
-449.54001 2860 526.75201 9.2197031e-39
-74.780998 3208.98 528.724 9.2197031e-39
-40.6665 3215.96 523.97803 9.2197031e-39
-26.185801 3219.46 522.07098 9.2197031e-39
-19.615101 3237.8201 524.53699 9.2197031e-39
1.06949 3238.1899 520.89203 9.2197031e-39
-482.43201 2854.04 531.479 9.2197031e-39
467.16199 3734.1599 535.65399 9.2197031e-39
475.56799 3737.4099 534.78802 9.2197031e-39
492.909 3745.3999 533.258 9.2197031e-39
1096.4301 4280.6201 531.11298 9.2197031e-39
1098.05 4323.9297 539.42499 9.2197031e-39
-187.771 3178.99 543.07703 9.2197031e-39
-189.60899 3190.02 545.599 9.2197031e-39
426.31299 3739.9199 544.14001 9.2197031e-39
442.34 3734.6201 540.20697 9.2197031e-39
400.543 3740.4099 548.87097 9.2197031e-39
493.259 3788.9299 541.84399 9.2197031e-39
494.827 3801.1799 543.99597 9.2197031e-39
2312.8999 5431.21 541.04999 9.2197031e-39
-514.73297 2928.77 552.13501 9.2197031e-39
-497.03 2936.6699 550.52301 9.2197031e-39
-502.40799 2961.8101 556.48401 9.2197031e-39
-499.918 2972.48 558.15601 9.2197031e-39
-269.09399 3151.78 552.289 9.2197031e-39
-89.515297 3346.6899 558.73499 9.2197031e-39
354.88 3735.4399 556.091 9.2197031e-39
368.67001 3733.72 553.271 9.2197031e-39
388.79999 3740.28 550.95502 9.2197031e-39
446.59 3817.26 555.86298 9.2197031e-39
493.121 3835.1699 551.05603 9.2197031e-39
489.32901 3855.29 555.73602 9.2197031e-39
1357.6 4650.7002 557.698 9.2197031e-39
1369.04 4651.46 555.78998 9.2197031e-39
1393.36 4684.2402 557.93298 9.2197031e-39
2313.47 5488.5498 552.34198 9.2197031e-39
-499.08801 2996.6101 562.80298 9.2197031e-39
-504.992 3009.1599 566.35797 9.2197031e-39
-462.82501 3035.0601 563.92401 9.2197031e-39
-438.50201 3053.23 563.16101 9.2197031e-39
-439.29901 3064.53 565.55103 9.2197031e-39
-414.72699 3082.1101 564.62598 9.2197031e-39
-408.76901 3091.54 565.42798 9.2197031e-39
-390.54099 3110.3501 565.88898 9.2197031e-39
-382.578 3119.04 566.18597 9.2197031e-39
-353.233 3144.95 566.05701 9.2197031e-39
-337.30099 3163.6399 566.90601 9.2197031e-39
277.61801 3732.1399 569.32501 9.2197031e-39
290.32501 3732.48 567.10901 9.2197031e-39
312.04999 3738.8 564.45898 9.2197031e-39
330.01099 3733.26 560.12903 9.2197031e-39
494.32501 3881.8201 560.10999 9.2197031e-39
490.49799 3902.9299 564.992 9.2197031e-39
1320.67 4660.6104 566.30499 9.2197031e-39
1331.9 4667.4399 565.64203 9.2197031e-39
-499.89401 3032.5701 570.09302 9.2197031e-39
-380.85599 3142.54 570.54401 9.2197031e-39
-130.42 3391.3799 574.96802 9.2197031e-39
-123.914 3399.1799 575.34802 9.2197031e-39
231.211 3736.03 578.44 9.2197031e-39
250.981 3730 573.68799 9.2197031e-39
489.73099 3939.1899 572.33502 9.2197031e-39
493.60101 3950.1699 573.82001 9.2197031e-39
1090.64 4488.8101 573.52002 9.2197031e-39
1258.4 4665.1602 578.40198 9.2197031e-39
1283.53 4666.9199 574.23499 9.2197031e-39
1295.02 4669.0601 572.59497 9.2197031e-39
1430.29 4820.1802 578.30499 9.2197031e-39
1442.6801 4825.4702 577.12701 9.2197031e-39
2312.73 5613.6602 577.33398 9.2197031e-39
-133.46201 3434.5549 584.09448 9.2197031e-39
192.058 3731.4099 584.56097 9.2197031e-39
202.88499 3734.4299 583.21503 9.2197031e-39
490.629 3991.55 582.57599 9.2197031e-39
487.98199 4013.0901 587.33398 9.2197031e-39
1092.8199 4540.02 583.30298 9.2197031e-39
1221.9301 4659.6499 583.86298 9.2197031e-39
1209.39 4667.7998 587.73798 9.2197031e-39
1246.86 4663.79 580.20599 9.2197031e-39
1403.53 4812.25 581.53998 9.2197031e-39
2311.0901 5670.25 588.87299 9.2197031e-39
115.951 3729.73 597.90802 9.2197031e-39
151.22 3727.0701 591.039 9.2197031e-39
161.38699 3731.04 590.00098 9.2197031e-39
491.517 4046.77 593.39001 9.2197031e-39
491.017 4066.0701 597.31403 9.2197031e-39
1103.27 4627.5601 598.82001 9.2197031e-39
1114.49 4630.6699 597.42102 9.2197031e-39
1136.47 4654.4502 598.19202 9.2197031e-39
1147.59 4659.3203 597.16101 9.2197031e-39
1172.76 4662.4102 593.25201 9.2197031e-39
1184.3 4664.1797 591.52698 9.2197031e-39
80.855499 3746.9199 607.633 9.2197031e-39
488.995 4110.6899 606.54401 9.2197031e-39
632.18298 4208.0098 600.14001 9.2197031e-39
6.6848202 3737.3999 619.07501 9.2197031e-39
40.5369 3738.6599 613.23901 9.2197031e-39
54.603199 3740.26 611.02802 9.2197031e-39
489.09799 4130.1699 610.396 9.2197031e-39
489.422 4173.54 618.95502 9.2197031e-39
2310.0701 5810.0801 616.83899 9.2197031e-39
-35.509201 3728.46 624.883 9.2197031e-39
-55.101898 3730.24 628.75897 9.2197031e-39
-14.272 3740.8501 623.52802 9.2197031e-39
485.741 4200.7002 625.01398 9.2197031e-39
2308.48 5874.48 629.922 9.2197031e-39
-269.71701 3542.4099 630.01898 9.2197031e-39
-99.145401 3720.8799 634.81598 9.2197031e-39
-87.1353 3725.3899 633.55402 9.2197031e-39
486.05099 4247 634.15802 9.2197031e-39
491.19299 4260.0703 635.83002 9.2197031e-39
-155.937 3719.3601 644.724 9.2197031e-39
-135.23801 3718.03 640.73901 9.2197031e-39
488.21399 4315.1899 647.31702 9.2197031e-39
493.41299 4329.1899 649.164 9.2197031e-39
-198.66499 3719.8701 652.50702 9.2197031e-39
507.22299 4355.5303 651.91498 9.2197031e-39
508.81699 4377.2598 655.948 9.2197031e-39
-242.664 3736.54 663.72803 9.2197031e-39
507.07401 4436.52 668.03601 9.2197031e-39
2311.52 6049.21 664.09399 9.2197031e-39
2309.95 6123.3999 679.11902 9.2197031e-39
-355.87299 3782.47 693.20599 9.2197031e-39
-394.26401 3793.3 702.26001 9.2197031e-39
2311.21 6315.96 717.15198 9.2197031e-39
2291.6101 6323.8901 722.25 9.2197031e-39
-1670.8199 2819.9099 738.33099 9.2197031e-39
-1704.01 2805.0701 741.349 9.2197031e-39
2287.26 6516.7402 761.35199 9.2197031e-39
-1017.63 3983.23 852.05798 9.2197031e-39
-1013.84 4021.21 858.92297 9.2197031e-39
-1012.88 4039.3401 862.35199 9.2197031e-39
-1016.51 4082.5901 871.60101 9.2197031e-39
-1015.95 4101.3896 875.23401 9.2197031e-39
-1009.61 4139.3701 881.64099 9.2197031e-39
-1003.76 4155.1299 883.71997 9.2197031e-39
-2247.05 3170.49 911.578 9.2197031e-39
-2245.95 3191.25 915.505 9.2197031e-39
-4915.6499 910.02698 942.15399 9.2197031e-39
-4738.21 1104.547 948.90698 9.2197031e-39
2432.49 7596.75 949.841 9.2197031e-39
2497.28 7610.6602 940.95697 9.2197031e-39
-4997.5898 925.48096 959.953 9.2197031e-39
-4812.0498 1051.134 951.56598 9.2197031e-39
-4697.8599 1190.0439 958.64001 9.2197031e-39
2403.0601 7591.54 954.09497 9.2197031e-39
-4707.2002 1222.79 966.82599 9.2197031e-39
2309.3799 7568.7598 966.409 9.2197031e-39
2338.53 7574.5 962.31097 9.2197031e-39
2217 7546.23 978.53998 9.2197031e-39
2245.55 7550.5601 974.26703 9.2197031e-39
2155.01 7534.6899 987.39099 9.2197031e-39
2064.9099 7515.25 999.72498 9.2197031e-39
2126.3899 7527.8999 991.18701 9.2197031e-39
-4844.71 1269.438 1000.81 9.2197031e-39
2036.67 7508.9302 1003.55 9.2197031e-39
1947.9301 7490.3398 1015.8 9.2197031e-39
1975.8199 7496.1699 1011.95 9.2197031e-39
-5143.8799 1243.918 1049.52 9.2197031e-39
1905.4 7666.5801 1058.47 9.2197031e-39
-5226.8101 1308.356 1077.24 9.2197031e-39
-5233.46 1344.488 1085.61 9.2197031e-39
-5235.3398 1425.134 1101.97 9.2197031e-39
-5231.5898 1462.9919 1108.8199 9.2197031e-39
1902.87 7957.25 1116.6801 9.2197031e-39
-5233.0098 1543.334 1125.04 9.2197031e-39
1838.71 7962.2598 1129.21 9.2197031e-39
-5226.6201 1581.342 1131.4399 9.2197031e-39
1808.4301 7954.5801 1133.13 9.2197031e-39
-5235.4199 1660.29 1148.71 9.2197031e-39
1744.11 7956.5 1145.0699 9.2197031e-39
-5239.1499 1696.71 1156.62 9.2197031e-39
1649.5699 7945.1802 1159.8199 9.2197031e-39
1714.36 7955.1699 1150.15 9.2197031e-39
-5182.79 1783.5601 1163.74 9.2197031e-39
1620.28 7954.1201 1166.86 9.2197031e-39
1555.7 7944.9702 1176.65 9.2197031e-39
-5244.7402 1812.92 1180.72 9.2197031e-39
1526.1 7945.5498 1182.08 9.2197031e-39
-5227.1699 1894.61 1193.79 9.2197031e-39
-5229.6099 1931.02 1201.46 9.2197031e-39
-5757.4302 1965.16 1303.13 9.2197031e-39
-5754.4502 2004.89 1310.49 9.2197031e-39
-5756.9302 2090.3398 1327.91 9.2197031e-39
-5756.21 2129.8301 1335.63 9.2197031e-39
-5762.1099 2215.0698 1353.63 9.2197031e-39
-5753.7998 2254.8901 1360.05 9.2197031e-39
-5754.2598 2340.3501 1377.11 9.2197031e-39
-5756.1001 2379.6802 1385.25 9.2197031e-39
-5760.9702 2465.1201 1403.11 9.2197031e-39
-5760.1499 2504.5601 1410.8 9.2197031e-39
-5768.4302 2590.2 1429.3 9.2197031e-39
-5766.9199 2629.71 1436.88 9.2197031e-39
-5768.7798 2715.5601 1454.27 9.2197031e-39
-5766.5698 2755.1001 1461.73 9.2197031e-39
-5186.4302 3285.5701 1462.84 9.2197031e-39
-5164.6299 3320.1499 1465.8 9.2197031e-39
-5769.8599 2841.2 1479.4301 9.2197031e-39
-5778.7402 2881.25 1488.98 9.2197031e-39
-5172.04 3401.3701 1483.27 9.2197031e-39
-5174.9102 3438.8799 1491.24 9.2197031e-39
-5768.73 2967.0601 1504.24 9.2197031e-39
-5754.3501 3006 1509.39 9.2197031e-39
-5728.54 3216.55 1546.58 9.2197031e-39
-5789.98 3262.21 1566.7 9.2197031e-39
