# .PCD v0.7 - Point Cloud Data file format
VERSION 0.7
FIELDS x y z rgb
SIZE 4 4 4 4
TYPE F F F F
COUNT 1 1 1 1
WIDTH 320
HEIGHT 1
VIEWPOINT 0 0 0 1 0 0 0
POINTS 320
DATA ascii
269.65399 -822.23999 135.746 9.2197031e-39
974.21069 2486.4397 139.04382 9.2197031e-39
1038.65 2742.3101 136.692 9.2197031e-39
1041.48 2741.9099 135.92799 9.2197031e-39
1037.4099 2756.02 137.7955 9.2197031e-39
1041.09 2754.0901 136.72099 9.2197031e-39
1038.1001 2761.9849 137.9525 9.2197031e-39
1035.91 2772.72 139.13499 9.2197031e-39
1044.96 2770.71 136.65199 9.2197031e-39
1035.64 2781.76 139.72 9.2197031e-39
2101.1499 7552.8398 131.5 9.2197031e-39
245.03 -825.97998 141.98199 9.2197031e-39
956.67902 2472.6201 142.85001 9.2197031e-39
932.815 2486.3501 149.879 9.2197031e-39
946.52502 2488.1299 146.38901 9.2197031e-39
952.901 2489.0601 144.772 9.2197031e-39
964.52051 2485.2573 141.51399 9.2197031e-39
970.927 2489.3 140.06599 9.2197031e-39
938.42346 2490.9399 148.6705 9.2197031e-39
946.63049 2495.564 146.784 9.2197031e-39
954.04749 2494.1426 144.761 9.2197031e-39
963.57898 2493.7051 142.24001 9.2197031e-39
939.758 2507.1499 149.241 9.2197031e-39
942.65027 2506.2275 148.4315 9.2197031e-39
964.3905 2502.175 142.50751 9.2197031e-39
1018.4 2759.02 142.94299 9.2197031e-39
1023.035 2756.1499 141.56549 9.2197031e-39
1016.8651 2765.1726 143.69475 9.2197031e-39
1024.9559 2764.1479 141.51761 9.2197031e-39
1029.98 2777.0601 140.935 9.2197031e-39
1032.4434 2777.28 140.30167 9.2197031e-39
1011.6 2791.5601 146.57001 9.2197031e-39
2044.7 7536.2402 145.339 9.2197031e-39
208.037 -824.57996 151.74899 9.2197031e-39
185.85899 -817.17004 157.978 9.2197031e-39
933.13202 2502.6633 150.72166 9.2197031e-39
2010.5601 7534.0098 154.15401 9.2197031e-39
148.60899 -816.06006 167.795 9.2197031e-39
986.41302 2986.3401 164.222 9.2197031e-39
995.15997 3004.3 162.951 9.2197031e-39
988.59003 3035.71 166.45399 9.2197031e-39
983.995 3056.27 168.825 9.2197031e-39
1387.03 4813.1201 162.99899 9.2197031e-39
1956.63 7526.1401 167.82899 9.2197031e-39
125.515 -812.09998 174.067 9.2197031e-39
976.53101 3056.3899 170.786 9.2197031e-39
964.07599 3124.0701 177.88901 9.2197031e-39
1922.52 7522.2798 176.54401 9.2197031e-39
947.336 3232.3501 188.418 9.2197031e-39
1867.3 7503.5498 189.94 9.2197031e-39
36.866699 -907.02002 191.894 9.2197031e-39
-224.446 -1958.3701 200.649 9.2197031e-39
21.6131 -824.53003 200.571 9.2197031e-39
39.203701 -682.63 204.01801 9.2197031e-39
915.25299 3423.8701 207.69099 9.2197031e-39
31.308399 -588.08997 211.452 9.2197031e-39
18.074301 -556.57996 216.70599 9.2197031e-39
43.070801 -370.10101 220.744 9.2197031e-39
856.82098 3800.6599 244.379 9.2197031e-39
814.78601 3853.79 258.40201 9.2197031e-39
828.46899 3850.29 254.62 9.2197031e-39
834.37201 3866.51 253.995 9.2197031e-39
784.09998 3856.5801 266.595 9.2197031e-39
791.91901 3860.3 264.759 9.2197031e-39
804.742 3862.95 261.552 9.2197031e-39
741.13599 4001.77 286.08701 9.2197031e-39
691.72302 4113.5303 305.371 9.2197031e-39
437.267 3709.27 349.05899 9.2197031e-39
452.26999 3708.8301 345.10501 9.2197031e-39
448.21799 3734.8201 347.642 9.2197031e-39
400.936 3712.73 358.76901 9.2197031e-39
412.069 3710.3101 355.71701 9.2197031e-39
424.84299 3714.53 352.61099 9.2197031e-39
450.32101 3811.0601 351.418 9.2197031e-39
446.854 3839.26 353.927 9.2197031e-39
447.979 3870.8201 355.423 9.2197031e-39
448.979 3891.1499 356.31601 9.2197031e-39
447.492 3931.04 358.96899 9.2197031e-39
449.16599 3951.51 359.69299 9.2197031e-39
600.698 4622.1201 358.07401 9.2197031e-39
360.50201 3711.48 369.28699 9.2197031e-39
375.89499 3712.0901 365.29099 9.2197031e-39
383.67001 3715.8701 363.46899 9.2197031e-39
445.43799 3999.8799 363.414 9.2197031e-39
444.08801 4029.6499 365.457 9.2197031e-39
445.91199 4068.29 367.173 9.2197031e-39
445.811 4097.3301 368.84799 9.2197031e-39
562.83002 4631.1396 368.50299 9.2197031e-39
335.17801 3709.9099 375.82999 9.2197031e-39
353.25601 3706.6899 370.91299 9.2197031e-39
322.63699 3713.22 379.30099 9.2197031e-39
440.81799 4157.48 373.569 9.2197031e-39
442.76401 4183.96 374.56201 9.2197031e-39
441.255 4239.8604 378.13101 9.2197031e-39
441.82501 4273.0303 379.86401 9.2197031e-39
526.41602 4631.6899 378.07001 9.2197031e-39
539.74799 4635.3301 374.785 9.2197031e-39
281.29999 3709.0801 389.89099 9.2197031e-39
296.48099 3711.6101 386.05899 9.2197031e-39
308.078 3710.23 382.944 9.2197031e-39
437.61301 4342.3999 384.905 9.2197031e-39
439.98001 4373.9102 386.07401 9.2197031e-39
444.23901 4423.8896 387.79501 9.2197031e-39
450.871 4445.1201 387.263 9.2197031e-39
489.82501 4631.5303 387.64301 9.2197031e-39
503.16 4635.4297 384.37201 9.2197031e-39
251.10899 3696.1899 397.06601 9.2197031e-39
259.43201 3700.1001 395.108 9.2197031e-39
270.15601 3709.3899 392.827 9.2197031e-39
456.047 4620.1699 395.84299 9.2197031e-39
466.93301 4632.9102 393.716 9.2197031e-39
215.87601 3704.6599 406.77301 9.2197031e-39
230.66901 3700.1399 402.642 9.2197031e-39
420.754 4613.8999 404.73001 9.2197031e-39
429.77399 4632.5601 403.42599 9.2197031e-39
40.0923 3082.8501 417.51099 9.2197031e-39
62.700699 3220.3799 419.397 9.2197031e-39
166.354 3705.76 419.80399 9.2197031e-39
183.703 3707.52 415.35999 9.2197031e-39
194.537 3708.8201 412.59698 9.2197031e-39
27.3083 3080.3401 420.71701 9.2197031e-39
30.243 3100.8401 421.112 9.2197031e-39
23.1068 3112.98 423.67001 9.2197031e-39
21.289 3206.74 429.46799 9.2197031e-39
35.365898 3217.8 426.409 9.2197031e-39
51.207699 3237.04 423.353 9.2197031e-39
63.4543 3244.0701 420.54501 9.2197031e-39
65.251297 3252.47 420.55099 9.2197031e-39
159.743 3698.8401 421.142 9.2197031e-39
127.061 3700.1799 429.776 9.2197031e-39
137.39101 3702.77 427.21799 9.2197031e-39
258.30801 4142.1299 420.492 9.2197031e-39
-37.551498 3096.1899 438.60101 9.2197031e-39
-20.517599 3196.72 439.84698 9.2197031e-39
6.2211299 3191.3101 432.53699 9.2197031e-39
16.5098 3200.1101 430.34299 9.2197031e-39
97.247498 3696.95 437.39999 9.2197031e-39
103.195 3705.03 436.302 9.2197031e-39
-58.867699 3168.1101 448.26501 9.2197031e-39
-62.8755 3179.74 449.97501 9.2197031e-39
-47.4734 3186.74 446.33899 9.2197031e-39
-43.611401 3194.3101 445.75699 9.2197031e-39
-192.186 3155.21 482.44501 9.2197031e-39
-867.66602 196.98001 491.42499 9.2197031e-39
-873.70502 240.80899 495.49399 9.2197031e-39
-248.84399 3136.6299 496.22699 9.2197031e-39
-237.02 3148.03 493.77802 9.2197031e-39
-222.715 3152.3799 490.27899 9.2197031e-39
-894.18201 247.78799 501.25201 9.2197031e-39
-916.99103 270.14301 508.49399 9.2197031e-39
-743.57397 997.11499 504.34399 9.2197031e-39
-756.27899 1007.422 508.25601 9.2197031e-39
-289.181 3142.25 507.10999 9.2197031e-39
-197.392 3477 502.073 9.2197031e-39
43.817402 4602.1299 502.76901 9.2197031e-39
-762.20801 1035.988 511.42999 9.2197031e-39
-759.09003 1060.135 511.98401 9.2197031e-39
-771.81702 1082.125 516.565 9.2197031e-39
-768.95398 1105.4661 517.14001 9.2197031e-39
-771.29102 1135.6951 519.46802 9.2197031e-39
-326.164 3128.96 516.03998 9.2197031e-39
-309.11499 3133.29 511.82101 9.2197031e-39
-780.883 1148.199 522.68903 9.2197031e-39
-787.22198 1174.637 525.84998 9.2197031e-39
-791.13599 1191.5291 527.83398 9.2197031e-39
-792.23401 1221.543 529.82501 9.2197031e-39
-385.73599 3076.9099 528.685 9.2197031e-39
-385.32501 3093.95 529.54498 9.2197031e-39
-364.22601 3125.9399 525.83502 9.2197031e-39
-800.47101 1234.797 532.73401 9.2197031e-39
-806.48499 1260.5649 535.77197 9.2197031e-39
-816.04102 1272.745 538.966 9.2197031e-39
-431.698 3023.3201 537.67999 9.2197031e-39
-420.505 3031.21 535.19598 9.2197031e-39
-415.97699 3047.1001 534.91199 9.2197031e-39
-405.59698 3055 532.64301 9.2197031e-39
-397.14099 3069.5601 531.255 9.2197031e-39
-390.26001 3106.72 531.56201 9.2197031e-39
-386.78101 3122.9299 531.57098 9.2197031e-39
-822.36401 1297.9719 542.05298 9.2197031e-39
-831.68103 1310.28 545.19202 9.2197031e-39
-835.91101 1336.671 547.797 9.2197031e-39
-484.25699 2838.6001 540.95898 9.2197031e-39
-482.64001 2849.22 541.138 9.2197031e-39
-446.12299 2998.8899 540.07001 9.2197031e-39
-451.858 3011.47 542.28601 9.2197031e-39
-315.67499 3710.3201 546.29102 9.2197031e-39
-319.578 3729.1001 548.37903 9.2197031e-39
-844.16699 1349.646 550.69598 9.2197031e-39
-850.34302 1374.384 553.71698 9.2197031e-39
-857.52698 1388.002 556.37097 9.2197031e-39
-524.52197 2913.0801 555.72998 9.2197031e-39
-520.24298 2929.9099 555.565 9.2197031e-39
-518.96503 2940.98 555.85901 9.2197031e-39
-524.78302 2960.01 558.46198 9.2197031e-39
-487.68201 2991.8799 550.55603 9.2197031e-39
-364.05399 3709.1699 558.89398 9.2197031e-39
-343.76999 3708.72 553.55701 9.2197031e-39
-1209.2 -47.53302 566.98297 9.2197031e-39
-869.02301 1409.063 560.57703 9.2197031e-39
-875.96698 1422.7991 563.17499 9.2197031e-39
-892.94202 1440.4451 568.62201 9.2197031e-39
-544.02899 2975.8201 564.40002 9.2197031e-39
-409.052 3587.6699 563.78198 9.2197031e-39
-395.45401 3709.0901 567.11298 9.2197031e-39
-417.46799 3710.1201 572.93597 9.2197031e-39
-409.02802 3829.29 577.48901 9.2197031e-39
-469.78201 3708.3301 586.53302 9.2197031e-39
-449.92599 3709.6699 581.40997 9.2197031e-39
-435.638 3869.1899 586.72198 9.2197031e-39
-437.12399 3898.1399 588.755 9.2197031e-39
-436.53201 3915.6101 589.591 9.2197031e-39
-496.95401 3702.97 593.34497 9.2197031e-39
-443.81201 3950.73 593.49103 9.2197031e-39
-442.74899 3968.3999 594.216 9.2197031e-39
-435.65701 3991.29 593.65802 9.2197031e-39
-439.84799 4014.4299 596.06799 9.2197031e-39
-439.853 4044.9099 597.79999 9.2197031e-39
-442.77399 4067.6299 599.854 9.2197031e-39
-435.79901 4092.1799 599.42102 9.2197031e-39
-419.771 4096.2598 595.45599 9.2197031e-39
-390.32501 4228.3301 595.24103 9.2197031e-39
-545.021 3695.46 605.505 9.2197031e-39
-430.58801 4139.75 600.75702 9.2197031e-39
-437.815 4168.54 604.284 9.2197031e-39
-429.51099 4193.3398 603.51703 9.2197031e-39
-430.80099 4216.6699 605.17902 9.2197031e-39
-414.048 4232.79 601.70599 9.2197031e-39
-716.71503 3035.0801 612.98401 9.2197031e-39
-1348.8199 284.60699 622.39697 9.2197031e-39
-1149.72 1302.5349 628.03699 9.2197031e-39
-1477.3 -17.536987 638.89301 9.2197031e-39
-1425.83 71.278015 630.45599 9.2197031e-39
-1167.09 1323.765 633.789 9.2197031e-39
-1152.51 1352.4141 631.59802 9.2197031e-39
-1168.55 1374.241 637.03601 9.2197031e-39
-1212.4399 1369.4341 648.258 9.2197031e-39
-1189.55 1531.1841 651.44397 9.2197031e-39
-1686.63 -550.55005 663.45599 9.2197031e-39
-1683.87 -504.73999 665.33301 9.2197031e-39
-1661.6801 -414.41003 664.64899 9.2197031e-39
-1270.47 1368.963 663.427 9.2197031e-39
-1267.24 1391.0239 663.83398 9.2197031e-39
-1268.16 1421.9609 665.83197 9.2197031e-39
-1267.1 1442.464 666.71698 9.2197031e-39
-1686.02 -400.91998 671.78998 9.2197031e-39
-1298.03 1457.8459 675.68903 9.2197031e-39
-1734.02 -390.46997 684.95099 9.2197031e-39
-1781.2 -401.09003 696.703 9.2197031e-39
-1937.47 -397.58002 737.82599 9.2197031e-39
-1931.9301 -351.71503 738.97699 9.2197031e-39
-1704.54 2765.78 856.37903 9.2197031e-39
-2443.3301 1033.8311 951.54102 9.2197031e-39
-2433.78 1066.906 950.91699 9.2197031e-39
-2438.02 1137.871 956.05603 9.2197031e-39
-2421.9399 1188.489 954.716 9.2197031e-39
-2416.51 1218.506 955 9.2197031e-39
-2406.0901 1293.0129 956.50098 9.2197031e-39
-2398.98 1338.079 957.19501 9.2197031e-39
-2470.5801 1095.329 962.16602 9.2197031e-39
-2421.1399 1398.938 966.453 9.2197031e-39
-2391.96 1435.853 960.90601 9.2197031e-39
-2404.3899 1472.9299 966.26599 9.2197031e-39
-2494.71 1230.6599 976.16602 9.2197031e-39
-2446.4099 1347.588 970.15399 9.2197031e-39
-2510.6299 1464.505 993.60999 9.2197031e-39
-2189.8999 3203.6201 1008.33 9.2197031e-39
-2242.02 3152.3401 1019.07 9.2197031e-39
-2223.8301 3172.9099 1015.47 9.2197031e-39
-2661.1499 1459.245 1032.73 9.2197031e-39
-2752.1399 1459.277 1056.5601 9.2197031e-39
-2788.53 1493.162 1068.01 9.2197031e-39
-2790.8401 1521.2271 1070.21 9.2197031e-39
-4789.9199 1056.073 1567.3 9.2197031e-39
-4857.8501 993.84601 1581.5601 9.2197031e-39
-4849.1099 1108.354 1585.77 9.2197031e-39
-4830.5498 1443.155 1599.91 9.2197031e-39
-4835.71 1550.7471 1607.37 9.2197031e-39
-4894.8198 1473.13 1618.4399 9.2197031e-39
-4869.79 1586.998 1618.35 9.2197031e-39
-4868.6201 1695.6 1624.21 9.2197031e-39
-5022.5098 1108.457 1631.1801 9.2197031e-39
-5015.6499 1337.293 1642.38 9.2197031e-39
-4985.5 1634.15 1651.33 9.2197031e-39
-5122.8799 1154.161 1660.0601 9.2197031e-39
-5114.7798 1201.2109 1660.61 9.2197031e-39
-5148.0698 1264.0959 1672.9 9.2197031e-39
-5634.0601 -570.70996 1696.02 9.2197031e-39
-5629.5601 -512.46997 1698.15 9.2197031e-39
-5123.5898 1724.21 1692.6 9.2197031e-39
-5189.2798 1758.96 1711.78 9.2197031e-39
-5173.79 1830.05 1711.76 9.2197031e-39
-5178.27 1873.5601 1715.4 9.2197031e-39
-5219.3599 1937.8 1729.8 9.2197031e-39
-5141.52 3283.73 1785.8101 9.2197031e-39
-5135.4399 3327.02 1786.6801 9.2197031e-39
-5133.5898 3395.5601 1790.08 9.2197031e-39
-5153.5898 3442.3501 1797.98 9.2197031e-39
-5700.3101 1932.76 1855.46 9.2197031e-39
-5700.21 2007.0601 1859.65 9.2197031e-39
-5693.7998 2055.1001 1860.7 9.2197031e-39
-5705.96 2128.25 1868.04 9.2197031e-39
-5711.2998 2175.3301 1872.11 9.2197031e-39
-5707.7202 2249.6201 1875.39 9.2197031e-39
-5709.3599 2296.9199 1878.5 9.2197031e-39
-5719.0298 2370.54 1885.21 9.2197031e-39
-5712.1299 2418.1602 1886.11 9.2197031e-39
-5712.8198 2492.1001 1890.49 9.2197031e-39
-5715.7598 2539.4199 1893.9399 9.2197031e-39
-5721 2613.4102 1899.51 9.2197031e-39
-5719.27 2660.8301 1901.75 9.2197031e-39
-5725.1899 2735.01 1907.51 9.2197031e-39
-5730.3901 2782.6299 1911.58 9.2197031e-39
-5727.3101 2856.8101 1914.98 9.2197031e-39
-5733.6299 2904.6599 1919.35 9.2197031e-39
-5686.79 3098.1499 1918.0699 9.2197031e-39
-5665.48 3144.01 1915.09 9.2197031e-39
-5648.1802 3263.99 1917.37 9.2197031e-39
-5717.4399 3025.8701 1921.99 9.2197031e-39
-5671.21 3218.6299 1920.83 9.2197031e-39
