# .PCD v0.7 - Point Cloud Data file format
VERSION 0.7
FIELDS x y z rgb
SIZE 4 4 4 4
TYPE F F F F
COUNT 1 1 1 1
WIDTH 323
HEIGHT 1
VIEWPOINT 0 0 0 1 0 0 0
POINTS 323
DATA ascii
785.5 13.471008 136.442 9.2197031e-39
773.72101 24.481995 139.814 9.2197031e-39
961.20361 2446.5566 139.24034 9.2197031e-39
959.841 2454.0601 139.758 9.2197031e-39
965.76001 2462.9399 138.358 9.2197031e-39
986.39697 2729.0601 138.285 9.2197031e-39
986.75098 2739.0801 138.395 9.2197031e-39
983.62299 2750.9299 139.47301 9.2197031e-39
1032.99 3396.1499 139.474 9.2197031e-39
1046.72 3397.3601 135.83 9.2197031e-39
1062.86 3715.98 138.033 9.2197031e-39
1156.0699 4641.6602 132.05499 9.2197031e-39
744.33197 40.242981 147.98801 9.2197031e-39
952.15002 2436.45 141.452 9.2197031e-39
927.49005 2447.4265 148.265 9.2197031e-39
930.75598 2447.3599 147.39101 9.2197031e-39
947.87598 2447.1001 142.812 9.2197031e-39
952.83435 2443.5339 141.4144 9.2197031e-39
926.71136 2454.4766 148.61732 9.2197031e-39
937.31915 2454.052 145.77441 9.2197031e-39
946.7572 2457.27 143.319 9.2197031e-39
951.55701 2453.26 141.955 9.2197031e-39
926.32104 2468.655 149.01151 9.2197031e-39
931.02899 2469.4302 147.77 9.2197031e-39
948.13672 2463.9133 143.08635 9.2197031e-39
928.44397 2470.8701 148.49001 9.2197031e-39
930.89697 2470.6401 147.82899 9.2197031e-39
956.091 2725.605 146.311 9.2197031e-39
972.89166 2728.3867 141.87933 9.2197031e-39
964.86145 2733.95 144.13843 9.2197031e-39
972.8335 2732.76 141.98401 9.2197031e-39
948.67102 2744.71 148.68401 9.2197031e-39
955.49951 2743.7603 146.84 9.2197031e-39
970.45001 2789.8601 143.78799 9.2197031e-39
968.31897 2820.79 144.99001 9.2197031e-39
969.763 2836.01 144.91499 9.2197031e-39
968.547 2865 145.83299 9.2197031e-39
983.93701 3003.02 144.543 9.2197031e-39
989.69397 3052.1101 144.008 9.2197031e-39
992.00403 3132.1101 145.02699 9.2197031e-39
999.755 3233.0801 145.02 9.2197031e-39
1004.39 3318.03 145.519 9.2197031e-39
1014.01 3348.8401 143.577 9.2197031e-39
1018.93 3383.71 142.97501 9.2197031e-39
1029.17 3399.3401 140.56 9.2197031e-39
727.375 -2.2650146 151.649 9.2197031e-39
910.25598 2446.99 152.86099 9.2197031e-39
919.36902 2457.75 150.646 9.2197031e-39
959.64398 3034.72 151.681 9.2197031e-39
957.75 3095.72 153.43401 9.2197031e-39
963.15302 3108.1201 152.244 9.2197031e-39
673.448 -83.718018 164.392 9.2197031e-39
690.40802 -51.505005 160.519 9.2197031e-39
544.08301 -822.17004 183.85699 9.2197031e-39
527.36902 -819.85999 188.37 9.2197031e-39
485.19299 -823.77002 199.558 9.2197031e-39
468.776 -819.18005 204.03799 9.2197031e-39
423.83499 -838.07996 215.659 9.2197031e-39
393.082 -916.93994 222.263 9.2197031e-39
322.96899 -1063.6 237.996 9.2197031e-39
583.06897 3890.8401 269.79199 9.2197031e-39
599.55499 3893.2 265.436 9.2197031e-39
606.24799 3894.3201 263.67001 9.2197031e-39
575.46802 3892.4299 271.85501 9.2197031e-39
466.69601 3701.8101 297.01901 9.2197031e-39
441.392 3705.3799 303.85199 9.2197031e-39
431.48401 3711.3101 306.62 9.2197031e-39
445.84299 3731.2 303.19101 9.2197031e-39
446.28101 3838.6399 305.26999 9.2197031e-39
448.89801 3849.72 304.797 9.2197031e-39
446.11801 3899.73 306.56299 9.2197031e-39
445.78101 3919.1499 307.04999 9.2197031e-39
444.92899 3968.6001 308.28799 9.2197031e-39
445.93301 3986.29 308.38199 9.2197031e-39
446.80701 4057.5601 309.60501 9.2197031e-39
386.797 3703.23 318.39401 9.2197031e-39
391.81699 3707.3 317.13599 9.2197031e-39
409.392 3707.0701 312.436 9.2197031e-39
414.44501 3711.02 311.16699 9.2197031e-39
399.12299 3902.8999 319.18301 9.2197031e-39
442.75 4046.27 310.45801 9.2197031e-39
442.03 4127.2402 312.306 9.2197031e-39
444.31601 4145.1499 312.061 9.2197031e-39
454.98599 4202.1396 310.375 9.2197031e-39
441.64999 4215.27 314.207 9.2197031e-39
444.71201 4526.9399 319.76099 9.2197031e-39
358.79501 3708.3899 325.98099 9.2197031e-39
367.68799 3705.6899 323.54999 9.2197031e-39
313.49048 3703.7151 337.98901 9.2197031e-39
334.94501 3705.21 332.28799 9.2197031e-39
340.44501 3708.6699 330.88901 9.2197031e-39
335.77499 4024.2 338.58701 9.2197031e-39
284.17902 3707.885 345.90552 9.2197031e-39
233.662 3706.6799 359.37701 9.2197031e-39
253.662 3706.49 354.03 9.2197031e-39
258.63101 3711.21 352.79901 9.2197031e-39
196.867 3706.25 369.19901 9.2197031e-39
204.08 3708.03 367.30801 9.2197031e-39
228.728 3701.8401 360.59601 9.2197031e-39
168.718 3704.3 376.67999 9.2197031e-39
178.287 3703.0701 374.09799 9.2197031e-39
144.577 3696.2 382.96399 9.2197031e-39
150.03999 3700.6699 381.59601 9.2197031e-39
57.813 3212.46 396.255 9.2197031e-39
58.168999 3229.3799 396.50601 9.2197031e-39
60.5452 3234.8401 395.983 9.2197031e-39
68.3992 3246.76 394.12799 9.2197031e-39
107.617 3703.76 392.99301 9.2197031e-39
114.941 3706.0901 391.08401 9.2197031e-39
15.8871 3092.6499 405.00699 9.2197031e-39
30.443399 3091.49 401.09399 9.2197031e-39
17.775 3113.9299 404.93799 9.2197031e-39
25.359001 3206.0449 404.79449 9.2197031e-39
40.928101 3216.6499 400.85199 9.2197031e-39
24.9848 3285.23 406.513 9.2197031e-39
65.126503 3728.1299 404.84299 9.2197031e-39
-0.93300498 3130.6899 410.27802 9.2197031e-39
-22.870899 3190.6001 417.36401 9.2197031e-39
-12.2126 3201.5601 414.741 9.2197031e-39
-2.54637 3202.76 412.18301 9.2197031e-39
-53.614601 3176.72 425.29401 9.2197031e-39
-53.225899 3183.6599 425.332 9.2197031e-39
-42.612301 3195.0701 422.73001 9.2197031e-39
-68.471397 3878.9199 443.61899 9.2197031e-39
-173.561 3164.23 457.08499 9.2197031e-39
-168.95799 3169.49 455.96301 9.2197031e-39
-211.267 3156.27 466.996 9.2197031e-39
-205.812 3161.3501 465.642 9.2197031e-39
-229.601 3138.3799 471.52899 9.2197031e-39
-236.56599 3149.23 473.61099 9.2197031e-39
-290.46899 3138.3201 487.789 9.2197031e-39
-268.16501 3136.5701 481.79401 9.2197031e-39
-332.85699 3128.55 498.914 9.2197031e-39
-317.621 3130.3301 494.88 9.2197031e-39
-372.52802 3096.45 508.85699 9.2197031e-39
-368.14999 3122.8301 508.22601 9.2197031e-39
-407.88101 3044.8999 517.24799 9.2197031e-39
-410.18399 3053.78 518.04498 9.2197031e-39
-392.535 3067.6201 513.61298 9.2197031e-39
-389.22101 3074.5801 512.86902 9.2197031e-39
-380.491 3091.26 510.87799 9.2197031e-39
-379.82101 3119.1599 511.26999 9.2197031e-39
-445.901 3000.6399 526.50098 9.2197031e-39
-456.82599 3011.99 529.65198 9.2197031e-39
-420.108 3020.9199 520.02502 9.2197031e-39
-423.47699 3030.0701 521.112 9.2197031e-39
-406.48801 3622.8 528.69 9.2197031e-39
-504.38101 2827.0901 538.57703 9.2197031e-39
-483.23199 2843.1399 533.255 9.2197031e-39
-481.92801 2850.8899 533.065 9.2197031e-39
-487.32401 2983.8 537.224 9.2197031e-39
-489.06201 2992.5901 537.86798 9.2197031e-39
-518.90302 2905.8201 544.06598 9.2197031e-39
-516.34497 2913.55 543.54102 9.2197031e-39
-518.849 2934.3701 544.63599 9.2197031e-39
-519.91998 2942.97 545.09802 9.2197031e-39
-460.71799 3703.22 544.823 9.2197031e-39
-450.569 3707.28 542.19397 9.2197031e-39
-456.85699 3741.54 544.57501 9.2197031e-39
-539.875 2968.3701 550.948 9.2197031e-39
-542.64099 2977.6101 551.87598 9.2197031e-39
-486.52701 3693.8 551.526 9.2197031e-39
-748.784 1015.619 566.841 9.2197031e-39
-732.375 1014.499 562.43402 9.2197031e-39
-756.29901 1047.684 569.50403 9.2197031e-39
-537.90302 3818.9099 567.80902 9.2197031e-39
-759.349 1060.7219 570.586 9.2197031e-39
-765.41302 1093.358 572.87299 9.2197031e-39
-766.67102 1107.63 573.50098 9.2197031e-39
-770.48798 1141.3889 575.211 9.2197031e-39
-770.66498 1156.198 575.56097 9.2197031e-39
-781.40302 1183.665 578.99103 9.2197031e-39
-782.05103 1197.803 579.453 9.2197031e-39
-559.15002 3868.3201 574.49597 9.2197031e-39
-560.32001 3882.74 575.10303 9.2197031e-39
-572.85999 3926.74 579.35303 9.2197031e-39
-571.15002 3973.72 579.85699 9.2197031e-39
-556.78998 4010.47 576.77197 9.2197031e-39
-561.29303 4080.97 579.41602 9.2197031e-39
-790.65198 1226.495 582.33801 9.2197031e-39
-791.01001 1240.571 582.72101 9.2197031e-39
-807.67603 1262.839 587.62903 9.2197031e-39
-806.19397 1278.046 587.54401 9.2197031e-39
-574.375 3942.01 580.07001 9.2197031e-39
-571.58502 3988.47 580.27502 9.2197031e-39
-571.28699 4038.5901 581.21899 9.2197031e-39
-566.50299 4070.73 580.59802 9.2197031e-39
-565.56799 4122.8501 581.414 9.2197031e-39
-564.23602 4137.27 581.35303 9.2197031e-39
-563.34198 4175.3799 581.89301 9.2197031e-39
-568.474 4196.9399 583.70502 9.2197031e-39
-563.18402 4231.8604 583.00598 9.2197031e-39
-563.11499 4248.6499 583.33002 9.2197031e-39
-578.13898 4306.9399 588.53601 9.2197031e-39
-572.284 4444.5098 589.784 9.2197031e-39
-815.23297 1305.6279 590.52301 9.2197031e-39
-820.65601 1315.665 592.177 9.2197031e-39
-835.63098 1338.894 596.65302 9.2197031e-39
-833.586 1353.96 596.414 9.2197031e-39
-585.45599 4332.6797 591.01703 9.2197031e-39
-605.31299 4399.25 597.68298 9.2197031e-39
-585.229 4440.71 593.16498 9.2197031e-39
-845.65002 1378.969 600.14899 9.2197031e-39
-860.52899 1382.731 604.20099 9.2197031e-39
-859.83099 1415.89 604.69202 9.2197031e-39
-863.85602 1426.6379 605.987 9.2197031e-39
-622.216 4437.2598 602.97601 9.2197031e-39
-1045.71 -578.75 613.57501 9.2197031e-39
-1061.16 -568.08997 617.922 9.2197031e-39
-1188.96 -235.58301 658.86298 9.2197031e-39
-1245.26 -414 670.25702 9.2197031e-39
-1146.2 1286.7151 678.56 9.2197031e-39
-1141.52 1340.699 678.41199 9.2197031e-39
-1305.54 -355.98499 687.54901 9.2197031e-39
-1153.34 1297.423 680.68701 9.2197031e-39
-1151.78 1349.443 681.33301 9.2197031e-39
-1185.88 1365.918 690.78003 9.2197031e-39
-1298.22 445.19901 701.97198 9.2197031e-39
-1235.3101 1353.187 703.72601 9.2197031e-39
-1249.78 1381.7271 708.17401 9.2197031e-39
-1230.22 1506.318 705.49597 9.2197031e-39
-1405.3 -407.59998 713.14398 9.2197031e-39
-1271.97 1384.7791 714.16602 9.2197031e-39
-1272.1899 1420.942 714.96503 9.2197031e-39
-1291.73 1425.7371 720.28302 9.2197031e-39
-1291.34 1461.901 720.91803 9.2197031e-39
-1662.7 -1991.6001 749.53302 9.2197031e-39
-1642.35 -1077.05 762.79303 9.2197031e-39
-1649.76 -1048.84 765.34802 9.2197031e-39
-1633.6899 -898.90002 764.11902 9.2197031e-39
-1612.53 -633.43005 763.89502 9.2197031e-39
-1767.49 -1990.1599 777.55798 9.2197031e-39
-1740.49 -1996.79 770.21002 9.2197031e-39
-1667.73 -620.57996 778.90503 9.2197031e-39
-1675.76 -597.56006 781.52002 9.2197031e-39
-1675.55 -519.14001 783.06702 9.2197031e-39
-1679.04 -491.73999 784.56097 9.2197031e-39
-1682.08 -419.85999 786.841 9.2197031e-39
-1684.2 -391.90002 787.98102 9.2197031e-39
-1846.4301 -1994.4199 798.56 9.2197031e-39
-1874.0601 -1987.99 806.07501 9.2197031e-39
-1753.55 -394.62 806.45099 9.2197031e-39
-1784.1899 -397.58002 814.57703 9.2197031e-39
-1776.1 -121.40002 818.06299 9.2197031e-39
-1773.73 -91.822021 818.03497 9.2197031e-39
-1849.4399 -393.40002 832.09497 9.2197031e-39
-1861.16 -274.41998 837.659 9.2197031e-39
-1836.15 -85.448975 834.84198 9.2197031e-39
-1889.24 -404.80005 842.49701 9.2197031e-39
-2063.1699 -1986.45 856.63 9.2197031e-39
-1938.48 -381.90002 856.12097 9.2197031e-39
-2094.9199 -1984.4299 865.15302 9.2197031e-39
-2181.3501 -1991.28 888.10498 9.2197031e-39
-2214.49 -1990.0901 896.98199 9.2197031e-39
-2188.1101 3195.9399 995.95697 9.2197031e-39
-2181.22 3211.8999 994.44098 9.2197031e-39
-2426.3899 1050.021 1015.75 9.2197031e-39
-2424.02 1072.2991 1015.57 9.2197031e-39
-2432.6399 1140.9041 1019.27 9.2197031e-39
-2416.1599 1198.379 1016.05 9.2197031e-39
-2428.26 1214.084 1019.6 9.2197031e-39
-2403.3999 1293.949 1014.59 9.2197031e-39
-2380.98 1438.75 1011.56 9.2197031e-39
-2397.95 1480.7571 1016.95 9.2197031e-39
-2280.75 3091.8999 1018.58 9.2197031e-39
-2428.4399 1333.769 1022.1 9.2197031e-39
-2428.0701 1354.027 1022.41 9.2197031e-39
-2429.51 1402.3 1023.78 9.2197031e-39
-2478.3401 1100.34 1030.65 9.2197031e-39
-2494.98 1238.239 1037.92 9.2197031e-39
-2511.3701 1463.813 1046.91 9.2197031e-39
-2662.52 1466.228 1087.34 9.2197031e-39
-2716.1899 1470.839 1101.77 9.2197031e-39
-2788.6899 1501.178 1121.77 9.2197031e-39
-2821.8799 1513.119 1130.88 9.2197031e-39
-4886.7002 1043.724 1672.9301 9.2197031e-39
-4938.1899 997.06897 1685.74 9.2197031e-39
-4881.0898 1597.7881 1682.76 9.2197031e-39
-5128.1602 1063.231 1737.84 9.2197031e-39
-5146.7002 1092.6011 1743.4 9.2197031e-39
-5156.1699 1172.984 1747.5699 9.2197031e-39
-5153.4302 1207.3831 1747.54 9.2197031e-39
-5166.2402 1286.713 1752.59 9.2197031e-39
-5171.4302 1319.2361 1754.64 9.2197031e-39
-5166.7402 1401.859 1755.0699 9.2197031e-39
-5146.6201 1439.006 1750.46 9.2197031e-39
-5154.7402 1518.475 1754.25 9.2197031e-39
-5167.4702 1630.15 1759.9399 9.2197031e-39
-5143.8101 1746.71 1756 9.2197031e-39
-5171.9302 1662.49 1761.79 9.2197031e-39
-5187.98 1773.61 1768.35 9.2197031e-39
-5168.04 1856.2 1764.71 9.2197031e-39
-5172.3501 1888.4399 1766.52 9.2197031e-39
-5129.5801 3304.28 1784.04 9.2197031e-39
-5126.79 3336.5601 1783.95 9.2197031e-39
-5135.1699 3417.3799 1787.84 9.2197031e-39
-5130.8701 3449.5801 1787.35 9.2197031e-39
-5399.21 1945.3 1828.29 9.2197031e-39
-5620.4302 -530.85999 1836.77 9.2197031e-39
-5622.23 -490 1838.09 9.2197031e-39
-5692.79 1951.11 1906.85 9.2197031e-39
-5695.6201 2037.0601 1909.36 9.2197031e-39
-5699.0298 2072.1099 1910.99 9.2197031e-39
-5691.7202 2158.6201 1910.8 9.2197031e-39
-5693.5698 2193.72 1912.01 9.2197031e-39
-5697.3501 2279.3599 1914.78 9.2197031e-39
-5701.5 2314.3701 1916.6 9.2197031e-39
-5703.8398 2400.1001 1918.98 9.2197031e-39
-5702.5698 2435.3198 1919.36 9.2197031e-39
-5705.3901 2521.04 1921.86 9.2197031e-39
-5715.1201 2556.1699 1925.1801 9.2197031e-39
-5713.6001 2642.0698 1926.53 9.2197031e-39
-5721.77 2677.4099 1929.4399 9.2197031e-39
-5714.9302 2763.28 1929.37 9.2197031e-39
-5712.8501 2798.48 1929.53 9.2197031e-39
-5671.02 3124.3899 1925.02 9.2197031e-39
-5664.2798 3159.0701 1923.92 9.2197031e-39
-5679.5898 3246.5901 1929.8 9.2197031e-39
-5671.2998 3281.1399 1928.29 9.2197031e-39
-5718.0801 2884.74 1932.6899 9.2197031e-39
-5721.1899 2920.22 1934.25 9.2197031e-39
-5714.3501 3006.0801 1934.17 9.2197031e-39
-5713.96 3041.4399 1934.79 9.2197031e-39
