# .PCD v0.7 - Point Cloud Data file format
VERSION 0.7
FIELDS x y z rgb
SIZE 4 4 4 4
TYPE F F F F
COUNT 1 1 1 1
WIDTH 315
HEIGHT 1
VIEWPOINT 0 0 0 1 0 0 0
POINTS 315
DATA ascii
2357.8899 -700.92004 136.23199 9.2197031e-39
548.73999 2229.9199 139.145 9.2197031e-39
544.15002 2237.72 139.101 9.2197031e-39
537.56653 2244.6951 139.62851 9.2197031e-39
535.44702 2253.55 138.87199 9.2197031e-39
386.116 2501.96 138.20399 9.2197031e-39
7.4952502 3135.26 136.024 9.2197031e-39
-4.0966401 3143.3201 137.543 9.2197031e-39
14.122 3142.8701 133.44299 9.2197031e-39
2427.1599 -858.87 142.524 9.2197031e-39
516.76666 2215.3401 148.49066 9.2197031e-39
521.30798 2217.6299 147.133 9.2197031e-39
507.74951 2228.25 148.743 9.2197031e-39
514.40601 2223.3477 147.909 9.2197031e-39
522.00952 2227.02 145.65701 9.2197031e-39
534.83502 2228.72 142.489 9.2197031e-39
499.77301 2234.27 149.722 9.2197031e-39
503.7775 2237.23 148.3925 9.2197031e-39
519.88397 2233.6802 145.211 9.2197031e-39
524.27429 2239.0076 143.46175 9.2197031e-39
535.22974 2232.5901 141.85733 9.2197031e-39
500.23801 2242.3198 148.49001 9.2197031e-39
521.763 2247.0901 142.90399 9.2197031e-39
536.79303 2242.22 140.151 9.2197031e-39
495.44101 2251.8398 148.252 9.2197031e-39
493.39099 2280.5698 144.69701 9.2197031e-39
377.021 2476.1274 143.899 9.2197031e-39
384.34024 2476.8674 142.1235 9.2197031e-39
382.21448 2480.75 142.06601 9.2197031e-39
354.99899 2491.9302 146.717 9.2197031e-39
371.19 2498.51 142.097 9.2197031e-39
329.173 2513.8999 149.541 9.2197031e-39
361.383 2512.55 142.37201 9.2197031e-39
354.48499 2523.8 142.373 9.2197031e-39
326.487 2560.3501 143.64999 9.2197031e-39
300.612 2598.6602 144.19701 9.2197031e-39
293.76999 2602.05 145.286 9.2197031e-39
274.905 2636.3701 144.79001 9.2197031e-39
215.12 2719.74 146.774 9.2197031e-39
188.58501 2767.45 146.155 9.2197031e-39
166.224 2806.9099 145.73801 9.2197031e-39
144.26601 2842.8899 145.717 9.2197031e-39
132.562 2870.2 144.567 9.2197031e-39
80.115601 2951.8999 145.108 9.2197031e-39
-3.2097199 3087.5901 145.14301 9.2197031e-39
-27.310101 3132.8799 144.30701 9.2197031e-39
-23.0009 3144.1799 141.741 9.2197031e-39
-16.661699 3144.75 140.213 9.2197031e-39
2405.45 -901.96997 153.51801 9.2197031e-39
504.00601 2221.73 150.511 9.2197031e-39
313.36099 2519.8999 152.314 9.2197031e-39
303.73801 2532.4751 152.75101 9.2197031e-39
266.85001 2557.45 157.681 9.2197031e-39
2420.3999 -974.21997 160.22 9.2197031e-39
212.752 2598.26 164.325 9.2197031e-39
124.262 2667.8 174.804 9.2197031e-39
2913.1201 -1931.78 181.73801 9.2197031e-39
2871.1299 -1918.53 189.47701 9.2197031e-39
46.5261 2723.53 184.759 9.2197031e-39
24.126301 2736.8301 188.01401 9.2197031e-39
2242.0801 -917.39001 193 9.2197031e-39
2070.29 -674.34998 198.214 9.2197031e-39
-15.4319 2720.3101 199.364 9.2197031e-39
-9.6945496 2728.8999 196.851 9.2197031e-39
1.25246 2729.01 194.33501 9.2197031e-39
-19.093599 2730.97 198.70799 9.2197031e-39
6.447505 2733.75 192.483 9.2197031e-39
6.95613 2742.0901 191.19901 9.2197031e-39
2822.3899 -1939.3999 203.532 9.2197031e-39
2052 -684.80005 203.856 9.2197031e-39
-55.2094 2716.6499 208.964 9.2197031e-39
-49.834099 2717.8799 207.564 9.2197031e-39
-41.879051 2723.22 204.9985 9.2197031e-39
-28.9622 2725.02 201.795 9.2197031e-39
2022.0601 -707.56006 213.883 9.2197031e-39
1932.5 -573.28003 215.53999 9.2197031e-39
-86.550697 2701.51 218.244 9.2197031e-39
-76.179794 2706.04 215.23999 9.2197031e-39
-64.792252 2712.075 211.79401 9.2197031e-39
1903.64 -594.79004 225.145 9.2197031e-39
-131.095 2694.75 229.366 9.2197031e-39
-113.1175 2694.29 225.32401 9.2197031e-39
-96.973701 2694.4199 221.618 9.2197031e-39
-97.0952 2702.79 220.474 9.2197031e-39
-166.039 2685.1001 238.701 9.2197031e-39
-152.646 2683.5801 235.853 9.2197031e-39
-141.47701 2686.6499 232.87199 9.2197031e-39
-139.644 2690.6001 231.901 9.2197031e-39
-209.114 2676.8799 249.69299 9.2197031e-39
-211.873 2683.27 249.42799 9.2197031e-39
-183.96899 2682.2002 243.203 9.2197031e-39
-234.39101 2675.9102 255.60201 9.2197031e-39
-294.79501 2672.8999 269.823 9.2197031e-39
-275.23099 2675.02 265.05701 9.2197031e-39
-267.99899 2677.6201 263.04099 9.2197031e-39
-311.194 2657.8999 275.67099 9.2197031e-39
-314.957 2674.8999 274.14999 9.2197031e-39
-347.58099 2676.75 281.34299 9.2197031e-39
816.25 -919.48999 519.02502 9.2197031e-39
778.92102 -907.08997 525.81799 9.2197031e-39
756.33301 -882.56995 527.54401 9.2197031e-39
699.97803 -878.25 539.81403 9.2197031e-39
664.52002 -881.37 548.35199 9.2197031e-39
730.08002 -1012.04 551.67102 9.2197031e-39
643.59698 -868.96997 551.39398 9.2197031e-39
607.46002 -852.63 557.36298 9.2197031e-39
586.63702 -830.94995 559.08301 9.2197031e-39
-1680.76 2820.1399 565.83099 9.2197031e-39
-1677.4 2833.76 563.15698 9.2197031e-39
532.04102 -861.29004 575.80499 9.2197031e-39
552.26202 -863.52002 571.49799 9.2197031e-39
-865.69397 1390.162 579.85999 9.2197031e-39
496.677 -875.40002 585.85901 9.2197031e-39
-785.73602 1203.627 587.71301 9.2197031e-39
-793.26703 1212.041 588.25598 9.2197031e-39
-799.86902 1232.7161 586.86902 9.2197031e-39
-807.22101 1241.2151 587.35797 9.2197031e-39
-814.13898 1261.287 586.12799 9.2197031e-39
-813.94299 1276.124 584.00598 9.2197031e-39
-833.33698 1299.874 585.11102 9.2197031e-39
-826.34497 1291.217 584.72601 9.2197031e-39
-837.93298 1321.2061 583.17401 9.2197031e-39
-838.66803 1334.7161 581.45001 9.2197031e-39
-853.36499 1354.7555 582.00146 9.2197031e-39
-864.69202 1377.286 581.43402 9.2197031e-39
-891.84003 1408.636 583.24701 9.2197031e-39
-879.22198 1404.11 580.99799 9.2197031e-39
476.392 -880.73999 591.23999 9.2197031e-39
-755.479 1071.39 599.31799 9.2197031e-39
-764.03802 1092.1541 598.36603 9.2197031e-39
-766.15198 1106.661 596.81702 9.2197031e-39
-768.039 1133.557 593.48199 9.2197031e-39
-776.005 1141.8721 594.13702 9.2197031e-39
-776.59497 1169.307 590.43103 9.2197031e-39
-785.74402 1176.3401 591.53601 9.2197031e-39
-1802.25 2818.6201 593.79797 9.2197031e-39
440.569 -892.21997 601.03198 9.2197031e-39
-745.763 984.76404 609.22803 9.2197031e-39
-746.40302 1015.732 605.03802 9.2197031e-39
-754.44501 1024.6479 605.62598 9.2197031e-39
-753.03601 1056.835 600.79797 9.2197031e-39
419.22198 -941.71997 612.83899 9.2197031e-39
384.716 -878.33997 611.849 9.2197031e-39
365.763 -839.44995 610.73297 9.2197031e-39
-741.91699 970.77197 610.30798 9.2197031e-39
309.19501 -858.85999 626.37299 9.2197031e-39
329.63901 -855.59998 621.24597 9.2197031e-39
274.30099 -846.70996 632.64398 9.2197031e-39
-1175.41 1484.38 637.42401 9.2197031e-39
-1174.4301 1498.856 635.172 9.2197031e-39
198.125 -845.30005 649.84802 9.2197031e-39
-1160.01 1374.375 649.30701 9.2197031e-39
-1161.5699 1388.146 647.73602 9.2197031e-39
-1170.34 1408.585 646.87799 9.2197031e-39
-1173.3199 1421.36 645.76801 9.2197031e-39
-1177.49 1444.2361 643.51898 9.2197031e-39
-1173.4399 1460.725 640.28497 9.2197031e-39
-1223.16 1498.0449 646.41699 9.2197031e-39
-1229.79 1508.775 646.42999 9.2197031e-39
-1149.4301 1298.0959 657.573 9.2197031e-39
-1159.6801 1306.723 658.70502 9.2197031e-39
-1157.16 1335.027 654.16699 9.2197031e-39
-1159.03 1348.876 652.65302 9.2197031e-39
-2300.8401 3172.55 658.14502 9.2197031e-39
-2310.8201 3209.03 655.31598 9.2197031e-39
-2301.3999 3225.3899 650.87299 9.2197031e-39
-2371.73 3281.54 659.078 9.2197031e-39
-1156.0699 1250.697 665.72601 9.2197031e-39
-1159.37 1264.192 664.591 9.2197031e-39
-2314.52 3124 668.06702 9.2197031e-39
-2307.1101 3155.3101 661.99103 9.2197031e-39
-1370.05 1520.333 676.85498 9.2197031e-39
-2311.9299 3104.3999 670.21997 9.2197031e-39
230.929 -1172.89 688.22498 9.2197031e-39
-2332.0801 3057.4299 681.39899 9.2197031e-39
-2338.8101 3078.01 680.05499 9.2197031e-39
-2271.1101 2891.46 690.70898 9.2197031e-39
-2286.9099 2812.53 705.37299 9.2197031e-39
-2289.6699 2844.79 701.48602 9.2197031e-39
-2294.95 2863.8899 700.01801 9.2197031e-39
-2431.25 3047.23 705.48297 9.2197031e-39
-2343.28 2802.99 719.58698 9.2197031e-39
179.347 -1323.17 721.052 9.2197031e-39
-2350.7 2771.73 725.65997 9.2197031e-39
-2397.2 2759.52 737.99298 9.2197031e-39
-21.288 -1199.3101 749.54401 9.2197031e-39
-61.465302 -1198.02 758.54102 9.2197031e-39
-2933.52 3483.6899 759.11298 9.2197031e-39
-2984.77 3567.22 759.125 9.2197031e-39
-85.393204 -1203.48 764.77197 9.2197031e-39
-2977.45 3540.3999 761.20801 9.2197031e-39
-127.385 -1211.15 775.43903 9.2197031e-39
-150.377 -1209.36 780.44098 9.2197031e-39
76.933403 -1705.22 797.94397 9.2197031e-39
-215.241 -1211.11 795.505 9.2197031e-39
-192.71899 -1216.23 791.07703 9.2197031e-39
51.7202 -1698.78 802.80402 9.2197031e-39
-254.713 -1201.78 803.216 9.2197031e-39
2.74751 -1728.52 818.15601 9.2197031e-39
-280.427 -1211.65 810.47302 9.2197031e-39
-23.176399 -1726.51 823.79602 9.2197031e-39
-322.504 -1213.09 820.28699 9.2197031e-39
-67.056198 -1710.3401 831.55701 9.2197031e-39
-499.45999 -1130.28 849.117 9.2197031e-39
-516.63 -1106.23 849.672 9.2197031e-39
-542.39697 -1051.25 847.85999 9.2197031e-39
-557.35303 -1022.35 847.22998 9.2197031e-39
-585.34497 -979.33997 847.60303 9.2197031e-39
-414.37799 -1319.5 856.17499 9.2197031e-39
-430.92801 -1286.24 855.29999 9.2197031e-39
-459.12399 -1227.89 853.57001 9.2197031e-39
-473.88699 -1191.66 851.87 9.2197031e-39
-620.39801 -1014.61 860.54901 9.2197031e-39
-993.30402 -427.07996 863.47198 9.2197031e-39
-1008.75 -412.68994 864.98401 9.2197031e-39
-671.62 -1041.61 876.03101 9.2197031e-39
-701.11603 -1056.59 884.867 9.2197031e-39
-1149.8 -320.06201 884.237 9.2197031e-39
-432.81 -1587.3101 897.88599 9.2197031e-39
-749.90399 -1072.25 898.20502 9.2197031e-39
-2233.7 1352.129 897.71002 9.2197031e-39
-772.63098 -1066.33 902.56897 9.2197031e-39
-2221.4299 1300.704 902.10602 9.2197031e-39
-2242.98 1328.224 903.177 9.2197031e-39
-826.56299 -1092.86 918.604 9.2197031e-39
-2300.21 1363.401 911.32501 9.2197031e-39
-2359.1101 1420.2839 916.815 9.2197031e-39
-856.854 -1105.6 927.30798 9.2197031e-39
-2310.9199 1243.9099 930.50201 9.2197031e-39
-2411.8 1344.194 939.50702 9.2197031e-39
-2416.5901 1379.8311 935.61102 9.2197031e-39
-907.995 -1120.85 941.12701 9.2197031e-39
-1315.97 -478.45996 944.38 9.2197031e-39
-3608.6799 3291.5 940.26599 9.2197031e-39
-943.99298 -1145.58 952.81299 9.2197031e-39
-2414.03 1140.869 968.48602 9.2197031e-39
-2409.75 1165.0029 964.13 9.2197031e-39
-1004.44 -1179.42 971.362 9.2197031e-39
-2406.4099 1104.678 971.81403 9.2197031e-39
-1041.8 -1204.14 983.35901 9.2197031e-39
-2782.5 1447.814 1009.69 9.2197031e-39
-2792.6001 1467.994 1009.17 9.2197031e-39
-2787.73 1405.704 1016.78 9.2197031e-39
-2842.78 1494.958 1016.85 9.2197031e-39
-1711 -539.08997 1043.11 9.2197031e-39
-1729.5601 -524.33997 1045.29 9.2197031e-39
-1206.3 -1469.8301 1058.14 9.2197031e-39
-1580.88 -817.85999 1052.42 9.2197031e-39
-1647.87 -751.89001 1058.49 9.2197031e-39
-1617.61 -750.82996 1051.4301 9.2197031e-39
-1767.3101 -505.05005 1051.21 9.2197031e-39
-1785.67 -489.94995 1053.29 9.2197031e-39
-1613.42 -822.57996 1060.52 9.2197031e-39
-1828.6801 -476.71997 1061.26 9.2197031e-39
-1846.26 -460.47998 1063.01 9.2197031e-39
-1882.96 -438.94995 1068.38 9.2197031e-39
-1610.77 -994.47998 1083.98 9.2197031e-39
-1743.3 -813.35999 1088.9 9.2197031e-39
-1606.24 -1124.8101 1101.2 9.2197031e-39
-1890.83 -854.07996 1128.3 9.2197031e-39
-1855 -927.54004 1130.4 9.2197031e-39
-1464.39 -1981.4399 1188.74 9.2197031e-39
-1526.12 -1986.9399 1203.61 9.2197031e-39
-1557.8199 -1981.9099 1210.15 9.2197031e-39
-1620.9301 -1987.8401 1225.4 9.2197031e-39
-1657.53 -1991.76 1234.3101 9.2197031e-39
-2119.1399 -1213.39 1230.77 9.2197031e-39
-1717.37 -1988.4399 1247.51 9.2197031e-39
-1757.42 -1997.6399 1257.95 9.2197031e-39
-1914.35 -1986.72 1292.27 9.2197031e-39
-2065.55 -2006.8101 1329.63 9.2197031e-39
-2842.0901 -1528.3301 1440.03 9.2197031e-39
-5741.1802 3134.8201 1449.38 9.2197031e-39
-5735.8198 3093.8799 1453.88 9.2197031e-39
-5736.3101 3023.3101 1463.88 9.2197031e-39
-5744.8501 2983.97 1471.34 9.2197031e-39
-5757.75 2914.52 1484.01 9.2197031e-39
-5191.5601 1921.37 1493.73 9.2197031e-39
-5771.46 2875.3899 1492.62 9.2197031e-39
-5192.04 1856.41 1502.9301 9.2197031e-39
-5776.71 2764.72 1509.3199 9.2197031e-39
-5776.3501 2804.99 1503.6 9.2197031e-39
-5165.6699 1757.04 1510.8199 9.2197031e-39
-5204.02 1818.1801 1511.02 9.2197031e-39
-5281.7402 1951.64 1510.09 9.2197031e-39
-5768.6802 2693.6001 1517.4399 9.2197031e-39
-5190.52 1717.11 1522.09 9.2197031e-39
-5753.25 2582.3 1529.5 9.2197031e-39
-5760.54 2653.03 1521.26 9.2197031e-39
-5185.8701 1614.814 1535.35 9.2197031e-39
-5191.6099 1651.46 1531.53 9.2197031e-39
-5754.1699 2542.22 1535.3199 9.2197031e-39
-5188.6899 1548.584 1545.27 9.2197031e-39
-5742.98 2431.5801 1548.26 9.2197031e-39
-5744.6899 2471.6499 1543.04 9.2197031e-39
-5193.8301 1510.1799 1551.8199 9.2197031e-39
-5742.04 2361.24 1557.89 9.2197031e-39
-5182.6899 1407.86 1563.6 9.2197031e-39
-5190.6802 1444.377 1560.3199 9.2197031e-39
-5738.6602 2321.1899 1562.73 9.2197031e-39
-5182.1602 1303.218 1578.14 9.2197031e-39
-5181.25 1341.478 1572.5699 9.2197031e-39
-5733.4302 2210.8301 1576.99 9.2197031e-39
-5735.5498 2250.8701 1571.86 9.2197031e-39
-5176.6802 1237.182 1586.13 9.2197031e-39
-5727.1602 2140.6099 1585.39 9.2197031e-39
-5037.3198 952.34698 1594.1801 9.2197031e-39
-5178.7998 1198.384 1592.05 9.2197031e-39
-5732.1401 2100.26 1592.1801 9.2197031e-39
-5176.3999 1092.589 1606.3101 9.2197031e-39
-5179.71 1130.5391 1601.76 9.2197031e-39
-5725.0601 1989.8 1606.02 9.2197031e-39
-5729.5298 2029.79 1601.4399 9.2197031e-39
-5160.79 989.18201 1617.23 9.2197031e-39
-5165.71 1026.9299 1613.0699 9.2197031e-39
