# .PCD v0.7 - Point Cloud Data file format
VERSION 0.7
FIELDS x y z rgb
SIZE 4 4 4 4
TYPE F F F F
COUNT 1 1 1 1
WIDTH 312
HEIGHT 1
VIEWPOINT 0 0 0 1 0 0 0
POINTS 312
DATA ascii
2479.3799 1675.74 138.77901 9.2197031e-39
2483.8501 1693.29 134 9.2197031e-39
508.41852 1828.4951 139.21851 9.2197031e-39
511.414 1825.97 139.83 9.2197031e-39
507.46399 1831.115 138.539 9.2197031e-39
217.75999 1848.74 139.89101 9.2197031e-39
213.595 1851.14 139.338 9.2197031e-39
227.0755 1851.8149 138.87601 9.2197031e-39
233.39749 1856.1675 137.58075 9.2197031e-39
241.347 1859.0699 136.64 9.2197031e-39
226.35201 1860.33 136.618 9.2197031e-39
253.35699 1861.03 135.864 9.2197031e-39
-5289.3398 2302.1899 134.00101 9.2197031e-39
2484.9099 1639.3101 148.397 9.2197031e-39
2471.78 1658.55 143.53101 9.2197031e-39
485.18701 1797.62 147.953 9.2197031e-39
497.16101 1793.9166 148.69099 9.2197031e-39
502.32596 1795.8934 148.05467 9.2197031e-39
512.37164 1794.4933 148.21867 9.2197031e-39
505.11261 1803.6599 145.9222 9.2197031e-39
221.524 1817.5699 148.14 9.2197031e-39
489.827 1816.86 142.715 9.2197031e-39
494.60934 1813.5834 143.49133 9.2197031e-39
503.27267 1816.0267 142.65666 9.2197031e-39
521.66901 1816.12 142.24701 9.2197031e-39
224.0574 1824.9202 146.12399 9.2197031e-39
232.05249 1822.37 146.63699 9.2197031e-39
513.54846 1822.27 140.77376 9.2197031e-39
226.25426 1834.045 143.64075 9.2197031e-39
233.99025 1834.7725 143.28426 9.2197031e-39
212.67232 1845.7201 140.806 9.2197031e-39
226.39801 1842.7233 141.31902 9.2197031e-39
235.0825 1841.755 141.39551 9.2197031e-39
-5283.8799 2253.8301 146.80499 9.2197031e-39
2460.97 1606.116 157.765 9.2197031e-39
2459.1001 1624.1799 152.978 9.2197031e-39
496.21899 1788.92 150.045 9.2197031e-39
502.71701 1785.2849 150.8815 9.2197031e-39
-5278.98 2205.6499 159.57201 9.2197031e-39
2473.1201 1568.6121 167.52901 9.2197031e-39
2460.6899 1588.259 162.541 9.2197031e-39
2511.23 1526.4861 177.985 9.2197031e-39
2474.48 1550.332 172.384 9.2197031e-39
-5273.6499 2157.5898 172.3 9.2197031e-39
2543.52 1483.8469 188.69901 9.2197031e-39
2527.98 1505.234 183.311 9.2197031e-39
-5265.8701 2109.54 184.972 9.2197031e-39
2608.03 1453.2571 195.521 9.2197031e-39
-5265.6602 2061.9302 197.685 9.2197031e-39
-1161.1 1423.262 282.40399 9.2197031e-39
-814.888 1301.6011 307.659 9.2197031e-39
-875.16901 1311.949 306.15601 9.2197031e-39
-820.83197 1311.238 305.20901 9.2197031e-39
-816.73798 1325.4 301.34 9.2197031e-39
-793.81897 1261.8311 317.84201 9.2197031e-39
-800.10602 1271.2629 315.45401 9.2197031e-39
-804.53302 1281.6279 312.77802 9.2197031e-39
-809.755 1291.593 310.22501 9.2197031e-39
-780.83899 1217.496 329.41299 9.2197031e-39
-778.82202 1231.53 325.62201 9.2197031e-39
-797.10101 1247.4099 321.763 9.2197031e-39
-783.62402 1241.749 322.99301 9.2197031e-39
-1515.24 1305.234 321.34399 9.2197031e-39
-713.23901 1179.321 338.19699 9.2197031e-39
-762.909 1188.48 336.789 9.2197031e-39
-744.91199 1186.0491 337.06201 9.2197031e-39
-720.22699 1188.0081 336.022 9.2197031e-39
-768.97302 1198.1011 334.34601 9.2197031e-39
-774.94897 1207.7739 331.88699 9.2197031e-39
-708.67499 1169.106 340.82999 9.2197031e-39
-1348.9301 1190.283 348.57001 9.2197031e-39
-1300.3101 1192.6799 346.91299 9.2197031e-39
-747.495 1102.714 359.37701 9.2197031e-39
-745.28802 1118.212 355.19101 9.2197031e-39
-750.33099 1128.7681 352.47699 9.2197031e-39
-1285.1 1148.9651 358.272 9.2197031e-39
-1293.36 1162.2271 354.90201 9.2197031e-39
-1575.05 1177.9241 356.604 9.2197031e-39
-1299.66 1176.325 351.26801 9.2197031e-39
-1513.55 1181.339 354.40399 9.2197031e-39
-1457.86 1183.675 352.61499 9.2197031e-39
-1405.15 1185.8411 350.93301 9.2197031e-39
-736.09497 1067.691 368.495 9.2197031e-39
-734.37097 1083.323 364.28299 9.2197031e-39
-741.38397 1092.713 361.92099 9.2197031e-39
-1815.6899 1155.96 367.50601 9.2197031e-39
-1725.11 1165.312 363.11301 9.2197031e-39
-1649.95 1171.011 360.017 9.2197031e-39
-734.19598 1039.679 375.93799 9.2197031e-39
-726.70502 1030.349 378.27301 9.2197031e-39
-734.43298 1054.288 372.04001 9.2197031e-39
-1939.85 1137.713 374.978 9.2197031e-39
-1998.77 1141.406 375.22501 9.2197031e-39
-722.20099 988.034 389.483 9.2197031e-39
-723.87402 1002.179 385.73901 9.2197031e-39
-725.375 1016.285 382.00201 9.2197031e-39
-699.58899 959.28296 396.69 9.2197031e-39
-714.547 962.75903 396.07401 9.2197031e-39
-714.245 978.80396 391.78201 9.2197031e-39
-984.12 699.96863 471.91501 9.2197031e-39
3039.6699 306.11301 492.92599 9.2197031e-39
3038.6599 245.048 509.259 9.2197031e-39
3043.6101 273.10101 501.66199 9.2197031e-39
3041 212.272 517.966 9.2197031e-39
3043.8 178.80801 526.84698 9.2197031e-39
-1189.9 500.258 529.57001 9.2197031e-39
-1152.51 509.21399 526.39502 9.2197031e-39
3042.02 147.85199 535.15302 9.2197031e-39
-1154.05 483.86499 533.198 9.2197031e-39
3042.3799 115.17499 543.875 9.2197031e-39
2610.5601 136.539 547.20398 9.2197031e-39
2526.74 141.108 547.737 9.2197031e-39
2552.1899 151.34201 544.47101 9.2197031e-39
3048.1201 78.521973 553.54602 9.2197031e-39
2493.3 107.06799 557.53003 9.2197031e-39
2511.25 123.078 552.87799 9.2197031e-39
-1221.77 397.354 557.72498 9.2197031e-39
3048.48 44.979004 562.49799 9.2197031e-39
2471.3 63.367004 569.664 9.2197031e-39
2482.04 85.508972 563.52502 9.2197031e-39
3046.8101 12.424988 571.22998 9.2197031e-39
2466.29 36.088989 577.05603 9.2197031e-39
2783.8701 36.08197 570.41199 9.2197031e-39
3052.8601 -25.932007 581.349 9.2197031e-39
3047.47 -91.690002 599.02802 9.2197031e-39
3049.55 -58.185974 590.034 9.2197031e-39
-858.81299 218.647 597.86798 9.2197031e-39
-838.69397 215.32599 598.33502 9.2197031e-39
-796.87402 211.707 598.42603 9.2197031e-39
-879.55902 221.40799 597.565 9.2197031e-39
-1011.23 235.29501 596.60999 9.2197031e-39
-935.31201 239.40399 593.92401 9.2197031e-39
-1183.72 245.689 597.44299 9.2197031e-39
-1077.8101 245.58701 595.25403 9.2197031e-39
-982.66101 240.108 594.72699 9.2197031e-39
-1348.99 252.689 599.03198 9.2197031e-39
-1315.14 256.40701 597.33002 9.2197031e-39
-1285.72 256.483 596.69397 9.2197031e-39
-1263.4301 250.05701 597.94397 9.2197031e-39
-1206.53 250.54901 596.62201 9.2197031e-39
-1146.13 256.72699 593.70801 9.2197031e-39
-1116.86 259.677 592.30798 9.2197031e-39
-1045.65 253.147 592.56201 9.2197031e-39
-1020.78 253.00101 592.08002 9.2197031e-39
-1219.6801 265.379 592.93597 9.2197031e-39
-1085.79 265.16501 590.19098 9.2197031e-39
3044.1899 -124.711 607.91803 9.2197031e-39
2534.4299 -89.953979 609.29999 9.2197031e-39
2535.5901 -57.333984 600.56201 9.2197031e-39
-824.32098 204.31699 600.97498 9.2197031e-39
2519.77 -110.69598 615.14801 9.2197031e-39
-808.61603 163.457 611.56097 9.2197031e-39
2524.3601 -149.50299 625.41803 9.2197031e-39
-831.65698 97.184998 629.74597 9.2197031e-39
2524.8401 -185.13702 634.927 9.2197031e-39
-1012.41 80.36499 638.02197 9.2197031e-39
-854.12799 29.583984 648.27502 9.2197031e-39
-1108.05 58.119019 645.966 9.2197031e-39
-1049.1 66.172974 642.58099 9.2197031e-39
-843.38599 10.283997 653.20599 9.2197031e-39
2596.45 -290.091 661.46503 9.2197031e-39
2619.24 -350.11499 677.02197 9.2197031e-39
2604.1899 -373.75897 683.65302 9.2197031e-39
2738.1799 -591.44995 739 9.2197031e-39
2762.1799 -573.62 733.73499 9.2197031e-39
2044.8199 -531.93005 737.61102 9.2197031e-39
2075.9399 -531.40002 736.81702 9.2197031e-39
2139.0901 -530.07996 735.14502 9.2197031e-39
2177.04 -537.12 736.23102 9.2197031e-39
2011.05 -528.08997 737.28998 9.2197031e-39
2102.5601 -524.18005 734.33197 9.2197031e-39
2636.1001 -611.69995 746.547 9.2197031e-39
2714.72 -609.77002 744.38599 9.2197031e-39
2664.9299 -599.81995 742.77002 9.2197031e-39
1975.41 -566.57996 748.31799 9.2197031e-39
2228.3799 -560.81995 741.48602 9.2197031e-39
1993.89 -548.19995 743.02301 9.2197031e-39
2587.4399 -644.87 756.42603 9.2197031e-39
2610.52 -626.93994 751.15198 9.2197031e-39
1932.03 -593.85999 756.513 9.2197031e-39
1954.05 -580.71997 752.54303 9.2197031e-39
2551.03 -692.08997 769.80103 9.2197031e-39
2562.9099 -661.12 761.28003 9.2197031e-39
1895.3 -632.07996 767.492 9.2197031e-39
1913 -611.79004 761.70099 9.2197031e-39
1898.95 -688.29004 782.43103 9.2197031e-39
-952.27399 -507.03003 793.67603 9.2197031e-39
1925.95 -785.98999 807.966 9.2197031e-39
-1008.36 -556.43005 808.04498 9.2197031e-39
1908.9 -810.71997 814.92902 9.2197031e-39
306.32599 -852.06995 859.50897 9.2197031e-39
379.79199 -853.17004 858.26501 9.2197031e-39
330.98499 -841.05005 856.04999 9.2197031e-39
355.32401 -849.15002 857.70203 9.2197031e-39
404.16501 -843.45996 855.16199 9.2197031e-39
428.60599 -845.14001 855.099 9.2197031e-39
453.077 -846.60999 854.98102 9.2197031e-39
1596.1 -980.68005 866.87701 9.2197031e-39
1628.3199 -985.52002 867.49298 9.2197031e-39
504.62299 -901.06995 868.448 9.2197031e-39
479.284 -891.32996 866.37799 9.2197031e-39
281.42999 -863.83997 863.17499 9.2197031e-39
1399.0699 -1002.8199 876.91302 9.2197031e-39
1516.76 -1004.88 874.99902 9.2197031e-39
1115.02 -990.84998 879.659 9.2197031e-39
1142.97 -993.03003 879.65601 9.2197031e-39
1170.75 -994.02002 879.33899 9.2197031e-39
1227.09 -997.09998 878.98297 9.2197031e-39
1309.5 -991.46997 875.75598 9.2197031e-39
1368.11 -996.57996 875.89203 9.2197031e-39
1426.17 -997.82996 875.01202 9.2197031e-39
1542.9 -996.14001 872.11902 9.2197031e-39
1196.45 -987.30005 877.00702 9.2197031e-39
1252.52 -988.97998 876.28198 9.2197031e-39
1279.9399 -987.12 875.21198 9.2197031e-39
1335.48 -984.51001 873.35101 9.2197031e-39
1008 -996.64001 883.44501 9.2197031e-39
1033.73 -991.30005 881.47998 9.2197031e-39
1061.6899 -995.16003 881.92499 9.2197031e-39
1089.29 -996.88 881.80798 9.2197031e-39
979.58801 -989.44995 882.12 9.2197031e-39
532.35699 -949.18005 880.71997 9.2197031e-39
1520.21 -1089.47 897.52399 9.2197031e-39
1506.35 -1132.53 909.31598 9.2197031e-39
-610.47601 -1000.27 918.28198 9.2197031e-39
-553.53601 -1001.01 917.28802 9.2197031e-39
-572.94202 -973.68994 910.39502 9.2197031e-39
787.67902 -1129.76 923.61603 9.2197031e-39
-536.604 -1037.46 926.66901 9.2197031e-39
-644.04797 -1013.65 922.55902 9.2197031e-39
3055.3401 -1338.4 931.89801 9.2197031e-39
1846.66 -1252.38 934.21198 9.2197031e-39
994.74902 -1194.54 936.58801 9.2197031e-39
-518.52197 -1071.98 935.51501 9.2197031e-39
-719.94397 -1060.22 936.58801 9.2197031e-39
-778.99799 -1057.3199 937.04797 9.2197031e-39
-682.90198 -1040.33 930.5 9.2197031e-39
-741.79901 -1039.02 931.38098 9.2197031e-39
3058.98 -1400.15 948.31799 9.2197031e-39
-501.79599 -1112.92 946.10101 9.2197031e-39
-856.875 -1098.0601 949.55902 9.2197031e-39
-815.52399 -1072.52 941.87201 9.2197031e-39
1929.92 -1353.92 959.59497 9.2197031e-39
-483.34201 -1150.09 955.64203 9.2197031e-39
-893.46399 -1110.63 953.68402 9.2197031e-39
3061.7 -1462.2 964.836 9.2197031e-39
578.58099 -1262.26 963.38702 9.2197031e-39
-40.143398 -1231.3101 968.06403 9.2197031e-39
-12.6783 -1238.64 969.448 9.2197031e-39
-210.28 -1222.48 969.26703 9.2197031e-39
-181.72301 -1223.61 968.96997 9.2197031e-39
-153.839 -1228.3 969.64001 9.2197031e-39
-125.149 -1227.99 968.95599 9.2197031e-39
-96.217903 -1225.51 967.69098 9.2197031e-39
-68.052597 -1227.5699 967.651 9.2197031e-39
-468.89001 -1203.95 969.729 9.2197031e-39
-971.565 -1143.4399 964.08398 9.2197031e-39
-937.745 -1139.6899 962.37402 9.2197031e-39
-297.32101 -1223.28 971.30103 9.2197031e-39
-268.25201 -1223.27 970.69 9.2197031e-39
-240.36501 -1228.6899 971.55499 9.2197031e-39
-1015.65 -1168.89 971.80499 9.2197031e-39
3064.1201 -1525.3101 981.64203 9.2197031e-39
-452.293 -1253.13 982.51898 9.2197031e-39
-1110.13 -1227.85 989.53003 9.2197031e-39
-1061.54 -1196.46 980.12903 9.2197031e-39
3061.98 -1584.05 997.38098 9.2197031e-39
-434.634 -1301.33 995.02399 9.2197031e-39
806.51099 -1485.05 1018.13 9.2197031e-39
-9.46451 -1457.8301 1027.9301 9.2197031e-39
976.75598 -1576.79 1039.08 9.2197031e-39
1008.79 -1577.4299 1038.58 9.2197031e-39
1040.14 -1573.99 1037 9.2197031e-39
942.38898 -1561.5601 1035.73 9.2197031e-39
19.504 -1470.6799 1030.76 9.2197031e-39
49.415501 -1475.6001 1031.45 9.2197031e-39
79.638603 -1477.3799 1031.29 9.2197031e-39
110.017 -1476.98 1030.55 9.2197031e-39
-438.29199 -1439.6001 1032.04 9.2197031e-39
2376.51 -1694.8701 1041.33 9.2197031e-39
133.62399 -1573.6499 1055.88 9.2197031e-39
225.70599 -1603.1001 1061.8199 9.2197031e-39
-404.349 -1567.1299 1065.39 9.2197031e-39
2366.6001 -1907.6299 1098.37 9.2197031e-39
2405.55 -1900.28 1095.59 9.2197031e-39
2448.29 -1899.3799 1094.46 9.2197031e-39
2250.3 -1928.3401 1106.34 9.2197031e-39
2288.3101 -1920.3601 1103.41 9.2197031e-39
2331.25 -1921.54 1102.8199 9.2197031e-39
968.79602 -1929.3101 1133.41 9.2197031e-39
179.698 -1890.02 1139.4301 9.2197031e-39
146.59599 -1875.55 1136.25 9.2197031e-39
694.43903 -1962.79 1148.09 9.2197031e-39
728.922 -1960.1001 1146.65 9.2197031e-39
659.27502 -1956.51 1147.15 9.2197031e-39
797.698 -1952.8799 1143.29 9.2197031e-39
833.12903 -1957.96 1143.9 9.2197031e-39
937.862 -1956.04 1141.2 9.2197031e-39
762.29199 -1946.53 1142.33 9.2197031e-39
-533.17999 -1975.22 1177.1 9.2197031e-39
-1477.1899 -1905.8201 1178.3199 9.2197031e-39
-1595.62 -1972.1599 1198.52 9.2197031e-39
-1679.84 -1966.29 1198.71 9.2197031e-39
-1633.84 -1962.1299 1196.64 9.2197031e-39
-1549.96 -1967.1001 1196.21 9.2197031e-39
-2008.51 -1982.4299 1209.9 9.2197031e-39
-1917.17 -1986.4199 1209.0601 9.2197031e-39
-1870.5 -1985.6001 1207.86 9.2197031e-39
-2050.5 -1973.55 1208.41 9.2197031e-39
-1954.9399 -1971.78 1205.9399 9.2197031e-39
-1727.9301 -1973.3799 1201.61 9.2197031e-39
-2100.4199 -1976.53 1210.25 9.2197031e-39
