# .PCD v0.7 - Point Cloud Data file format
VERSION 0.7
FIELDS x y z rgb
SIZE 4 4 4 4
TYPE F F F F
COUNT 1 1 1 1
WIDTH 317
HEIGHT 1
VIEWPOINT 0 0 0 1 0 0 0
POINTS 317
DATA ascii
2476.26 1607.188 138.77299 9.2197031e-39
2466.48 1625.3201 134.092 9.2197031e-39
525.56403 1728.86 139.77 9.2197031e-39
497.595 1736.77 138.138 9.2197031e-39
504.013 1733.24 138.9705 9.2197031e-39
217.42 1748.51 139.815 9.2197031e-39
216.173 1751.655 138.994 9.2197031e-39
226.13449 1752.8 138.517 9.2197031e-39
233.18201 1756.92 137.29449 9.2197031e-39
211.855 1761.33 136.481 9.2197031e-39
239.854 1760.12 136.323 9.2197031e-39
-5279.4502 2124.5601 133.754 9.2197031e-39
2479.3101 1571.15 148.35699 9.2197031e-39
2478.8301 1588.7629 143.655 9.2197031e-39
489.45099 1695.26 149.377 9.2197031e-39
492.92932 1697.4434 148.73366 9.2197031e-39
505.3497 1695.4401 149.056 9.2197031e-39
514.69873 1695.8625 148.78125 9.2197031e-39
480.896 1702.34 147.631 9.2197031e-39
498.33249 1709.9 145.308 9.2197031e-39
504.995 1703.95 146.787 9.2197031e-39
516.56598 1700.58 147.489 9.2197031e-39
213.88901 1715.5699 148.68401 9.2197031e-39
489.995 1717.27 143.483 9.2197031e-39
494.94379 1716.918 143.491 9.2197031e-39
502.9295 1716.425 143.4855 9.2197031e-39
521.01898 1718.91 142.509 9.2197031e-39
208.71899 1722.79 146.842 9.2197031e-39
213.7415 1723.3301 146.61099 9.2197031e-39
222.3465 1723.995 146.28476 9.2197031e-39
231.696 1722.02 146.653 9.2197031e-39
501.72766 1721.7733 142.076 9.2197031e-39
515.69299 1724.7533 141.03932 9.2197031e-39
524.216 1723.1434 141.32268 9.2197031e-39
226.6505 1734.7567 143.33232 9.2197031e-39
233.52301 1737.5901 142.457 9.2197031e-39
214.36067 1745.6333 140.63499 9.2197031e-39
225.17151 1742.375 141.32101 9.2197031e-39
231.104 1743.135 141.0155 9.2197031e-39
-5274.3701 2075.5698 146.76601 9.2197031e-39
2475.73 1535.606 157.923 9.2197031e-39
2489.5 1551.8511 153.342 9.2197031e-39
494.069 1691.35 150.34399 9.2197031e-39
-1983.97 1832.64 155.16 9.2197031e-39
-4633.4702 1998.3199 156.403 9.2197031e-39
2510.21 1495.3369 168.09801 9.2197031e-39
2496.5 1514.8779 163.108 9.2197031e-39
-1992.73 1793.0699 165.892 9.2197031e-39
-1962.45 1811.9301 160.327 9.2197031e-39
-4654.25 1956.0699 168.05901 9.2197031e-39
2574.5601 1449.5171 179.244 9.2197031e-39
2530.5601 1473.931 173.472 9.2197031e-39
2703.1899 1410.8889 187.36099 9.2197031e-39
3010.24 1319.224 206.59399 9.2197031e-39
3004.22 1343.488 200.209 9.2197031e-39
-795.62402 1300.936 276.909 9.2197031e-39
-799.98102 1252.381 289.96701 9.2197031e-39
-805.39697 1261.6951 287.57001 9.2197031e-39
-898.92902 1272.391 286.31699 9.2197031e-39
-809.07202 1272.207 284.82199 9.2197031e-39
-813.39899 1281.9829 282.28201 9.2197031e-39
-786.48199 1222.327 297.771 9.2197031e-39
-792.34003 1231.8879 295.31601 9.2197031e-39
-797.02399 1241.5281 292.81799 9.2197031e-39
-773.22601 1180.022 308.85599 9.2197031e-39
-771.47101 1193.4141 305.245 9.2197031e-39
-776.495 1202.885 302.798 9.2197031e-39
-781.62903 1212.7729 300.24301 9.2197031e-39
-714.78699 1149.9971 315.88 9.2197031e-39
-718.46301 1159.959 313.27899 9.2197031e-39
-757.22803 1163.5901 312.97501 9.2197031e-39
-724.86298 1168.881 311.00299 9.2197031e-39
-766.23999 1171.49 311.017 9.2197031e-39
-1300.4 1182.37 317.29001 9.2197031e-39
-748.724 1105.259 328.42599 9.2197031e-39
-1287.8 1139.156 328.629 9.2197031e-39
-725.37299 1131.314 321.05701 9.2197031e-39
-1293.3 1152.9 325.048 9.2197031e-39
-1634.39 1161.192 328.69501 9.2197031e-39
-1303.58 1165.567 321.83801 9.2197031e-39
-1535.49 1172.7471 323.905 9.2197031e-39
-1488.41 1170.2639 323.759 9.2197031e-39
-1411.9 1177.522 320.50299 9.2197031e-39
-1371.72 1174.542 320.60901 9.2197031e-39
-738.72803 1071.744 337.216 9.2197031e-39
-744.22601 1081.832 334.61301 9.2197031e-39
-743.45099 1095.146 331.039 9.2197031e-39
-735.35303 1033.752 347.31699 9.2197031e-39
-734.32703 1047.76 343.55399 9.2197031e-39
-740.88898 1057.298 341.116 9.2197031e-39
-720.32397 988.29401 359.21399 9.2197031e-39
-719.07098 1002.994 355.26199 9.2197031e-39
-728.48901 1010.734 353.354 9.2197031e-39
-730.21399 1023.162 350.06 9.2197031e-39
-705.07001 956.021 367.58099 9.2197031e-39
-714.85797 963.56299 365.733 9.2197031e-39
-721.91901 972.58301 363.44199 9.2197031e-39
-799.67798 869.505 392.34201 9.2197031e-39
3047.25 220.82001 499.668 9.2197031e-39
3041.3101 255.05301 490.616 9.2197031e-39
-1178.3101 493.285 499.45099 9.2197031e-39
3033.6201 198.78799 505.79401 9.2197031e-39
-1144.5699 476.19598 503.44 9.2197031e-39
-1273.51 485.02899 503.29501 9.2197031e-39
-1157.46 487.54602 500.62701 9.2197031e-39
3036.28 165.82101 514.56299 9.2197031e-39
3038.26 134.07401 523.01801 9.2197031e-39
3040.1399 100.78802 531.88599 9.2197031e-39
2524.54 120.86301 535.38202 9.2197031e-39
2550.79 129.79999 532.54102 9.2197031e-39
2595.95 126.30301 532.69897 9.2197031e-39
3039.1201 37.30603 548.87903 9.2197031e-39
3038.8501 70.335999 540.05103 9.2197031e-39
2489.3201 89.171997 544.461 9.2197031e-39
2512.5701 100.04199 541.15503 9.2197031e-39
3039.6001 5.0089722 557.50702 9.2197031e-39
2469.6899 45.049988 556.59698 9.2197031e-39
2742.77 49.192017 550.79498 9.2197031e-39
2480.8701 65.512024 550.93298 9.2197031e-39
-861.32202 247.418 559.74597 9.2197031e-39
-816.23602 249.07101 558.52899 9.2197031e-39
-777.48199 243.992 559.22101 9.2197031e-39
-837.466 250.21799 558.58698 9.2197031e-39
-792.039 253.19101 557.01099 9.2197031e-39
-752.33398 250.17899 557.13397 9.2197031e-39
3047.3201 -33.802979 567.75201 9.2197031e-39
2465.29 17.656982 563.99701 9.2197031e-39
-1093.34 228.453 568.80603 9.2197031e-39
-1196.4301 231.64401 569.724 9.2197031e-39
-1113.0601 234.32999 567.573 9.2197031e-39
-1058.36 238.034 565.64203 9.2197031e-39
-1038.8 232.70999 566.729 9.2197031e-39
-1008.21 238.755 564.58698 9.2197031e-39
-963.67297 234.802 564.87903 9.2197031e-39
-937.323 238.62299 563.40399 9.2197031e-39
-915.64899 236.367 563.63501 9.2197031e-39
-745.80499 230.29401 562.33899 9.2197031e-39
-980.32001 243.45099 562.85199 9.2197031e-39
-888.341 242.30301 561.578 9.2197031e-39
-1378.04 251.14401 567.63202 9.2197031e-39
3046.98 -66.424988 576.48102 9.2197031e-39
-750.32001 195.69601 571.66803 9.2197031e-39
-1240.4 215.48499 574.80103 9.2197031e-39
-1374.13 228.26401 573.68298 9.2197031e-39
-1349.64 222.45499 574.815 9.2197031e-39
-1314.83 227.41599 572.89001 9.2197031e-39
-1291.23 221.621 574.034 9.2197031e-39
-1261.05 223.37799 573.04602 9.2197031e-39
-1173.89 226.48599 570.716 9.2197031e-39
-1147.09 226.97198 570.125 9.2197031e-39
3044.8 -99.474976 585.35602 9.2197031e-39
-754.86102 158.94501 581.573 9.2197031e-39
-1618.85 189.46201 588.26501 9.2197031e-39
3050.96 -137.47998 595.41199 9.2197031e-39
2543.6299 -111.98199 597.31598 9.2197031e-39
2562.96 -95.203003 592.49701 9.2197031e-39
2529.27 -131.776 602.85498 9.2197031e-39
2519.04 -189.63898 618.50403 9.2197031e-39
2530.26 -166.60901 612.15302 9.2197031e-39
-836.77502 9.9949951 622.81 9.2197031e-39
-851.64801 -46.387024 638.14203 9.2197031e-39
2607.5901 -306.289 648.17297 9.2197031e-39
2598.6299 -333.41901 655.58197 9.2197031e-39
2589.3201 -361.95099 663.37097 9.2197031e-39
2593.1299 -402.13 674.04901 9.2197031e-39
2090.3601 -540.72998 719.75299 9.2197031e-39
2121.8999 -541.31006 719.367 9.2197031e-39
2716.96 -603.29004 725.711 9.2197031e-39
2750.3301 -596.34998 723.28101 9.2197031e-39
2257.01 -587.13 729.29498 9.2197031e-39
2209.26 -570.06995 725.55603 9.2197031e-39
1980.77 -560.04004 726.802 9.2197031e-39
2004.6 -551.51001 724.11102 9.2197031e-39
2034.92 -550.16003 723.229 9.2197031e-39
2161.5801 -550.26001 721.07703 9.2197031e-39
2058.74 -541.13 720.40399 9.2197031e-39
2598.4299 -646.04004 739.17902 9.2197031e-39
2625.6599 -634.05005 735.505 9.2197031e-39
2699.3301 -627.52002 732.49103 9.2197031e-39
2648.2 -615.35999 730.12097 9.2197031e-39
1919.27 -603.27002 739.41803 9.2197031e-39
1944.17 -594.81995 736.73102 9.2197031e-39
1963.8101 -580.18005 732.47803 9.2197031e-39
2553.49 -681.62 749.466 9.2197031e-39
2578.9299 -667.92004 745.36603 9.2197031e-39
1902.5699 -622.48999 744.84399 9.2197031e-39
2527.76 -696.51001 753.89001 9.2197031e-39
1890.01 -650.35999 752.51202 9.2197031e-39
-958.67102 -495.01001 759.94202 9.2197031e-39
1884.6 -688.51001 762.80701 9.2197031e-39
-946.54102 -521.57996 766.83899 9.2197031e-39
1909.67 -779.83997 786.79797 9.2197031e-39
1909.63 -830.16003 800.25299 9.2197031e-39
389.383 -843.02002 829.82599 9.2197031e-39
554.57202 -841.48999 826.57599 9.2197031e-39
272.57001 -833.19995 829.20801 9.2197031e-39
342.423 -836.01001 828.758 9.2197031e-39
366.33099 -835.27002 828.14899 9.2197031e-39
413.285 -838.97998 828.33502 9.2197031e-39
436.306 -838.62 827.84198 9.2197031e-39
460.09399 -834.17004 826.245 9.2197031e-39
483.19699 -836.31995 826.42102 9.2197031e-39
506.89001 -831.47998 824.71899 9.2197031e-39
530.25702 -837.08997 825.81799 9.2197031e-39
248.02 -846.64001 833.224 9.2197031e-39
319.33301 -840.43005 830.336 9.2197031e-39
295.44199 -837.85999 830.06201 9.2197031e-39
1633.4 -996.04004 849.35602 9.2197031e-39
1421.46 -973.32996 846.92902 9.2197031e-39
1351.85 -1010.4399 858.04797 9.2197031e-39
1184.4301 -1000.83 858.35699 9.2197031e-39
1239.37 -1003.53 858.13397 9.2197031e-39
1266.1801 -1003.72 857.724 9.2197031e-39
1295.26 -1007.05 858.11499 9.2197031e-39
1321.91 -1005.8199 857.32703 9.2197031e-39
1578.05 -1004.25 852.50403 9.2197031e-39
1605.63 -1001.36 851.25702 9.2197031e-39
1375.3199 -999.57996 854.73999 9.2197031e-39
1400.99 -991.83997 852.229 9.2197031e-39
1517.1899 -997.96997 851.87201 9.2197031e-39
587.19702 -959.43005 857.552 9.2197031e-39
1510.4301 -1053.5601 866.85303 9.2197031e-39
1080.22 -1010.27 862.672 9.2197031e-39
1214.2 -1011.72 860.75702 9.2197031e-39
974.43298 -1007.54 863.76099 9.2197031e-39
998.90503 -1002.54 862.00299 9.2197031e-39
1026.53 -1006.55 862.59998 9.2197031e-39
1052.85 -1008.64 862.70599 9.2197031e-39
1104.96 -1005.33 860.92499 9.2197031e-39
1132.4301 -1006.48 860.76001 9.2197031e-39
1159.54 -1009.49 861.09998 9.2197031e-39
1512.67 -1131.48 887.64899 9.2197031e-39
779.51898 -1083.84 887.51398 9.2197031e-39
-565.70398 -1005.66 889.73401 9.2197031e-39
-617.88501 -995.65002 887.95398 9.2197031e-39
-586.078 -982.78003 883.966 9.2197031e-39
211.45399 -1089.46 898.78101 9.2197031e-39
-551.39203 -1044.66 899.91699 9.2197031e-39
-662.008 -1037.85 899.99597 9.2197031e-39
-531.94397 -1072.86 907.12299 9.2197031e-39
-730.03802 -1064.97 908.41803 9.2197031e-39
-696.39502 -1054.48 905.03497 9.2197031e-39
3032.4299 -1323.75 912.93597 9.2197031e-39
984.63599 -1183.12 910.53497 9.2197031e-39
-516.75702 -1112.6801 917.51001 9.2197031e-39
-831.00299 -1095.96 918.43903 9.2197031e-39
-790.914 -1070.01 910.81097 9.2197031e-39
-761.89001 -1072.78 911.052 9.2197031e-39
3026.26 -1372.61 926.10699 9.2197031e-39
2162.4399 -1318.0601 926.37 9.2197031e-39
-495.21201 -1136.98 923.63702 9.2197031e-39
-901.69501 -1118.54 925.69397 9.2197031e-39
-865.35797 -1104.12 921.21301 9.2197031e-39
-478.06799 -1173.88 933.20697 9.2197031e-39
-984.57703 -1163.37 939.10498 9.2197031e-39
-944.98901 -1144.52 933.383 9.2197031e-39
3056.3401 -1463.72 949.95203 9.2197031e-39
-208.903 -1230.42 943.70001 9.2197031e-39
-153.748 -1234.23 943.77002 9.2197031e-39
-97.598 -1230.4 941.78198 9.2197031e-39
-70.025101 -1234.41 942.38 9.2197031e-39
-43.4655 -1238.05 942.89502 9.2197031e-39
-15.2127 -1236.8 942.07599 9.2197031e-39
-321.242 -1228.4301 945.09998 9.2197031e-39
-290.95499 -1222.09 942.88397 9.2197031e-39
-235.395 -1225.42 942.81799 9.2197031e-39
-178.528 -1220.1801 940.43903 9.2197031e-39
-124.09 -1226.3199 941.14697 9.2197031e-39
-460.33401 -1214.7 943.81897 9.2197031e-39
-262.88501 -1219.99 941.83899 9.2197031e-39
-1026.87 -1183.95 945.33502 9.2197031e-39
-445.987 -1266.39 957.39398 9.2197031e-39
-1114.9 -1230.1801 959.21002 9.2197031e-39
-1067.35 -1201.88 950.82703 9.2197031e-39
3059.6001 -1526.8101 966.76599 9.2197031e-39
-427.039 -1308.03 968.20203 9.2197031e-39
802.38202 -1450.4099 985.14099 9.2197031e-39
-417.85599 -1386.85 989.12 9.2197031e-39
12.8672 -1481.1799 1006.94 9.2197031e-39
71.504097 -1486.9399 1007.47 9.2197031e-39
100.369 -1488.4399 1007.38 9.2197031e-39
-16.9776 -1477.8701 1006.57 9.2197031e-39
1038.3101 -1586.7 1017.53 9.2197031e-39
129.03 -1508.0901 1012.14 9.2197031e-39
40.5401 -1494.7 1010.08 9.2197031e-39
1010.93 -1610.25 1024.3 9.2197031e-39
925.80902 -1660.1899 1039.11 9.2197031e-39
990.23297 -1665.78 1039.5 9.2197031e-39
970 -1736.6599 1058.8 9.2197031e-39
2308.54 -1934.48 1088.6899 9.2197031e-39
2349.4199 -1933.9199 1087.83 9.2197031e-39
2432.3601 -1930.05 1085.37 9.2197031e-39
2222.4099 -1928.04 1088.45 9.2197031e-39
2390.3101 -1929.73 1086.01 9.2197031e-39
2469.5601 -1918.24 1081.58 9.2197031e-39
141.34599 -1768.4099 1081.54 9.2197031e-39
2270.0801 -1942.1899 1091.41 9.2197031e-39
2186.3 -1939.3101 1092.08 9.2197031e-39
836.099 -1946.9399 1117.33 9.2197031e-39
703.35101 -1975.26 1127.1899 9.2197031e-39
736.41498 -1972.5 1125.88 9.2197031e-39
771.065 -1972.23 1125.21 9.2197031e-39
804.76898 -1974.6699 1125.28 9.2197031e-39
940.23297 -1964.01 1120.11 9.2197031e-39
-531.31403 -1986.8301 1151.5 9.2197031e-39
-1508.96 -1942.54 1156.47 9.2197031e-39
-1658.08 -1982.73 1169.78 9.2197031e-39
-1571.67 -1981.28 1167.91 9.2197031e-39
-1609.36 -1973.54 1166.48 9.2197031e-39
-2025.03 -1994.28 1179.17 9.2197031e-39
-1975.3199 -1990.9099 1177.42 9.2197031e-39
-1882.98 -1990.1299 1175.62 9.2197031e-39
-2065.1899 -1984.8201 1177.33 9.2197031e-39
-1927.6801 -1987.0701 1175.5699 9.2197031e-39
-1745.62 -1983.24 1171.42 9.2197031e-39
-1700.17 -1981.8501 1170.27 9.2197031e-39
-2118.51 -1992.02 1180.1801 9.2197031e-39
