# .PCD v0.7 - Point Cloud Data file format
VERSION 0.7
FIELDS x y z rgb
SIZE 4 4 4 4
TYPE F F F F
COUNT 1 1 1 1
WIDTH 314
HEIGHT 1
VIEWPOINT 0 0 0 1 0 0 0
POINTS 314
DATA ascii
2487.6101 1547.8091 138.802 9.2197031e-39
2481.74 1566.1011 134 9.2197031e-39
495.327 1661.9301 139.34399 9.2197031e-39
505.35599 1661.01 139.43201 9.2197031e-39
513.36499 1661.9467 139.058 9.2197031e-39
219.75999 1679.41 138.966 9.2197031e-39
221.411 1677.6799 139.403 9.2197031e-39
218.38699 1686.8199 137.005 9.2197031e-39
225.51199 1684.1179 137.61661 9.2197031e-39
233.3875 1687.0649 136.705 9.2197031e-39
-1948.79 1804.8199 139.23599 9.2197031e-39
-1968.7 1825.55 134 9.2197031e-39
2480.8899 1512.405 148.377 9.2197031e-39
2479.3401 1530.459 143.57201 9.2197031e-39
482.62701 1628.6699 148.438 9.2197031e-39
494.16 1626.35 148.88 9.2197031e-39
503.93765 1625.8099 148.87033 9.2197031e-39
517.70099 1623.04 149.397 9.2197031e-39
464.54099 1637.05 146.48 9.2197031e-39
486.901 1630.3101 147.933 9.2197031e-39
498.65466 1635.7833 146.28699 9.2197031e-39
504.22928 1635.0901 146.38451 9.2197031e-39
211.37 1646.7867 147.82201 9.2197031e-39
223.32201 1649.64 146.873 9.2197031e-39
495.47656 1645.402 143.7626 9.2197031e-39
500.04099 1648.86 142.76601 9.2197031e-39
217.65666 1653.8799 145.82767 9.2197031e-39
223.42134 1658.2367 144.57166 9.2197031e-39
237.095 1652.29 145.95 9.2197031e-39
495.81863 1650.98 142.26567 9.2197031e-39
503.76199 1653.1934 141.549 9.2197031e-39
516.22028 1653.77 141.20024 9.2197031e-39
217.285 1661.29 143.85001 9.2197031e-39
223.9355 1663.76 143.0865 9.2197031e-39
230.82899 1666.6068 142.218 9.2197031e-39
209.299 1673.35 140.74899 9.2197031e-39
212.39 1672.7968 140.85033 9.2197031e-39
225.24451 1670.775 141.19049 9.2197031e-39
234.90601 1670.33 141.157 9.2197031e-39
-1995.62 1787.2 144.679 9.2197031e-39
2532.24 1471.2781 158.578 9.2197031e-39
2501.1899 1492.5701 153.366 9.2197031e-39
2577.97 1447.821 164.13901 9.2197031e-39
2635.3601 1422.1741 170.104 9.2197031e-39
-5218.5098 1873.48 171.86 9.2197031e-39
3001.9099 1333.844 188.01601 9.2197031e-39
3002.9399 1356.317 181.989 9.2197031e-39
-4588.71 1769.13 189.952 9.2197031e-39
-4802.8999 1816.17 180.709 9.2197031e-39
3006.6001 1310.5129 194.18401 9.2197031e-39
-4417.0898 1726.04 198.80299 9.2197031e-39
3009.4099 1264.491 206.451 9.2197031e-39
3013.0601 1286.776 200.433 9.2197031e-39
-803.92102 1253.689 268.80701 9.2197031e-39
-839.83398 1263.585 266.72 9.2197031e-39
-788.22101 1270.708 264.01001 9.2197031e-39
-785.466 1215.1909 278.81799 9.2197031e-39
-780.52698 1228.64 275.14301 9.2197031e-39
-794.86401 1234.355 273.83801 9.2197031e-39
-788.75702 1248.0811 270.07101 9.2197031e-39
-768.37598 1176.167 288.98999 9.2197031e-39
-733.40399 1174.8745 288.7905 9.2197031e-39
-772.10101 1186.173 286.371 9.2197031e-39
-777.55499 1195.4141 283.98401 9.2197031e-39
-1030.92 1209.468 284.17599 9.2197031e-39
-782.01398 1205.095 281.46399 9.2197031e-39
-743.65302 1140.782 298.069 9.2197031e-39
-737.89398 1155.3621 294.07999 9.2197031e-39
-1282.78 1185.005 294.647 9.2197031e-39
-746.69501 1103.145 308.185 9.2197031e-39
-753.74799 1111.6641 306.01599 9.2197031e-39
-743.92401 1128.745 301.29401 9.2197031e-39
-1290.08 1136.166 307.82501 9.2197031e-39
-1295.0699 1150.173 304.15701 9.2197031e-39
-1301.84 1163.621 300.66501 9.2197031e-39
-739.81 1069.814 316.99301 9.2197031e-39
-745.40302 1079.1851 314.57401 9.2197031e-39
-750.91199 1088.603 312.14001 9.2197031e-39
-730.96997 1024.093 329.086 9.2197031e-39
-730.17603 1037.436 325.504 9.2197031e-39
-736.06201 1046.729 323.10999 9.2197031e-39
-741.005 1056.562 320.55701 9.2197031e-39
-723.25598 989.55798 338.203 9.2197031e-39
-720.37903 1004.591 334.13699 9.2197031e-39
-731.60602 1010.685 332.68201 9.2197031e-39
-710.336 957.72998 346.51599 9.2197031e-39
-714.47803 968.50403 343.698 9.2197031e-39
-720.98602 977.67004 341.34799 9.2197031e-39
1896.29 580.75909 406.70401 9.2197031e-39
1846.46 597.31451 403.05301 9.2197031e-39
-1084.1 685.25562 425.23001 9.2197031e-39
2133.6599 431.79401 442.85001 9.2197031e-39
-1246.64 530.87451 469.06 9.2197031e-39
-1247.4301 551.38019 463.58801 9.2197031e-39
-1162.33 487.53101 479.34 9.2197031e-39
-1180.98 494.48801 477.76999 9.2197031e-39
3039.9299 204.276 489.577 9.2197031e-39
-1156.74 470.341 483.85101 9.2197031e-39
3036.01 176.457 497.07901 9.2197031e-39
3038.6699 144.61801 505.55499 9.2197031e-39
-1376.88 414.26401 502.284 9.2197031e-39
3034.1201 116.655 513.10602 9.2197031e-39
3036.0601 84.564026 521.65997 9.2197031e-39
2481.1699 100.68903 526 9.2197031e-39
2626.26 110.35001 521.15302 9.2197031e-39
-1288.27 341.272 520.427 9.2197031e-39
3039.6599 19.409973 539.03198 9.2197031e-39
2471.8 50.198975 539.65198 9.2197031e-39
3037.6299 52.322998 530.26001 9.2197031e-39
2478.5901 73.963013 533.18903 9.2197031e-39
3039.6201 -12.593018 547.59302 9.2197031e-39
2465.51 25.814026 546.27197 9.2197031e-39
-844.37201 208.923 548.90802 9.2197031e-39
-803.44702 206.26801 548.97998 9.2197031e-39
-1093.95 219.93399 549.854 9.2197031e-39
-1044.01 219.47101 549.19897 9.2197031e-39
-998.51398 215.927 549.43799 9.2197031e-39
-954.63202 212.00299 549.80298 9.2197031e-39
-908.47998 212.06601 549.06702 9.2197031e-39
-865.24597 210.224 548.88501 9.2197031e-39
-818.67499 213.95401 547.16101 9.2197031e-39
-1377.4301 243.17499 548.05798 9.2197031e-39
3040.8799 -45.797974 556.45599 9.2197031e-39
-767.40802 170.77899 557.91101 9.2197031e-39
-774.62201 188.996 553.15002 9.2197031e-39
-1309.9399 197.46701 559.23199 9.2197031e-39
-1167.51 199.07999 556.58002 9.2197031e-39
-791.75897 194.09399 552.05402 9.2197031e-39
-1082.62 205.52301 553.53302 9.2197031e-39
-982.46899 207.32001 551.48999 9.2197031e-39
-934.73401 208.22101 550.505 9.2197031e-39
-890.617 206.54401 550.26501 9.2197031e-39
-1349.4301 215.172 555.112 9.2197031e-39
-1321.1899 213.64999 555.07898 9.2197031e-39
-1127.4399 212.35599 552.40399 9.2197031e-39
-1025.9301 212.57401 550.76202 9.2197031e-39
-1370.25 223.40201 553.23499 9.2197031e-39
3039.25 -77.512024 564.96399 9.2197031e-39
2538.1499 -62.484009 568.75897 9.2197031e-39
-747.69702 140.70099 565.64899 9.2197031e-39
-758.22198 154.92899 562.00702 9.2197031e-39
-1227.11 168.073 565.80298 9.2197031e-39
-1250.87 172.21701 565.06598 9.2197031e-39
-1643.4301 192.34601 565.80298 9.2197031e-39
3038.8999 -110.43402 573.776 9.2197031e-39
-1355.3 129.92599 578.00702 9.2197031e-39
-739.25 123.34698 570.159 9.2197031e-39
-1317.27 137.37799 575.41998 9.2197031e-39
2557.8501 -141.77197 589.66101 9.2197031e-39
3030.8 -138.43903 581.39398 9.2197031e-39
2558.2 -110.12701 581.19 9.2197031e-39
-736.46198 66.952026 585.20099 9.2197031e-39
-748.89398 79.573975 582.01898 9.2197031e-39
2539.8 -158.836 594.50702 9.2197031e-39
-748.21198 17.937988 598.49597 9.2197031e-39
2530.5601 -183.48401 601.24402 9.2197031e-39
2545.48 -229.633 613.35602 9.2197031e-39
2617.76 -328.17499 638.58801 9.2197031e-39
2579.6799 -364.34698 648.85797 9.2197031e-39
2603.1699 -350.33099 644.74298 9.2197031e-39
2628.48 -446.44995 670.06 9.2197031e-39
2742.03 -593.01001 707.492 9.2197031e-39
1976.34 -556.83997 709.75702 9.2197031e-39
2005.1801 -555.12 708.84802 9.2197031e-39
2033.51 -552.30005 707.65198 9.2197031e-39
2160.3999 -554.01001 706.13098 9.2197031e-39
2055.4099 -540.57996 704.17499 9.2197031e-39
2092.1899 -548.06006 705.60303 9.2197031e-39
2119.54 -542.76001 703.758 9.2197031e-39
2698.51 -630.46997 718.19299 9.2197031e-39
2717.1799 -608.73999 712.08698 9.2197031e-39
1939.53 -589.12 718.96698 9.2197031e-39
2207.1699 -571.58997 710.104 9.2197031e-39
1953.8 -567.05005 712.83899 9.2197031e-39
2575.28 -666.47998 729.74597 9.2197031e-39
2601.1499 -652.82996 725.69202 9.2197031e-39
2628.3101 -640.33997 721.92603 9.2197031e-39
2673.3999 -645.77002 722.67499 9.2197031e-39
1921.14 -605.45996 723.62299 9.2197031e-39
2531.22 -701.75 739.86603 9.2197031e-39
2559.99 -691.43994 736.66101 9.2197031e-39
1885.96 -640.98999 733.677 9.2197031e-39
1907.98 -629.80005 730.34003 9.2197031e-39
2525.29 -737.43994 749.50702 9.2197031e-39
1882.28 -680.80005 744.383 9.2197031e-39
-967.43799 -517.40002 745.11499 9.2197031e-39
1871.77 -710.79004 752.56897 9.2197031e-39
1873.16 -810.06006 779.10199 9.2197031e-39
1928.88 -851.43005 789.29901 9.2197031e-39
-1021.77 -654.18994 782.55298 9.2197031e-39
2650.1001 -923.33997 797.28802 9.2197031e-39
585.16199 -841.34998 807.55701 9.2197031e-39
539.099 -839.65002 807.82202 9.2197031e-39
242.39999 -827.63 809.23297 9.2197031e-39
471.686 -870.89001 817.22803 9.2197031e-39
564.91199 -876.72998 817.33801 9.2197031e-39
286.90302 -861.38 817.565 9.2197031e-39
309.927 -863 817.64203 9.2197031e-39
356.047 -863.75 817.12097 9.2197031e-39
379.104 -862.85999 816.52399 9.2197031e-39
402.15601 -862.73999 816.13397 9.2197031e-39
425.20499 -862.43005 815.69202 9.2197031e-39
448.25 -861.93005 815.198 9.2197031e-39
333.099 -854.78003 815.08002 9.2197031e-39
516.82599 -850.56995 811.09003 9.2197031e-39
218.709 -842.79004 813.659 9.2197031e-39
1662.97 -968.56995 824.77899 9.2197031e-39
760.73499 -931.46997 828.927 9.2197031e-39
262.19601 -902.02002 828.823 9.2197031e-39
495.57901 -885.43005 820.74597 9.2197031e-39
1506.49 -1003.96 836.68701 9.2197031e-39
1283.54 -997.25 838.36798 9.2197031e-39
1309.35 -994.08997 837.12 9.2197031e-39
1336.49 -994.34998 836.76599 9.2197031e-39
1365.73 -999.81006 837.77301 9.2197031e-39
1393.0699 -999.55005 837.276 9.2197031e-39
1420.83 -999.93005 836.94501 9.2197031e-39
1529.5699 -991.66003 833.03802 9.2197031e-39
1616.9 -994.25 832.36798 9.2197031e-39
1458.11 -1023.49 842.66498 9.2197031e-39
1129.04 -1011.39 844.56097 9.2197031e-39
1155.55 -1012.4 844.41699 9.2197031e-39
998.10602 -1004.65 844.80103 9.2197031e-39
1024.6899 -1008.73 845.47699 9.2197031e-39
1049.01 -1003.17 843.61102 9.2197031e-39
1075.26 -1004.91 843.66498 9.2197031e-39
1102.09 -1008.27 844.14697 9.2197031e-39
1178.78 -1002.02 841.27899 9.2197031e-39
1205.62 -1003.5 841.255 9.2197031e-39
1232.86 -1005.65 841.40601 9.2197031e-39
1259.58 -1005.71 841.00403 9.2197031e-39
969.73102 -991.82996 841.81403 9.2197031e-39
1507.38 -1074.48 855.53601 9.2197031e-39
956.32703 -1046.89 856.75 9.2197031e-39
-631.46198 -995.67004 867.81097 9.2197031e-39
-601.53998 -988.58997 865.45099 9.2197031e-39
758.30298 -1084.96 870.02301 9.2197031e-39
-581.77399 -1009.54 870.745 9.2197031e-39
1812.11 -1208.65 886.67401 9.2197031e-39
-743.42999 -1067.24 888.70001 9.2197031e-39
-546.81 -1067.58 885.72498 9.2197031e-39
-766.47498 -1053.2 885.30499 9.2197031e-39
-708.18903 -1050.4301 883.65302 9.2197031e-39
-568.896 -1051.4301 881.75 9.2197031e-39
-677.14099 -1043.1801 881.23199 9.2197031e-39
2954.6699 -1324.55 899.85999 9.2197031e-39
-531.61102 -1105.6801 895.67999 9.2197031e-39
-874.42297 -1099.54 899.383 9.2197031e-39
-835.62299 -1078.86 893.24597 9.2197031e-39
-802.96698 -1071.13 890.66803 9.2197031e-39
-513.20398 -1135.42 903.34802 9.2197031e-39
-915.29797 -1123.3 906.37701 9.2197031e-39
-16.350901 -1226.36 919.92603 9.2197031e-39
-203.508 -1215.65 919.97998 9.2197031e-39
-149.722 -1218.36 919.86603 9.2197031e-39
-95.716003 -1218.24 918.99103 9.2197031e-39
-68.704102 -1217.35 918.33099 9.2197031e-39
-41.745499 -1216.22 917.60999 9.2197031e-39
-282.71899 -1202.77 917.76898 9.2197031e-39
-255.532 -1203.51 917.54303 9.2197031e-39
-229.35699 -1208.74 918.53497 9.2197031e-39
-473.63101 -1189.96 917.32001 9.2197031e-39
-495.44601 -1168.77 911.992 9.2197031e-39
-991.51202 -1154.49 915.909 9.2197031e-39
-959.57098 -1152.74 914.94299 9.2197031e-39
-178.646 -1228.05 922.90802 9.2197031e-39
-123.42 -1222.7 920.61798 9.2197031e-39
-453.60101 -1218.45 924.62903 9.2197031e-39
-311.923 -1210.26 920.22998 9.2197031e-39
-1075.3199 -1196.11 928.349 9.2197031e-39
-1036.8 -1182.96 924.22998 9.2197031e-39
-438.966 -1268.29 937.73199 9.2197031e-39
-1127.89 -1235.64 939.742 9.2197031e-39
3056.5701 -1499.21 944.99103 9.2197031e-39
-420.79001 -1307.8101 948.02002 9.2197031e-39
3049.0601 -1547.3501 957.98499 9.2197031e-39
662.71997 -1412.0601 959.01099 9.2197031e-39
-415.72 -1401.63 973.03699 9.2197031e-39
-21.1236 -1484.6499 989.09302 9.2197031e-39
8.4412098 -1480.23 987.44897 9.2197031e-39
36.997101 -1484.2 988.065 9.2197031e-39
65.686501 -1486.97 988.35797 9.2197031e-39
124.236 -1477.3301 984.867 9.2197031e-39
915.50403 -1560.95 994.89398 9.2197031e-39
93.740097 -1497.1899 990.65601 9.2197031e-39
-418.39099 -1534.1101 1008.52 9.2197031e-39
135.327 -1739.5701 1054.84 9.2197031e-39
2489.1599 -1903.3601 1061.95 9.2197031e-39
2300.5701 -1942.3101 1075.3101 9.2197031e-39
2341.1499 -1940.55 1074.21 9.2197031e-39
2382.79 -1940.0901 1073.4301 9.2197031e-39
2217.1001 -1939.3999 1075.83 9.2197031e-39
2253.79 -1931.5601 1073.16 9.2197031e-39
2423.6101 -1937.51 1072.1 9.2197031e-39
2466 -1937.04 1071.3199 9.2197031e-39
1110.72 -1920.1599 1087.9399 9.2197031e-39
1050.98 -1961.3999 1099.9 9.2197031e-39
1084.84 -1960.3701 1099.1 9.2197031e-39
846.09003 -1942.3101 1097.99 9.2197031e-39
745.96698 -1937.4299 1098.25 9.2197031e-39
781.97699 -1963.04 1104.53 9.2197031e-39
950.224 -1966.5701 1102.86 9.2197031e-39
1018.51 -1969.76 1102.64 9.2197031e-39
813.99298 -1951.8501 1101.04 9.2197031e-39
-1763.97 -1981.5 1149.1801 9.2197031e-39
-1676.86 -1980.6001 1147.58 9.2197031e-39
-1719.13 -1979.1599 1147.85 9.2197031e-39
-1590.9 -1978.74 1145.74 9.2197031e-39
-1548.63 -1978.01 1144.88 9.2197031e-39
-1627.28 -1967.95 1143.42 9.2197031e-39
-2040.86 -1991.0701 1156.05 9.2197031e-39
-1990.09 -1984.3 1153.45 9.2197031e-39
-1946.37 -1987.6799 1153.67 9.2197031e-39
-1900.22 -1986.45 1152.63 9.2197031e-39
