# .PCD v0.7 - Point Cloud Data file format
VERSION 0.7
FIELDS x y z rgb
SIZE 4 4 4 4
TYPE F F F F
COUNT 1 1 1 1
WIDTH 314
HEIGHT 1
VIEWPOINT 0 0 0 1 0 0 0
POINTS 314
DATA ascii
464.116 -2469.0898 138.287 9.2197031e-39
447.15799 -2453.1201 134 9.2197031e-39
368.27499 -732.23901 139.763 9.2197031e-39
364.36966 -725.84906 138.81834 9.2197031e-39
356.66162 -716.79639 136.8978 9.2197031e-39
363.8685 -719.35852 138.78549 9.2197031e-39
346.42599 -445.69501 138.392 9.2197031e-39
347.25549 -433.23499 138.8085 9.2197031e-39
351.008 -432.06598 139.83 9.2197031e-39
350.479 -423.979 139.815 9.2197031e-39
307.04501 -52.208984 134 9.2197031e-39
313.95151 -58.366028 135.7515 9.2197031e-39
322.47751 -51.057526 138.146 9.2197031e-39
499.526 -2508.5 147.144 9.2197031e-39
481.875 -2491.8701 142.68201 9.2197031e-39
371.74799 -735.58099 140.64 9.2197031e-39
372.42667 -726.18433 140.968 9.2197031e-39
385.81097 -722.72754 144.60251 9.2197031e-39
394.48724 -723.48102 146.91174 9.2197031e-39
401.12 -723.60901 148.68401 9.2197031e-39
375.64536 -715.67767 141.99333 9.2197031e-39
384.6442 -716.49878 144.3876 9.2197031e-39
390.86298 -704.198 146.24301 9.2197031e-39
382.673 -452.59 147.98 9.2197031e-39
384.75476 -441.68378 148.707 9.2197031e-39
365.04474 -434.81726 143.54225 9.2197031e-39
370.056 -430.31598 144.953 9.2197031e-39
382.42499 -437.10199 148.155 9.2197031e-39
352.62299 -428.22198 140.32201 9.2197031e-39
363.90567 -428.97665 143.32832 9.2197031e-39
375.16 -428.23071 146.35066 9.2197031e-39
383.08826 -424.20026 148.53426 9.2197031e-39
356.086 -414.55499 141.46201 9.2197031e-39
362.017 -411.888 143.09 9.2197031e-39
361.09 -403.14899 142.978 9.2197031e-39
360.017 -399.965 142.741 9.2197031e-39
328.61301 -20.426025 140.26601 9.2197031e-39
333.215 -10.387024 141.653 9.2197031e-39
535.797 -2542.23 156.32001 9.2197031e-39
516.73199 -2516.99 151.614 9.2197031e-39
393.405 -432.82599 151.159 9.2197031e-39
339.48599 2088.3501 176.093 9.2197031e-39
362.05399 2100.1299 182.314 9.2197031e-39
423.86099 2740.71 208.84599 9.2197031e-39
401.785 3076.3601 208.181 9.2197031e-39
468.883 2484.74 216.894 9.2197031e-39
443.65799 2502.9099 210.42999 9.2197031e-39
1313.87 -2801.0901 360.409 9.2197031e-39
1332.97 -2793.1699 365.642 9.2197031e-39
1355.34 -2792.3201 371.638 9.2197031e-39
1374.38 -2784.02 376.85999 9.2197031e-39
1393.35 -2775.55 382.069 9.2197031e-39
1413.58 -2769.5701 387.57199 9.2197031e-39
1443.58 -2782.97 395.38901 9.2197031e-39
1466.1899 -2780.9399 401.46799 9.2197031e-39
1490.6899 -2782.1899 408.00101 9.2197031e-39
1503.6 -2761.24 411.78101 9.2197031e-39
1267.9 1740.5801 419.009 9.2197031e-39
1573.96 -2800.78 429.987 9.2197031e-39
1538.09 -2780.3701 420.711 9.2197031e-39
1302.63 1713.2 427.871 9.2197031e-39
1287.42 1732.01 424.09698 9.2197031e-39
1350.4 1565.73 438.34698 9.2197031e-39
1347.6801 1608.1899 438.284 9.2197031e-39
1326.34 1610.98 432.61801 9.2197031e-39
1319.0699 1645.3201 431.20901 9.2197031e-39
1314.05 1686.0801 430.50299 9.2197031e-39
1683.99 -2772 459.866 9.2197031e-39
1689.79 -2739.6399 461.92499 9.2197031e-39
1708.48 -2728.26 467.10001 9.2197031e-39
1455.37 1686.49 468.31299 9.2197031e-39
1437.52 1699.26 463.73599 9.2197031e-39
1769.85 -3004.46 479.20499 9.2197031e-39
1754.4301 -2931.98 476.21201 9.2197031e-39
1725.99 -2715.04 471.991 9.2197031e-39
1736.8199 -2691.74 475.25201 9.2197031e-39
1752.35 -2675.8101 479.655 9.2197031e-39
1484.79 1649.0601 475.59799 9.2197031e-39
1469.53 1666.5 471.78699 9.2197031e-39
1781.17 -3122.23 480.39401 9.2197031e-39
1780.17 -3070.5 480.936 9.2197031e-39
1790.6899 -2693.25 489.638 9.2197031e-39
1533.15 1603.1001 487.81699 9.2197031e-39
1514.23 1613.02 482.91 9.2197031e-39
1507.7 1646.4299 481.68301 9.2197031e-39
1806.17 -2676.8701 494.035 9.2197031e-39
1548.62 1586.96 491.70099 9.2197031e-39
1569.79 1581.02 497.272 9.2197031e-39
1846.74 -2695.8601 504.59201 9.2197031e-39
1584.98 1564.6001 501.078 9.2197031e-39
1610.6 1565.9299 507.952 9.2197031e-39
1664.39 1377.29 519.396 9.2197031e-39
1650.02 1392.5601 515.78998 9.2197031e-39
1653.88 1435.8101 517.49902 9.2197031e-39
1656.55 1517.9399 519.495 9.2197031e-39
1643.48 1537.4099 516.30298 9.2197031e-39
1625.0601 1548.3501 511.54599 9.2197031e-39
1936.53 -2781.6001 527.271 9.2197031e-39
1690.95 1379.77 526.54102 9.2197031e-39
1666.1899 1493.3999 521.69 9.2197031e-39
1787.01 1480.26 553.80402 9.2197031e-39
1877.39 1568.73 579.36102 9.2197031e-39
2205.3 -3106.3201 594.09601 9.2197031e-39
2221.1499 -3082.3201 598.71198 9.2197031e-39
2237.3501 -3059.02 603.40698 9.2197031e-39
2253.8999 -3036.3899 608.18701 9.2197031e-39
2268.98 -3012.1001 612.60101 9.2197031e-39
2283.8 -2987.73 616.94598 9.2197031e-39
2297.73 -2962.51 621.065 9.2197031e-39
2312.01 -2937.98 625.26898 9.2197031e-39
2332.4299 -2920.8899 630.99701 9.2197031e-39
2346.25 -2896.1499 635.07898 9.2197031e-39
2354.5801 -2865.4099 637.78802 9.2197031e-39
2373.74 -2847.1899 643.198 9.2197031e-39
2386.1001 -2821.5 646.90503 9.2197031e-39
2398.8501 -2796.49 650.70697 9.2197031e-39
2417.4299 -2777.8701 655.96698 9.2197031e-39
2430.3899 -2753.3899 659.815 9.2197031e-39
2435.52 -2721.1001 661.69098 9.2197031e-39
2459.01 -2707.73 668.18402 9.2197031e-39
2470.53 -2682.3401 671.66199 9.2197031e-39
2481.78 -2656.8999 675.07001 9.2197031e-39
2499.1799 -2637.52 680.02502 9.2197031e-39
2517.1201 -2618.6699 685.11902 9.2197031e-39
2526.24 -2591.6499 687.979 9.2197031e-39
2238.8101 2024.1101 683.14801 9.2197031e-39
2543.8101 -2572.53 692.97699 9.2197031e-39
2553.8799 -2546.72 696.07397 9.2197031e-39
2570.3401 -2526.7 700.789 9.2197031e-39
2585.8799 -2505.8799 705.27197 9.2197031e-39
2601.99 -2485.5698 709.89899 9.2197031e-39
2611.1299 -2459.48 712.75098 9.2197031e-39
2626.8501 -2438.9399 717.27698 9.2197031e-39
2344.3101 2118.97 712.84998 9.2197031e-39
2642.3999 -2418.25 721.758 9.2197031e-39
2658.54 -2398.04 726.39099 9.2197031e-39
2665.2 -2370.48 728.60199 9.2197031e-39
2402.29 1870.75 724.48499 9.2197031e-39
2406.6399 1919.6799 726.41101 9.2197031e-39
2405.3401 1962.78 726.73602 9.2197031e-39
2387.48 1986.0601 722.32202 9.2197031e-39
2680.1599 -2349.45 732.93402 9.2197031e-39
2694.95 -2328.29 737.21899 9.2197031e-39
2430.6001 1860.8701 731.90198 9.2197031e-39
2709.5601 -2306.99 741.45898 9.2197031e-39
2723.98 -2285.5601 745.65302 9.2197031e-39
2738.23 -2264 749.79901 9.2197031e-39
2751.48 -2241.76 753.69299 9.2197031e-39
2766.1699 -2220.5 757.95203 9.2197031e-39
2779.8601 -2198.5601 761.95801 9.2197031e-39
2786.8101 -2172.22 764.229 9.2197031e-39
2806.6899 -2154.3101 769.82397 9.2197031e-39
2533.6799 2218.2 765.05402 9.2197031e-39
2819.8201 -2132 773.685 9.2197031e-39
2832.76 -2109.5801 777.49701 9.2197031e-39
2654.23 1091.3101 779.70801 9.2197031e-39
2633.71 1107.61 774.47498 9.2197031e-39
2647.5 1149.37 778.81598 9.2197031e-39
2581.1699 1990.5 774.20203 9.2197031e-39
2845.51 -2087.03 781.26099 9.2197031e-39
2858.0801 -2064.3799 784.97498 9.2197031e-39
2871.29 -2042.1 788.85699 9.2197031e-39
2891.96 -2024.02 794.66803 9.2197031e-39
2895.46 -1996.21 796.03802 9.2197031e-39
2722.2 1076.85 797.66602 9.2197031e-39
2720.8401 1107.38 797.77899 9.2197031e-39
2687.1799 1211.59 790.401 9.2197031e-39
2914.96 -1977.29 801.54999 9.2197031e-39
2934.3301 -1958.13 807.03198 9.2197031e-39
2725.98 1274.66 801.76398 9.2197031e-39
2718.6399 1302.88 800.242 9.2197031e-39
2735.6101 1569.03 808.93597 9.2197031e-39
2722.4299 1595.3 805.81799 9.2197031e-39
2662.8999 2490.78 803.87402 9.2197031e-39
2945.8 -1934.67 810.466 9.2197031e-39
2956.21 -1910.67 813.62299 9.2197031e-39
2968.1399 -1887.45 817.17902 9.2197031e-39
2694.76 2477.3501 812.18799 9.2197031e-39
2986.8899 -1867.53 822.505 9.2197031e-39
2996.71 -1843.17 825.51202 9.2197031e-39
3008.0901 -1819.5601 828.92401 9.2197031e-39
2813.8401 1413.71 827.43701 9.2197031e-39
2813.8899 1523.96 829.17102 9.2197031e-39
2781.2 1533.54 820.57599 9.2197031e-39
2791.1699 1580.1399 823.97101 9.2197031e-39
3026.3601 -1799.0699 834.13 9.2197031e-39
3044.48 -1778.33 839.30103 9.2197031e-39
3054.4199 -1753.88 842.34302 9.2197031e-39
3072.22 -1732.75 847.43298 9.2197031e-39
2861.1899 1488.6599 841.27197 9.2197031e-39
2872.1499 1535.22 844.93103 9.2197031e-39
3090.76 -1711.75 852.72101 9.2197031e-39
3099.24 -1686.52 855.383 9.2197031e-39
3116.55 -1664.76 860.35303 9.2197031e-39
3134.6001 -1643.12 865.521 9.2197031e-39
2926.2 1865.3301 864.54102 9.2197031e-39
2942.1899 1923.98 869.73602 9.2197031e-39
3151.6001 -1620.9 870.41302 9.2197031e-39
3160.21 -1595.48 873.112 9.2197031e-39
3176.8401 -1572.88 877.91602 9.2197031e-39
2950.3601 1845.1001 870.68799 9.2197031e-39
3193.3101 -1550.054 882.677 9.2197031e-39
3207.77 -1526.394 886.914 9.2197031e-39
3217.4299 -1501.0601 889.89203 9.2197031e-39
2986.24 2349.0801 888.15399 9.2197031e-39
2956.1699 2367.1201 880.39099 9.2197031e-39
3231.5 -1477.0659 894.03198 9.2197031e-39
3248.1799 -1453.7261 898.85699 9.2197031e-39
3022.2 2337.21 897.58899 9.2197031e-39
3263.75 -1429.88 903.39398 9.2197031e-39
3279.1299 -1405.818 907.88501 9.2197031e-39
3075.2 2098.1599 908.034 9.2197031e-39
3046.0801 2312.03 903.58301 9.2197031e-39
3294.3401 -1381.542 912.33099 9.2197031e-39
3308.4099 -1356.8049 916.48297 9.2197031e-39
3108.22 2276.54 919.65002 9.2197031e-39
3078.55 2295.8799 912.01501 9.2197031e-39
3331.6899 -1334.254 923.06097 9.2197031e-39
3345.3999 -1309.0449 927.12201 9.2197031e-39
3139.1499 2258.28 927.63898 9.2197031e-39
3359.8501 -1283.865 931.38098 9.2197031e-39
3375.05 -1258.6899 935.84003 9.2197031e-39
3388.1599 -1232.885 939.75 9.2197031e-39
3162.3401 2232.0701 933.43201 9.2197031e-39
3411.5 -1209.043 946.36401 9.2197031e-39
3424.21 -1182.772 950.17603 9.2197031e-39
3438.6201 -1156.6741 954.43701 9.2197031e-39
3459.49 -1131.548 960.41199 9.2197031e-39
3473.49 -1104.96 964.57202 9.2197031e-39
3487.28 -1078.1589 968.67902 9.2197031e-39
3507.55 -1052.1541 974.50702 9.2197031e-39
3524.75 -1025.4141 979.52399 9.2197031e-39
3542.6899 -998.52399 984.74298 9.2197031e-39
3546.98 -969.69104 986.34198 9.2197031e-39
3547.1899 -940.37402 986.85498 9.2197031e-39
3569.26 -913.39404 993.18103 9.2197031e-39
3582.46 -885.21399 997.151 9.2197031e-39
3603.1399 -857.48499 1003.11 9.2197031e-39
3619.73 -829.10699 1008 9.2197031e-39
3638.02 -800.57898 1013.33 9.2197031e-39
3640.6399 -770.82501 1014.5 9.2197031e-39
3666.1799 -742.20001 1021.78 9.2197031e-39
3678.9199 -712.60999 1025.65 9.2197031e-39
3688.53 -682.70819 1028.6801 9.2197031e-39
3695.95 -652.59662 1031.14 9.2197031e-39
3698.29 -622.28943 1032.24 9.2197031e-39
3725.49 -592.06799 1039.99 9.2197031e-39
3752.4299 -561.35663 1047.67 9.2197031e-39
3776.21 -530.19568 1054.52 9.2197031e-39
3818.0701 -498.1954 1066.22 9.2197031e-39
3853.8501 -465.61401 1076.3 9.2197031e-39
3865.21 -433.349 1079.84 9.2197031e-39
3879.1899 -400.72601 1084.09 9.2197031e-39
3901.5701 -367.33099 1090.59 9.2197031e-39
3924.6101 -333.45001 1097.29 9.2197031e-39
3941.5701 -299.578 1102.35 9.2197031e-39
3965.9299 -264.72 1109.41 9.2197031e-39
3988.05 -229.57999 1115.88 9.2197031e-39
4013.6899 -193.616 1123.3 9.2197031e-39
4032.28 -157.91901 1128.83 9.2197031e-39
4067.8101 -119.746 1138.9301 9.2197031e-39
4103.9302 -80.772003 1149.2 9.2197031e-39
4083.5801 301.133 1149.72 9.2197031e-39
4079.6799 335.88098 1149.21 9.2197031e-39
4125.3101 -43.125 1155.51 9.2197031e-39
4153.04 -4.0510254 1163.53 9.2197031e-39
4158.54 246.276 1168.91 9.2197031e-39
4125.8599 275.06799 1160.62 9.2197031e-39
4135.4702 385.81097 1164.92 9.2197031e-39
4149.54 426.01001 1169.3101 9.2197031e-39
4182.29 35.870972 1171.98 9.2197031e-39
4201.6299 74.765015 1177.76 9.2197031e-39
4174.4199 469.58997 1176.64 9.2197031e-39
4231.0801 115.914 1186.28 9.2197031e-39
4207.1099 220.26801 1181.5 9.2197031e-39
4200.71 514.21997 1184.37 9.2197031e-39
4257.2598 157.11499 1193.9301 9.2197031e-39
4250.7998 192.51703 1192.75 9.2197031e-39
4228.3901 559.94995 1192.49 9.2197031e-39
4230.5801 598.71997 1193.6801 9.2197031e-39
4298.0098 658.05005 1212.65 9.2197031e-39
4302.9902 698.85999 1214.62 9.2197031e-39
4332.3901 748.06006 1223.25 9.2197031e-39
4341.1001 791.02002 1226.25 9.2197031e-39
4359.4399 837.77002 1231.88 9.2197031e-39
4381.8398 886.60999 1238.64 9.2197031e-39
4346.1099 1427.7 1237.53 9.2197031e-39
4420.98 942.37 1249.98 9.2197031e-39
4404.3999 1019.9 1246.75 9.2197031e-39
4356.6001 1478.04 1241.12 9.2197031e-39
4377.7402 1534.5701 1247.66 9.2197031e-39
4404.8501 1411.8 1252.99 9.2197031e-39
4466.7202 1001.72 1263.14 9.2197031e-39
4469.6802 1352.66 1269.41 9.2197031e-39
4438.2402 1382.87 1261.47 9.2197031e-39
4514.73 1106.59 1277.62 9.2197031e-39
4510.6499 1326.46 1279.96 9.2197031e-39
4559.46 1303.22 1292.65 9.2197031e-39
4598.4102 1274.99 1302.63 9.2197031e-39
4631.8599 1243.9301 1311.09 9.2197031e-39
4668.6802 1213.9 1320.48 9.2197031e-39
4712.6802 1912.1201 1343.15 9.2197031e-39
4742.98 1877.6201 1350.71 9.2197031e-39
4763.73 1993.6201 1358.0699 9.2197031e-39
4816.5601 1814.8799 1369.41 9.2197031e-39
4779.8701 1846.49 1360.09 9.2197031e-39
4815.3999 2077.22 1373.2 9.2197031e-39
4867.6499 2162.96 1388.52 9.2197031e-39
4928.73 2255.98 1406.3101 9.2197031e-39
5043.79 2385.04 1439.1 9.2197031e-39
6558.8198 3653.8101 1864.17 9.2197031e-39
6621.21 3615.1401 1880.25 9.2197031e-39
9520.1104 5431.23 2684.04 9.2197031e-39
9555.1504 5337.8599 2691.95 9.2197031e-39
