# .PCD v0.7 - Point Cloud Data file format
VERSION 0.7
FIELDS x y z rgb
SIZE 4 4 4 4
TYPE F F F F
COUNT 1 1 1 1
WIDTH 318
HEIGHT 1
VIEWPOINT 0 0 0 1 0 0 0
POINTS 318
DATA ascii
489.612 -2492.26 138.34599 9.2197031e-39
472.048 -2471.3999 134 9.2197031e-39
384.12299 -730.91901 139.799 9.2197031e-39
382.49451 -726.1405 139.4445 9.2197031e-39
374.71667 -714.6792 137.5575 9.2197031e-39
369.91501 -706.00299 136.41901 9.2197031e-39
372.492 -700.56299 137.2 9.2197031e-39
363.186 -440.689 139.088 9.2197031e-39
362.80624 -425.87625 139.23625 9.2197031e-39
324.194 -53.934021 135.175 9.2197031e-39
319.379 -47.203003 134 9.2197031e-39
327.836 -37.734009 136.42101 9.2197031e-39
336.13699 -12.422974 139.067 9.2197031e-39
331.035 -2.5780029 137.869 9.2197031e-39
525.20001 -2526.5 147.286 9.2197031e-39
507.21701 -2508.97 142.772 9.2197031e-39
387.974 -732.62 140.80051 9.2197031e-39
390.336 -733.59399 141.416 9.2197031e-39
405.17032 -721.28833 145.59 9.2197031e-39
410.98001 -721.51099 147.14 9.2197031e-39
388.85449 -719.02197 141.265 9.2197031e-39
394.793 -714.3866 142.93114 9.2197031e-39
406.35052 -716.92004 145.97925 9.2197031e-39
412.7825 -715.29102 147.7265 9.2197031e-39
388.285 -709.35101 141.276 9.2197031e-39
403.431 -693.297 145.59599 9.2197031e-39
399.13348 -440.91101 148.69751 9.2197031e-39
401.75153 -444.08902 149.34399 9.2197031e-39
366.39001 -430.96802 140.10899 9.2197031e-39
377.33148 -434.66748 142.9725 9.2197031e-39
381.4715 -432.46948 144.1165 9.2197031e-39
396.642 -438.931 148.065 9.2197031e-39
401.42102 -434.34698 149.41949 9.2197031e-39
368.64401 -421.17102 140.87601 9.2197031e-39
377.43799 -425.88733 143.14867 9.2197031e-39
387.41174 -423.13275 145.86224 9.2197031e-39
394.97458 -424.785 147.85678 9.2197031e-39
377.245 -416.371 143.257 9.2197031e-39
396.7395 -416.4325 148.46951 9.2197031e-39
400.397 -413.92798 149.49001 9.2197031e-39
374.29199 -404.12399 142.674 9.2197031e-39
374.62799 -393.741 142.939 9.2197031e-39
561.97803 -2560.02 156.55701 9.2197031e-39
543.586 -2544.8398 151.894 9.2197031e-39
319.95801 2069.3999 169.80099 9.2197031e-39
342.15399 2091.49 176.10899 9.2197031e-39
364.548 2075.3799 181.826 9.2197031e-39
423.55099 2744.23 208.869 9.2197031e-39
399.117 3017.8 206.942 9.2197031e-39
469.88199 2491.47 217.002 9.2197031e-39
444.33099 2502.52 210.355 9.2197031e-39
497.58899 2530.1101 225.062 9.2197031e-39
1339.4399 -2795.3301 360.50201 9.2197031e-39
1358.1 -2786.4099 365.642 9.2197031e-39
1381.3 -2787.26 371.832 9.2197031e-39
1400.74 -2779.76 377.15799 9.2197031e-39
1447.88 -2781.1499 389.73901 9.2197031e-39
1417.96 -2767.6101 381.96799 9.2197031e-39
1468.21 -2774.8101 395.28299 9.2197031e-39
1492.17 -2775.3301 401.68201 9.2197031e-39
1512.51 -2768.55 407.23599 9.2197031e-39
1551.6899 -2796.5601 417.241 9.2197031e-39
1269.23 1739.6101 418.10101 9.2197031e-39
1318.21 1639.24 429.508 9.2197031e-39
1316.22 1687.23 429.78601 9.2197031e-39
1302.8199 1709.6899 426.57901 9.2197031e-39
1287.98 1729.3101 422.94199 9.2197031e-39
1352.52 1566.24 437.45499 9.2197031e-39
1345.13 1598.73 436.026 9.2197031e-39
1327.15 1608.6001 431.383 9.2197031e-39
1671.4301 -2969.3799 446.35199 9.2197031e-39
1689.51 -2774.01 454.47699 9.2197031e-39
1695.4301 -2741.6899 456.604 9.2197031e-39
1755.29 -2927.46 469.48401 9.2197031e-39
1711.49 -2726.2 461.16101 9.2197031e-39
1726.86 -2709.76 465.547 9.2197031e-39
1435.55 1693.03 461.79401 9.2197031e-39
1459.88 1693.77 468.31299 9.2197031e-39
1782.98 -3120.29 473.64001 9.2197031e-39
1775.71 -3057.3899 472.75699 9.2197031e-39
1766 -2992.25 471.255 9.2197031e-39
1745.3199 -2698.1799 470.677 9.2197031e-39
1759.27 -2679.8301 474.71899 9.2197031e-39
1502.78 1635.5 478.80301 9.2197031e-39
1485.42 1648.53 474.38 9.2197031e-39
1470.59 1666.75 470.72 9.2197031e-39
1795.88 -2694.97 484.25201 9.2197031e-39
1809.14 -2675.4199 488.13 9.2197031e-39
1528.13 1592.46 484.85699 9.2197031e-39
1520.01 1622.3201 483.18799 9.2197031e-39
1582.63 1559.6201 498.879 9.2197031e-39
1566.5 1574.1799 494.811 9.2197031e-39
1555.02 1597.26 492.13 9.2197031e-39
1859.88 -2709.2 501.12701 9.2197031e-39
1623.59 1545.3899 509.59201 9.2197031e-39
1608.14 1561.1299 505.72501 9.2197031e-39
1667.01 1380.62 518.42902 9.2197031e-39
1653.16 1396.62 514.99402 9.2197031e-39
1654.71 1436.54 516.08099 9.2197031e-39
1657.65 1519.4299 518.263 9.2197031e-39
1650.73 1548.9299 516.91101 9.2197031e-39
1951.72 -2798.49 524.18597 9.2197031e-39
1692.41 1381.62 525.23798 9.2197031e-39
1668.4 1496.6499 520.755 9.2197031e-39
1773.27 1461.5701 548.20697 9.2197031e-39
1864.72 1553.04 574.20398 9.2197031e-39
2205.9099 -3105.9299 586.98297 9.2197031e-39
2222.3999 -3082.8401 591.78003 9.2197031e-39
2238.04 -3058.8601 596.36603 9.2197031e-39
2254.6201 -3036.3501 601.17999 9.2197031e-39
2268.52 -3010.6201 605.33099 9.2197031e-39
2285.22 -2988.6799 610.16699 9.2197031e-39
2299.8301 -2964.3301 614.48297 9.2197031e-39
2319.8401 -2946.74 620.13098 9.2197031e-39
2333.3401 -2921.4299 624.16602 9.2197031e-39
2347.2 -2896.79 628.28802 9.2197031e-39
2361.45 -2872.8301 632.50098 9.2197031e-39
2374.78 -2848.05 636.48499 9.2197031e-39
2387.8601 -2823.2 640.39899 9.2197031e-39
2399.3301 -2796.8401 643.91101 9.2197031e-39
2419.27 -2779.79 649.53101 9.2197031e-39
2430.9199 -2753.99 653.08002 9.2197031e-39
2443.6599 -2729.5601 656.89899 9.2197031e-39
2461.6799 -2710.6699 662.03699 9.2197031e-39
2473.96 -2686.0601 665.73602 9.2197031e-39
2483.8799 -2659.3201 668.83801 9.2197031e-39
2501.3101 -2640.0701 673.823 9.2197031e-39
2512.8501 -2615.26 677.328 9.2197031e-39
2230.1899 2019.02 679.78699 9.2197031e-39
2528.46 -2594.4102 681.854 9.2197031e-39
2545.3401 -2574.76 686.698 9.2197031e-39
2555.47 -2549.04 689.83899 9.2197031e-39
2571.96 -2529.1499 694.58398 9.2197031e-39
2580.8601 -2502.6699 697.40997 9.2197031e-39
2596.96 -2482.54 702.05402 9.2197031e-39
2612.1299 -2461.6401 706.46399 9.2197031e-39
2331.03 2108.9199 708.26599 9.2197031e-39
2628.6399 -2441.8599 711.21198 9.2197031e-39
2644.22 -2421.3 715.72601 9.2197031e-39
2652.71 -2395.1201 718.43701 9.2197031e-39
2387.02 1859.76 719.04303 9.2197031e-39
2667.8999 -2374.3398 722.84802 9.2197031e-39
2682.9099 -2353.4302 727.21399 9.2197031e-39
2427.29 1864.3999 729.88898 9.2197031e-39
2410.0601 1931.3401 726.41101 9.2197031e-39
2415.3601 1982.8501 728.69598 9.2197031e-39
2385.71 1991.45 720.90997 9.2197031e-39
2697.74 -2332.3799 731.53601 9.2197031e-39
2711.6101 -2310.6201 735.60999 9.2197031e-39
2726.8701 -2289.8799 740.04102 9.2197031e-39
2741.1699 -2268.4399 744.22498 9.2197031e-39
2755.28 -2246.8599 748.362 9.2197031e-39
2761.1299 -2219.6401 750.38501 9.2197031e-39
2782.1399 -2202.79 756.28802 9.2197031e-39
2789.1599 -2176.54 758.60699 9.2197031e-39
2802.5 -2154.54 762.54401 9.2197031e-39
2822.25 -2136.5898 768.12799 9.2197031e-39
2561.1001 1976.22 767.55701 9.2197031e-39
2836.0701 -2114.8 772.19202 9.2197031e-39
2848.8799 -2092.3701 775.995 9.2197031e-39
2861.5 -2069.8198 779.75 9.2197031e-39
2647.26 1093.79 775.73602 9.2197031e-39
2641.6599 1120.9 774.69397 9.2197031e-39
2873.9299 -2047.16 783.45502 9.2197031e-39
2886.1699 -2024.38 787.11102 9.2197031e-39
2680.3701 1086.52 784.46802 9.2197031e-39
2661.49 1167.42 780.78101 9.2197031e-39
2905.8701 -2005.8 792.69202 9.2197031e-39
2916.8999 -1982.26 796.03802 9.2197031e-39
2928.5901 -1959.1 799.55402 9.2197031e-39
2700.8301 1229.89 792.35498 9.2197031e-39
2948.7 -1940.38 805.24799 9.2197031e-39
2960.8999 -1917.37 808.89697 9.2197031e-39
2738.29 1096.11 800.11902 9.2197031e-39
2739.29 1293.2 803.70599 9.2197031e-39
2728.3 1571.05 805.44501 9.2197031e-39
2720.1299 1601.78 803.77899 9.2197031e-39
2660.1399 2498.8799 802.84497 9.2197031e-39
2972.03 -1893.8199 812.27197 9.2197031e-39
2982.0901 -1869.72 815.36798 9.2197031e-39
2778.3899 1358.5699 815.26202 9.2197031e-39
2780.5 1541.78 818.91199 9.2197031e-39
2769.8 1570.2 816.53003 9.2197031e-39
2717.21 2463.49 817.51099 9.2197031e-39
2691.4299 2484.8401 810.97498 9.2197031e-39
3000.72 -1849.78 820.685 9.2197031e-39
3011.28 -1825.86 823.91302 9.2197031e-39
3030.49 -1805.92 829.383 9.2197031e-39
2820.3501 1427.86 827.65002 9.2197031e-39
2802.05 1522.8701 824.35498 9.2197031e-39
3040.6799 -1781.73 832.51599 9.2197031e-39
3057.79 -1760.58 837.448 9.2197031e-39
3068.49 -1736.53 840.71503 9.2197031e-39
3086.1599 -1715.37 845.79797 9.2197031e-39
2868.1001 1503.6499 841.69598 9.2197031e-39
3104.5901 -1694.35 851.07898 9.2197031e-39
3112.9299 -1669.13 853.73499 9.2197031e-39
3130.1201 -1647.35 858.69702 9.2197031e-39
2905.78 1572.9199 852.93799 9.2197031e-39
3146.24 -1625 863.38397 9.2197031e-39
3155.8101 -1600.1 866.362 9.2197031e-39
2949.8301 1855.24 869.47302 9.2197031e-39
2930.5801 1880.05 864.742 9.2197031e-39
2928.7 1921.74 864.94299 9.2197031e-39
3180.72 -1580.65 873.35101 9.2197031e-39
3188.99 -1555.105 875.99597 9.2197031e-39
2945.8301 2368.03 877.03998 9.2197031e-39
3205.3401 -1532.269 880.75098 9.2197031e-39
3221.51 -1509.2109 885.46399 9.2197031e-39
2982.4399 2357.54 886.65198 9.2197031e-39
3238.4299 -1486.225 890.37701 9.2197031e-39
3245.9099 -1460.1589 892.81598 9.2197031e-39
3261.54 -1436.509 897.39301 9.2197031e-39
3013.1101 2340.0901 894.56 9.2197031e-39
3275.1201 -1412.1069 901.43597 9.2197031e-39
3290.3799 -1388.042 905.922 9.2197031e-39
3044.3501 2323.03 902.62903 9.2197031e-39
3313.8799 -1366.019 912.57703 9.2197031e-39
3319.3999 -1339.03 914.508 9.2197031e-39
3335.04 -1314.5701 919.10101 9.2197031e-39
3098.4299 2279.3999 916.354 9.2197031e-39
3074.8401 2304.9099 910.47699 9.2197031e-39
3358.02 -1291.686 925.633 9.2197031e-39
3372.3501 -1266.491 929.888 9.2197031e-39
3128.6599 2260.6899 924.12299 9.2197031e-39
3385.53 -1240.881 933.84497 9.2197031e-39
3189.49 2222.97 939.75702 9.2197031e-39
3159.47 2242.3401 932.05402 9.2197031e-39
3407.98 -1217.0811 940.25 9.2197031e-39
3422.6699 -1191.395 944.60999 9.2197031e-39
3436.2 -1165.308 948.66901 9.2197031e-39
3458.1001 -1140.5869 954.94 9.2197031e-39
3471.23 -1114.025 958.89899 9.2197031e-39
3484.1399 -1087.2681 962.80298 9.2197031e-39
3496.8401 -1060.316 966.65399 9.2197031e-39
3517.9399 -1034.427 972.73199 9.2197031e-39
3536.9199 -1007.93 978.25403 9.2197031e-39
3545.1399 -979.77899 980.92603 9.2197031e-39
3567.53 -953.21399 987.36102 9.2197031e-39
3564.73 -923.54602 987.10999 9.2197031e-39
3571.29 -894.91797 989.34601 9.2197031e-39
3601.6699 -868.383 997.91901 9.2197031e-39
3614.51 -839.90302 1001.83 9.2197031e-39
3626.1499 -811.14099 1005.43 9.2197031e-39
3644.3101 -782.617 1010.76 9.2197031e-39
3655.47 -753.41199 1014.24 9.2197031e-39
3677.01 -724.50201 1020.49 9.2197031e-39
3695.4199 -695.10999 1025.91 9.2197031e-39
3701.02 -665.04889 1027.91 9.2197031e-39
3707.3401 -634.91193 1030.11 9.2197031e-39
3714.3601 -604.67438 1032.5 9.2197031e-39
3740.46 -574.31909 1039.99 9.2197031e-39
3756.6299 -543.57642 1044.83 9.2197031e-39
3797.6499 -512.0943 1056.33 9.2197031e-39
3817.1499 -480.435 1062.08 9.2197031e-39
3860.51 -447.552 1074.23 9.2197031e-39
3879.45 -414.95898 1079.84 9.2197031e-39
3895.21 -382.168 1084.61 9.2197031e-39
3916.47 -348.71301 1090.85 9.2197031e-39
3940.3201 -314.64899 1097.8101 9.2197031e-39
3956.1599 -280.76001 1102.61 9.2197031e-39
3980.3601 -245.78101 1109.67 9.2197031e-39
4003.27 -210.436 1116.4 9.2197031e-39
4020.1001 -175.27399 1121.49 9.2197031e-39
4047.1699 -138.53699 1129.35 9.2197031e-39
4103.6001 -97.510986 1145.13 9.2197031e-39
4116.54 -61.286987 1149.2 9.2197031e-39
4070.9299 314.90503 1143.34 9.2197031e-39
4145.3999 -22.432007 1157.5699 9.2197031e-39
4102.9199 286.87097 1151.42 9.2197031e-39
4175.7998 17.281982 1166.37 9.2197031e-39
4145.1001 260.612 1162.26 9.2197031e-39
4150.6201 406.64398 1166.1899 9.2197031e-39
4196.2798 56.028015 1172.5 9.2197031e-39
4185.2402 233.25897 1172.53 9.2197031e-39
4174.8301 376.22803 1172.15 9.2197031e-39
4171.0298 448.69995 1172.36 9.2197031e-39
4223.0498 96.344971 1180.34 9.2197031e-39
4240.8799 135.63599 1185.76 9.2197031e-39
4227.0898 205.62799 1183.26 9.2197031e-39
4201.2798 494.04004 1181.21 9.2197031e-39
4221.7402 537.34998 1187.41 9.2197031e-39
4273.5298 178.21301 1195.21 9.2197031e-39
4229.71 577.52002 1190.22 9.2197031e-39
4269.6699 627.85999 1201.75 9.2197031e-39
4298 675.5 1210.13 9.2197031e-39
4320.2998 721.94995 1216.88 9.2197031e-39
4337.52 767.35999 1222.25 9.2197031e-39
4349.7002 811.58997 1226.25 9.2197031e-39
4377.8599 862 1234.63 9.2197031e-39
4342.25 1443.47 1234.9 9.2197031e-39
4357.73 1496.4399 1239.9301 9.2197031e-39
4400.0098 911.03003 1241.38 9.2197031e-39
4365.3398 1410.29 1240.51 9.2197031e-39
4436.1299 966.04004 1251.96 9.2197031e-39
4430.8599 1048.28 1251.9399 9.2197031e-39
4420.52 1392.47 1254.97 9.2197031e-39
4462.5298 1367.6 1265.79 9.2197031e-39
4502.6802 1341.3 1276.08 9.2197031e-39
4498.8901 1616.54 1279.7 9.2197031e-39
4532.98 1310.04 1283.65 9.2197031e-39
4580.8101 1286.2 1296.05 9.2197031e-39
4622.3301 1258.95 1306.6899 9.2197031e-39
4661.0298 1229.98 1316.55 9.2197031e-39
4702.25 1201.55 1327.1 9.2197031e-39
4738.1099 1895.26 1348.37 9.2197031e-39
4732.1401 1943.5901 1347.58 9.2197031e-39
4772.54 1862.97 1357.03 9.2197031e-39
4800.77 1827.01 1363.98 9.2197031e-39
4783.5698 2025.96 1362.73 9.2197031e-39
4836.4399 2110.95 1378.29 9.2197031e-39
4897.3398 2202.6699 1396.13 9.2197031e-39
4964.4502 2300.3301 1415.72 9.2197031e-39
5059.8398 2418.22 1443.21 9.2197031e-39
6529.3198 3667.4502 1857.22 9.2197031e-39
6587.7002 3626.5801 1872.14 9.2197031e-39
9497.54 5469.1401 2681.3201 9.2197031e-39
9566.4697 5397.73 2698.55 9.2197031e-39
