# .PCD v0.7 - Point Cloud Data file format
VERSION 0.7
FIELDS x y z rgb
SIZE 4 4 4 4
TYPE F F F F
COUNT 1 1 1 1
WIDTH 321
HEIGHT 1
VIEWPOINT 0 0 0 1 0 0 0
POINTS 321
DATA ascii
248.52699 -2290.3599 134 9.2197031e-39
262.91199 -2298.3198 137.858 9.2197031e-39
266.22601 -742.55103 138.13901 9.2197031e-39
271.42966 -742.56464 139.53368 9.2197031e-39
259.16699 -732.11401 136.244 9.2197031e-39
266.41852 -737.992 138.189 9.2197031e-39
259.702 -722.05798 136.383 9.2197031e-39
264.22049 -728.17554 137.59601 9.2197031e-39
260.51501 -717.98602 136.599 9.2197031e-39
251.767 -63.367004 134 9.2197031e-39
256.33801 -50.393982 135.22 9.2197031e-39
263.20001 -49.018005 137.058 9.2197031e-39
270.341 -40.729004 138.968 9.2197031e-39
307.577 -2343.3799 149.84399 9.2197031e-39
292.34601 -2324.8301 145.755 9.2197031e-39
277.60101 -2317.1401 141.80099 9.2197031e-39
275.53433 -743.60236 140.63367 9.2197031e-39
298.53601 -742.60498 146.797 9.2197031e-39
278.3063 -736.99298 141.37366 9.2197031e-39
285.4407 -733.29095 143.28416 9.2197031e-39
294.85434 -735.03973 145.80717 9.2197031e-39
300.15601 -738.88501 147.229 9.2197031e-39
278.91599 -727.34802 141.534 9.2197031e-39
282.37 -726.54401 142.459 9.2197031e-39
298.28751 -723.65448 146.7225 9.2197031e-39
304.6095 -466.207 148.3165 9.2197031e-39
285.76599 -451.98074 143.26151 9.2197031e-39
294.491 -450.42902 145.599 9.2197031e-39
306.51999 -456.52368 148.82466 9.2197031e-39
310.383 -459.03799 149.86 9.2197031e-39
275.45001 -440.487 140.493 9.2197031e-39
286.759 -448.10101 143.526 9.2197031e-39
294.9566 -446.8436 145.7224 9.2197031e-39
304.66 -442.48175 148.32076 9.2197031e-39
274.431 -434.23901 140.2175 9.2197031e-39
286.42999 -432.57001 143.43201 9.2197031e-39
307.38 -434.961 149.04601 9.2197031e-39
310.34601 -435.073 149.841 9.2197031e-39
278.91199 -427.914 141.416 9.2197031e-39
286.99301 -423.47198 143.57899 9.2197031e-39
275.04901 -415.12399 140.37601 9.2197031e-39
284.996 -414.87299 143.041 9.2197031e-39
288.59351 -396.22748 143.9975 9.2197031e-39
307.492 -151.23801 148.966 9.2197031e-39
310.58099 -94.179993 149.771 9.2197031e-39
308.50101 -74.786011 149.20599 9.2197031e-39
278.45901 -63.130005 141.15199 9.2197031e-39
285.22198 -62.054504 142.96399 9.2197031e-39
294.32401 -60.261475 145.40201 9.2197031e-39
302.9975 -63.609985 147.72751 9.2197031e-39
274.668 -47.916992 140.13 9.2197031e-39
338.44601 -2369.0601 158.125 9.2197031e-39
323.043 -2359.79 153.994 9.2197031e-39
314.82401 -452.36401 151.048 9.2197031e-39
1234.8199 -2999.8401 398.55301 9.2197031e-39
1237.05 -2947.73 399.13101 9.2197031e-39
1277.08 -3165.79 409.94199 9.2197031e-39
1253.36 -2930.5 403.49399 9.2197031e-39
1273.05 -2921.3601 408.76599 9.2197031e-39
1284.9301 -2894.8 411.939 9.2197031e-39
1300.59 -2877.24 416.12701 9.2197031e-39
1297.5601 1622.74 413.56299 9.2197031e-39
1322.02 -3346.5901 422.05399 9.2197031e-39
1319.8199 -2867.6699 421.27802 9.2197031e-39
1342.85 -2865.99 427.44601 9.2197031e-39
1324.59 1583.02 420.82101 9.2197031e-39
1322.66 1626.6201 420.28601 9.2197031e-39
1366.36 -2864.95 433.746 9.2197031e-39
1389.49 -2862.77 439.944 9.2197031e-39
1412.22 -2859.47 446.03299 9.2197031e-39
1430.65 1698.28 449.19199 9.2197031e-39
1416.6801 1719.49 445.44101 9.2197031e-39
1436.36 -2858.5601 452.50101 9.2197031e-39
1452.17 -2841.6399 456.729 9.2197031e-39
1462.9399 1665.26 457.85901 9.2197031e-39
1448.5 1684.9099 453.983 9.2197031e-39
1475.37 -2838.54 462.94501 9.2197031e-39
1498.13 -2834.3201 469.04099 9.2197031e-39
1494.97 1632.6399 466.453 9.2197031e-39
1479.52 1649.8799 462.30801 9.2197031e-39
1523.35 -2834.1799 475.79999 9.2197031e-39
1535.77 -2811.4399 479.11801 9.2197031e-39
1544.6801 1587.95 479.79001 9.2197031e-39
1529.26 1604.6899 475.65201 9.2197031e-39
1508.74 1612.71 470.15201 9.2197031e-39
1552.96 -4117.46 484.23401 9.2197031e-39
1573.47 -4081.3601 489.716 9.2197031e-39
1561.99 -2812.55 486.146 9.2197031e-39
1563.5 1577.03 484.83801 9.2197031e-39
1597.53 -2828.6299 495.673 9.2197031e-39
1605.11 1561.3701 495.99301 9.2197031e-39
1589 1576.8899 491.67099 9.2197031e-39
1647.13 -2823.26 508.96201 9.2197031e-39
1614.79 -2813.8501 500.293 9.2197031e-39
1638.0601 1380 504.89301 9.2197031e-39
1643.3199 1424.17 506.28601 9.2197031e-39
1634.0601 1448.13 503.79501 9.2197031e-39
1649.73 1509.95 507.96799 9.2197031e-39
1637.9301 1531.6101 504.798 9.2197031e-39
1624.8 1551.5601 501.272 9.2197031e-39
1660.95 1376.23 511.02701 9.2197031e-39
1686.79 1376.1801 517.95099 9.2197031e-39
1758.59 -2826.3899 538.83002 9.2197031e-39
1742.12 -2761.3401 534.39099 9.2197031e-39
1757.53 -2743.74 538.51398 9.2197031e-39
1768.1801 -2719.5801 541.35602 9.2197031e-39
1779.6801 -2697 544.43103 9.2197031e-39
1795.04 -2679.9299 548.53802 9.2197031e-39
1826.24 -2684.04 556.901 9.2197031e-39
1855.26 -3107.7 564.841 9.2197031e-39
1857.02 -3063.24 565.29498 9.2197031e-39
1840.13 -2991.71 560.74298 9.2197031e-39
1845.63 -2672.0801 562.09198 9.2197031e-39
1898.92 -2703.5 576.38202 9.2197031e-39
2023.8199 1794.26 608.09497 9.2197031e-39
2054.6599 -2862.3401 618.17401 9.2197031e-39
2133.23 1896.22 637.37097 9.2197031e-39
2204.72 1944.79 656.508 9.2197031e-39
2237.3601 -3048.4299 667.20203 9.2197031e-39
2252.3701 -3023.54 671.21399 9.2197031e-39
2267.75 -2999.3201 675.32397 9.2197031e-39
2282.23 -2974.25 679.19397 9.2197031e-39
2282.04 1998.46 677.20502 9.2197031e-39
2295.79 -2948.3701 682.81897 9.2197031e-39
2309.73 -2923.1599 686.54401 9.2197031e-39
2327.8999 1790.6201 689.573 9.2197031e-39
2310.3101 1812.28 684.854 9.2197031e-39
2310.3 1854.9199 684.83301 9.2197031e-39
2310.98 1899.25 684.99701 9.2197031e-39
2312.9299 1946.0701 685.50201 9.2197031e-39
2329.3201 -2904.47 691.78497 9.2197031e-39
2342.77 -2879.0701 695.38 9.2197031e-39
2355.95 -2853.6001 698.90302 9.2197031e-39
2368.8701 -2828.0601 702.35303 9.2197031e-39
2389.02 -2810.26 707.745 9.2197031e-39
2395.6001 1825.52 707.70099 9.2197031e-39
2399.8 2100.25 708.71997 9.2197031e-39
2401.46 -2784.54 711.06799 9.2197031e-39
2419.8701 -2765.03 715.995 9.2197031e-39
2430.4299 -2737.76 718.81201 9.2197031e-39
2444.9199 -2714.5801 722.68597 9.2197031e-39
2459.8999 -2691.97 726.69098 9.2197031e-39
2470.3601 -2665.23 729.48499 9.2197031e-39
2487.77 -2645.1001 734.14099 9.2197031e-39
2505.01 -2624.8101 738.75201 9.2197031e-39
2515.47 -2598.51 741.54498 9.2197031e-39
2525.6599 -2572.1802 744.26501 9.2197031e-39
2543.77 -2552.8301 749.10999 9.2197031e-39
2541.9099 1945.5601 746.85699 9.2197031e-39
2558.73 -2530.77 753.10901 9.2197031e-39
2575 -2509.8501 757.461 9.2197031e-39
2592.6101 -2490.01 762.17297 9.2197031e-39
2600.1201 -2462.0801 764.17297 9.2197031e-39
2615.8101 -2440.78 768.36902 9.2197031e-39
2612.96 1116.6 766.21997 9.2197031e-39
2632.8701 -2420.54 772.93201 9.2197031e-39
2641.96 -2394.23 775.35797 9.2197031e-39
2657.0801 -2372.5601 779.40002 9.2197031e-39
2639.21 1103.6801 773.25897 9.2197031e-39
2631.55 1162.22 771.18298 9.2197031e-39
2663.3101 -2344.4302 781.06097 9.2197031e-39
2686.76 -2328.8198 787.336 9.2197031e-39
2665.1899 1220.03 780.17401 9.2197031e-39
2698.04 1278.58 788.95203 9.2197031e-39
2692.23 1308.42 787.38501 9.2197031e-39
2700.7 1607.8 789.53802 9.2197031e-39
2699.72 -2305.6201 790.80103 9.2197031e-39
2715.7 -2284.54 795.073 9.2197031e-39
2728.27 -2261.1099 798.43298 9.2197031e-39
2731.9099 1104.33 798.09497 9.2197031e-39
2715.1201 1125.01 793.59003 9.2197031e-39
2719.1399 1585.5901 794.48602 9.2197031e-39
2736.5601 -2234.8999 800.64502 9.2197031e-39
2756.0601 -2216.1001 805.862 9.2197031e-39
2769.6699 -2193.3999 809.5 9.2197031e-39
2768.8701 1552.1001 807.82501 9.2197031e-39
2784.74 -2171.6201 813.53003 9.2197031e-39
2794.6499 -2146.6299 816.17499 9.2197031e-39
2788.1499 1419.12 813.04303 9.2197031e-39
2801.8601 1541.8401 816.66998 9.2197031e-39
2781.0901 1601.0701 811.08099 9.2197031e-39
2809.3501 -2124.5898 820.104 9.2197031e-39
2830.5801 -2106.3501 825.78802 9.2197031e-39
2834.8201 -2078.1299 826.91302 9.2197031e-39
2834.3701 1492.97 825.39801 9.2197031e-39
2841.6899 1536.73 827.34198 9.2197031e-39
2847.27 -2054.73 830.23798 9.2197031e-39
2868.04 -2035.92 835.79602 9.2197031e-39
2880.1299 -2012.22 839.026 9.2197031e-39
2899.75 -1992.51 844.27698 9.2197031e-39
2911.47 -1968.53 847.40802 9.2197031e-39
2920.6101 1890.8999 848.35101 9.2197031e-39
2904.5901 1919.6399 844.04602 9.2197031e-39
2921.26 -1943.5601 850.02002 9.2197031e-39
2942.1499 -1924.13 855.60999 9.2197031e-39
2951.54 -1898.92 858.117 9.2197031e-39
2934.1799 1860.0701 851.99799 9.2197031e-39
2960.77 2357.24 858.92999 9.2197031e-39
2970.3701 -1878.22 863.15503 9.2197031e-39
2981.1299 -1853.6 866.02698 9.2197031e-39
2994.9199 2342.71 868.086 9.2197031e-39
3000.53 -1832.88 871.21698 9.2197031e-39
3010.8999 -1808 873.98602 9.2197031e-39
3029.0901 -1786.47 878.85101 9.2197031e-39
3029.71 2328.49 877.41302 9.2197031e-39
3039.0601 -1761.3199 881.51501 9.2197031e-39
3056.02 -1739.03 886.04901 9.2197031e-39
3060.3601 2309.6299 885.633 9.2197031e-39
3073.71 -1716.88 890.78003 9.2197031e-39
3083.1001 -1691.34 893.28601 9.2197031e-39
3100.4399 -1668.8 897.92297 9.2197031e-39
3090.8999 2290.45 893.82501 9.2197031e-39
3117.6101 -1646.03 902.51703 9.2197031e-39
3126.3999 -1620.09 904.862 9.2197031e-39
3143.21 -1596.9399 909.35797 9.2197031e-39
3142.25 2192.76 907.62097 9.2197031e-39
3146.05 2245.5701 908.61798 9.2197031e-39
3122.03 2271.6201 902.17401 9.2197031e-39
3160.77 -1573.877 914.05402 9.2197031e-39
3175.3999 -1549.665 917.96399 9.2197031e-39
3190.76 -1525.557 922.07098 9.2197031e-39
3206.8701 -1501.53 926.37701 9.2197031e-39
3222.79 -1477.283 930.63397 9.2197031e-39
3238.53 -1452.818 934.84198 9.2197031e-39
3245.6899 -1425.793 936.75 9.2197031e-39
3269.45 -1403.2371 943.10699 9.2197031e-39
3284.6201 -1378.125 947.16199 9.2197031e-39
3299.6001 -1352.801 951.16498 9.2197031e-39
3314.3799 -1327.266 955.11603 9.2197031e-39
3329.8999 -1301.74 959.26599 9.2197031e-39
3344.28 -1275.78 963.10901 9.2197031e-39
3366.03 -1251.22 968.927 9.2197031e-39
3383.8101 -1225.55 973.68103 9.2197031e-39
3392.8501 -1197.957 976.091 9.2197031e-39
3400.7 -1170.074 978.185 9.2197031e-39
3406.4299 -1141.762 979.70801 9.2197031e-39
3407.1399 -1112.6021 979.888 9.2197031e-39
3443.8999 -1089.141 989.72803 9.2197031e-39
3452.77 -1060.978 992.09302 9.2197031e-39
3479.5901 -1035.2 999.271 9.2197031e-39
3488.02 -1006.631 1001.52 9.2197031e-39
3507.72 -979.31799 1006.78 9.2197031e-39
3523.3601 -951.258 1010.97 9.2197031e-39
3528.2 -921.87402 1012.25 9.2197031e-39
3534.72 -892.60803 1013.99 9.2197031e-39
3554.48 -864.36804 1019.27 9.2197031e-39
3553.78 -834.29901 1019.07 9.2197031e-39
3555.71 -804.45099 1019.58 9.2197031e-39
3575.72 -775.60699 1024.9301 9.2197031e-39
3605.1399 -746.86902 1032.8 9.2197031e-39
3629.5 -717.43201 1039.3101 9.2197031e-39
3657.48 -687.67657 1046.8 9.2197031e-39
3697.77 -657.67053 1057.58 9.2197031e-39
3729.1201 -626.85272 1065.97 9.2197031e-39
3729.3 -595.42871 1066.01 9.2197031e-39
3755.29 -563.8067 1072.96 9.2197031e-39
3771.3501 -531.87592 1077.25 9.2197031e-39
3796.8 -499.40509 1084.0601 9.2197031e-39
3819.0701 -466.57098 1090.01 9.2197031e-39
3837.2 -433.496 1094.86 9.2197031e-39
3860.8201 -399.77899 1101.17 9.2197031e-39
3883.1899 -365.68298 1107.15 9.2197031e-39
3899.47 -331.578 1111.5 9.2197031e-39
3923.1499 -296.54599 1117.83 9.2197031e-39
3947.49 -260.98099 1124.34 9.2197031e-39
3962.8401 -225.80399 1128.4399 9.2197031e-39
3983.6499 -189.70599 1134 9.2197031e-39
4008.9299 -152.64499 1140.76 9.2197031e-39
4028.1201 -115.82001 1145.89 9.2197031e-39
4076.6599 -74.612 1158.88 9.2197031e-39
4052.52 348.62097 1152.25 9.2197031e-39
4109.48 -34.695984 1167.66 9.2197031e-39
4085.71 320.27899 1161.15 9.2197031e-39
4095.1001 395.91901 1163.64 9.2197031e-39
4138.1001 5.2650146 1175.3101 9.2197031e-39
4149.1499 42.994995 1178.26 9.2197031e-39
4127.2002 293.34302 1172.28 9.2197031e-39
4119.3799 439.32996 1170.13 9.2197031e-39
4153.5 486.07996 1179.25 9.2197031e-39
4183.6899 85.062012 1187.5 9.2197031e-39
4168.52 265.72699 1183.36 9.2197031e-39
4178.73 531.13 1185.99 9.2197031e-39
4202.5898 125.04401 1192.55 9.2197031e-39
4218.1899 239.21198 1196.6801 9.2197031e-39
4213.7202 579.73999 1195.35 9.2197031e-39
4236.3101 168.31201 1201.5601 9.2197031e-39
4258.23 209.96997 1207.42 9.2197031e-39
4247.2598 628.78003 1204.3199 9.2197031e-39
4254.3901 670.35999 1206.21 9.2197031e-39
4273.1099 716.06006 1211.21 9.2197031e-39
4292.2798 762.5 1216.33 9.2197031e-39
4299.0498 805.28003 1218.13 9.2197031e-39
4319.1201 853.14001 1223.49 9.2197031e-39
4326.5698 1460.1001 1225.24 9.2197031e-39
4342.8701 1514.2 1229.59 9.2197031e-39
4358.73 908.79004 1234.08 9.2197031e-39
4374.0698 1576.8899 1237.9301 9.2197031e-39
4399.52 965.94995 1244.98 9.2197031e-39
4411.46 1056.01 1248.15 9.2197031e-39
4413.0698 1411.4399 1248.4399 9.2197031e-39
4382.0801 1442.09 1240.13 9.2197031e-39
4453.5298 1384.92 1259.29 9.2197031e-39
4458.6699 1031.27 1260.8101 9.2197031e-39
4459.4702 1118.74 1260.99 9.2197031e-39
4492.9702 1357.42 1269.87 9.2197031e-39
4532.27 1329.36 1280.41 9.2197031e-39
4574.0898 1301.91 1291.63 9.2197031e-39
4612.1899 1272.3101 1301.85 9.2197031e-39
4649.23 1241.8 1311.79 9.2197031e-39
4695.0698 1951.3301 1323.79 9.2197031e-39
4727.3599 1917.27 1332.46 9.2197031e-39
4747.52 2034.6001 1337.8101 9.2197031e-39
4763.6899 1885.1599 1342.2 9.2197031e-39
4804.1001 1854.8899 1353.04 9.2197031e-39
4797.23 2118.02 1351.1 9.2197031e-39
4846.7002 2203.04 1364.3199 9.2197031e-39
4920.77 2305.0801 1384.13 9.2197031e-39
5038.8101 2437.3401 1415.71 9.2197031e-39
6584.02 3654.0498 1829.27 9.2197031e-39
9498.8496 5489.6899 2609.5801 9.2197031e-39
9514.4805 5383.1802 2613.8101 9.2197031e-39
