# .PCD v0.7 - Point Cloud Data file format
VERSION 0.7
FIELDS x y z rgb
SIZE 4 4 4 4
TYPE F F F F
COUNT 1 1 1 1
WIDTH 320
HEIGHT 1
VIEWPOINT 0 0 0 1 0 0 0
POINTS 320
DATA ascii
315.15799 -2364.6299 138.009 9.2197031e-39
300.04501 -2354.9302 134 9.2197031e-39
297.05701 -749.21698 139.799 9.2197031e-39
285.76535 -734.52533 136.83434 9.2197031e-39
292.45233 -735.42401 138.62267 9.2197031e-39
287.47998 -729.32898 137.31549 9.2197031e-39
285.50201 -715.47803 136.842 9.2197031e-39
291.45865 -446.42868 139.54399 9.2197031e-39
290.04199 -437.172 139.203 9.2197031e-39
286.828 -73.353027 139.83701 9.2197031e-39
282.70999 -60.245972 138.787 9.2197031e-39
278.323 -52.172974 137.645 9.2197031e-39
266.91699 -44.673492 134.62 9.2197031e-39
273.798 -45.140991 136.46201 9.2197031e-39
346.771 -2405.5898 146.311 9.2197031e-39
330.82199 -2386.1802 142.117 9.2197031e-39
329.87701 -752.85498 148.578 9.2197031e-39
298.24298 -743.94946 140.13901 9.2197031e-39
324.00299 -742.27246 147.0475 9.2197031e-39
298.62701 -734.742 140.27901 9.2197031e-39
298.479 -724.08099 140.28351 9.2197031e-39
315.45734 -726.24335 144.82367 9.2197031e-39
321.47699 -725.14697 146.44099 9.2197031e-39
298.48599 -715.40601 140.321 9.2197031e-39
304.26926 -713.97217 141.87637 9.2197031e-39
310.61899 -718.38098 143.56 9.2197031e-39
320.54501 -719.09698 146.216 9.2197031e-39
298.29599 -709.31097 140.295 9.2197031e-39
319.35699 -480.215 146.88 9.2197031e-39
299.75299 -475.46899 141.647 9.2197031e-39
302.34668 -473.39932 142.35066 9.2197031e-39
299.478 -464.63049 141.61749 9.2197031e-39
305.224 -466.64633 143.14867 9.2197031e-39
326.02768 -464.35068 148.73201 9.2197031e-39
313.33875 -455.267 145.36951 9.2197031e-39
327.88098 -455.177 149.26651 9.2197031e-39
293.60199 -448.763 140.10899 9.2197031e-39
301.88599 -444.20599 142.347 9.2197031e-39
318.853 -448.96002 146.873 9.2197031e-39
325.8465 -442.54001 148.77325 9.2197031e-39
297.69199 -430.198 141.28101 9.2197031e-39
302.513 -434.138 142.556 9.2197031e-39
327.52753 -437.82898 149.24301 9.2197031e-39
302.34698 -423.4205 142.55551 9.2197031e-39
300.81 -419.58398 142.16 9.2197031e-39
292.54401 -400.23599 140.02499 9.2197031e-39
312.11301 -176.159 146.188 9.2197031e-39
314.62152 -81.011993 147.2515 9.2197031e-39
305.00366 -61.559998 144.755 9.2197031e-39
294.04449 -56.112488 141.841 9.2197031e-39
395.54599 -2446.9199 159.209 9.2197031e-39
378.79999 -2428.97 154.79601 9.2197031e-39
362.31601 -2409.8701 150.45799 9.2197031e-39
1149.55 -2847.4199 359.57401 9.2197031e-39
1168.91 -2840.3601 364.78799 9.2197031e-39
1184.45 -2823.9099 369.01999 9.2197031e-39
1203.62 -2816.53 374.186 9.2197031e-39
1219.21 -2800.74 378.42801 9.2197031e-39
1238.6 -2793.95 383.64999 9.2197031e-39
1259.98 -2791.51 389.388 9.2197031e-39
1282.22 -2790.6699 395.35001 9.2197031e-39
1304.9399 -2790.49 401.43799 9.2197031e-39
1328.59 -2791.8501 407.76999 9.2197031e-39
1346.23 -2780.47 412.54099 9.2197031e-39
1373.53 -2788.47 419.82401 9.2197031e-39
1304.75 1690.02 419.80301 9.2197031e-39
1396.08 -2786.4199 425.87399 9.2197031e-39
1333.54 1602.23 427.15701 9.2197031e-39
1320.11 1622.52 423.64099 9.2197031e-39
1318.51 1668.8701 423.40399 9.2197031e-39
1425.11 -2796.46 433.60999 9.2197031e-39
1443.1899 -2785.1101 438.5 9.2197031e-39
1357.83 1557.8899 433.48199 9.2197031e-39
1346.71 1581.8701 430.60199 9.2197031e-39
1448.83 -2750.9399 440.151 9.2197031e-39
1489.62 -2781.02 450.957 9.2197031e-39
1445.49 1682.8899 457.48199 9.2197031e-39
1536.39 -2820.02 463.327 9.2197031e-39
1490.2 1627.6799 469.23199 9.2197031e-39
1472.39 1640.3501 464.51199 9.2197031e-39
1460.92 1665.1699 461.543 9.2197031e-39
1512.6801 1579.5 475.05701 9.2197031e-39
1503.53 1607.0601 472.72 9.2197031e-39
1551.11 1560.1299 485.27399 9.2197031e-39
1532.92 1571.6201 480.44901 9.2197031e-39
1661.6801 -2771.1799 497.095 9.2197031e-39
1586.15 1534.99 494.55801 9.2197031e-39
1579.98 1566.26 493.03299 9.2197031e-39
1679.46 -2757.74 501.91299 9.2197031e-39
1701.48 -2750.75 507.84299 9.2197031e-39
1636.23 1533.3701 507.96799 9.2197031e-39
1626.17 1558.1899 505.37701 9.2197031e-39
1737.23 -3123.6101 515.888 9.2197031e-39
1742.9301 -3035.6599 517.776 9.2197031e-39
1736.55 -2978.3799 516.30298 9.2197031e-39
1726.17 -2916.3601 513.77698 9.2197031e-39
1714.65 -2730.3999 511.45499 9.2197031e-39
1726.47 -2708.3401 514.71198 9.2197031e-39
1744.26 -2695.1499 519.53101 9.2197031e-39
1670.96 1357.8 516.55298 9.2197031e-39
1650.5 1364.72 511.09799 9.2197031e-39
1663.1801 1419.36 514.72198 9.2197031e-39
1655.0601 1444.95 512.65198 9.2197031e-39
1672.9399 1510.02 517.70801 9.2197031e-39
1657.34 1525.9199 513.59302 9.2197031e-39
1757.01 -3107.75 521.25098 9.2197031e-39
1774.54 -2699.52 527.62799 9.2197031e-39
1698.41 1360.22 523.91699 9.2197031e-39
1798.63 -2694.6899 534.10199 9.2197031e-39
1852.6801 -2730.1399 548.43701 9.2197031e-39
1849.15 1527.77 564.992 9.2197031e-39
2179.8601 -3127.2 634.461 9.2197031e-39
2190.95 -3096.5701 637.55902 9.2197031e-39
2210.77 -3077.6101 642.948 9.2197031e-39
2226.74 -3053.8401 647.32397 9.2197031e-39
2241.8401 -3029.21 651.46997 9.2197031e-39
2256.6699 -3004.5 655.54498 9.2197031e-39
2271.8701 -2980.45 659.716 9.2197031e-39
2169.0801 1912.1201 652.28497 9.2197031e-39
2286.1699 -2955.5701 663.65002 9.2197031e-39
2306.02 -2937.3101 669.04199 9.2197031e-39
2319.8401 -2912.23 672.849 9.2197031e-39
2334.0601 -2887.8 676.758 9.2197031e-39
2269.6399 1997.96 679.58099 9.2197031e-39
2347.3501 -2862.5701 680.42401 9.2197031e-39
2366.4099 -2843.77 685.60699 9.2197031e-39
2377.8701 -2816.9199 688.78802 9.2197031e-39
2397.23 -2798.55 694.04797 9.2197031e-39
2409.55 -2772.97 697.45502 9.2197031e-39
2421.6001 -2747.3401 700.78998 9.2197031e-39
2438.99 -2727.1799 705.53003 9.2197031e-39
2451.25 -2702.0701 708.91998 9.2197031e-39
2383.1101 1868.8999 709.45001 9.2197031e-39
2369.8999 1896.9299 706.026 9.2197031e-39
2353.23 1921.1101 701.66101 9.2197031e-39
2351.0901 2055.8 701.64001 9.2197031e-39
2468.95 -2682.3301 713.74298 9.2197031e-39
2479.3201 -2655.72 716.62903 9.2197031e-39
2413.8201 1818.5901 717.47198 9.2197031e-39
2401.1799 1846.76 714.20203 9.2197031e-39
2495.8999 -2635.0698 721.15698 9.2197031e-39
2507.21 -2609.6602 724.29102 9.2197031e-39
2524.1299 -2589.4199 728.90698 9.2197031e-39
2534.22 -2563.22 731.71997 9.2197031e-39
2550.75 -2542.73 736.23102 9.2197031e-39
2566.3501 -2521.47 740.49799 9.2197031e-39
2576.48 -2495.7 743.31897 9.2197031e-39
2592.4299 -2474.8301 747.67902 9.2197031e-39
2514.23 2163.79 745.79102 9.2197031e-39
2608.21 -2453.8198 751.992 9.2197031e-39
2623.8101 -2432.6699 756.258 9.2197031e-39
2542.28 1918.78 752.30103 9.2197031e-39
2639.23 -2411.3799 760.47699 9.2197031e-39
2654.47 -2389.95 764.64801 9.2197031e-39
2669.53 -2368.3901 768.771 9.2197031e-39
2676.5 -2340.9302 770.75201 9.2197031e-39
2698.3 -2324.28 776.66101 9.2197031e-39
2705.6001 -2297.27 778.729 9.2197031e-39
2643.78 1088.4399 776.08099 9.2197031e-39
2642.1899 1118.95 775.78101 9.2197031e-39
2720.6799 -2275.79 782.85699 9.2197031e-39
2734.78 -2253.6299 786.724 9.2197031e-39
2660.27 1068.61 780.41602 9.2197031e-39
2668.6101 1170.39 783.07001 9.2197031e-39
2748.6799 -2231.3398 790.54102 9.2197031e-39
2764.04 -2209.99 794.742 9.2197031e-39
2775.9299 -2186.3901 798.02502 9.2197031e-39
2732.23 1086.55 799.771 9.2197031e-39
2702.1599 1228.3 792.29797 9.2197031e-39
2716.26 1272.71 796.25702 9.2197031e-39
2722.8799 1566.48 799.23798 9.2197031e-39
2703.28 2449.5801 797.617 9.2197031e-39
2789.26 -2163.74 801.69098 9.2197031e-39
2810.72 -2146.0601 807.51398 9.2197031e-39
2761.73 1562.1799 809.63 9.2197031e-39
2822.8799 -2122.5801 810.86798 9.2197031e-39
2835.6799 -2099.5 814.39099 9.2197031e-39
2848.28 -2076.3101 817.86298 9.2197031e-39
2785.3999 1360.7 815.14203 9.2197031e-39
2800.8601 1445.1 819.63098 9.2197031e-39
2788.6599 1509.3201 816.62799 9.2197031e-39
2791.75 1549.74 817.61902 9.2197031e-39
2860.6899 -2053 821.28198 9.2197031e-39
2872.8999 -2029.58 824.64899 9.2197031e-39
2833.29 1434.3 828.27399 9.2197031e-39
2808.24 1681.4199 822.58099 9.2197031e-39
2892.6101 -2010.22 830.01099 9.2197031e-39
2904.46 -1986.52 833.28198 9.2197031e-39
2916.1001 -1962.7 836.5 9.2197031e-39
2872.1399 1540.47 839.12 9.2197031e-39
2935.3601 -1942.75 841.73999 9.2197031e-39
2945.76 -1918.23 844.62903 9.2197031e-39
2964.7 -1897.87 849.78699 9.2197031e-39
2975.6001 -1873.51 852.80603 9.2197031e-39
2995.1101 -1853.15 858.117 9.2197031e-39
2916.8799 1863.6899 852.435 9.2197031e-39
3013.5901 -1832.13 863.15503 9.2197031e-39
3023.9299 -1807.34 866.02698 9.2197031e-39
2948.3501 1849.6001 860.81 9.2197031e-39
2945.99 1934.6599 860.52698 9.2197031e-39
2974.96 2345.3101 869.97498 9.2197031e-39
3042.0901 -1785.91 870.97998 9.2197031e-39
3052.03 -1760.86 873.74799 9.2197031e-39
3069.8501 -1739.04 878.612 9.2197031e-39
3011.72 2333.6799 879.77698 9.2197031e-39
3088.4199 -1717.35 883.67499 9.2197031e-39
3096.8799 -1691.53 886.04901 9.2197031e-39
3042.3899 2315.2 887.91803 9.2197031e-39
3114.2 -1669.09 890.78003 9.2197031e-39
3131.3501 -1646.41 895.46802 9.2197031e-39
3140.1201 -1620.5601 897.92297 9.2197031e-39
3072.96 2296.3899 896.03003 9.2197031e-39
3156.9099 -1597.51 902.51703 9.2197031e-39
3173.52 -1574.2271 907.065 9.2197031e-39
3102.04 2275.8501 903.737 9.2197031e-39
3188.1299 -1550.1169 911.07599 9.2197031e-39
3204.3899 -1526.407 915.53101 9.2197031e-39
3210.29 -1499.324 917.22302 9.2197031e-39
3156.29 2230.4299 918.08502 9.2197031e-39
3132.3799 2256.3899 911.78497 9.2197031e-39
3237.3101 -1478.603 924.54602 9.2197031e-39
3251.1699 -1453.6851 928.362 9.2197031e-39
3191.3 2215.1201 927.40302 9.2197031e-39
3265.77 -1428.845 932.37598 9.2197031e-39
3282.04 -1404.313 936.83698 9.2197031e-39
3297.2 -1379.3049 941 9.2197031e-39
3312.1599 -1354.085 945.11102 9.2197031e-39
3326.9199 -1328.6541 949.17102 9.2197031e-39
3349.97 -1304.985 955.44397 9.2197031e-39
3364.3501 -1279.0601 959.40302 9.2197031e-39
3378.53 -1252.9299 963.30902 9.2197031e-39
3392.5 -1226.595 967.15997 9.2197031e-39
3421.45 -1203.015 975.01398 9.2197031e-39
3428.3701 -1174.905 976.98297 9.2197031e-39
3430.29 -1145.879 977.61798 9.2197031e-39
3441.5 -1118.452 980.73401 9.2197031e-39
3450.5801 -1090.564 983.28101 9.2197031e-39
3474.73 -1064.8201 989.85797 9.2197031e-39
3486.24 -1036.946 993.05603 9.2197031e-39
3510.9399 -1010.642 999.78198 9.2197031e-39
3520.0901 -982.07202 1002.35 9.2197031e-39
3540.53 -954.65399 1007.94 9.2197031e-39
3540.5701 -924.82898 1008.07 9.2197031e-39
3544.1899 -895.388 1009.16 9.2197031e-39
3564.9099 -867.367 1014.83 9.2197031e-39
3570.9399 -837.909 1016.57 9.2197031e-39
3568.05 -807.789 1015.92 9.2197031e-39
3585.1599 -778.89301 1020.62 9.2197031e-39
3598.1799 -749.52002 1024.23 9.2197031e-39
3628.3201 -720.59998 1032.42 9.2197031e-39
3650.51 -690.91797 1038.49 9.2197031e-39
3671.48 -660.823 1044.23 9.2197031e-39
3751.1101 -631.0498 1065.6899 9.2197031e-39
3765.78 -599.66583 1069.75 9.2197031e-39
3768.6001 -568.09241 1070.63 9.2197031e-39
3794.3201 -536.11267 1077.65 9.2197031e-39
3819.77 -503.66602 1084.61 9.2197031e-39
3837.22 -471.013 1089.41 9.2197031e-39
3861.1399 -437.75 1095.96 9.2197031e-39
3881.8701 -404.19501 1101.65 9.2197031e-39
3900.3799 -370.37 1106.75 9.2197031e-39
3920.52 -336.06201 1112.29 9.2197031e-39
3947.1001 -300.841 1119.55 9.2197031e-39
3971.4299 -265.29001 1126.22 9.2197031e-39
3983.9099 -230.39499 1129.7 9.2197031e-39
4011.4399 -193.61899 1137.23 9.2197031e-39
4038.6399 -156.31799 1144.67 9.2197031e-39
4084.6699 -116.10901 1157.17 9.2197031e-39
4087.9399 274.72998 1159.65 9.2197031e-39
4071.05 306.94702 1155.26 9.2197031e-39
4112.1001 -77.466003 1164.6801 9.2197031e-39
4111.23 353.00897 1166.21 9.2197031e-39
4143 -37.744019 1173.12 9.2197031e-39
4159.1802 0.39697266 1177.61 9.2197031e-39
4129.1401 247.61603 1170.58 9.2197031e-39
4125.6001 393.40198 1170.23 9.2197031e-39
4156.4199 438.58997 1178.67 9.2197031e-39
4190.2798 41.333984 1186.11 9.2197031e-39
4177.7598 221.39697 1183.5 9.2197031e-39
4188.6401 484.92004 1187.49 9.2197031e-39
4207.6401 80.60498 1190.9301 9.2197031e-39
4218.6299 192.85797 1194.33 9.2197031e-39
4221.29 532.17004 1196.4399 9.2197031e-39
4243.6699 123.65802 1200.75 9.2197031e-39
4265.02 164.71997 1206.64 9.2197031e-39
4246.02 577.92004 1203.25 9.2197031e-39
4270.27 624.18994 1209.9399 9.2197031e-39
4289.4102 669.54004 1215.25 9.2197031e-39
4302.5698 713.55005 1218.96 9.2197031e-39
4323.5601 760.64001 1224.78 9.2197031e-39
4334.8901 805.06006 1228 9.2197031e-39
4373.2002 859.48999 1238.48 9.2197031e-39
4351.8599 1411.36 1235.03 9.2197031e-39
4359.1299 1460.3601 1237.1801 9.2197031e-39
4363.2798 1508.3101 1238.49 9.2197031e-39
4399.2798 1389.12 1247.65 9.2197031e-39
4420 918.03003 1251.26 9.2197031e-39
4425.5601 1004.92 1253.11 9.2197031e-39
4443.4902 1054.85 1258.12 9.2197031e-39
4429.04 1357.9399 1255.49 9.2197031e-39
4477.0298 981.58997 1266.8 9.2197031e-39
4469.1802 1331.21 1266.14 9.2197031e-39
4510.0801 1304.3101 1276.98 9.2197031e-39
4550.8398 1276.8101 1287.79 9.2197031e-39
4599.4902 1252.15 1300.72 9.2197031e-39
4670.4399 1190.04 1319.48 9.2197031e-39
4639.0898 1223.02 1311.21 9.2197031e-39
4708.75 1888.99 1332.61 9.2197031e-39
4745.7402 1857.6699 1342.39 9.2197031e-39
4761.2002 1970.97 1347 9.2197031e-39
4787.6802 1828.6299 1353.51 9.2197031e-39
4803.3501 2048.6899 1358.62 9.2197031e-39
4820.8599 1794.51 1362.26 9.2197031e-39
4857.9302 2135.3301 1373.59 9.2197031e-39
4946.3599 2244.3799 1397.73 9.2197031e-39
5054.02 2368.05 1427.09 9.2197031e-39
6552.79 3610.3799 1833.74 9.2197031e-39
6619 3573.7798 1851.33 9.2197031e-39
9564.6299 5273.5498 2647.5 9.2197031e-39
9551.6602 5381.0698 2644.47 9.2197031e-39
