# .PCD v0.7 - Point Cloud Data file format
VERSION 0.7
FIELDS x y z rgb
SIZE 4 4 4 4
TYPE F F F F
COUNT 1 1 1 1
WIDTH 316
HEIGHT 1
VIEWPOINT 0 0 0 1 0 0 0
POINTS 316
DATA ascii
655.89502 -2774.76 133.24699 9.2197031e-39
677.21503 -2769.8701 139.10001 9.2197031e-39
306.14948 -693.91003 138.3515 9.2197031e-39
310.27399 -692.078 139.52551 9.2197031e-39
298.39767 -683.97675 136.77133 9.2197031e-39
304.215 -686.64648 138.1815 9.2197031e-39
295.034 -679.3299 136.101 9.2197031e-39
300.96301 -675.64368 137.838 9.2197031e-39
184.14499 -61.502014 135.758 9.2197031e-39
197.6965 -68.074493 139.026 9.2197031e-39
177.76199 -59.533997 134.166 9.2197031e-39
189.729 -58.599976 137.367 9.2197031e-39
714.37 -2761.5701 149.29201 9.2197031e-39
691.25 -2757.02 143.405 9.2197031e-39
320.09601 -710.34601 141.26199 9.2197031e-39
317.13824 -697.31726 141.09149 9.2197031e-39
327.75049 -690.95898 144.18851 9.2197031e-39
337.26974 -692.28381 146.63824 9.2197031e-39
318.12936 -686.1192 141.877 9.2197031e-39
324.25 -685.29474 143.5302 9.2197031e-39
334.68298 -684.00848 146.343 9.2197031e-39
344.09 -688.96259 148.593 9.2197031e-39
336.888 -679.34821 147.14301 9.2197031e-39
294.97501 -423.45099 148.06 9.2197031e-39
273.21463 -413.91467 142.76567 9.2197031e-39
276.82751 -404.41272 144.16325 9.2197031e-39
284.96533 -402.65268 146.39265 9.2197031e-39
294.50198 -404.30957 148.83115 9.2197031e-39
271.10501 -395.41101 143.075 9.2197031e-39
283.62967 -396.72266 146.31767 9.2197031e-39
290.33899 -394.82501 148.177 9.2197031e-39
270.38199 -373.37701 143.91499 9.2197031e-39
269.64499 -354.353 144.61099 9.2197031e-39
268.56 -310.349 146.384 9.2197031e-39
267.67999 -235.39801 149.659 9.2197031e-39
264.664 -213.36401 149.895 9.2197031e-39
228.99699 -70.453979 147.173 9.2197031e-39
232.57899 -72.234009 148.034 9.2197031e-39
206.009 -68.540009 141.19699 9.2197031e-39
214.04349 -66.670013 143.40451 9.2197031e-39
222.151 -65.444519 145.60049 9.2197031e-39
236.422 -58.018005 149.713 9.2197031e-39
731.06799 -2762.1599 153.67 9.2197031e-39
301.86749 -403.711 150.80251 9.2197031e-39
262.073 -183.37 150.61501 9.2197031e-39
257.189 -96.455994 153.394 9.2197031e-39
253.49699 -77.502014 153.30701 9.2197031e-39
248.661 -69.588989 152.401 9.2197031e-39
239.96201 -57.862 150.655 9.2197031e-39
244.811 -59.692993 151.84801 9.2197031e-39
764.74597 -2813.1299 160.16901 9.2197031e-39
1661.48 -2798.01 397.46201 9.2197031e-39
1755 -3098.2 408.08801 9.2197031e-39
1737.03 -3012.05 407.38 9.2197031e-39
1734.9399 -2968.5601 408.86099 9.2197031e-39
1672.72 -2779.8401 401.27802 9.2197031e-39
1682.77 -2747.8701 405.42599 9.2197031e-39
1703.88 -2745.4199 411.112 9.2197031e-39
1721.05 -2724.8899 416.60101 9.2197031e-39
1769.75 -2716.7 429.832 9.2197031e-39
1733.74 -2709.72 420.66101 9.2197031e-39
1792.05 -2715 435.79501 9.2197031e-39
1836.58 -2732.3799 446.73199 9.2197031e-39
1859.74 -2730.8501 452.91299 9.2197031e-39
1062.47 2380.3601 481.76001 9.2197031e-39
1098.36 2426.49 493.388 9.2197031e-39
1264.85 1749.29 505.62299 9.2197031e-39
1254.39 1771.6799 503.91101 9.2197031e-39
1158.0699 2441.77 509.85699 9.2197031e-39
1329.15 1683.2 519.495 9.2197031e-39
1318.4 1703.1599 517.59003 9.2197031e-39
1303.34 1729.52 514.85303 9.2197031e-39
1287.62 1739.45 511.168 9.2197031e-39
1184.5 2423.48 515.97302 9.2197031e-39
1151.96 2502.22 511.073 9.2197031e-39
2187.75 -3125.76 520.97101 9.2197031e-39
2200.6699 -3104.01 525.39899 9.2197031e-39
1377.02 1538.9099 525.37097 9.2197031e-39
1357.95 1553.2 521.00702 9.2197031e-39
1351.21 1578.4399 520.40997 9.2197031e-39
1355.05 1639.3301 524.27399 9.2197031e-39
1344.8 1659.3799 522.508 9.2197031e-39
1203.86 2409.4399 520.42499 9.2197031e-39
1232.9301 2400.1599 527.659 9.2197031e-39
2219.6399 -3077.0901 531.66302 9.2197031e-39
2237.6101 -3062.21 537.09998 9.2197031e-39
1422.49 1500.4399 535.56598 9.2197031e-39
1410.46 1514.6399 533.05701 9.2197031e-39
1395.42 1536.1799 530.09802 9.2197031e-39
1276.64 2363.8301 537.49103 9.2197031e-39
1251.7 2384.8501 531.89502 9.2197031e-39
2250.46 -3028.04 542.091 9.2197031e-39
2262.4399 -3006 546.28198 9.2197031e-39
1447.87 1497.49 542.125 9.2197031e-39
1473.17 1505.99 549.198 9.2197031e-39
1323.88 2338.9399 548.789 9.2197031e-39
1298.01 2356.6399 542.79401 9.2197031e-39
2279.5801 -2977.8701 552.12097 9.2197031e-39
2291.0801 -2955.71 556.19202 9.2197031e-39
1498.77 1502.4199 555.78497 9.2197031e-39
1367.03 2304.01 558.53998 9.2197031e-39
1341.26 2321.1799 552.54498 9.2197031e-39
2308.25 -2928.1399 562.01099 9.2197031e-39
2325.1399 -2912.5701 567.19397 9.2197031e-39
1565.05 1419.29 569.38098 9.2197031e-39
1412.33 2275.76 569.16803 9.2197031e-39
1387.28 2294.28 563.42798 9.2197031e-39
2341.77 -2884.75 572.88397 9.2197031e-39
2353.6899 -2863.79 577.01099 9.2197031e-39
1601.73 1399.98 578.15399 9.2197031e-39
1580.9301 1400.6 572.69702 9.2197031e-39
1561.92 1571.6399 575.685 9.2197031e-39
1432.74 2266.6001 574.12598 9.2197031e-39
2375.77 -2842.3301 583.84003 9.2197031e-39
2385.95 -2819.73 587.58301 9.2197031e-39
1622.21 1357.5601 581.57397 9.2197031e-39
1615.09 1377.77 580.63898 9.2197031e-39
1620.95 1537.45 589.65698 9.2197031e-39
1595.73 1544.1599 583.31799 9.2197031e-39
1582.0601 1557.02 580.31403 9.2197031e-39
2401.45 -2791.49 592.99402 9.2197031e-39
2418.03 -2775.9199 598.09698 9.2197031e-39
1660.4399 1370.1801 592.24902 9.2197031e-39
1685.4301 1374.23 599.03198 9.2197031e-39
2432.99 -2747.45 603.37799 9.2197031e-39
2441.5701 -2723.9299 606.73999 9.2197031e-39
2462.27 -2701.55 613.25098 9.2197031e-39
2471.1101 -2678.6201 616.65601 9.2197031e-39
2492.8101 -2657.29 623.37799 9.2197031e-39
2501.22 -2634.24 626.677 9.2197031e-39
2521.05 -2611.23 632.98401 9.2197031e-39
2529.03 -2588.0698 636.17297 9.2197031e-39
2549.1399 -2565.4302 642.539 9.2197031e-39
2555.2 -2540.8799 645.28699 9.2197031e-39
2574.8601 -2517.95 651.54797 9.2197031e-39
2588.01 -2499.6802 655.87097 9.2197031e-39
2607.28 -2476.3999 662.04401 9.2197031e-39
2613.99 -2452.9302 664.91302 9.2197031e-39
2632.04 -2428.75 670.80701 9.2197031e-39
2645.29 -2410.6699 675.14899 9.2197031e-39
2662.9299 -2386.1602 680.94897 9.2197031e-39
2675.8701 -2367.8301 685.22101 9.2197031e-39
2686.75 -2338.3301 689.47302 9.2197031e-39
2698.55 -2319.25 693.47998 9.2197031e-39
2715.29 -2294.1802 699.06897 9.2197031e-39
2727.5701 -2275.45 703.18402 9.2197031e-39
2743.0701 -2249.53 708.48602 9.2197031e-39
2755.8301 -2231.1299 712.71503 9.2197031e-39
2778.26 -2209.79 719.63098 9.2197031e-39
2039.8199 1804.1799 712.65198 9.2197031e-39
2789.9199 -2190.5698 723.60602 9.2197031e-39
2803.74 -2163.5 728.51898 9.2197031e-39
2815.0601 -2144.0801 732.41498 9.2197031e-39
2830.0801 -2117.8 737.60901 9.2197031e-39
2848.6299 -2102.72 743.20898 9.2197031e-39
2863.25 -2076.0801 748.31097 9.2197031e-39
2873.9399 -2056.2 752.06097 9.2197031e-39
2896.6299 -2034.11 759.08099 9.2197031e-39
2898.4399 -2009.23 760.72498 9.2197031e-39
2920.75 -1986.73 767.664 9.2197031e-39
2922.1499 -1961.8101 769.198 9.2197031e-39
2951.8799 -1942.96 777.92499 9.2197031e-39
2961.6001 -1922.39 781.45203 9.2197031e-39
2974.45 -1894.5699 786.14301 9.2197031e-39
2991.72 -1877.67 791.49103 9.2197031e-39
3004.1299 -1849.54 796.08197 9.2197031e-39
3021.1399 -1832.27 801.37701 9.2197031e-39
3042 -1807.86 808.02301 9.2197031e-39
3050.73 -1786.59 811.323 9.2197031e-39
3062.25 -1757.84 815.70599 9.2197031e-39
3078.71 -1739.83 820.89203 9.2197031e-39
3096.98 -1713.76 826.93402 9.2197031e-39
3105.9399 -1692.42 830.29401 9.2197031e-39
3124.71 -1666.29 836.46899 9.2197031e-39
3131.5 -1644.03 839.30298 9.2197031e-39
2634.0701 1066.27 834.90198 9.2197031e-39
2642.1201 1098.42 838.53003 9.2197031e-39
3158.0701 -1620.52 847.41302 9.2197031e-39
3163.6101 -1597.6799 849.94299 9.2197031e-39
2664.45 1051.1801 842.21002 9.2197031e-39
3183.3799 -1571.291 856.396 9.2197031e-39
2686.8 1166.4 853.49902 9.2197031e-39
3196.8501 -1551.121 860.89203 9.2197031e-39
3215.3 -1523.895 867.034 9.2197031e-39
2730.52 1068.23 860.43903 9.2197031e-39
2708.0801 1209.55 861.133 9.2197031e-39
2705.49 1245.9 862.151 9.2197031e-39
3230.3 -1503.958 871.92603 9.2197031e-39
3246.48 -1475.6389 877.51898 9.2197031e-39
2714.3799 1568.8 879.60797 9.2197031e-39
3260.25 -1455.027 882.11603 9.2197031e-39
3276.9199 -1426.533 887.84698 9.2197031e-39
2788.8701 1336.97 888.41101 9.2197031e-39
2760.04 1531.97 889.92999 9.2197031e-39
2724.6001 1545.3101 881.203 9.2197031e-39
3290.3601 -1405.55 892.37598 9.2197031e-39
2793.24 1527.3799 898.47498 9.2197031e-39
3315.96 -1379.1379 900.367 9.2197031e-39
3320.6399 -1355.489 902.70697 9.2197031e-39
2849.02 1423.4301 908.32599 9.2197031e-39
2837.6399 1488.28 908.35699 9.2197031e-39
2806.73 1495.3701 900.53497 9.2197031e-39
2643.3899 2492.03 904.08301 9.2197031e-39
3344.8799 -1328.2009 910.38 9.2197031e-39
3358.6201 -1306.65 915.013 9.2197031e-39
2857.5801 1461.3101 912.35602 9.2197031e-39
2701.0901 2455.6499 917.60303 9.2197031e-39
2671.54 2481.0701 910.99597 9.2197031e-39
3382.45 -1278.6599 922.60999 9.2197031e-39
3394.9099 -1256.4509 926.93597 9.2197031e-39
2728.49 2443.3799 924.25702 9.2197031e-39
3411.6699 -1226.348 932.76599 9.2197031e-39
3423.77 -1203.775 937.01599 9.2197031e-39
2778.5601 2397.1201 935.30298 9.2197031e-39
2757.6799 2417.3701 930.74103 9.2197031e-39
3446.71 -1174.489 944.43903 9.2197031e-39
3460.3701 -1151.865 949.10101 9.2197031e-39
2907.5601 1783.3201 940.61298 9.2197031e-39
2833.6799 2356.5901 947.948 9.2197031e-39
2811.1699 2375.04 942.87097 9.2197031e-39
3483.8 -1122.058 956.67902 9.2197031e-39
3496.1499 -1098.812 961.02399 9.2197031e-39
3519.1101 -1068.304 968.51001 9.2197031e-39
2982.6699 1886.4199 965.25299 9.2197031e-39
2910.53 2383.26 969.47302 9.2197031e-39
3529.1799 -1044.338 972.28601 9.2197031e-39
3551.6499 -1013.157 979.67401 9.2197031e-39
2932.48 2363.3101 974.328 9.2197031e-39
3564.2 -989.20001 984.10797 9.2197031e-39
2993.96 2326.9099 988.84497 9.2197031e-39
2966.25 2340.9199 982.19 9.2197031e-39
3587.1299 -957.44202 991.64301 9.2197031e-39
3596.4199 -932.70496 995.25 9.2197031e-39
3606.3 -898.95496 999.43799 9.2197031e-39
3028.1599 2304.49 996.81799 9.2197031e-39
3617.1001 -874.13196 1003.45 9.2197031e-39
3082.76 2259.8301 1009.13 9.2197031e-39
3048.8799 2282.9199 1001.28 9.2197031e-39
3636.0701 -840.875 1010.01 9.2197031e-39
3653.21 -816.19299 1015.69 9.2197031e-39
3108.74 2243.3101 1015.22 9.2197031e-39
3663.9099 -781.737 1020.12 9.2197031e-39
3670.01 -755.91699 1022.94 9.2197031e-39
3168.01 2106.28 1024.4399 9.2197031e-39
3168.1299 2202.4299 1028.97 9.2197031e-39
3143.05 2220.1799 1023.19 9.2197031e-39
3697.52 -721.99701 1031.79 9.2197031e-39
3711.8899 -696.19702 1036.78 9.2197031e-39
3201.45 2177.8899 1036.61 9.2197031e-39
3737.8601 -661.33807 1045.27 9.2197031e-39
3756.6299 -635.09808 1051.45 9.2197031e-39
3757.8301 -598.98016 1053.45 9.2197031e-39
3751.01 -572.09229 1052.91 9.2197031e-39
3784.47 -535.87891 1063.4399 9.2197031e-39
3804.26 -508.58801 1069.9301 9.2197031e-39
3839.02 -471.16602 1080.86 9.2197031e-39
3866.05 -442.85602 1089.3101 9.2197031e-39
3918.49 -403.41 1104.99 9.2197031e-39
3920.8701 -375.134 1106.9399 9.2197031e-39
3952.3201 -335.32001 1117.1 9.2197031e-39
3959.99 -306.328 1120.48 9.2197031e-39
3993.6101 -265.27499 1131.28 9.2197031e-39
3999.79 -235.86899 1134.28 9.2197031e-39
4025.9299 -194.375 1143.12 9.2197031e-39
4067.1399 -160.923 1155.5601 9.2197031e-39
4105.9199 -116.673 1167.86 9.2197031e-39
4133.04 -83.423004 1176.5699 9.2197031e-39
4062.6499 261.04498 1174.12 9.2197031e-39
4152.77 -40.093018 1183.8 9.2197031e-39
4162.9902 -8.184021 1188 9.2197031e-39
4094.27 237.00897 1181.34 9.2197031e-39
4144.8301 205.55103 1193.21 9.2197031e-39
4139.9199 319.65002 1197.25 9.2197031e-39
4123.7998 347.29999 1194.29 9.2197031e-39
4205.7998 39.481995 1201.52 9.2197031e-39
4224.9502 73.562988 1208.17 9.2197031e-39
4182.79 181.66901 1202.11 9.2197031e-39
4166.0698 399.86603 1207.9 9.2197031e-39
4261.1001 121.79401 1219.96 9.2197031e-39
4232.9702 148.53302 1213.79 9.2197031e-39
4184.0698 436.27002 1214.36 9.2197031e-39
4208.4199 485.97998 1223.11 9.2197031e-39
4216.3599 520.65002 1226.8199 9.2197031e-39
4284.3501 583.92004 1247.72 9.2197031e-39
4297.9902 621.34998 1253.0699 9.2197031e-39
4313.71 671.54004 1259.5699 9.2197031e-39
4328.4399 710.17004 1265.26 9.2197031e-39
4344.98 761.78003 1272.04 9.2197031e-39
4361.6802 802 1278.33 9.2197031e-39
4405.5098 864.17004 1292.8 9.2197031e-39
4424.96 906.63 1299.92 9.2197031e-39
4338.73 1392.3101 1299.9 9.2197031e-39
4427.8599 992.47998 1304.71 9.2197031e-39
4367 1367.33 1306.1899 9.2197031e-39
4360.96 1455.04 1308.7 9.2197031e-39
4413.1899 1336.97 1316.95 9.2197031e-39
4451.7798 1315.9 1326.15 9.2197031e-39
4503.0098 1286.48 1338.29 9.2197031e-39
4531.6401 1260.12 1344.61 9.2197031e-39
4579.8901 1228.1801 1355.85 9.2197031e-39
4528.04 1577.45 1358.51 9.2197031e-39
4610 1201.6801 1362.55 9.2197031e-39
4656.1099 1167.6899 1373.12 9.2197031e-39
4698.5601 1145.13 1383.27 9.2197031e-39
4733.3901 1839.99 1424.97 9.2197031e-39
4777.48 1804.1001 1434.9301 9.2197031e-39
4752.2598 1894.4199 1432.5 9.2197031e-39
4808.5098 1776.2 1441.8101 9.2197031e-39
4805.6802 1984.49 1450.8101 9.2197031e-39
4845.0698 2052.5901 1464.39 9.2197031e-39
4914.6201 2155.77 1487.5601 9.2197031e-39
4970.54 2236.6399 1506.1 9.2197031e-39
6627.4502 3532.2402 2003.88 9.2197031e-39
9483.5996 5037.5801 2827.8701 9.2197031e-39
9570.3203 5187.7002 2857.77 9.2197031e-39
9549.2402 5307.1802 2857.8 9.2197031e-39
