# .PCD v0.7 - Point Cloud Data file format
VERSION 0.7
FIELDS x y z rgb
SIZE 4 4 4 4
TYPE F F F F
COUNT 1 1 1 1
WIDTH 325
HEIGHT 1
VIEWPOINT 0 0 0 1 0 0 0
POINTS 325
DATA ascii
1013.83 -3046.4099 134 9.2197031e-39
318.05435 -663.69727 138.88901 9.2197031e-39
321.61899 -662.06067 139.92999 9.2197031e-39
307.55353 -651.29822 137.14899 9.2197031e-39
304.5705 -646.04004 136.78749 9.2197031e-39
314.64999 -649.87988 139.07899 9.2197031e-39
124.055 -73.72998 134.524 9.2197031e-39
130.554 -74.97699 136.09599 9.2197031e-39
134.79199 -68.122498 137.71149 9.2197031e-39
140.907 -68.085999 139.284 9.2197031e-39
1079.99 -3185.1499 140.297 9.2197031e-39
1022.59 -2927.5 145.40601 9.2197031e-39
327.595 -663.82593 141.3275 9.2197031e-39
344.026 -660.883 145.771 9.2197031e-39
351.35052 -664.35217 147.384 9.2197031e-39
326.91681 -654.81409 141.8474 9.2197031e-39
335.3266 -654.34607 144.04181 9.2197031e-39
346.00064 -655.50311 146.692 9.2197031e-39
354.94702 -659.276 148.698 9.2197031e-39
345.06699 -645.55341 147.21899 9.2197031e-39
336.716 -631.89038 146.127 9.2197031e-39
250.5965 -385.508 142.995 9.2197031e-39
247.75449 -376.62048 142.95 9.2197031e-39
254.21576 -374.759 144.75175 9.2197031e-39
244.73 -360.28198 143.43201 9.2197031e-39
257.89001 -367.09167 146.285 9.2197031e-39
241.19701 -333.496 144.588 9.2197031e-39
236.589 -299.79099 146 9.2197031e-39
227.81599 -229.371 149.17 9.2197031e-39
181.528 -72.034973 149.405 9.2197031e-39
146.53299 -66.201477 140.8725 9.2197031e-39
163.814 -61.958984 145.634 9.2197031e-39
152.07651 -54.686981 143.18201 9.2197031e-39
167.132 -58.276001 146.77 9.2197031e-39
172.826 -56.251007 148.38651 9.2197031e-39
156.23399 -45.120972 144.98599 9.2197031e-39
1022.9 -2860.1101 150.674 9.2197031e-39
1039.38 -2844.05 156.13901 9.2197031e-39
261.98001 -332.34601 150.00999 9.2197031e-39
264.49701 -308.543 152.489 9.2197031e-39
268.16101 -268.85999 156.48399 9.2197031e-39
271.95099 -239.186 159.742 9.2197031e-39
217.323 -154.108 152.272 9.2197031e-39
209.54401 -113.724 153.38499 9.2197031e-39
204.994 -105.16901 152.87601 9.2197031e-39
199.383 -89.730011 152.625 9.2197031e-39
187.46399 -72.662994 150.8795 9.2197031e-39
194.064 -78.312988 152.13901 9.2197031e-39
1058.91 -2837.3101 161.67101 9.2197031e-39
1078.05 -2829.45 167.187 9.2197031e-39
276.81601 -200.63 163.959 9.2197031e-39
281.26099 -177.04999 166.916 9.2197031e-39
285.86899 -156.51099 169.67999 9.2197031e-39
311.90701 -151.16199 176.774 9.2197031e-39
291.18301 -132.07199 172.925 9.2197031e-39
297.96399 -114.86301 175.99051 9.2197031e-39
308.548 -100.27301 179.83 9.2197031e-39
305.07901 -98.761993 179.056 9.2197031e-39
314.216 -85.061005 182.45599 9.2197031e-39
320.14801 -69.926025 185.144 9.2197031e-39
2203.3999 -3101.3101 435.07501 9.2197031e-39
2221.24 -3079.4099 441.33899 9.2197031e-39
2239.46 -3058.1699 447.651 9.2197031e-39
2249.4099 -3026.6599 452.63 9.2197031e-39
2267.1101 -3005.21 458.82501 9.2197031e-39
2282.7 -2981.3201 464.66501 9.2197031e-39
2303.78 -2964.1899 471.39401 9.2197031e-39
2311.8101 -2931.74 475.95499 9.2197031e-39
2327.27 -2908.3301 481.724 9.2197031e-39
2345.77 -2888.54 487.996 9.2197031e-39
2354.79 -2858.24 492.64301 9.2197031e-39
2372.8301 -2838.22 498.81601 9.2197031e-39
2387.3101 -2814.4099 504.36499 9.2197031e-39
2404.95 -2794.1201 510.45499 9.2197031e-39
2418.96 -2770.1001 515.90002 9.2197031e-39
935.34399 2217.3501 519.14203 9.2197031e-39
913.362 2229.5801 514.44299 9.2197031e-39
2436.2 -2749.54 521.90698 9.2197031e-39
2449.74 -2725.3201 527.24799 9.2197031e-39
965.31299 2236.5901 528.31598 9.2197031e-39
2460.22 -2698.23 532.02197 9.2197031e-39
2479.6499 -2680.0901 538.40503 9.2197031e-39
792.76703 2859.0701 531.96002 9.2197031e-39
2488.8899 -2652.1799 542.92603 9.2197031e-39
2507.9399 -2633.75 549.23499 9.2197031e-39
1001.53 2277.5 540.76001 9.2197031e-39
831.99597 2916.24 546.42999 9.2197031e-39
2517.3799 -2606.4102 553.76202 9.2197031e-39
2536.0601 -2587.6899 559.99799 9.2197031e-39
1046.39 2346.5901 557.59399 9.2197031e-39
2544.98 -2560.23 564.401 9.2197031e-39
1259.71 1751.45 566.52002 9.2197031e-39
873.28302 2978.8101 561.84399 9.2197031e-39
2563.29 -2541.23 570.56201 9.2197031e-39
2578.4399 -2519.48 576.12598 9.2197031e-39
1380.01 1521.6101 579.69598 9.2197031e-39
1333.26 1656.49 578.08301 9.2197031e-39
1321.4301 1680.6101 576.90399 9.2197031e-39
1313.48 1713.6001 577.40399 9.2197031e-39
1298.4399 1732.3201 574.98602 9.2197031e-39
1280.33 1744.6699 571.289 9.2197031e-39
1097.64 2433.1499 577.41199 9.2197031e-39
913.51898 3029.1599 576.047 9.2197031e-39
2591.1299 -2495.6802 581.21503 9.2197031e-39
2604.3401 -2472.4199 586.39801 9.2197031e-39
1415.35 1501.28 587.20099 9.2197031e-39
1401.8 1518.8101 585.07397 9.2197031e-39
1373.63 1552.73 580.45697 9.2197031e-39
1370.03 1589.99 582.40002 9.2197031e-39
1363.17 1622.1001 583.11298 9.2197031e-39
1349.21 1641.1001 580.99103 9.2197031e-39
1021.09 2806.8401 586.53699 9.2197031e-39
1008.74 2886.76 589.52197 9.2197031e-39
988.52399 2935.6799 588.099 9.2197031e-39
965.76501 2975.76 585.34399 9.2197031e-39
943.711 3022.53 583.28497 9.2197031e-39
2623.47 -2454.0801 592.71802 9.2197031e-39
2637.8301 -2431.8301 598.117 9.2197031e-39
1431.66 1488.76 590.42297 9.2197031e-39
1454.38 1487.0601 596.12402 9.2197031e-39
1178.24 2424.98 597.46899 9.2197031e-39
1154.79 2439.3201 592.55499 9.2197031e-39
1140.39 2484.79 592.35901 9.2197031e-39
2648.1001 -2406.3901 602.71301 9.2197031e-39
2661.25 -2383.3301 607.86298 9.2197031e-39
1480.23 1490.1299 602.995 9.2197031e-39
1226.51 2401.3501 608.03699 9.2197031e-39
1202.4399 2413.27 602.776 9.2197031e-39
2671.8301 -2358.3799 612.49799 9.2197031e-39
2693.24 -2341.6401 619.28198 9.2197031e-39
1557.17 1419.38 617.29401 9.2197031e-39
1524.84 1522.8799 616.966 9.2197031e-39
1270.03 2364.79 616.39203 9.2197031e-39
1248.22 2382.6899 612.17297 9.2197031e-39
2708.97 -2320.5601 624.94202 9.2197031e-39
2714.1101 -2291.8398 628.47302 9.2197031e-39
1585.39 1424.27 624.91302 9.2197031e-39
1316.0699 2336.8501 626.05701 9.2197031e-39
1291.62 2346.74 620.54199 9.2197031e-39
2738.28 -2276.8198 635.83398 9.2197031e-39
2745.3701 -2249.6899 639.74103 9.2197031e-39
1633.37 1384.4301 634.15997 9.2197031e-39
1623.16 1405.83 633.185 9.2197031e-39
1610.45 1423.98 631.32098 9.2197031e-39
1590.55 1546.8501 635.67401 9.2197031e-39
1567.5 1550.8201 630.06403 9.2197031e-39
1361.51 2308.1499 635.508 9.2197031e-39
1337.99 2320.29 630.40698 9.2197031e-39
2759.51 -2227.55 645.07501 9.2197031e-39
1660.15 1385.85 641.14001 9.2197031e-39
1613.1 1541.8101 641.07397 9.2197031e-39
1408.5699 2284.1799 645.74103 9.2197031e-39
1386.38 2299.47 641.22198 9.2197031e-39
2772.6399 -2204.73 650.203 9.2197031e-39
2795.46 -2188.28 657.32501 9.2197031e-39
1701.71 1406.48 653.39697 9.2197031e-39
1441.3 2294.1499 654.909 9.2197031e-39
2805.76 -2163.55 661.87299 9.2197031e-39
2820.8301 -2141.9102 667.40601 9.2197031e-39
1468.0601 2289.27 661.401 9.2197031e-39
2832.3701 -2118.04 672.20599 9.2197031e-39
2855.47 -2101.24 679.42902 9.2197031e-39
2868.3301 -2078.0898 684.51202 9.2197031e-39
2873.3501 -2050.3599 687.935 9.2197031e-39
2893.46 -2031.4399 694.55298 9.2197031e-39
2907.4399 -2008.9 699.875 9.2197031e-39
2916.0601 -1983.38 704.05298 9.2197031e-39
2937.4299 -1964.8 710.96802 9.2197031e-39
2947.3799 -1939.98 715.43298 9.2197031e-39
2968.45 -1920.9399 722.30798 9.2197031e-39
2984.1399 -1898.96 728.02698 9.2197031e-39
2997.02 -1875.5 733.13898 9.2197031e-39
3006.1799 -1850.2 737.43597 9.2197031e-39
3027.52 -1830.6899 744.41602 9.2197031e-39
3036.27 -1805.14 748.63 9.2197031e-39
3056.4199 -1784.76 755.36798 9.2197031e-39
3064.76 -1758.98 759.495 9.2197031e-39
3084.5801 -1738.16 766.18298 9.2197031e-39
3099.73 -1715.1801 771.84198 9.2197031e-39
3110.1799 -1690.16 776.44897 9.2197031e-39
3126.77 -1667.58 782.448 9.2197031e-39
3145.02 -1645.48 788.83197 9.2197031e-39
3151.21 -1618.63 792.48901 9.2197031e-39
3170.01 -1596.49 799.01898 9.2197031e-39
3184.97 -1572.761 804.685 9.2197031e-39
3204.3601 -1550.449 811.37903 9.2197031e-39
3218.03 -1525.978 816.77197 9.2197031e-39
3236.1499 -1502.859 823.20099 9.2197031e-39
3251.3 -1478.5911 828.95801 9.2197031e-39
3260.6599 -1452.384 833.38 9.2197031e-39
3281.96 -1429.72 840.591 9.2197031e-39
3298.4099 -1405.376 846.68701 9.2197031e-39
3312.79 -1380.269 852.31201 9.2197031e-39
3328.8601 -1355.473 858.34399 9.2197031e-39
2285.2 2135.6699 859.29303 9.2197031e-39
3340.96 -1329.457 863.453 9.2197031e-39
2651.1599 1047.52 869.43103 9.2197031e-39
2631.72 1065.47 865.82599 9.2197031e-39
3366.0801 -1306.619 871.65698 9.2197031e-39
3378.72 -1280.391 876.92297 9.2197031e-39
2655.4199 1112.65 875.539 9.2197031e-39
3394.95 -1254.874 883.052 9.2197031e-39
2691.21 1169.23 889.08398 9.2197031e-39
3414.78 -1229.967 890.05902 9.2197031e-39
3430.6101 -1203.932 896.12598 9.2197031e-39
2745.3799 1046.04 893.5 9.2197031e-39
2729.1299 1067.03 890.94702 9.2197031e-39
2716.72 1219.89 899.53101 9.2197031e-39
2700.6699 1241.65 897.086 9.2197031e-39
3443.3701 -1177.0701 901.46997 9.2197031e-39
3466.4199 -1152.084 909.30902 9.2197031e-39
3477.8 -1124.577 914.34802 9.2197031e-39
2691.8401 1552.8 918.776 9.2197031e-39
3502.3701 -1099.291 922.599 9.2197031e-39
3514.27 -1071.496 927.79401 9.2197031e-39
2708.25 1529.25 921.17499 9.2197031e-39
3538.4199 -1045.515 935.99402 9.2197031e-39
2802.3999 1349.98 931.53601 9.2197031e-39
2802.4399 1457.59 939.83197 9.2197031e-39
2793.51 1487.3401 939.83002 9.2197031e-39
2749.96 1526.52 931.66901 9.2197031e-39
3547.96 -1016.963 940.64001 9.2197031e-39
3569.77 -990.03796 948.30902 9.2197031e-39
2841.1201 1414.37 946.43201 9.2197031e-39
2831.1201 1443.13 946.07898 9.2197031e-39
2812.97 1540.25 948.90002 9.2197031e-39
3593.29 -963.00403 956.427 9.2197031e-39
3605.02 -934.15002 961.65997 9.2197031e-39
3623.27 -905.87903 968.52002 9.2197031e-39
3644.1799 -877.60596 976.06403 9.2197031e-39
2635.01 2482.3201 975.76099 9.2197031e-39
2609.05 2504.0701 970.77399 9.2197031e-39
3654.24 -847.95703 980.92798 9.2197031e-39
3675.6399 -819.15399 988.63898 9.2197031e-39
2696.9099 2450.95 989.23199 9.2197031e-39
2665.6899 2466.4099 982.40997 9.2197031e-39
3695.8401 -789.90601 996.07599 9.2197031e-39
2912.26 1781.8 992.979 9.2197031e-39
2747.76 2405.6499 998.79401 9.2197031e-39
2721.1799 2426.9099 993.60901 9.2197031e-39
3713.8701 -760.17401 1002.99 9.2197031e-39
3726.8 -729.83801 1008.64 9.2197031e-39
2939.52 1847.76 1005.06 9.2197031e-39
2778.01 2388.5701 1005.24 9.2197031e-39
3732.6899 -698.93201 1012.54 9.2197031e-39
3748.98 -668.37341 1019.07 9.2197031e-39
2825.21 2338.9399 1013.54 9.2197031e-39
2808.8101 2371.8999 1011.87 9.2197031e-39
3758.23 -637.30127 1023.84 9.2197031e-39
3787.5601 -606.55341 1033.73 9.2197031e-39
2899.1101 2369.22 1034.83 9.2197031e-39
3806.9299 -575.13092 1041.12 9.2197031e-39
3820.22 -543.3208 1046.98 9.2197031e-39
2956.6499 2328.8201 1046.49 9.2197031e-39
2930.6001 2352.02 1041.59 9.2197031e-39
3848.73 -511.2207 1056.77 9.2197031e-39
2991.98 2315.1899 1054.51 9.2197031e-39
3864.3701 -478.74899 1063.29 9.2197031e-39
3856.49 -446.46899 1063.75 9.2197031e-39
3858.02 -414.02802 1066.64 9.2197031e-39
3046.77 2270.8601 1065.16 9.2197031e-39
3022.52 2296.29 1060.89 9.2197031e-39
3895.0601 -380.151 1078.75 9.2197031e-39
3107.9199 2232.2 1077.88 9.2197031e-39
3079.1299 2253.3999 1072.12 9.2197031e-39
3913.4199 -346.46899 1086.0601 9.2197031e-39
3167.23 2190.8999 1089.92 9.2197031e-39
3137.99 2212.05 1084.04 9.2197031e-39
3196.3401 2169.4399 1095.74 9.2197031e-39
3959.49 -310.841 1100.63 9.2197031e-39
3226.04 2148.3301 1101.73 9.2197031e-39
3998.46 -274.806 1113.4 9.2197031e-39
4012.97 -239.85199 1119.8199 9.2197031e-39
4029.0901 -204.444 1126.6801 9.2197031e-39
4070.8899 -166.29199 1140.35 9.2197031e-39
4109.4302 -127.647 1153.21 9.2197031e-39
4132.21 -89.983002 1161.96 9.2197031e-39
4152.71 -52.098022 1170.14 9.2197031e-39
4173.8198 -13.674988 1178.51 9.2197031e-39
4094.8301 224.99597 1176.62 9.2197031e-39
4063.1001 254.56 1170.75 9.2197031e-39
4202.23 26.239014 1188.88 9.2197031e-39
4145.3599 198.44897 1187.54 9.2197031e-39
4223.5498 65.723999 1197.39 9.2197031e-39
4176.71 167.71301 1193.22 9.2197031e-39
4258.8101 107.89899 1209.6899 9.2197031e-39
4225.96 139.49402 1203.6899 9.2197031e-39
4167.1899 386.78101 1207.65 9.2197031e-39
4213.1099 359.862 1217.36 9.2197031e-39
4179.3398 427.03003 1213.86 9.2197031e-39
4210.7798 472.52002 1225.4399 9.2197031e-39
4229.5801 515.5 1233.5699 9.2197031e-39
4346.7598 350.93903 1250.97 9.2197031e-39
4279.6499 567.47998 1250.42 9.2197031e-39
4289.1201 609.25 1256.0699 9.2197031e-39
4311.1802 655.04004 1265.25 9.2197031e-39
4330.8999 700.78003 1273.84 9.2197031e-39
4349.23 746.69995 1282.08 9.2197031e-39
4372.6001 794.81006 1291.78 9.2197031e-39
4413.7998 849.51001 1306.5699 9.2197031e-39
4438.8198 899.78003 1316.86 9.2197031e-39
4429.96 981.41003 1320.87 9.2197031e-39
4337.6802 1379.63 1327.85 9.2197031e-39
4371.04 1350.1801 1334.14 9.2197031e-39
4349.52 1430.27 1334.78 9.2197031e-39
4405.9902 1321.0601 1340.87 9.2197031e-39
4494.9502 1269.6801 1359.74 9.2197031e-39
4453.1802 1296.85 1351.12 9.2197031e-39
4532.1201 1240.0699 1367 9.2197031e-39
4563.75 1207.77 1372.63 9.2197031e-39
4611.3599 1181.39 1382.8199 9.2197031e-39
4692.6602 1121.4301 1399.0699 9.2197031e-39
4650.7402 1151.1899 1390.6 9.2197031e-39
4792.6201 1692.01 1468.66 9.2197031e-39
4760.6299 1777.8701 1467.0601 9.2197031e-39
4739.3501 1818.1899 1464.7 9.2197031e-39
4817.04 1755.0701 1479.78 9.2197031e-39
4751.02 1876.0701 1472.15 9.2197031e-39
4799.4199 1954.72 1490.63 9.2197031e-39
4841.73 2031.6201 1507.41 9.2197031e-39
4894.8398 2116.1899 1527.55 9.2197031e-39
4979.4702 2220.8899 1557.33 9.2197031e-39
5072.6401 2333.25 1589.9 9.2197031e-39
9542.04 5096 2949.6799 9.2197031e-39
9590.5303 5240.6699 2973.26 9.2197031e-39
