# .PCD v0.7 - Point Cloud Data file format
VERSION 0.7
FIELDS x y z rgb
SIZE 4 4 4 4
TYPE F F F F
COUNT 1 1 1 1
WIDTH 313
HEIGHT 1
VIEWPOINT 0 0 0 1 0 0 0
POINTS 313
DATA ascii
262.92599 -2300.3198 137.862 9.2197031e-39
248.53 -2288.3599 134 9.2197031e-39
270.9035 -743.48254 139.39301 9.2197031e-39
259.397 -736.10699 136.30701 9.2197031e-39
264.34653 -734.01117 137.63251 9.2197031e-39
261.83801 -720.88403 136.955 9.2197031e-39
260.66901 -62.460999 136.38499 9.2197031e-39
254.05701 -53.880493 134.61 9.2197031e-39
265.51999 -47.572998 137.679 9.2197031e-39
270.37601 -39.72998 138.97701 9.2197031e-39
307.60999 -2344.3799 149.853 9.2197031e-39
292.53699 -2332.8301 145.80901 9.2197031e-39
277.57001 -2315.1401 141.79201 9.2197031e-39
275.0145 -744.61597 140.49475 9.2197031e-39
298.53601 -742.60498 146.797 9.2197031e-39
301.69299 -745.73596 147.64349 9.2197031e-39
278.28827 -733.59753 141.36749 9.2197031e-39
283.79102 -732.59827 142.84201 9.2197031e-39
294.00986 -736.87372 145.5815 9.2197031e-39
301.008 -733.27301 147.455 9.2197031e-39
284.57001 -728.04346 143.04901 9.2197031e-39
287.13199 -460.64899 143.631 9.2197031e-39
304.76999 -464.2858 148.35851 9.2197031e-39
285.84479 -451.79239 143.28259 9.2197031e-39
302.78 -451.33801 147.82001 9.2197031e-39
275.45001 -440.487 140.493 9.2197031e-39
296.67285 -445.62717 146.18156 9.2197031e-39
304.53 -446.69403 148.28725 9.2197031e-39
275.19699 -436.39835 140.42334 9.2197031e-39
285.11801 -438.41498 143.08299 9.2197031e-39
286.99301 -423.47198 143.57899 9.2197031e-39
282.58701 -415.39301 142.396 9.2197031e-39
289.22501 -405.552 144.17 9.2197031e-39
277.63101 -396.31299 141.06 9.2197031e-39
288.49249 -396.71698 143.97101 9.2197031e-39
307.492 -151.23801 148.966 9.2197031e-39
308.39001 -75.780029 149.177 9.2197031e-39
278.45901 -63.130005 141.15199 9.2197031e-39
285.22198 -62.054504 142.96399 9.2197031e-39
294.32401 -60.261475 145.40201 9.2197031e-39
304.97198 -66.33197 148.258 9.2197031e-39
274.36301 -54.909973 140.05099 9.2197031e-39
301.117 -59.893005 147.222 9.2197031e-39
322.677 -2350.8 153.892 9.2197031e-39
314.82401 -452.36401 151.048 9.2197031e-39
311.89099 -83.264008 150.118 9.2197031e-39
1163.6801 -2999.6201 379.491 9.2197031e-39
1169.1801 -2953.24 380.94501 9.2197031e-39
1173.22 -2905.1101 382.01099 9.2197031e-39
1189.3101 -2888.3899 386.31601 9.2197031e-39
1228.5 -3238.49 396.953 9.2197031e-39
1208.65 -2879.8301 391.49399 9.2197031e-39
1227.91 -2871.0901 396.65201 9.2197031e-39
1247.1 -2862.1699 401.79001 9.2197031e-39
1266.21 -2853.0801 406.90701 9.2197031e-39
1277.37 -2826.6599 409.88699 9.2197031e-39
1299.98 -2825.3999 415.94501 9.2197031e-39
1300.11 1628.1299 414.24301 9.2197031e-39
1323.08 -2824.79 422.134 9.2197031e-39
1345.8101 -2823.04 428.224 9.2197031e-39
1325.03 1583.9099 420.939 9.2197031e-39
1323.53 1628.4099 420.517 9.2197031e-39
1368.59 -2821.05 434.327 9.2197031e-39
1395.04 -2825.8899 441.41599 9.2197031e-39
1410.62 -2809.3101 445.58499 9.2197031e-39
1409.97 1706.1899 443.64899 9.2197031e-39
1432.01 1700.9299 449.55701 9.2197031e-39
1438.16 -2815.3799 452.965 9.2197031e-39
1453.55 -2798.47 457.082 9.2197031e-39
1463.88 1667.01 458.10999 9.2197031e-39
1448.5 1684.9099 453.983 9.2197031e-39
1492.35 -2823.9199 467.48801 9.2197031e-39
1497.4399 -2788.48 468.83801 9.2197031e-39
1505.79 1607.55 469.36401 9.2197031e-39
1494.97 1632.6399 466.453 9.2197031e-39
1480.95 1652.49 462.69 9.2197031e-39
1518.4 -2781.4199 474.453 9.2197031e-39
1540.63 1581.1399 478.70801 9.2197031e-39
1524.77 1596.99 474.453 9.2197031e-39
1548.4 -2789.51 482.49399 9.2197031e-39
1565.55 1580.4199 485.38699 9.2197031e-39
1581.1899 -2801.47 491.284 9.2197031e-39
1584.3199 1569.3101 490.41901 9.2197031e-39
1607.22 1564.72 496.55701 9.2197031e-39
1636.35 1377.58 504.43701 9.2197031e-39
1643.3199 1424.17 506.28601 9.2197031e-39
1634.0601 1448.13 503.79501 9.2197031e-39
1655.21 1518.1799 509.43399 9.2197031e-39
1641.72 1537.4099 505.811 9.2197031e-39
1628 1556.55 502.129 9.2197031e-39
1652.59 -2875.47 510.44501 9.2197031e-39
1660.95 1376.23 511.02701 9.2197031e-39
1690.87 1381.77 519.04199 9.2197031e-39
1729.85 -2783.75 531.11102 9.2197031e-39
1737.64 -2754.8201 533.18903 9.2197031e-39
1757.53 -2743.74 538.51398 9.2197031e-39
1768.75 -2720.3899 541.51001 9.2197031e-39
1781.4301 -2699.3999 544.89801 9.2197031e-39
1796.21 -2681.52 548.85303 9.2197031e-39
1825.58 -3108.6699 556.88898 9.2197031e-39
1822.28 -3055.95 555.98401 9.2197031e-39
1820.91 -3007.6399 555.59802 9.2197031e-39
1801.37 -2933.1399 550.33502 9.2197031e-39
1827.4301 -2685.6201 557.21997 9.2197031e-39
1854.64 -2683.8301 564.50897 9.2197031e-39
1902.5601 -2708.1599 577.35999 9.2197031e-39
2019.11 1787.9199 606.83502 9.2197031e-39
2127.8601 1889.1399 635.93701 9.2197031e-39
2209.54 1951.04 657.797 9.2197031e-39
2218.4099 -3068.6001 662.13 9.2197031e-39
2237.3601 -3048.4299 667.20203 9.2197031e-39
2253 -3024.3 671.38202 9.2197031e-39
2267.75 -2999.3201 675.32397 9.2197031e-39
2282.23 -2974.25 679.19397 9.2197031e-39
2287.52 2005.45 678.67102 9.2197031e-39
2296.4399 -2949.1101 682.992 9.2197031e-39
2311.03 -2924.6399 686.89301 9.2197031e-39
2329.1899 1792.1101 689.91998 9.2197031e-39
2316.0801 1819.02 686.39697 9.2197031e-39
2315.3799 1860.95 686.19098 9.2197031e-39
2310.98 1899.25 684.99701 9.2197031e-39
2312.9299 1946.0701 685.50201 9.2197031e-39
2329.3201 -2904.47 691.78497 9.2197031e-39
2342.77 -2879.0701 695.38 9.2197031e-39
2355.95 -2853.6001 698.90302 9.2197031e-39
2376.3101 -2835.9199 704.349 9.2197031e-39
2387.6499 -2808.8401 707.37903 9.2197031e-39
2392.3301 1821.8401 706.82703 9.2197031e-39
2394.26 2093.3101 707.23901 9.2197031e-39
2401.46 -2784.54 711.06799 9.2197031e-39
2418.49 -2763.6399 715.62299 9.2197031e-39
2431.8301 -2739.1399 719.18799 9.2197031e-39
2443.51 -2713.21 722.30798 9.2197031e-39
2459.8999 -2691.97 726.69098 9.2197031e-39
2471.8 -2666.5701 729.86902 9.2197031e-39
2489.21 -2646.4199 734.52899 9.2197031e-39
2498.45 -2618.8901 736.99402 9.2197031e-39
2516.9399 -2599.8101 741.93799 9.2197031e-39
2527.1399 -2573.47 744.66199 9.2197031e-39
2543.77 -2552.8301 749.10999 9.2197031e-39
2535.3101 1938.26 745.09198 9.2197031e-39
2558.73 -2530.77 753.10901 9.2197031e-39
2575 -2509.8501 757.461 9.2197031e-39
2584.25 -2483.23 759.92902 9.2197031e-39
2600.1201 -2462.0801 764.17297 9.2197031e-39
2617.3501 -2441.99 768.78198 9.2197031e-39
2615.3401 1118.3199 766.85602 9.2197031e-39
2626.6599 -2415.77 771.26801 9.2197031e-39
2640.3999 -2393.0601 774.94 9.2197031e-39
2655.51 -2371.3999 778.979 9.2197031e-39
2637.6201 1102.55 772.83197 9.2197031e-39
2640.21 1168.59 773.5 9.2197031e-39
2670.4299 -2349.6099 782.96899 9.2197031e-39
2686.76 -2328.8198 787.336 9.2197031e-39
2665.1899 1220.03 780.17401 9.2197031e-39
2697.26 1277.98 788.74402 9.2197031e-39
2699.1799 1313.83 789.245 9.2197031e-39
2700.7 1607.8 789.53802 9.2197031e-39
2699.72 -2305.6201 790.80103 9.2197031e-39
2710.0601 -2280.6699 793.56299 9.2197031e-39
2720.98 -2256.2 796.479 9.2197031e-39
2735.1299 1106.54 798.95801 9.2197031e-39
2715.1201 1125.01 793.59003 9.2197031e-39
2719.1399 1585.5901 794.48602 9.2197031e-39
2743.8899 -2239.74 802.60901 9.2197031e-39
2757.7 -2217.1602 806.30103 9.2197031e-39
2771.3201 -2194.45 809.94098 9.2197031e-39
2768.1299 1551.46 807.62598 9.2197031e-39
2784.74 -2171.6201 813.53003 9.2197031e-39
2796.3101 -2147.6499 816.62097 9.2197031e-39
2788.9199 1419.72 813.24799 9.2197031e-39
2801.8601 1541.8401 816.66998 9.2197031e-39
2784.0601 1603.6399 811.87402 9.2197031e-39
2811.02 -2125.5898 820.55298 9.2197031e-39
2823.8601 -2102.4102 823.98499 9.2197031e-39
2834.8201 -2078.1299 826.91302 9.2197031e-39
2833.6101 1492.3501 825.19397 9.2197031e-39
2848.5 1542.3201 829.16498 9.2197031e-39
2855.75 -2059.51 832.513 9.2197031e-39
2868.04 -2035.92 835.79602 9.2197031e-39
2880.1299 -2012.22 839.026 9.2197031e-39
2899.75 -1992.51 844.27698 9.2197031e-39
2911.47 -1968.53 847.40802 9.2197031e-39
2922.76 1892.9099 848.92798 9.2197031e-39
2906.01 1920.99 844.42798 9.2197031e-39
2921.26 -1943.5601 850.02002 9.2197031e-39
2942.1499 -1924.13 855.60999 9.2197031e-39
2951.54 -1898.92 858.117 9.2197031e-39
2936.3501 1862.0601 852.58002 9.2197031e-39
2959.4399 2355.79 858.57397 9.2197031e-39
2970.3701 -1878.22 863.15503 9.2197031e-39
2981.1299 -1853.6 866.02698 9.2197031e-39
2999.6201 2347.74 869.34399 9.2197031e-39
3000.53 -1832.88 871.21698 9.2197031e-39
3010.01 -1807.6 873.74799 9.2197031e-39
3029.0901 -1786.47 878.85101 9.2197031e-39
3029.71 2328.49 877.41302 9.2197031e-39
3038.1699 -1760.95 881.27502 9.2197031e-39
3056.9099 -1739.4 886.28998 9.2197031e-39
3066.5 -1714.01 888.84698 9.2197031e-39
3060.3601 2309.6299 885.633 9.2197031e-39
3083.1001 -1691.34 893.28601 9.2197031e-39
3098.6201 -1668.11 897.43701 9.2197031e-39
3090.8999 2290.45 893.82501 9.2197031e-39
3117.6101 -1646.03 902.51703 9.2197031e-39
3126.3999 -1620.09 904.862 9.2197031e-39
3143.21 -1596.9399 909.35797 9.2197031e-39
3125.98 2177.0901 903.26703 9.2197031e-39
3146.05 2245.5701 908.61798 9.2197031e-39
3122.03 2271.6201 902.17401 9.2197031e-39
3160.77 -1573.877 914.05402 9.2197031e-39
3175.3999 -1549.665 917.96399 9.2197031e-39
3191.6899 -1525.8511 922.31897 9.2197031e-39
3199.46 -1499.2471 924.39203 9.2197031e-39
3222.79 -1477.283 930.63397 9.2197031e-39
3238.53 -1452.818 934.84198 9.2197031e-39
3254.0801 -1428.135 939 9.2197031e-39
3269.45 -1403.2371 943.10699 9.2197031e-39
3284.6201 -1378.125 947.16199 9.2197031e-39
3299.6001 -1352.801 951.16498 9.2197031e-39
3315.3201 -1327.4919 955.36798 9.2197031e-39
3329.8999 -1301.74 959.26599 9.2197031e-39
3344.28 -1275.78 963.10901 9.2197031e-39
3357.52 -1249.4131 966.64502 9.2197031e-39
3376.23 -1224.0129 971.64801 9.2197031e-39
3392.8501 -1197.957 976.091 9.2197031e-39
3399.75 -1169.8989 977.93103 9.2197031e-39
3406.4299 -1141.762 979.70801 9.2197031e-39
3415.72 -1114.022 982.18903 9.2197031e-39
3444.8501 -1089.29 989.98401 9.2197031e-39
3462.3301 -1062.384 994.65601 9.2197031e-39
3479.5901 -1035.2 999.271 9.2197031e-39
3494.72 -1007.494 1003.31 9.2197031e-39
3505.8 -979.08899 1006.27 9.2197031e-39
3514.72 -950.30396 1008.65 9.2197031e-39
3528.2 -921.87402 1012.25 9.2197031e-39
3537.6101 -892.87402 1014.76 9.2197031e-39
3551.5901 -864.12799 1018.5 9.2197031e-39
3553.78 -834.29901 1019.07 9.2197031e-39
3555.71 -804.45099 1019.58 9.2197031e-39
3571.8601 -775.39197 1023.89 9.2197031e-39
3591.6299 -746.23901 1029.1801 9.2197031e-39
3617.9199 -716.99597 1036.21 9.2197031e-39
3653.6201 -687.56622 1045.77 9.2197031e-39
3697.77 -657.67053 1057.58 9.2197031e-39
3729.1201 -626.85272 1065.97 9.2197031e-39
3737.99 -595.44141 1068.34 9.2197031e-39
3754.3201 -563.81403 1072.7 9.2197031e-39
3770.3899 -531.89191 1076.99 9.2197031e-39
3795.8301 -499.4299 1083.8 9.2197031e-39
3821 -466.504 1090.53 9.2197031e-39
3836.23 -433.53799 1094.6 9.2197031e-39
3860.8201 -399.77899 1101.17 9.2197031e-39
3883.1899 -365.68298 1107.15 9.2197031e-39
3898.5 -331.647 1111.24 9.2197031e-39
3923.1499 -296.54599 1117.83 9.2197031e-39
3947.49 -260.98099 1124.34 9.2197031e-39
3970.54 -225.048 1130.5 9.2197031e-39
3983.6499 -189.70599 1134 9.2197031e-39
4010.8501 -152.42099 1141.28 9.2197031e-39
4036.75 -114.73599 1148.2 9.2197031e-39
4074.74 -74.870972 1158.37 9.2197031e-39
4052.52 348.62097 1152.25 9.2197031e-39
4109.48 -34.695984 1167.66 9.2197031e-39
4085.71 320.27899 1161.15 9.2197031e-39
4095.1001 395.91901 1163.64 9.2197031e-39
4118.4502 439.07996 1169.88 9.2197031e-39
4128.54 3.8010254 1172.75 9.2197031e-39
4127.2002 293.34302 1172.28 9.2197031e-39
4153.5 486.07996 1179.25 9.2197031e-39
4156.79 44.236023 1180.3 9.2197031e-39
4182.7402 84.89801 1187.24 9.2197031e-39
4168.52 265.72699 1183.36 9.2197031e-39
4170.3501 528.73999 1183.75 9.2197031e-39
4211.1602 126.59399 1194.84 9.2197031e-39
4227.7598 166.68402 1199.27 9.2197031e-39
4209.6699 237.42999 1194.4 9.2197031e-39
4212.79 579.45996 1195.1 9.2197031e-39
4260.1201 210.349 1207.9301 9.2197031e-39
4247.2598 628.78003 1204.3199 9.2197031e-39
4261.7798 672.68994 1208.1899 9.2197031e-39
4273.1099 716.06006 1211.21 9.2197031e-39
4291.3599 762.18994 1216.08 9.2197031e-39
4299.9702 805.58997 1218.37 9.2197031e-39
4319.1201 853.14001 1223.49 9.2197031e-39
4326.5698 1460.1001 1225.24 9.2197031e-39
4334.2202 1509.75 1227.27 9.2197031e-39
4358.73 908.79004 1234.08 9.2197031e-39
4373.3501 1437.8 1237.79 9.2197031e-39
4380.1001 1580.0601 1239.54 9.2197031e-39
4409.5098 969.68994 1247.66 9.2197031e-39
4415.9702 1057.8 1249.36 9.2197031e-39
4412.1899 1411.02 1248.21 9.2197031e-39
4453.5298 1384.92 1259.29 9.2197031e-39
4458.6699 1031.27 1260.8101 9.2197031e-39
4459.4702 1118.74 1260.99 9.2197031e-39
4492.9702 1357.42 1269.87 9.2197031e-39
4534.04 1330.16 1280.89 9.2197031e-39
4574.0898 1301.91 1291.63 9.2197031e-39
4613.0898 1272.7 1302.09 9.2197031e-39
4649.23 1241.8 1311.79 9.2197031e-39
4690.8398 1948.9099 1322.66 9.2197031e-39
4724.8101 1915.8401 1331.78 9.2197031e-39
4754.25 2038.53 1339.62 9.2197031e-39
4771.3701 1889.3799 1344.26 9.2197031e-39
4805.8198 1855.8201 1353.5 9.2197031e-39
4796.3901 2117.52 1350.88 9.2197031e-39
4847.54 2203.54 1364.55 9.2197031e-39
4924.9199 2307.6499 1385.24 9.2197031e-39
5035.5098 2435.25 1414.8199 9.2197031e-39
6576.7202 3649.1602 1827.3199 9.2197031e-39
9494.7695 5487.0098 2608.49 9.2197031e-39
9507.9199 5378.9502 2612.05 9.2197031e-39
