# .PCD v0.7 - Point Cloud Data file format
VERSION 0.7
FIELDS x y z rgb
SIZE 4 4 4 4
TYPE F F F F
COUNT 1 1 1 1
WIDTH 311
HEIGHT 1
VIEWPOINT 0 0 0 1 0 0 0
POINTS 311
DATA ascii
2279.5 -2881.6599 132.91701 9.2197031e-39
167.31433 -613.18036 139.45934 9.2197031e-39
143.58051 -604.4826 136.44101 9.2197031e-39
154.77824 -608.38214 137.90276 9.2197031e-39
-722.99597 300.42297 134.375 9.2197031e-39
-715.73297 304.48199 136.537 9.2197031e-39
-713.80103 318.48401 139.491 9.2197031e-39
2297.3999 -2854.9299 141.325 9.2197031e-39
2314.8201 -2839.4099 147.57201 9.2197031e-39
173.31999 -613.02057 140.658 9.2197031e-39
167.897 -604.05811 141.2525 9.2197031e-39
171.86075 -603.58075 142.11224 9.2197031e-39
169.439 -596.36243 142.97 9.2197031e-39
174.69 -598.61334 143.57768 9.2197031e-39
184.14018 -596.6001 145.78799 9.2197031e-39
194.20769 -595.72198 147.90933 9.2197031e-39
176.3125 -584.06885 146.5715 9.2197031e-39
-17.903368 -393.76367 143.80669 9.2197031e-39
-24.928833 -388.84668 143.34467 9.2197031e-39
-17.606377 -384.5365 145.56375 9.2197031e-39
-18.877001 -377.965 146.526 9.2197031e-39
-26.553499 -355.19702 149.224 9.2197031e-39
-58.8829 -340.41998 145.65199 9.2197031e-39
-59.693699 -335.117 146.47 9.2197031e-39
-78.552101 -311.45999 147.155 9.2197031e-39
-91.768799 -294.952 147.62199 9.2197031e-39
-705.758 321.703 141.649 9.2197031e-39
-701.55298 333.44897 144.631 9.2197031e-39
-696.71399 340.31299 146.836 9.2197031e-39
-687.05499 345.93799 149.752 9.2197031e-39
2330.0801 -2810.26 155.911 9.2197031e-39
-43.558201 -314.79901 153.353 9.2197031e-39
-55.715599 -282.09299 157.008 9.2197031e-39
-139.791 -223.672 151.399 9.2197031e-39
-205.10699 -130.26001 155.88499 9.2197031e-39
-232.283 -95.484985 156.998 9.2197031e-39
-260.55899 -62.664001 157.537 9.2197031e-39
-280.89001 -40.205994 157.715 9.2197031e-39
-306.845 -13.161987 157.642 9.2197031e-39
-322.12799 0.54998779 157.192 9.2197031e-39
-354.293 34.093994 157.10699 9.2197031e-39
-405.92099 95.427979 158.351 9.2197031e-39
-689.16803 361.13397 152.13901 9.2197031e-39
-678.68903 365.88202 155.05299 9.2197031e-39
-672.29199 371.05701 157.25101 9.2197031e-39
2346.46 -2793.78 162.134 9.2197031e-39
-65.528297 -254.90399 160.104 9.2197031e-39
-499.95999 207.39697 160.662 9.2197031e-39
-664.85999 379.51202 160.255 9.2197031e-39
-638.57898 377.05701 164.918 9.2197031e-39
-658.97601 385.36603 162.478 9.2197031e-39
2362.5801 -2765.8201 170.42 9.2197031e-39
-93.454597 -165.367 171.155 9.2197031e-39
-108.046 -147.53699 171.59801 9.2197031e-39
-96.357849 -145.2345 174.29649 9.2197031e-39
-123.676 -102.349 176.87601 9.2197031e-39
-130.32201 -41.205994 186.84 9.2197031e-39
-22.320099 -114.526 194.36349 9.2197031e-39
-15.5691 -112.11899 196.121 9.2197031e-39
-8.3812151 -112.27251 197.4915 9.2197031e-39
-162.455 61.283997 199.457 9.2197031e-39
-0.95905203 -102.12399 200.80499 9.2197031e-39
-4.5337 -98.483002 200.78 9.2197031e-39
-156.032 74.879028 203.211 9.2197031e-39
-170.571 97.340027 204.51601 9.2197031e-39
-168.85699 127.07898 210.326 9.2197031e-39
74.2994 -52.23999 224.64 9.2197031e-39
75.250549 -46.433014 225.894 9.2197031e-39
82.987396 -45.205017 227.627 9.2197031e-39
88.284698 -38.890991 229.82001 9.2197031e-39
58.4786 -27.494995 226.117 9.2197031e-39
134.024 -69.440979 233.099 9.2197031e-39
145.834 -69.221985 235.438 9.2197031e-39
153.44501 -64.630493 237.76501 9.2197031e-39
161.746 -65.380493 239.24301 9.2197031e-39
115.29099 -57.05666 231.73267 9.2197031e-39
126.0435 -54.274475 234.338 9.2197031e-39
135.427 -58.764008 235.338 9.2197031e-39
145.85201 -52.142029 238.58701 9.2197031e-39
91.676697 -41.27301 230.04201 9.2197031e-39
106.196 -46.27298 231.948 9.2197031e-39
97.232498 -34.088013 232.44701 9.2197031e-39
100.315 -39.455994 232.058 9.2197031e-39
66.669647 16.273499 235.76999 9.2197031e-39
170.85899 -70.083008 240.151 9.2197031e-39
168.991 -63.414978 241.015 9.2197031e-39
176.965 -65.856995 242.118 9.2197031e-39
180.62399 -66.004028 242.80299 9.2197031e-39
187.718 -59.112976 245.453 9.2197031e-39
191.735 -58.41803 246.36301 9.2197031e-39
202.858 -52.018982 249.70599 9.2197031e-39
199.951 -48.911987 249.71201 9.2197031e-39
-96.538101 244.34601 245.996 9.2197031e-39
208.192 -51.906982 250.765 9.2197031e-39
230.808 -52.518005 255.05499 9.2197031e-39
247.08299 -50.091003 258.67001 9.2197031e-39
254.70999 -53.639984 259.50049 9.2197031e-39
217.297 -44.97049 253.8145 9.2197031e-39
225.6145 -48.272003 254.82599 9.2197031e-39
239.14301 -45.513977 257.96701 9.2197031e-39
242.69501 -47.065979 258.37299 9.2197031e-39
-118.361 325 256.599 9.2197031e-39
256.90201 -50.361023 260.53101 9.2197031e-39
268.63599 -56.093994 261.76001 9.2197031e-39
270.06299 -43.796997 264.302 9.2197031e-39
-330.99399 673.59998 279.39499 9.2197031e-39
-324.74799 694.96997 284.54599 9.2197031e-39
-317.82401 704.06995 287.57001 9.2197031e-39
-310.957 725.38 292.83099 9.2197031e-39
-303.42001 733.43994 295.78201 9.2197031e-39
-293.34601 745.09998 299.89001 9.2197031e-39
-283.28601 744.42004 301.72198 9.2197031e-39
-275.134 764.56006 307.017 9.2197031e-39
-266.86301 771.42004 309.892 9.2197031e-39
-213.20599 737.47998 314.08701 9.2197031e-39
-231.26199 776.46997 317.75201 9.2197031e-39
-256.32501 783.72998 314.20901 9.2197031e-39
-248.043 791.43005 317.23999 9.2197031e-39
2927.3701 -1941.62 432.12299 9.2197031e-39
2949.4299 -1917.47 440.86401 9.2197031e-39
2962.6001 -1897.87 447.03699 9.2197031e-39
2977.05 -1869.86 455.008 9.2197031e-39
2994.4099 -1852.03 461.67001 9.2197031e-39
3008.4099 -1823.66 469.61899 9.2197031e-39
3017.27 -1801.89 475.35101 9.2197031e-39
3037.1799 -1775.9399 484.005 9.2197031e-39
2783.48 -1507.533 484.043 9.2197031e-39
2741.3899 -1470.158 482.73199 9.2197031e-39
3053.9399 -1757.36 490.69 9.2197031e-39
3071.6001 -1730.15 499.138 9.2197031e-39
2823.0701 -1468.502 498.936 9.2197031e-39
2797.3501 -1437.333 499.66901 9.2197031e-39
3088.0701 -1711.16 505.841 9.2197031e-39
3057.96 -1665.42 508.401 9.2197031e-39
3015.3799 -1624.5 507.647 9.2197031e-39
2901.71 -1441.166 519.27698 9.2197031e-39
3172.54 -1503.679 560.48499 9.2197031e-39
3103.74 -1424.6541 561.646 9.2197031e-39
3207.71 -1480.7051 571.56201 9.2197031e-39
3124.9399 -1398.069 570.66602 9.2197031e-39
3260.3899 -1411.452 594.56897 9.2197031e-39
3244.1399 -1373.073 598.47198 9.2197031e-39
3244.79 -1348.199 603.17798 9.2197031e-39
3343.0601 -1339.106 623.98199 9.2197031e-39
3348.22 -1314.7329 629.474 9.2197031e-39
3375.1201 -1286.522 639.90503 9.2197031e-39
3389.53 -1264.053 646.84802 9.2197031e-39
3415.01 -1234.855 657.18402 9.2197031e-39
3426.1499 -1211.312 663.68799 9.2197031e-39
3449.2 -1181.016 673.75403 9.2197031e-39
83.257103 2392.8301 676.59802 9.2197031e-39
3460.9299 -1157.27 680.40802 9.2197031e-39
54.2822 2480.5801 687.11499 9.2197031e-39
3484.4399 -1126.4771 690.65601 9.2197031e-39
3497.72 -1102.65 697.62701 9.2197031e-39
3520.72 -1071.1489 707.90503 9.2197031e-39
3541.3999 -1048.0549 716.18201 9.2197031e-39
3561.9199 -1015.5 726.17102 9.2197031e-39
3574.3799 -990.73096 733.159 9.2197031e-39
3603.1499 -958.63098 744.66901 9.2197031e-39
-294.841 3187.71 749.36102 9.2197031e-39
3614.22 -933.25696 751.49597 9.2197031e-39
-268.14899 3198.0701 756.46301 9.2197031e-39
3644.3899 -900.50403 763.40002 9.2197031e-39
1532.92 1354.99 767.68799 9.2197031e-39
1393.72 1501 767.479 9.2197031e-39
1380.99 1515.54 767.67798 9.2197031e-39
1362.73 1533.5901 767.448 9.2197031e-39
1345.5699 1541.3999 765.54498 9.2197031e-39
1333.6 1569.8701 768.45599 9.2197031e-39
1319.73 1583.24 768.21802 9.2197031e-39
-230.55901 3192.8899 762.828 9.2197031e-39
-347.315 3336.55 766.552 9.2197031e-39
3656.01 -874.75201 770.40399 9.2197031e-39
1553.83 1351.67 771.15002 9.2197031e-39
1587.1 1352.99 777.867 9.2197031e-39
1419.21 1493.8999 771.13202 9.2197031e-39
1446.03 1499.8101 777.44202 9.2197031e-39
1306.58 1610.8 770.73297 9.2197031e-39
1295.27 1629.04 771.89099 9.2197031e-39
1273.78 1643.03 770.284 9.2197031e-39
1274.8199 1683.98 778.026 9.2197031e-39
-203.86099 3205.72 770.38702 9.2197031e-39
3683.6499 -840.91003 782.01501 9.2197031e-39
3694.8201 -814.68103 789.02002 9.2197031e-39
1618.0699 1361.01 785.37402 9.2197031e-39
1500.47 1499.75 788.026 9.2197031e-39
1483.39 1508.6599 786.34399 9.2197031e-39
1587.65 1465.9199 798.77002 9.2197031e-39
1566.61 1470.1699 795.45599 9.2197031e-39
1545.55 1485.22 794.12701 9.2197031e-39
1531.39 1498.3999 793.797 9.2197031e-39
3722.8401 -780.05603 800.84998 9.2197031e-39
3733.5601 -753.349 807.854 9.2197031e-39
3760.97 -717.854 819.72498 9.2197031e-39
3771.22 -690.677 826.724 9.2197031e-39
3797.99 -654.32239 838.62903 9.2197031e-39
1362.41 1899.6001 834.77899 9.2197031e-39
-184.703 3517.6602 831.55402 9.2197031e-39
3812.6599 -626.8255 846.54901 9.2197031e-39
1372.8199 1963.8301 848.63 9.2197031e-39
3840.74 -589.60919 858.867 9.2197031e-39
-159.15401 3604.8398 852.57898 9.2197031e-39
3856.8799 -561.54358 867.177 9.2197031e-39
3881.3301 -523.36169 878.96698 9.2197031e-39
3899.9099 -494.66852 887.86603 9.2197031e-39
25.610901 3605.6099 888.68799 9.2197031e-39
-15.9456 3627.2598 884.58502 9.2197031e-39
3921.6899 -455.62 899.29602 9.2197031e-39
3935.8101 -426.35901 907.43298 9.2197031e-39
2663.3401 984.81006 919.57501 9.2197031e-39
2614.76 992.35999 911.508 9.2197031e-39
2614.4299 1018.8 916.31201 9.2197031e-39
-51.674 3842.2402 917.21399 9.2197031e-39
3968.6299 -386.12201 921.22998 9.2197031e-39
3991.02 -355.85901 931.16101 9.2197031e-39
2718.0901 989.16003 931.03198 9.2197031e-39
2657.4099 1081.42 936.21002 9.2197031e-39
4022.0801 -314.479 944.82703 9.2197031e-39
2680.0801 1123.25 948.32397 9.2197031e-39
4035.0901 -283.888 952.99103 9.2197031e-39
4064.3799 -241.51199 966.49597 9.2197031e-39
2702.5601 1175.64 962.349 9.2197031e-39
4078.75 -210.16501 975.06598 9.2197031e-39
2754.1201 1237.9399 983.854 9.2197031e-39
4115.0298 -166.07199 990.24701 9.2197031e-39
-112.179 4354.23 999.71002 9.2197031e-39
-149.00101 4370.8799 995.60699 9.2197031e-39
4138.5298 -133.10599 1000.89 9.2197031e-39
2791.8701 1303.05 1003.19 9.2197031e-39
4170.0298 -88.076996 1015.31 9.2197031e-39
4161.7798 -57.684021 1019.3 9.2197031e-39
2712.77 1466.24 1017.84 9.2197031e-39
4169.1299 -14.594971 1028.67 9.2197031e-39
4133.2002 12.218018 1026.61 9.2197031e-39
2848.8799 1372.0601 1027 9.2197031e-39
2812.1599 1389.2 1023 9.2197031e-39
2789.29 1404.6899 1021.41 9.2197031e-39
2777.6101 1438.97 1025.4399 9.2197031e-39
2749.8 1450.66 1022.18 9.2197031e-39
2731.1699 1512.21 1029.89 9.2197031e-39
4066.8601 148.71899 1038.83 9.2197031e-39
4185.2998 61.650024 1045.86 9.2197031e-39
4160.4902 89.77002 1046.2 9.2197031e-39
4107.4502 124.06097 1042.1899 9.2197031e-39
4244.0801 221.96698 1086.8199 9.2197031e-39
4228.9702 295.88599 1097.49 9.2197031e-39
4195.9302 322.01599 1095.87 9.2197031e-39
2964.3401 1736.5801 1116.59 9.2197031e-39
2944.48 1757.04 1116.49 9.2197031e-39
1791.25 2982.77 1117.7 9.2197031e-39
1765.17 2997.4399 1115.33 9.2197031e-39
1857.08 2957.3799 1125.84 9.2197031e-39
1833.39 2976.8401 1124.8101 9.2197031e-39
4409.1401 285.04602 1130.5601 9.2197031e-39
4363.21 401.698 1143.1 9.2197031e-39
4378.9399 439.33997 1153.09 9.2197031e-39
2665.8799 2395.1699 1179.76 9.2197031e-39
2639.6499 2411.01 1177.5699 9.2197031e-39
2611.23 2440.0801 1177.39 9.2197031e-39
2582.8799 2453.25 1174.3 9.2197031e-39
2826.8 2256.1101 1185.48 9.2197031e-39
2811.51 2283.6499 1187.5699 9.2197031e-39
2781.05 2310.8201 1186.65 9.2197031e-39
2761.26 2333.95 1187.05 9.2197031e-39
2723.76 2353.54 1183.36 9.2197031e-39
2695.79 2367.74 1180.53 9.2197031e-39
4570.77 530.17004 1207.16 9.2197031e-39
2966.3101 2234.27 1208.62 9.2197031e-39
2933.45 2260.3501 1207.02 9.2197031e-39
2911.99 2282.5 1206.92 9.2197031e-39
3117.21 2132.3799 1219.23 9.2197031e-39
3090.1201 2150.1299 1217.22 9.2197031e-39
3055.75 2175.6599 1215.23 9.2197031e-39
3028.46 2192.8501 1213.09 9.2197031e-39
2993.79 2217.6499 1210.9 9.2197031e-39
4598.6299 572.98999 1220.47 9.2197031e-39
3247.5901 2049.24 1229.3 9.2197031e-39
3220.8701 2068.1899 1227.59 9.2197031e-39
3179.6399 2089.0601 1223.4 9.2197031e-39
3153.48 2108.01 1221.8 9.2197031e-39
4642.5898 633.18994 1240.11 9.2197031e-39
4667.6099 676.72998 1253 9.2197031e-39
4698.9399 735.60999 1269.9399 9.2197031e-39
4699.5498 773.69995 1277.0699 9.2197031e-39
4599.4102 884.44995 1277.97 9.2197031e-39
4553.3999 907.84998 1273.3199 9.2197031e-39
4705.3501 826.70996 1287.96 9.2197031e-39
4662.3301 852.32996 1284.3 9.2197031e-39
4352.9199 1242.73 1295.96 9.2197031e-39
4335.04 1273.73 1298.1899 9.2197031e-39
4523.48 1128.17 1308.0699 9.2197031e-39
4485.4502 1152.6801 1305.1801 9.2197031e-39
4436.2202 1185.77 1301.6899 9.2197031e-39
4406.0801 1212.4301 1300.73 9.2197031e-39
4693.4302 1004.66 1318.41 9.2197031e-39
4662.3799 1033.45 1317.66 9.2197031e-39
4612 1068.74 1314.35 9.2197031e-39
4581.5298 1096.9399 1313.61 9.2197031e-39
4367.98 1339.91 1316.78 9.2197031e-39
4792.3901 1565.55 1440.95 9.2197031e-39
4804.1299 1629.3501 1454.98 9.2197031e-39
4778.8999 1661.6599 1456.02 9.2197031e-39
4736.8301 1701.0801 1455.09 9.2197031e-39
4754.7798 1753.8201 1468.29 9.2197031e-39
4817 1844.75 1497.15 9.2197031e-39
4851.6899 1907.9199 1515.53 9.2197031e-39
4926.1201 2008.98 1548.63 9.2197031e-39
4983.8901 2087.0601 1574.25 9.2197031e-39
9526.3604 4610.6099 2923.1499 9.2197031e-39
9583.9004 4736.6499 2957.5601 9.2197031e-39
