# .PCD v0.7 - Point Cloud Data file format
VERSION 0.7
FIELDS x y z rgb
SIZE 4 4 4 4
TYPE F F F F
COUNT 1 1 1 1
WIDTH 319
HEIGHT 1
VIEWPOINT 0 0 0 1 0 0 0
POINTS 319
DATA ascii
2408.53 -2700.1499 133.64101 9.2197031e-39
134.785 -625.03802 136.465 9.2197031e-39
119.826 -610.08618 136.741 9.2197031e-39
136.58067 -612.46344 139.28467 9.2197031e-39
122.32025 -608.41675 137.5215 9.2197031e-39
131.21201 -609.71112 138.86501 9.2197031e-39
104.98 -599.86365 136.099 9.2197031e-39
-785.93402 197.677 134.12 9.2197031e-39
-785.97803 209.479 136.455 9.2197031e-39
-779.42401 216.51202 139.03101 9.2197031e-39
2421.6699 -2673.55 141.287 9.2197031e-39
2438.78 -2654.1599 148.214 9.2197031e-39
145.74925 -612.57953 140.91101 9.2197031e-39
136.41299 -601.5022 141.42999 9.2197031e-39
142.08725 -603.13062 142.12825 9.2197031e-39
151.644 -600.66675 144.33701 9.2197031e-39
163.53999 -601.31317 146.349 9.2197031e-39
144.99634 -598.29028 143.61235 9.2197031e-39
155.09949 -595.75952 145.933 9.2197031e-39
161.68076 -595.0481 147.2585 9.2197031e-39
155.81833 -588.24274 147.55467 9.2197031e-39
-63.377502 -411.66852 143.16699 9.2197031e-39
-59.50145 -413.362 143.528 9.2197031e-39
-71.548897 -405.09 143.00301 9.2197031e-39
-66.189232 -402.49203 144.48267 9.2197031e-39
-62.814148 -396.25751 146.328 9.2197031e-39
-69.127502 -389.51501 146.53 9.2197031e-39
-108.807 -354.37799 146.366 9.2197031e-39
-118.515 -344.09698 146.66 9.2197031e-39
-136.506 -322.57501 147.696 9.2197031e-39
-166.38 -286.25 149.532 9.2197031e-39
-774.875 224.21198 141.37801 9.2197031e-39
-764.41052 233.54797 145.11499 9.2197031e-39
-757.362 246.29199 148.91299 9.2197031e-39
2452.1599 -2628.03 155.80901 9.2197031e-39
-96.636597 -328.478 153.698 9.2197031e-39
-105.593 -316.314 154.502 9.2197031e-39
-105.268 -308.27301 156.15601 9.2197031e-39
-113.277 -288.88901 158.564 9.2197031e-39
-218.397 -221.603 153.006 9.2197031e-39
-250.42 -185.67801 154.37601 9.2197031e-39
-288.33301 -142.97699 156.03101 9.2197031e-39
-311.09299 -121.42999 156.213 9.2197031e-39
-336.42001 -96.868011 156.532 9.2197031e-39
-373.371 -59.903992 157.22099 9.2197031e-39
-408.01099 -26.268982 157.666 9.2197031e-39
-447.56201 11.020996 157.952 9.2197031e-39
-492.573 54.096008 158.40401 9.2197031e-39
-751.112 252.41901 151.254 9.2197031e-39
-750.39697 265.59998 154 9.2197031e-39
-744.672 272.39001 156.37801 9.2197031e-39
-732.078 273.16998 158.799 9.2197031e-39
2467.3501 -2607.0898 162.701 9.2197031e-39
-582.56702 145.41602 160.34 9.2197031e-39
-723.57202 276.86902 161.064 9.2197031e-39
-709.69397 275.87903 163.36501 9.2197031e-39
2487.1299 -2586.53 170.341 9.2197031e-39
-168.939 -176.48199 170.864 9.2197031e-39
-166.17599 -151.022 176.416 9.2197031e-39
-192.257 -123.63199 177.16 9.2197031e-39
-174.44901 -125.32401 180.02901 9.2197031e-39
-208.121 -82.699005 182.43201 9.2197031e-39
-188.136 -85.753998 185.422 9.2197031e-39
-205.34599 -79.221008 183.62199 9.2197031e-39
-28.665701 -113.04599 208.7 9.2197031e-39
-25.4984 -109.89301 209.896 9.2197031e-39
-259.069 82.823975 206.12601 9.2197031e-39
0.68199003 -122.93301 212.01801 9.2197031e-39
-14.3708 -112.3605 211.40851 9.2197031e-39
-22.1637 -103.80701 211.70399 9.2197031e-39
-14.565 -106.453 212.54601 9.2197031e-39
-7.0606899 -109.23099 213.345 9.2197031e-39
-3.9781799 -99.382996 215.855 9.2197031e-39
-271.39899 126.099 212.49899 9.2197031e-39
-303.80801 216.92902 224.7 9.2197031e-39
82.8479 -50.119995 241.259 9.2197031e-39
95.055603 -53.450012 242.795 9.2197031e-39
104.26801 -51.446026 244.85034 9.2197031e-39
116.38934 -55.978313 246.132 9.2197031e-39
127.5465 -55.7005 248.19501 9.2197031e-39
134.246 -56.05603 249.33 9.2197031e-39
79.624397 -40.645996 242.56 9.2197031e-39
87.734299 -45.062012 243.14301 9.2197031e-39
91.713898 -48.802979 243.116 9.2197031e-39
78.398598 -17.692017 246.897 9.2197031e-39
145.9805 -53.981018 251.8535 9.2197031e-39
155.0215 -54.317505 253.4135 9.2197031e-39
163.3725 -57.141998 254.3555 9.2197031e-39
173.70349 -54.1315 256.81201 9.2197031e-39
184.216 -57.59198 258.017 9.2197031e-39
182.843 -48.739014 259.52802 9.2197031e-39
142.951 -39.344971 254.214 9.2197031e-39
76.273697 24.615509 254.914 9.2197031e-39
195.90201 -46.066498 262.40802 9.2197031e-39
215.513 -41.20697 266.90201 9.2197031e-39
207.556 -35.664001 266.57001 9.2197031e-39
211.7 -37.429016 266.966 9.2197031e-39
223.033 -35.01001 269.48499 9.2197031e-39
236.30099 -41.203003 270.64301 9.2197031e-39
246.955 -46.487518 271.51151 9.2197031e-39
257.383 -42.062988 274.26599 9.2197031e-39
228.004 -36.213989 270.14099 9.2197031e-39
231.75301 -39.03302 270.25601 9.2197031e-39
242.05299 -39.697021 271.97699 9.2197031e-39
-440.74301 590.94995 274.314 9.2197031e-39
-430.22198 593.77002 276.767 9.2197031e-39
-424.92999 607.27002 280.39899 9.2197031e-39
-414.62 610.85999 282.96799 9.2197031e-39
-407.63901 620.56006 286.14899 9.2197031e-39
-399.867 631.45996 289.71301 9.2197031e-39
-391.94601 639.19995 292.67401 9.2197031e-39
-383.23599 648.12 296.01199 9.2197031e-39
-376.01801 658.55005 299.383 9.2197031e-39
-365.22299 661.68005 301.94699 9.2197031e-39
-356.87799 669.17004 304.93399 9.2197031e-39
-349.95999 685.40002 309.40201 9.2197031e-39
-339.673 687.06995 311.58401 9.2197031e-39
-331.01599 698.43005 315.39801 9.2197031e-39
-322.97101 708.53003 318.85001 9.2197031e-39
-313.45999 717.84998 322.41299 9.2197031e-39
-305.116 727.82996 325.89499 9.2197031e-39
-293.19699 728.37 328.146 9.2197031e-39
-285.07901 740.12 331.94101 9.2197031e-39
-274.38101 746.25 335.08301 9.2197031e-39
-270.34698 778.15002 342.142 9.2197031e-39
-260.43399 789.93994 346.26801 9.2197031e-39
-252.424 806.31006 350.95901 9.2197031e-39
-241.526 815.05005 354.655 9.2197031e-39
3063.52 -1751.55 439.83301 9.2197031e-39
2812.51 -1567.3411 431.237 9.2197031e-39
2771.6399 -1526.818 431.927 9.2197031e-39
2747.9399 -1490.6699 434.83899 9.2197031e-39
2745.6799 -1465.058 439.51801 9.2197031e-39
3086.6599 -1729.11 448.453 9.2197031e-39
3008.28 -1670.62 445.961 9.2197031e-39
2804.26 -1457.339 451.591 9.2197031e-39
2786.53 -1426.51 454.521 9.2197031e-39
2804.23 -1404.713 462.034 9.2197031e-39
2775.5901 -1344.141 468.905 9.2197031e-39
2837.25 -1389.97 470.90302 9.2197031e-39
2942.8301 -1367.775 494.30801 9.2197031e-39
2980.1201 -1349.744 504.599 9.2197031e-39
3127.75 -1333.5449 534.38 9.2197031e-39
3224.73 -1389.49 540.724 9.2197031e-39
3334.6201 -1358.308 566.68903 9.2197031e-39
3348.78 -1330.0659 574.84497 9.2197031e-39
3373.72 -1307.1541 583.88098 9.2197031e-39
3388.3999 -1278.624 592.18597 9.2197031e-39
3410.05 -1254.4141 600.888 9.2197031e-39
3424.25 -1225.387 609.20697 9.2197031e-39
3447.4399 -1200.964 618.229 9.2197031e-39
3461.1699 -1171.429 626.56299 9.2197031e-39
3482.97 -1146.193 635.49597 9.2197031e-39
3494.25 -1115.838 643.552 9.2197031e-39
3516.6001 -1090.167 652.67102 9.2197031e-39
3541.0601 -1061.444 662.77399 9.2197031e-39
3558.0801 -1034.3511 671.21698 9.2197031e-39
-382.30899 2562.6499 676.27899 9.2197031e-39
-412.71701 2595.3101 677.28998 9.2197031e-39
-448.091 2639.1001 679.61902 9.2197031e-39
3582.05 -1004.878 681.38202 9.2197031e-39
-353.19901 2558.3101 680.65503 9.2197031e-39
-328.23599 2566.23 686.71899 9.2197031e-39
-482.73099 2690.6599 683.62097 9.2197031e-39
3603.52 -977.80798 690.61902 9.2197031e-39
3613.25 -945.95001 698.69397 9.2197031e-39
-524.54498 2762.9399 690.44702 9.2197031e-39
3635.22 -918.39001 708.12 9.2197031e-39
-574.18103 2889.6101 706.664 9.2197031e-39
3655.21 -887.17499 717.914 9.2197031e-39
3672.77 -858.55701 726.75598 9.2197031e-39
3693.2 -826.75598 736.745 9.2197031e-39
3716.1599 -797.966 746.59302 9.2197031e-39
3734.0601 -765.302 756.29797 9.2197031e-39
3753.55 -735.61798 765.70001 9.2197031e-39
3780.71 -702.763 777.11102 9.2197031e-39
3799.6799 -672.35242 786.56097 9.2197031e-39
1569.86 1354.3101 787.672 9.2197031e-39
1548.21 1360.92 785.086 9.2197031e-39
1415.73 1477.9399 784.479 9.2197031e-39
1400.0699 1496.0801 785.263 9.2197031e-39
1386.55 1513.6699 786.323 9.2197031e-39
1371.5601 1533.23 787.50702 9.2197031e-39
1351.85 1541.74 785.651 9.2197031e-39
1338.5699 1564.3301 787.745 9.2197031e-39
1325.3101 1583.21 789.10901 9.2197031e-39
3826.25 -638.5965 798.04303 9.2197031e-39
1600.66 1354.9301 793.33698 9.2197031e-39
1476.49 1486.4099 797.09497 9.2197031e-39
1455.78 1497.96 795.65997 9.2197031e-39
1312.98 1608.1599 791.84399 9.2197031e-39
1298.25 1625.27 792.58801 9.2197031e-39
1282.88 1645.9399 793.927 9.2197031e-39
3844.6599 -607.4679 807.53601 9.2197031e-39
1574.26 1430.59 803.60699 9.2197031e-39
1571.75 1462.26 809.44098 9.2197031e-39
1527.5699 1479.48 804.909 9.2197031e-39
1552.3199 1476.26 808.72498 9.2197031e-39
1499.38 1481.4299 800.224 9.2197031e-39
3870.6101 -572.82123 819.08398 9.2197031e-39
1671.47 1404.97 816.013 9.2197031e-39
1306.2 1730.03 814.81799 9.2197031e-39
3884.51 -540.9696 827.90997 9.2197031e-39
3911.79 -505.46719 839.867 9.2197031e-39
3926.1001 -472.987 848.89001 9.2197031e-39
3949.76 -436.65802 860.35999 9.2197031e-39
1381.9399 1915.49 865.26703 9.2197031e-39
3982.1299 -402.98801 872.87097 9.2197031e-39
3995.28 -366.08002 882.56403 9.2197031e-39
-803.95801 3980.6001 881.91302 9.2197031e-39
4017.2 -331.89499 893.29401 9.2197031e-39
4039.46 -293.806 904.86298 9.2197031e-39
2642.8401 974.65002 905.375 9.2197031e-39
2621.95 992.40002 905.13898 9.2197031e-39
4067.5801 -258.35501 916.961 9.2197031e-39
2637.01 1034.47 916.203 9.2197031e-39
2729.28 990.29004 924.03601 9.2197031e-39
4097.9199 -218.67499 930.29797 9.2197031e-39
2682.78 1092.75 936.00897 9.2197031e-39
4120.4399 -182.58499 941.51599 9.2197031e-39
4141.2002 -142.62399 953.185 9.2197031e-39
2710.55 1144.61 951.30298 9.2197031e-39
-8.4012003 3619.48 953.37903 9.2197031e-39
29.689199 3612.3101 958.80902 9.2197031e-39
4184.48 -103.51599 968.73798 9.2197031e-39
4151.8101 -68.340027 969.84198 9.2197031e-39
2721.95 1183.9 961.15399 9.2197031e-39
135.56799 3568.6401 969.19202 9.2197031e-39
63.959801 3593.2002 961.18201 9.2197031e-39
101.852 3591.2598 967.61603 9.2197031e-39
242.778 3520.1099 978.849 9.2197031e-39
172.604 3549.4199 972.03998 9.2197031e-39
206.604 3546.79 977.63702 9.2197031e-39
4196.29 -28.059021 985.84399 9.2197031e-39
4143.5601 4.2680054 982.77197 9.2197031e-39
276.55099 3516.9199 984.29199 9.2197031e-39
4183.4199 44.833008 997.99902 9.2197031e-39
4118.9702 109.71198 999.28198 9.2197031e-39
4074.95 141.33197 997.63898 9.2197031e-39
2793.9299 1266.3 990.46503 9.2197031e-39
313.79999 3513.0601 990.22998 9.2197031e-39
4172.79 82.497009 1003.56 9.2197031e-39
4124.96 184.96002 1015.3 9.2197031e-39
2846.05 1334.41 1013.37 9.2197031e-39
2816.0801 1387.8199 1018.58 9.2197031e-39
2804.6201 1418.92 1022.69 9.2197031e-39
2753.53 1457.6 1021.17 9.2197031e-39
2733.78 1479.05 1021.88 9.2197031e-39
2878.55 1394.75 1031.2 9.2197031e-39
1676.01 2500.8101 1034.39 9.2197031e-39
2860.0801 1494.03 1047.58 9.2197031e-39
4241.9102 282.21002 1055.65 9.2197031e-39
4190.79 312.56403 1052.48 9.2197031e-39
4368.0698 268.59198 1075.65 9.2197031e-39
4270.4502 365.79999 1077.38 9.2197031e-39
4252.1201 403.03003 1081.48 9.2197031e-39
-52.373199 4317.02 1083.95 9.2197031e-39
464.302 3956.5898 1105.37 9.2197031e-39
429.228 3987.7402 1105.24 9.2197031e-39
390.23801 4024.9399 1105.61 9.2197031e-39
2969.1201 1735.99 1115.24 9.2197031e-39
2956.4099 1770.74 1119.85 9.2197031e-39
3060.6001 1764.8701 1137.4301 9.2197031e-39
1873.27 2937.2 1156.53 9.2197031e-39
1846.52 2958.6101 1155.96 9.2197031e-39
1810.72 2970.27 1151.84 9.2197031e-39
4585.8198 516.58997 1164.0699 9.2197031e-39
4608.7798 566.77002 1178.16 9.2197031e-39
2604.24 2434.5901 1188.28 9.2197031e-39
4650.3101 617.93994 1195.8 9.2197031e-39
2832.2 2260.3899 1194.71 9.2197031e-39
2808.97 2290.3201 1196.47 9.2197031e-39
2775.8301 2305.1699 1193.46 9.2197031e-39
2744.8 2326.99 1192.21 9.2197031e-39
2720.1499 2350.3101 1192.4 9.2197031e-39
2686.8301 2369.4199 1190.2 9.2197031e-39
2663.79 2394.4199 1191.02 9.2197031e-39
2637.9099 2421.5801 1191.75 9.2197031e-39
4676.8799 670.55005 1211.02 9.2197031e-39
3061.5901 2176.8799 1219.41 9.2197031e-39
3029.1899 2199.6201 1218.1 9.2197031e-39
2999.8201 2220.03 1216.86 9.2197031e-39
2966.45 2241.4399 1215.11 9.2197031e-39
2936.8501 2261.24 1213.71 9.2197031e-39
2910.1699 2288.7 1214.36 9.2197031e-39
4715.3799 722.71997 1228.3101 9.2197031e-39
3250.4299 2045.28 1227.27 9.2197031e-39
3220.3601 2071.29 1227.02 9.2197031e-39
3189.48 2091.71 1225.52 9.2197031e-39
3158.3501 2116.45 1224.83 9.2197031e-39
3129.4399 2138.1201 1223.9301 9.2197031e-39
3089.99 2155.23 1220.22 9.2197031e-39
4740.7598 776.63 1243.58 9.2197031e-39
4589.8301 911.54004 1243.2 9.2197031e-39
4754.6401 823.55005 1255.39 9.2197031e-39
4704.0601 856.45996 1252.8199 9.2197031e-39
4658.3901 885.68994 1250.41 9.2197031e-39
4409.0098 1207.02 1269.33 9.2197031e-39
4367.02 1233.25 1266.98 9.2197031e-39
4624.3999 1056.41 1278.1801 9.2197031e-39
4585.25 1090.83 1277.97 9.2197031e-39
4537.3799 1117.1 1274.5699 9.2197031e-39
4497.8701 1150.34 1274.0601 9.2197031e-39
4448.8599 1174.97 1270.13 9.2197031e-39
4360.0498 1277.96 1274.6 9.2197031e-39
4711.6802 993.56995 1281.41 9.2197031e-39
4667.3799 1027.3199 1280.14 9.2197031e-39
4402.6299 1339.48 1294.48 9.2197031e-39
4854.8901 1585.6101 1424.72 9.2197031e-39
4822.4302 1620.26 1425.76 9.2197031e-39
4783.3101 1656.6699 1425.95 9.2197031e-39
4750.3999 1690.51 1426.75 9.2197031e-39
4802.7002 1770.05 1451.95 9.2197031e-39
4854.3501 1845.71 1476.27 9.2197031e-39
4896.7002 1923.6299 1499.36 9.2197031e-39
4958.4502 2007.5801 1527.13 9.2197031e-39
5046.7402 2112.8799 1563.9301 9.2197031e-39
9563.75 4586.4102 2867.8301 9.2197031e-39
9666.3701 4758.8198 2920.53 9.2197031e-39
