# .PCD v0.7 - Point Cloud Data file format
VERSION 0.7
FIELDS x y z rgb
SIZE 4 4 4 4
TYPE F F F F
COUNT 1 1 1 1
WIDTH 316
HEIGHT 1
VIEWPOINT 0 0 0 1 0 0 0
POINTS 316
DATA ascii
2536.96 -2509.8 132.026 9.2197031e-39
96.789047 -601.21954 136.58899 9.2197031e-39
106.7255 -608.85278 136.59949 9.2197031e-39
115.83099 -606.22803 138.64868 9.2197031e-39
93.510101 -596.15173 137.12601 9.2197031e-39
104.592 -599.07141 138.3235 9.2197031e-39
-844.34698 117.414 134.644 9.2197031e-39
-845.85901 126.84003 136.394 9.2197031e-39
-832.54797 130.70398 139.395 9.2197031e-39
2550.8601 -2476.9302 141.27299 9.2197031e-39
2562.78 -2461.1201 146.577 9.2197031e-39
127.42351 -607.44043 140.29199 9.2197031e-39
131.976 -605.97418 141.349 9.2197031e-39
118.622 -596.25415 141.22 9.2197031e-39
122.21967 -592.93219 142.51399 9.2197031e-39
131.91499 -591.10449 144.491 9.2197031e-39
141.0215 -592.52063 145.6835 9.2197031e-39
124.231 -588.79608 143.72 9.2197031e-39
136.27234 -585.27191 146.44099 9.2197031e-39
141.76251 -587.70996 146.82401 9.2197031e-39
118.227 -573.35608 146.009 9.2197031e-39
134.399 -578.31934 147.608 9.2197031e-39
109.98 -569.69598 145.433 9.2197031e-39
-98.785797 -421.03799 142.72301 9.2197031e-39
-104.27133 -411.85767 143.76967 9.2197031e-39
-98.728996 -419.737 143.008 9.2197031e-39
-101.829 -403.95834 145.84399 9.2197031e-39
-145.14301 -368.62201 146.23399 9.2197031e-39
-156.543 -358.58899 146.492 9.2197031e-39
-169.287 -345.806 147.11301 9.2197031e-39
-205.448 -308.37601 149.119 9.2197031e-39
-834.67401 140.77698 141.18201 9.2197031e-39
-828.974 150.80499 144.242 9.2197031e-39
-830.883 160.95398 146.08 9.2197031e-39
-815.84302 163.12598 149.006 9.2197031e-39
2583.29 -2433.3901 155.81599 9.2197031e-39
-143.50101 -333.14801 154.02299 9.2197031e-39
-145.01199 -328.20999 154.821 9.2197031e-39
-165.46001 -291.673 159.214 9.2197031e-39
-259.12 -250.47299 152.59399 9.2197031e-39
-303.67401 -207.16901 154.47 9.2197031e-39
-343.45599 -167.69 156.317 9.2197031e-39
-361.68799 -155.89499 155.82899 9.2197031e-39
-401.798 -118.134 157.258 9.2197031e-39
-422.90399 -105.05301 156.571 9.2197031e-39
-470.995 -61.16803 157.99001 9.2197031e-39
-514.21503 -27.924988 157.952 9.2197031e-39
-562.14099 13.228027 158.819 9.2197031e-39
-641.31299 78.174988 159.608 9.2197031e-39
-810.80103 167.37598 150.733 9.2197031e-39
-803.25897 175.85101 153.76601 9.2197031e-39
-795.41052 185.17999 157.0295 9.2197031e-39
2602.21 -2422.6499 161.194 9.2197031e-39
-203.485 -228.56 166.35899 9.2197031e-39
-786.00201 193.07703 160.246 9.2197031e-39
-768.03699 191.60901 162.879 9.2197031e-39
2616.5601 -2390.4399 170.375 9.2197031e-39
-226.425 -184.28799 171.98199 9.2197031e-39
-254.901 -132.91599 178.20399 9.2197031e-39
-272.991 -92.825012 183.73599 9.2197031e-39
-286.39301 -63.84198 187.683 9.2197031e-39
-268.211 -46.426025 194.355 9.2197031e-39
-296.134 -35.151001 192.16701 9.2197031e-39
-296.93701 -26.552979 193.858 9.2197031e-39
-284.892 -28.119995 195.5 9.2197031e-39
-308.69601 7.6989746 199.19099 9.2197031e-39
-306.06699 33.492004 205.089 9.2197031e-39
-12.29855 -132.47751 218.06351 9.2197031e-39
-32.1521 -128.35901 215.68201 9.2197031e-39
-24.626633 -122.78699 218.09666 9.2197031e-39
-18.139299 -122.53201 219.214 9.2197031e-39
-35.574902 -112.746 218.42999 9.2197031e-39
69.447304 -63.989014 245.98 9.2197031e-39
78.787804 -60.028992 248.35001 9.2197031e-39
87.489403 -60.059998 249.77 9.2197031e-39
73.327301 -59.833008 247.49699 9.2197031e-39
82.394096 -57.857971 249.401 9.2197031e-39
96.732956 -64.902496 250.2585 9.2197031e-39
104.526 -62.484009 252.049 9.2197031e-39
114.931 -62.970001 253.651 9.2197031e-39
122.635 -61.786011 255.16499 9.2197031e-39
140.067 -64.544006 257.43799 9.2197031e-39
91.357399 -57.007019 251.05099 9.2197031e-39
108.759 -58.633972 253.55901 9.2197031e-39
127.872 -55.309998 257.396 9.2197031e-39
136.485 -52.027527 259.50351 9.2197031e-39
70.248001 -26.450012 254.06799 9.2197031e-39
62.290401 5.6710205 259.57199 9.2197031e-39
-503.215 436.84998 258.26901 9.2197031e-39
146.17101 -56.429993 260.15799 9.2197031e-39
154.33801 -55.308014 261.7345 9.2197031e-39
164.08951 -54.915009 263.4165 9.2197031e-39
174.1225 -54.278992 265.1955 9.2197031e-39
183.407 -51.372009 267.33401 9.2197031e-39
188.006 -49.151001 268.55899 9.2197031e-39
71.7351 3.9760132 260.76099 9.2197031e-39
69.850403 33.01001 266.60599 9.2197031e-39
-518.87701 483.25 265.53699 9.2197031e-39
237.532 -68.36499 272.604 9.2197031e-39
236.59299 -53.516998 275.5975 9.2197031e-39
201.99899 -40.580017 272.66901 9.2197031e-39
225.44751 -43.323517 275.93152 9.2197031e-39
233.543 -42.04303 277.53 9.2197031e-39
199.582 -37.353027 272.957 9.2197031e-39
212.9335 -35.549011 275.52802 9.2197031e-39
220.332 -38.59198 276.095 9.2197031e-39
-515.53003 504.44995 270.57901 9.2197031e-39
-514.99402 519.91003 273.94501 9.2197031e-39
-504.45148 535.86499 279.0545 9.2197031e-39
-486.27701 535.42004 281.939 9.2197031e-39
-485.099 550.88 285.409 9.2197031e-39
-473.93799 557.43005 288.62701 9.2197031e-39
-470.48599 568.31995 291.50101 9.2197031e-39
-461.323 580.22998 295.52701 9.2197031e-39
-455.01901 584.64001 297.496 9.2197031e-39
-445.896 597.33997 301.68399 9.2197031e-39
-438.746 599.81006 303.379 9.2197031e-39
-425.67902 613.56 308.43451 9.2197031e-39
-411.647 625.29004 313.22198 9.2197031e-39
-404.31201 627.54004 314.89999 9.2197031e-39
-394.86801 641.68005 319.44601 9.2197031e-39
-389.83099 651.34998 322.32199 9.2197031e-39
-377.32199 656.88 325.543 9.2197031e-39
-369.77701 658.90002 327.20901 9.2197031e-39
-360.15799 674.65002 332.12399 9.2197031e-39
-352.496 676.56006 333.785 9.2197031e-39
-338.34 676.92004 336.17999 9.2197031e-39
-333.92499 691.09998 339.91 9.2197031e-39
-317.504 715.87 347.853 9.2197031e-39
-327.83301 723.76001 347.83099 9.2197031e-39
-305.948 765.41003 360.24899 9.2197031e-39
-269.02399 772.91003 367.89001 9.2197031e-39
-297.354 795.05005 367.939 9.2197031e-39
-288.30301 793.65002 369.125 9.2197031e-39
-262.00101 781 370.754 9.2197031e-39
2737.3101 -1395.969 400.957 9.2197031e-39
2733.4399 -1362.2319 407.474 9.2197031e-39
2746.74 -1347.606 412.755 9.2197031e-39
2771.9299 -1322.418 422.22299 9.2197031e-39
2776.3799 -1304.9929 426.646 9.2197031e-39
2810.77 -1281.7329 437.21301 9.2197031e-39
2834.2 -1269.0601 443.73901 9.2197031e-39
2851.8601 -1240.614 452.664 9.2197031e-39
2947.55 -1244.875 467.44699 9.2197031e-39
3319.3701 -1296.683 517.41199 9.2197031e-39
3380.73 -1288.6079 529.18103 9.2197031e-39
3406.22 -1255.443 540.39001 9.2197031e-39
3417.8701 -1235.604 546.505 9.2197031e-39
3440.8601 -1201.317 557.54102 9.2197031e-39
3453.1599 -1181.298 563.79901 9.2197031e-39
3475.5701 -1146.321 574.88702 9.2197031e-39
3496.3301 -1127.423 582.29498 9.2197031e-39
3511.3 -1090.575 592.56 9.2197031e-39
3531.73 -1071.137 600.02899 9.2197031e-39
3555.8999 -1035.106 611.62701 9.2197031e-39
3572.0601 -1014.54 618.63702 9.2197031e-39
3595.6101 -977.70801 630.30402 9.2197031e-39
3614.3799 -956.99097 637.771 9.2197031e-39
3635.3201 -919.12701 649.22998 9.2197031e-39
3648.8 -897.36304 656.052 9.2197031e-39
3674.01 -859.23804 668.26599 9.2197031e-39
3685.1299 -836.84998 674.83398 9.2197031e-39
3715.5901 -798.34198 687.98901 9.2197031e-39
3724.3501 -775.38 694.29102 9.2197031e-39
3755.1001 -735.98102 707.68402 9.2197031e-39
3763.45 -712.62097 714.00403 9.2197031e-39
-434.70401 2560.1499 719.56 9.2197031e-39
3792.51 -672.224 727.32898 9.2197031e-39
-399.043 2553.71 724.039 9.2197031e-39
-379.202 2554.45 727.448 9.2197031e-39
-462.24301 2612.5801 726.159 9.2197031e-39
-505.758 2664.01 729.927 9.2197031e-39
3810.3101 -648.78882 735.21503 9.2197031e-39
-347.54001 2582.52 738.58899 9.2197031e-39
-538.18298 2736.3 739.93402 9.2197031e-39
3836.6599 -607.32111 748.323 9.2197031e-39
3853.04 -583.27325 756.10602 9.2197031e-39
3878.6299 -540.854 769.29102 9.2197031e-39
3907.3999 -516.1972 779.23297 9.2197031e-39
1561.77 1327.8 785.60303 9.2197031e-39
1555.67 1345.51 788.35699 9.2197031e-39
3929.23 -472.73999 792.02301 9.2197031e-39
3943.72 -447.521 799.74402 9.2197031e-39
1433.17 1477.3601 796.22601 9.2197031e-39
1403.98 1485.2 793.10199 9.2197031e-39
1389.0601 1492.1499 792.13 9.2197031e-39
1368.54 1512.2 793.01599 9.2197031e-39
1355.11 1521.3101 792.74597 9.2197031e-39
1333.16 1539.4199 792.98602 9.2197031e-39
1327.9 1561.3301 796.76898 9.2197031e-39
1311.62 1589.02 799.96698 9.2197031e-39
1619.76 1351.99 800.23602 9.2197031e-39
1579.26 1418.6801 807.73401 9.2197031e-39
1508.42 1475.6599 808.198 9.2197031e-39
1458.88 1484.9199 802.04199 9.2197031e-39
1491.71 1481.01 806.59399 9.2197031e-39
1301.76 1604.3701 801.60498 9.2197031e-39
1278.8101 1621.97 801.57501 9.2197031e-39
1271.09 1641.3601 804.41803 9.2197031e-39
359.94601 2358.5801 807.091 9.2197031e-39
3975.5801 -402.89099 814.42603 9.2197031e-39
1553.35 1459.22 812.08002 9.2197031e-39
1590.03 1458.4299 817.92401 9.2197031e-39
1537.25 1465.6799 810.81 9.2197031e-39
347.00101 2407.9199 815.427 9.2197031e-39
297.03601 2434.8201 812.93799 9.2197031e-39
3991.5701 -377.01898 822.53101 9.2197031e-39
4013.72 -331.677 835.77301 9.2197031e-39
4037.0801 -304.80701 845.29797 9.2197031e-39
330.879 2564.8999 846.05798 9.2197031e-39
4065.24 -258.043 859.82599 9.2197031e-39
4077.28 -231.17599 867.49298 9.2197031e-39
1365.45 1862.99 866.86298 9.2197031e-39
1367.89 1904.1001 875.97699 9.2197031e-39
4117.2798 -182.315 884.40698 9.2197031e-39
2638.3799 968.08997 885.83398 9.2197031e-39
2615.4399 994.80005 887.73401 9.2197031e-39
4145.4399 -153.34698 895.16302 9.2197031e-39
2719.8 990.64001 903.95898 9.2197031e-39
2646.03 1035.8 901.43799 9.2197031e-39
-365.28601 3391.3201 907.11499 9.2197031e-39
4174.6602 -103.922 910.42902 9.2197031e-39
4146.5098 -80.041992 910.87701 9.2197031e-39
2679.6899 1097.12 919.953 9.2197031e-39
-295.328 3379.8601 916.15198 9.2197031e-39
-342.133 3416.0901 916.15997 9.2197031e-39
4161.1602 -31.598022 923.54602 9.2197031e-39
4139.4399 -7.3560181 925.12402 9.2197031e-39
-270.98401 3391.49 922.60797 9.2197031e-39
4131.8101 38.474976 933.58801 9.2197031e-39
4110.6699 62.380005 935.19 9.2197031e-39
2714.1001 1142.3101 935.17297 9.2197031e-39
-429.74799 3593.7598 939.45697 9.2197031e-39
4114.8799 109.86798 945.94501 9.2197031e-39
4082.6799 131.67297 945.28998 9.2197031e-39
4102.52 181.93201 959.19397 9.2197031e-39
2746.77 1205.85 953.995 9.2197031e-39
-793.84802 4004.77 966.89502 9.2197031e-39
2797.1201 1263.23 974.40997 9.2197031e-39
4199.3301 226.39203 984.48602 9.2197031e-39
4182.9199 299.63397 997.32098 9.2197031e-39
2823.71 1325.99 992.073 9.2197031e-39
2798.5701 1382.4301 999.91498 9.2197031e-39
4231.4199 281.039 1001.33 9.2197031e-39
4174.71 346.64099 1005.94 9.2197031e-39
2850.72 1370.5 1005.93 9.2197031e-39
2785.6299 1400.55 1001.63 9.2197031e-39
2740.1399 1443.0601 1003.19 9.2197031e-39
2709.8501 1468.8 1003.68 9.2197031e-39
4196.8301 379.44098 1016.52 9.2197031e-39
2732.8999 1513.53 1016.94 9.2197031e-39
51.9977 3584.25 1016.41 9.2197031e-39
2829.29 1478.8701 1025.39 9.2197031e-39
195.01601 3537.6201 1029.97 9.2197031e-39
149.922 3553.8599 1026.02 9.2197031e-39
124.149 3570.3301 1025.28 9.2197031e-39
78.408096 3581.8999 1020.24 9.2197031e-39
264.58801 3499.8601 1033.37 9.2197031e-39
290.15302 3492.3 1035.96 9.2197031e-39
220.61501 3525.6099 1031.62 9.2197031e-39
2955.29 1732.0701 1099.72 9.2197031e-39
4583.0298 516.57996 1108.89 9.2197031e-39
2953.1001 1761.3 1105.55 9.2197031e-39
4607.6499 553.39001 1120.73 9.2197031e-39
4653.4102 619.27002 1142.1899 9.2197031e-39
4676.25 656.87 1153.91 9.2197031e-39
407.90302 3986.1699 1159.9399 9.2197031e-39
380.32001 4007.1899 1159.87 9.2197031e-39
4710.1201 721.82996 1173.23 9.2197031e-39
1883.75 2904.0901 1172.49 9.2197031e-39
2743.96 2319.53 1189.59 9.2197031e-39
2687.1399 2363.55 1189.61 9.2197031e-39
2648.3899 2388.4299 1188.53 9.2197031e-39
2630.97 2407.95 1189.8101 9.2197031e-39
4756.6602 767.01001 1190.4301 9.2197031e-39
4709.6699 844.13 1199.08 9.2197031e-39
4652.0498 884.31995 1198.15 9.2197031e-39
4598.9702 900.73999 1192.9301 9.2197031e-39
2824.8701 2262.1699 1190.7 9.2197031e-39
2806.28 2280.6201 1191.5601 9.2197031e-39
2768.2 2306.98 1190.91 9.2197031e-39
2709.5601 2349.3401 1190.27 9.2197031e-39
4749.4902 822.54004 1201.03 9.2197031e-39
3111.72 2129.5901 1209.62 9.2197031e-39
3050.26 2173.96 1208.9399 9.2197031e-39
3027.8501 2189.95 1208.66 9.2197031e-39
2988.98 2217.71 1208.17 9.2197031e-39
2964.96 2231.9299 1207.25 9.2197031e-39
2927.1599 2260.22 1207.05 9.2197031e-39
2909.95 2280.6599 1208.5601 9.2197031e-39
3239 2041.9099 1211.89 9.2197031e-39
3215.6799 2058.0901 1211.5 9.2197031e-39
3178.6001 2088.8799 1211.95 9.2197031e-39
3155.8301 2105.21 1211.6801 9.2197031e-39
3093.9099 2149.8301 1210.99 9.2197031e-39
4615.21 1053.86 1228.05 9.2197031e-39
4587.3799 1077.59 1228.52 9.2197031e-39
4498.0601 1136.64 1226.39 9.2197031e-39
4446.5098 1174.9399 1226.0601 9.2197031e-39
4418.1699 1197.0601 1226.1 9.2197031e-39
4362.5898 1232.5 1224.51 9.2197031e-39
4711.0801 993.83997 1231.04 9.2197031e-39
4676.0898 1016.01 1230 9.2197031e-39
4542.6499 1119.72 1230.11 9.2197031e-39
4363.77 1266.01 1231.8 9.2197031e-39
4391.1099 1335.58 1251.03 9.2197031e-39
4856.4502 1569.8999 1376.97 9.2197031e-39
4781.3101 1639.46 1379.4 9.2197031e-39
4818.3999 1618.5701 1381.05 9.2197031e-39
4738.2202 1685.0601 1382 9.2197031e-39
4799.3501 1751.71 1406.15 9.2197031e-39
4841.6499 1839.45 1431.6801 9.2197031e-39
4892.3701 1903.8101 1453.64 9.2197031e-39
4966.04 2011.0701 1488.45 9.2197031e-39
5040.0098 2090.3899 1517.39 9.2197031e-39
9564.3301 4574.1699 2785.47 9.2197031e-39
