# .PCD v0.7 - Point Cloud Data file format
VERSION 0.7
FIELDS x y z rgb
SIZE 4 4 4 4
TYPE F F F F
COUNT 1 1 1 1
WIDTH 322
HEIGHT 1
VIEWPOINT 0 0 0 1 0 0 0
POINTS 322
DATA ascii
2752.3501 -2173.1802 134 9.2197031e-39
61.8535 -622.69379 136.323 9.2197031e-39
46.209702 -613.70947 136.32899 9.2197031e-39
55.873676 -614.83026 137.35501 9.2197031e-39
66.789833 -615.83887 138.57367 9.2197031e-39
77.475899 -616.99719 139.72701 9.2197031e-39
-1317.7 157.21198 134 9.2197031e-39
-1305.59 164.17499 137.23199 9.2197031e-39
2765.8701 -2149.3301 141.345 9.2197031e-39
2780.04 -2125.8398 148.694 9.2197031e-39
77.204041 -612.60291 140.7128 9.2197031e-39
66.451103 -603.36029 141.42999 9.2197031e-39
72.296501 -603.00665 142.291 9.2197031e-39
82.910103 -600.4278 144.304 9.2197031e-39
63.373001 -599.82532 141.843 9.2197031e-39
73.937698 -599.21082 143.392 9.2197031e-39
83.458923 -596.06372 145.39149 9.2197031e-39
90.929932 -595.43658 146.53233 9.2197031e-39
62.4659 -581.64044 145.95 9.2197031e-39
75.378502 -585.92615 146.673 9.2197031e-39
81.380898 -589.12091 146.729 9.2197031e-39
-168.17468 -462.87668 142.85901 9.2197031e-39
-172.69849 -455.07599 144.071 9.2197031e-39
-169.21434 -456.91135 144.10767 9.2197031e-39
-173.90132 -445.41602 146.15666 9.2197031e-39
-234.06799 -410.00598 146.38 9.2197031e-39
-222.46899 -418.05798 146.052 9.2197031e-39
-255.552 -393.55402 147.345 9.2197031e-39
-1297.73 173.53802 140.455 9.2197031e-39
-1286.38 180.74103 143.64101 9.2197031e-39
-1290.3 197.26703 146.96201 9.2197031e-39
2801.04 -2106.02 156.101 9.2197031e-39
116.594 -589.96362 151.222 9.2197031e-39
-223.897 -384.99899 153.549 9.2197031e-39
-239.504 -364.27499 156.28999 9.2197031e-39
-304.49799 -353.90698 150.048 9.2197031e-39
-244.34 -355.341 157.724 9.2197031e-39
-349.76199 -326.84299 150.315 9.2197031e-39
-372.69699 -312.22601 150.66 9.2197031e-39
-371.517 -304.629 152.58299 9.2197031e-39
-369.34 -302.116 153.45799 9.2197031e-39
-405.284 -290.51599 151.369 9.2197031e-39
-475.26599 -240.41599 153.702 9.2197031e-39
-525.51398 -207.30099 154.71201 9.2197031e-39
-580.341 -171.99899 155.621 9.2197031e-39
-628.57202 -142.95401 155.953 9.2197031e-39
-736.30603 -71.728027 158.172 9.2197031e-39
-811.95599 -26.140991 158.7 9.2197031e-39
-1271.1801 199.51703 150.03101 9.2197031e-39
-1256.3101 204.19598 153.099 9.2197031e-39
-1244.79 210.86499 156.18401 9.2197031e-39
-1244.88 225.14801 159.493 9.2197031e-39
2821.8999 -2085.9399 163.54601 9.2197031e-39
-279.98099 -309.883 163.549 9.2197031e-39
-315.48199 -263.061 169.71001 9.2197031e-39
-1275.4301 260.245 163.58701 9.2197031e-39
2834.6201 -2061.48 170.92799 9.2197031e-39
-346.39301 -220.25601 175.548 9.2197031e-39
-359.70599 -197.84201 178.987 9.2197031e-39
-1260.53 279.80402 170.119 9.2197031e-39
-1662.5 542.43994 177.672 9.2197031e-39
-388.099 -155.69 185.009 9.2197031e-39
-410.276 -120.11301 190.32899 9.2197031e-39
-416.74301 -103.89401 193.239 9.2197031e-39
-429.52399 -78.796997 197.373 9.2197031e-39
-451.93201 -39.864014 203.44299 9.2197031e-39
-469.599 -6.1660156 208.92599 9.2197031e-39
-501.12 48.088013 217.34599 9.2197031e-39
-671.271 302.33801 253.813 9.2197031e-39
87.192398 -71.296997 267.91299 9.2197031e-39
67.718498 -64.114502 266.98999 9.2197031e-39
74.062401 -67.04303 267.15399 9.2197031e-39
81.761803 -65.428986 268.5545 9.2197031e-39
-691.32898 347.35699 261.60999 9.2197031e-39
-683.42902 352.41901 263.83899 9.2197031e-39
-689.18701 378.10602 269.04599 9.2197031e-39
96.3461 -65.764526 270.418 9.2197031e-39
106.1405 -66.222504 271.616 9.2197031e-39
116.454 -65.496979 273.1575 9.2197031e-39
126.258 -60.030029 275.73401 9.2197031e-39
132.20599 -64.580994 275.4675 9.2197031e-39
145.946 -63.150024 277.63 9.2197031e-39
152.3945 -66.605499 277.685 9.2197031e-39
65.286697 -46.278015 270.814 9.2197031e-39
66.919701 -20.609985 277 9.2197031e-39
-682.09497 384.80499 271.547 9.2197031e-39
-675.99597 393.12201 274.29401 9.2197031e-39
-671.37 403.92499 277.42099 9.2197031e-39
-664.00201 410.48999 279.92899 9.2197031e-39
162.495 -62.26001 280.04001 9.2197031e-39
204.0735 -63.59549 285.2655 9.2197031e-39
210.02901 -68.612976 284.89099 9.2197031e-39
220.284 -61.153015 287.991 9.2197031e-39
145.27699 -52.297974 280.064 9.2197031e-39
172.96451 -57.671509 282.50101 9.2197031e-39
180.99699 -58.437012 283.392 9.2197031e-39
190.34399 -51.288025 286.29901 9.2197031e-39
201.25999 -52.687988 287.427 9.2197031e-39
198.04401 -47.684998 288.16199 9.2197031e-39
65.799599 -4.2689819 280.651 9.2197031e-39
63.066898 6.4439697 282.77802 9.2197031e-39
54.396702 15.559998 283.74301 9.2197031e-39
-620.09302 392.95801 281.698 9.2197031e-39
-650.93103 407.65198 281.009 9.2197031e-39
-642.487 412.34998 283.22601 9.2197031e-39
-627.91498 425.83002 288.29999 9.2197031e-39
66.567001 45.504028 292.327 9.2197031e-39
-621.22998 433.78998 291.04001 9.2197031e-39
-612.547 438.21997 293.228 9.2197031e-39
-603.823 442.57996 295.40302 9.2197031e-39
-599.646 455.63 298.99399 9.2197031e-39
-590.76398 459.87 301.16299 9.2197031e-39
-581.39899 463.15002 303.173 9.2197031e-39
-573.75299 469.90002 305.76001 9.2197031e-39
-567.73297 480.16003 308.94601 9.2197031e-39
-558.62598 484.12 311.07901 9.2197031e-39
-552.77899 495.18005 314.431 9.2197031e-39
-543.94 499.91003 316.70801 9.2197031e-39
-534.65198 503.67004 318.81699 9.2197031e-39
-529.21198 516.41003 322.505 9.2197031e-39
-519.77502 520.03003 324.603 9.2197031e-39
-513.28198 530.88 327.98999 9.2197031e-39
-503.71201 534.35999 330.073 9.2197031e-39
-497.31601 546.03003 333.63901 9.2197031e-39
-487.26001 548.44995 335.539 9.2197031e-39
-484.32999 570.19995 340.987 9.2197031e-39
-477.724 582.68994 344.772 9.2197031e-39
-472.21799 598.87 349.267 9.2197031e-39
-463.298 605.70996 352.04501 9.2197031e-39
-467.49799 652.68994 362.409 9.2197031e-39
-510.67599 824.46997 396.60699 9.2197031e-39
-280.793 749.33997 409.74301 9.2197031e-39
-272.47501 772.05005 416.13 9.2197031e-39
-312.00601 791.52002 415.39499 9.2197031e-39
-300.89899 798.02002 418.38599 9.2197031e-39
-556.08502 1013.91 434.60999 9.2197031e-39
-563.42603 1088.26 450.92099 9.2197031e-39
3471.9399 -1146.827 468.466 9.2197031e-39
-561.53101 1135.4301 462.142 9.2197031e-39
-549.26001 1148.6 466.83899 9.2197031e-39
-531.63397 1142.72 467.819 9.2197031e-39
3492.8401 -1119.2119 477.66901 9.2197031e-39
3513.5 -1091.269 486.918 9.2197031e-39
3537.8701 -1063.552 496.60699 9.2197031e-39
3565.95 -1035.963 506.76001 9.2197031e-39
3579.97 -1006.215 515.54498 9.2197031e-39
3604.6001 -977.49097 525.50403 9.2197031e-39
3624.05 -947.841 534.987 9.2197031e-39
3644.22 -917.96899 544.61902 9.2197031e-39
3665.1201 -887.85303 554.40503 9.2197031e-39
3685.76 -857.39001 564.23602 9.2197031e-39
3704.1499 -826.44098 573.88098 9.2197031e-39
3722.26 -795.18298 583.56 9.2197031e-39
3748.02 -764.04797 594.23102 9.2197031e-39
3769.54 -732.29102 604.47998 9.2197031e-39
3787.8 -700.05499 614.40698 9.2197031e-39
3802.79 -667.41681 623.992 9.2197031e-39
3829.3799 -634.75189 635.12799 9.2197031e-39
3842.78 -601.4765 644.65002 9.2197031e-39
3871.75 -568.00262 656.28998 9.2197031e-39
3895.4399 -534.04681 667.34003 9.2197031e-39
3927.73 -499.5387 679.664 9.2197031e-39
3943.8501 -464.82199 689.88202 9.2197031e-39
3966.5701 -429.58701 701.10101 9.2197031e-39
3989.95 -393.897 712.51202 9.2197031e-39
4011.01 -357.87399 723.69202 9.2197031e-39
4035.6799 -321.23199 735.49701 9.2197031e-39
4064.9199 -283.80499 748.09399 9.2197031e-39
4086.8999 -246.35599 759.72699 9.2197031e-39
4121.3101 -207.42099 773.36298 9.2197031e-39
4138.6001 -169.39301 784.508 9.2197031e-39
1564.05 1310.83 785.92798 9.2197031e-39
1550.74 1329.66 788.53497 9.2197031e-39
4177.1499 -128.841 799.07001 9.2197031e-39
1604.8101 1322.98 794.18103 9.2197031e-39
4164.2202 -93.173004 805.64203 9.2197031e-39
4113.7202 -62.088013 806.14697 9.2197031e-39
1422.62 1457.99 801.31799 9.2197031e-39
1402.5699 1468.8999 801.18402 9.2197031e-39
1461.24 1471.5801 809.62 9.2197031e-39
1384.6899 1482.76 802.02802 9.2197031e-39
1368.89 1499.6499 803.85303 9.2197031e-39
1350.1899 1512.46 804.33899 9.2197031e-39
1331.37 1525.1001 804.77399 9.2197031e-39
1316.71 1544.03 807.224 9.2197031e-39
4108.0698 -26.088989 813.76501 9.2197031e-39
4043.4299 1.8920288 811.66498 9.2197031e-39
1588.97 1409.77 812.25403 9.2197031e-39
1580.86 1436.36 817.35602 9.2197031e-39
1560.22 1447.96 817.30603 9.2197031e-39
1508.58 1457.65 812.68298 9.2197031e-39
1539.5 1459.3701 817.20001 9.2197031e-39
1483.73 1463.21 810.66699 9.2197031e-39
1304.97 1567.75 811.17603 9.2197031e-39
1288.26 1584.1001 812.75299 9.2197031e-39
1276.99 1609.3501 817.12402 9.2197031e-39
-377.729 2561.7 818.26501 9.2197031e-39
-436.11401 2584.76 815.85303 9.2197031e-39
-467.69699 2612.3899 818.07397 9.2197031e-39
4067.5 41.684998 824.12299 9.2197031e-39
-408.90601 2592.79 821.34302 9.2197031e-39
1288.99 1673.3601 833.60699 9.2197031e-39
4116.5098 85.848022 840.91803 9.2197031e-39
4071.5801 115.73499 841.88599 9.2197031e-39
2664.7 947.84998 848.065 9.2197031e-39
2625.02 957.31995 844.98401 9.2197031e-39
4119.75 160.90601 858.802 9.2197031e-39
2719.03 945.68005 854.79401 9.2197031e-39
2631.8899 992.90002 854.17102 9.2197031e-39
371.51999 2348.99 868.55798 9.2197031e-39
4164.48 206.453 875.349 9.2197031e-39
2663.53 1043.49 870.14899 9.2197031e-39
469.94699 2302.3701 870.823 9.2197031e-39
298.36099 2400.1599 870.716 9.2197031e-39
405.61301 2395.0901 883.81702 9.2197031e-39
4212.5698 253.57898 892.71002 9.2197031e-39
4178 285.32202 895.48901 9.2197031e-39
2709.51 1103.76 890.28601 9.2197031e-39
2712.21 1139.13 898.86798 9.2197031e-39
1379.16 1870.48 891.448 9.2197031e-39
465.444 2425.02 898.74402 9.2197031e-39
4189.4902 326.14899 906.51202 9.2197031e-39
445.784 2471.3899 906.90802 9.2197031e-39
4228.4702 373.29901 922.66498 9.2197031e-39
2787.21 1219.92 927.64203 9.2197031e-39
380.521 2598.3799 927.74902 9.2197031e-39
356.45999 2633.74 932.76599 9.2197031e-39
2837.9399 1287.5699 950.12701 9.2197031e-39
4415.6899 454.78003 966.53802 9.2197031e-39
2850.0801 1331.95 962.06299 9.2197031e-39
2813.73 1382.2 968.909 9.2197031e-39
2866.52 1379.92 975.40399 9.2197031e-39
2787.6201 1401.88 970.00598 9.2197031e-39
2761.3899 1421.26 971.021 9.2197031e-39
2729.51 1436.4 970.29901 9.2197031e-39
2719.6101 1467.1399 976.12701 9.2197031e-39
-1185.03 3694.2798 974.14001 9.2197031e-39
-1153.29 3725.4199 985.60797 9.2197031e-39
-1124.3101 3769.6802 999.75702 9.2197031e-39
4624.6602 544.97998 1015.33 9.2197031e-39
-355.953 3416.1001 1019.84 9.2197031e-39
-1094.39 3812.7798 1013.76 9.2197031e-39
-1063.76 3855.6699 1027.8101 9.2197031e-39
4659.3198 596.68005 1031.97 9.2197031e-39
4648.6099 637.75 1040.1 9.2197031e-39
4612.8101 672.26001 1043.35 9.2197031e-39
-1032.85 3900.27 1042.3 9.2197031e-39
4594.7998 711.15002 1050 9.2197031e-39
4555.6602 744 1052.4301 9.2197031e-39
4516.3101 776.30005 1054.7 9.2197031e-39
2960.8201 1683.8101 1058.63 9.2197031e-39
-1001.01 3943.6802 1056.63 9.2197031e-39
2936.8999 1707.97 1061.0601 9.2197031e-39
4551.04 830.32996 1071.89 9.2197031e-39
-970.35498 3996.48 1072.99 9.2197031e-39
-938.08801 4045.21 1088.62 9.2197031e-39
4590.7598 886.83997 1090.3101 9.2197031e-39
181.711 3538.21 1119.8199 9.2197031e-39
109.317 3556.6802 1114.47 9.2197031e-39
145.70599 3550.02 1117.77 9.2197031e-39
73.148499 3571.77 1113.17 9.2197031e-39
36.969299 3595.3198 1113.83 9.2197031e-39
0.090538599 3600.0801 1110.02 9.2197031e-39
4722.3198 973.71997 1128.03 9.2197031e-39
4655.1099 998 1124.73 9.2197031e-39
4615.7402 1030.6899 1127.09 9.2197031e-39
4567.8398 1059.95 1127.52 9.2197031e-39
287.72699 3490.3501 1122.8 9.2197031e-39
252.58 3505.95 1121.75 9.2197031e-39
217.064 3519.3198 1120.13 9.2197031e-39
4535.48 1094.14 1131.16 9.2197031e-39
4487.2598 1122.16 1131.25 9.2197031e-39
4445.3301 1151.92 1132.59 9.2197031e-39
4409.6299 1183.58 1135.2 9.2197031e-39
4359.1899 1208.99 1134.39 9.2197031e-39
4377.4902 1261.8199 1149.11 9.2197031e-39
336.28699 3614.6699 1158.1801 9.2197031e-39
2835.46 2216.26 1165.74 9.2197031e-39
3260.1101 1998.48 1171.64 9.2197031e-39
3228 2021.04 1172.61 9.2197031e-39
3199.55 2046.28 1174.6899 9.2197031e-39
3168.6499 2069.4099 1175.96 9.2197031e-39
3136.8701 2091.5901 1176.89 9.2197031e-39
3106.4399 2114.7 1178.21 9.2197031e-39
3075.8601 2137.5 1179.4399 9.2197031e-39
2814.8101 2246.52 1170.03 9.2197031e-39
2785.5901 2268.49 1171.25 9.2197031e-39
2754.8601 2288.8 1171.88 9.2197031e-39
2728.72 2313.6699 1174.1801 9.2197031e-39
2697.02 2332.72 1174.39 9.2197031e-39
2667.8701 2354.28 1175.53 9.2197031e-39
2639.8701 2377 1177.08 9.2197031e-39
2604.54 2391.5801 1175.77 9.2197031e-39
4481.77 1351.4399 1183.84 9.2197031e-39
3044.3999 2159.3501 1180.33 9.2197031e-39
3013.53 2181.52 1181.37 9.2197031e-39
2987.5601 2207.9299 1184.0601 9.2197031e-39
2949.96 2223.6201 1182.7 9.2197031e-39
2925.76 2251.47 1185.95 9.2197031e-39
-519.85602 4453.54 1239.25 9.2197031e-39
777.35303 3720.1802 1241.4399 9.2197031e-39
449.978 3946.3501 1250.4399 9.2197031e-39
412.58099 3977.8901 1252.79 9.2197031e-39
-31.589399 4268.6401 1261.26 9.2197031e-39
-74.516998 4309 1264.9399 9.2197031e-39
-117.983 4333.4302 1264.83 9.2197031e-39
-162.08 4369.1802 1267.27 9.2197031e-39
-206.765 4403.5898 1269.3199 9.2197031e-39
-251.69099 4427.8799 1268.99 9.2197031e-39
-342.63501 4472.3901 1267.23 9.2197031e-39
-297.82999 4469.3301 1272.49 9.2197031e-39
-390.50101 4522.79 1272.58 9.2197031e-39
4861.4302 1561.95 1283.34 9.2197031e-39
4810.71 1591.3401 1283.42 9.2197031e-39
4769.6602 1624.45 1285.65 9.2197031e-39
4743.5098 1663.99 1291.36 9.2197031e-39
4815.0698 1749.5701 1320.79 9.2197031e-39
4892.46 1839.99 1352.12 9.2197031e-39
4953.6899 1924.6001 1379.95 9.2197031e-39
5018.9902 2013.1299 1409.23 9.2197031e-39
5111.6602 2117.78 1445.9 9.2197031e-39
9654.1299 4572.5801 2621.5 9.2197031e-39
