# .PCD v0.7 - Point Cloud Data file format
VERSION 0.7
FIELDS x y z rgb
SIZE 4 4 4 4
TYPE F F F F
COUNT 1 1 1 1
WIDTH 319
HEIGHT 1
VIEWPOINT 0 0 0 1 0 0 0
POINTS 319
DATA ascii
262.92599 -2300.3198 137.862 9.2197031e-39
248.52699 -2290.3599 134 9.2197031e-39
269.3045 -741.177 138.9635 9.2197031e-39
272.39252 -744.78247 139.7925 9.2197031e-39
264.70667 -735.3233 137.72934 9.2197031e-39
259.38098 -726.08752 136.29849 9.2197031e-39
262.922 -726.80701 137.248 9.2197031e-39
273.57599 -444.22198 139.992 9.2197031e-39
251.78 -54.367004 134 9.2197031e-39
260.76099 -57.461975 136.408 9.2197031e-39
256.34698 -49.39502 135.222 9.2197031e-39
265.54599 -46.573975 137.686 9.2197031e-39
270.37601 -39.72998 138.97701 9.2197031e-39
307.60999 -2344.3799 149.853 9.2197031e-39
292.58401 -2334.8301 145.823 9.2197031e-39
277.63199 -2319.1401 141.81 9.2197031e-39
277.06519 -744.81238 141.0444 9.2197031e-39
295.90497 -742.17621 146.09158 9.2197031e-39
308.27499 -749.685 149.409 9.2197031e-39
279.91299 -732.23999 141.80299 9.2197031e-39
284.43027 -733.9812 143.01375 9.2197031e-39
294.76804 -734.716 145.78401 9.2197031e-39
300.0715 -732.5575 147.2045 9.2197031e-39
277.952 -728.57501 141.276 9.2197031e-39
283.74799 -727.22095 142.828 9.2197031e-39
307.53699 -462.47766 149.09933 9.2197031e-39
287.31375 -453.17773 143.6765 9.2197031e-39
305.13202 -453.92401 148.45151 9.2197031e-39
310.88101 -454.87 149.992 9.2197031e-39
274.80701 -444.431 140.32201 9.2197031e-39
285.06201 -447.14203 143.071 9.2197031e-39
295.4866 -445.10019 145.8636 9.2197031e-39
305.31168 -442.00171 148.49466 9.2197031e-39
285.336 -437.44 143.14101 9.2197031e-39
304.41199 -437.75534 148.25233 9.2197031e-39
276.68451 -428.54849 140.819 9.2197031e-39
283.76398 -424.82849 142.71451 9.2197031e-39
275.32101 -413.14398 140.448 9.2197031e-39
288.01199 -411.41901 143.84801 9.2197031e-39
286.84698 -400.965 143.53101 9.2197031e-39
289.02399 -398.35699 144.114 9.2197031e-39
309.27701 -137.36099 149.439 9.2197031e-39
310.70001 -93.187988 149.80299 9.2197031e-39
308.72198 -72.799011 149.265 9.2197031e-39
278.51099 -62.130981 141.166 9.2197031e-39
285.28601 -61.057007 142.9805 9.2197031e-39
302.76703 -66.09848 147.6665 9.2197031e-39
274.40601 -53.911011 140.063 9.2197031e-39
294.48251 -58.268494 145.4435 9.2197031e-39
323.08401 -2360.79 154.005 9.2197031e-39
338.44601 -2369.0601 158.125 9.2197031e-39
311.88702 -447.66449 150.259 9.2197031e-39
1145.75 -3014.3101 374.69299 9.2197031e-39
1146.05 -2953.0701 374.74899 9.2197031e-39
1147.1801 -2896.6499 375.03101 9.2197031e-39
1163.28 -2880.1499 379.33701 9.2197031e-39
1179.16 -2863.53 383.586 9.2197031e-39
1198.29 -2855.05 388.707 9.2197031e-39
1217.34 -2846.4099 393.80899 9.2197031e-39
1232.73 -2829.3899 397.92599 9.2197031e-39
1247.9 -2812.27 401.98499 9.2197031e-39
1274.0601 -2819.4399 408.996 9.2197031e-39
1292.8101 -2810.1101 414.01599 9.2197031e-39
1297.5601 1622.74 413.56299 9.2197031e-39
1319.64 1620.3601 419.478 9.2197031e-39
1319.64 -2817.6299 421.20999 9.2197031e-39
1342.3101 -2815.9099 427.284 9.2197031e-39
1325.03 1583.9099 420.939 9.2197031e-39
1361.03 -2805.96 432.29501 9.2197031e-39
1377.4 -2791.4299 436.677 9.2197031e-39
1403.27 -2795.24 443.60901 9.2197031e-39
1423.6801 -2788.25 449.07501 9.2197031e-39
1413.1 1712.3999 444.48499 9.2197031e-39
1457.34 -2805.4399 458.10199 9.2197031e-39
1462.47 1664.3899 457.733 9.2197031e-39
1448.97 1685.79 454.10599 9.2197031e-39
1434.74 1706.23 450.28601 9.2197031e-39
1466.8199 -2777.99 460.63 9.2197031e-39
1488.63 -2772.95 466.474 9.2197031e-39
1495.9399 1634.3701 466.71201 9.2197031e-39
1481.4301 1653.3601 462.81699 9.2197031e-39
1517.9 -2780.5601 474.319 9.2197031e-39
1544.17 1587.1001 479.655 9.2197031e-39
1526.27 1599.5601 474.85199 9.2197031e-39
1511.2 1617.02 470.80899 9.2197031e-39
1547.9 -2788.6599 482.35901 9.2197031e-39
1566.0699 1581.27 485.52399 9.2197031e-39
1578.12 -2796.3799 490.461 9.2197031e-39
1605.64 1562.21 496.134 9.2197031e-39
1585.88 1571.8301 490.83701 9.2197031e-39
1638.0601 1380 504.89301 9.2197031e-39
1644.45 1425.8 506.586 9.2197031e-39
1635.73 1450.58 504.241 9.2197031e-39
1655.76 1519 509.58099 9.2197031e-39
1640.09 1534.9199 505.37701 9.2197031e-39
1624.26 1550.72 501.129 9.2197031e-39
1678.55 -2747.54 517.34998 9.2197031e-39
1662.1 1377.83 511.33499 9.2197031e-39
1688.54 1378.58 518.41901 9.2197031e-39
1695.5699 -2732.9199 521.90601 9.2197031e-39
1711.34 -2716.52 526.125 9.2197031e-39
1724.67 -2696.77 529.69 9.2197031e-39
1756.24 -2908.0601 538.22998 9.2197031e-39
1737.79 -2676.9299 533.19598 9.2197031e-39
1755.9 -2664.22 538.04498 9.2197031e-39
1784.62 -3090.73 545.90601 9.2197031e-39
1787.27 -3047.3899 546.599 9.2197031e-39
1778.13 -2986.6799 544.12799 9.2197031e-39
1782.71 -2663.25 545.229 9.2197031e-39
1814.97 -2669.05 553.87402 9.2197031e-39
1863.04 -2694.8 566.76501 9.2197031e-39
2025 1795.8401 608.40997 9.2197031e-39
2131.4399 1893.8601 636.89301 9.2197031e-39
2170.74 -3052.05 649.35303 9.2197031e-39
2202.9099 1942.45 656.02399 9.2197031e-39
2222.7 -3074.01 663.28302 9.2197031e-39
2239.22 -3050.73 667.70099 9.2197031e-39
2253 -3024.3 671.38202 9.2197031e-39
2267.75 -2999.3201 675.32397 9.2197031e-39
2282.23 -2974.25 679.19397 9.2197031e-39
2282.6499 1999.24 677.36798 9.2197031e-39
2296.4399 -2949.1101 682.992 9.2197031e-39
2310.3799 -2923.8999 686.71899 9.2197031e-39
2329.1899 1792.1101 689.91998 9.2197031e-39
2318.01 1821.26 686.91199 9.2197031e-39
2317.28 1863.21 686.70099 9.2197031e-39
2306.5801 1893.9299 683.82098 9.2197031e-39
2313.55 1946.8401 685.66901 9.2197031e-39
2325.3701 -2900.0801 690.72601 9.2197031e-39
2344.76 -2881.25 695.914 9.2197031e-39
2357.96 -2855.76 699.44202 9.2197031e-39
2372.25 -2831.6399 703.26001 9.2197031e-39
2389.7 -2810.97 707.92798 9.2197031e-39
2391.03 1820.3701 706.47699 9.2197031e-39
2394.8799 2094.0801 707.40302 9.2197031e-39
2402.8301 -2785.9399 711.43799 9.2197031e-39
2419.8701 -2765.03 715.995 9.2197031e-39
2431.8301 -2739.1399 719.18799 9.2197031e-39
2449.8601 -2719.3601 724.01099 9.2197031e-39
2461.3201 -2693.3201 727.073 9.2197031e-39
2473.95 -2668.5801 730.44598 9.2197031e-39
2489.9399 -2647.0901 734.72198 9.2197031e-39
2500.6399 -2620.8599 737.58002 9.2197031e-39
2517.6699 -2600.46 742.13501 9.2197031e-39
2527.1399 -2573.47 744.66199 9.2197031e-39
2545.26 -2554.1001 749.51001 9.2197031e-39
2535.3101 1938.26 745.09198 9.2197031e-39
2560.23 -2532.04 753.51202 9.2197031e-39
2576.51 -2511.1001 757.86603 9.2197031e-39
2585.77 -2484.46 760.33698 9.2197031e-39
2601.6499 -2463.3 764.58398 9.2197031e-39
2617.3501 -2441.99 768.78198 9.2197031e-39
2613.76 1117.17 766.43201 9.2197031e-39
2632.8701 -2420.54 772.93201 9.2197031e-39
2642.74 -2394.8198 775.56799 9.2197031e-39
2657.8601 -2373.1401 779.61102 9.2197031e-39
2640.01 1104.24 773.47198 9.2197031e-39
2634.7 1164.53 772.026 9.2197031e-39
2672.8 -2351.3301 783.60498 9.2197031e-39
2687.55 -2329.3799 787.54999 9.2197031e-39
2668.3201 1222.37 781.01202 9.2197031e-39
2698.8201 1279.17 789.15997 9.2197031e-39
2699.96 1314.4301 789.45203 9.2197031e-39
2702.1599 1609.1101 789.92902 9.2197031e-39
2702.9199 -2307.8599 791.659 9.2197031e-39
2717.3101 -2285.6401 795.505 9.2197031e-39
2731.5 -2263.3 799.30103 9.2197031e-39
2731.1001 1103.78 797.87903 9.2197031e-39
2715.9299 1125.5699 793.80499 9.2197031e-39
2720.6101 1586.8899 794.88 9.2197031e-39
2739 -2236.51 801.29901 9.2197031e-39
2750.3301 -2212.3799 804.32501 9.2197031e-39
2768.1299 1551.46 807.62598 9.2197031e-39
2772.96 -2195.5 810.383 9.2197031e-39
2786.3999 -2172.6499 813.974 9.2197031e-39
2797.1499 -2148.1602 816.84399 9.2197031e-39
2788.9199 1419.72 813.24799 9.2197031e-39
2803.3701 1543.0901 817.07202 9.2197031e-39
2784.8 1604.28 812.073 9.2197031e-39
2811.8501 -2126.0898 820.77698 9.2197031e-39
2824.7 -2102.8999 824.211 9.2197031e-39
2844.95 -2083.96 829.62903 9.2197031e-39
2834.3701 1492.97 825.39801 9.2197031e-39
2843.2 1537.98 827.74701 9.2197031e-39
2850.6599 -2056.6401 831.14801 9.2197031e-39
2869.74 -2036.86 836.25299 9.2197031e-39
2881.8401 -2013.15 839.48499 9.2197031e-39
2893.73 -1989.33 842.66302 9.2197031e-39
2911.47 -1968.53 847.40802 9.2197031e-39
2924.9199 1894.9099 849.505 9.2197031e-39
2905.3 1920.3201 844.237 9.2197031e-39
2922.99 -1944.4399 850.48499 9.2197031e-39
2943.02 -1924.5601 855.84302 9.2197031e-39
2954.1599 -1900.1899 858.82001 9.2197031e-39
2938.52 1864.04 853.16101 9.2197031e-39
2973.01 -1879.46 863.862 9.2197031e-39
2982.01 -1854.01 866.26398 9.2197031e-39
3000.97 2349.1699 869.70398 9.2197031e-39
2966.1001 2363.04 860.35498 9.2197031e-39
3000.53 -1832.88 871.21698 9.2197031e-39
3012.6799 -1808.78 874.46301 9.2197031e-39
3030.8701 -1787.24 879.32898 9.2197031e-39
3030.3799 2329.2 877.59399 9.2197031e-39
3039.0601 -1761.3199 881.51501 9.2197031e-39
3058.71 -1740.14 886.771 9.2197031e-39
3066.5 -1714.01 888.84698 9.2197031e-39
3061.73 2311.05 885.99902 9.2197031e-39
3084.8999 -1692.04 893.771 9.2197031e-39
3094.0901 -1666.4 896.22101 9.2197031e-39
3092.28 2291.8401 894.19397 9.2197031e-39
3111.24 -1643.6801 900.80902 9.2197031e-39
3128.23 -1620.75 905.35199 9.2197031e-39
3143.21 -1596.9399 909.35797 9.2197031e-39
3135.8799 2186.6299 905.91699 9.2197031e-39
3122.73 2272.3101 902.35999 9.2197031e-39
3159.8601 -1573.567 913.80798 9.2197031e-39
3168.03 -1547.249 915.98901 9.2197031e-39
3153.0601 2252.45 910.495 9.2197031e-39
3191.6899 -1525.8511 922.31897 9.2197031e-39
3207.8 -1501.8149 926.625 9.2197031e-39
3215.3701 -1475.067 928.64398 9.2197031e-39
3239.46 -1453.0859 935.09198 9.2197031e-39
3255.02 -1428.395 939.25 9.2197031e-39
3270.3799 -1403.489 943.35699 9.2197031e-39
3284.6201 -1378.125 947.16199 9.2197031e-39
3301.47 -1353.271 951.66901 9.2197031e-39
3316.26 -1327.719 955.62 9.2197031e-39
3330.8501 -1301.958 959.51801 9.2197031e-39
3344.28 -1275.78 963.10901 9.2197031e-39
3367.9299 -1251.621 969.43402 9.2197031e-39
3376.23 -1224.0129 971.64801 9.2197031e-39
3392.8501 -1197.957 976.091 9.2197031e-39
3410.21 -1171.824 980.73401 9.2197031e-39
3408.3301 -1142.095 980.21802 9.2197031e-39
3418.5901 -1114.496 982.95502 9.2197031e-39
3445.8101 -1089.439 990.23999 9.2197031e-39
3454.6799 -1061.259 992.60602 9.2197031e-39
3481.51 -1035.464 999.784 9.2197031e-39
3488.97 -1006.754 1001.77 9.2197031e-39
3507.72 -979.31799 1006.78 9.2197031e-39
3516.6399 -950.51599 1009.16 9.2197031e-39
3529.1599 -921.97198 1012.51 9.2197031e-39
3544.3401 -893.49402 1016.57 9.2197031e-39
3553.52 -864.28796 1019.01 9.2197031e-39
3563.4099 -835.01001 1021.65 9.2197031e-39
3559.5701 -804.70001 1020.61 9.2197031e-39
3579.5801 -775.82202 1025.96 9.2197031e-39
3597.4199 -746.50903 1030.73 9.2197031e-39
3623.71 -717.21399 1037.76 9.2197031e-39
3652.6499 -687.53857 1045.51 9.2197031e-39
3700.6699 -657.72711 1058.36 9.2197031e-39
3720.4199 -626.7616 1063.64 9.2197031e-39
3730.26 -595.43011 1066.27 9.2197031e-39
3757.22 -563.79199 1073.48 9.2197031e-39
3772.3201 -531.8598 1077.51 9.2197031e-39
3796.8 -499.40509 1084.0601 9.2197031e-39
3822.9299 -466.43701 1091.05 9.2197031e-39
3837.2 -433.496 1094.86 9.2197031e-39
3861.79 -399.728 1101.4301 9.2197031e-39
3884.1499 -365.62299 1107.41 9.2197031e-39
3901.3899 -331.44101 1112.02 9.2197031e-39
3925.0801 -296.392 1118.35 9.2197031e-39
3947.49 -260.98099 1124.34 9.2197031e-39
3971.5 -224.95401 1130.76 9.2197031e-39
3985.5701 -189.49899 1134.52 9.2197031e-39
4013.73 -152.086 1142.05 9.2197031e-39
4030.99 -115.45801 1146.66 9.2197031e-39
4074.74 -74.870972 1158.37 9.2197031e-39
4054.3999 349.086 1152.75 9.2197031e-39
4109.48 -34.695984 1167.66 9.2197031e-39
4087.5901 320.72601 1161.66 9.2197031e-39
4104.4702 398.32501 1166.15 9.2197031e-39
4130.4502 4.0939941 1173.26 9.2197031e-39
4128.1401 293.55798 1172.53 9.2197031e-39
4121.2598 439.81995 1170.63 9.2197031e-39
4155.3599 486.58997 1179.75 9.2197031e-39
4158.7002 44.546021 1180.8101 9.2197031e-39
4183.6899 85.062012 1187.5 9.2197031e-39
4169.4702 265.93298 1183.61 9.2197031e-39
4171.2798 529 1184 9.2197031e-39
4203.54 125.216 1192.8 9.2197031e-39
4229.6602 167.04602 1199.78 9.2197031e-39
4220.0801 239.60797 1197.1899 9.2197031e-39
4217.4399 580.82996 1196.35 9.2197031e-39
4260.1201 210.349 1207.9301 9.2197031e-39
4239.8501 626.52002 1202.33 9.2197031e-39
4262.71 672.97998 1208.4399 9.2197031e-39
4274.9502 716.66003 1211.7 9.2197031e-39
4295.0298 763.42004 1217.0699 9.2197031e-39
4300.8901 805.91003 1218.62 9.2197031e-39
4320.9502 853.79004 1223.97 9.2197031e-39
4328.2998 1460.98 1225.71 9.2197031e-39
4343.73 1514.6399 1229.8199 9.2197031e-39
4359.6401 909.12 1234.3199 9.2197031e-39
4375.1001 1438.66 1238.26 9.2197031e-39
4370.6299 1575.0801 1237 9.2197031e-39
4411.3301 970.37 1248.15 9.2197031e-39
4396.1201 1049.9399 1244.04 9.2197031e-39
4413.9399 1411.86 1248.67 9.2197031e-39
4454.0801 1116.54 1259.54 9.2197031e-39
4472.25 1036.51 1264.4399 9.2197031e-39
4456.1699 1386.16 1260 9.2197031e-39
4526.9502 1326.98 1278.99 9.2197031e-39
4495.6201 1358.64 1270.58 9.2197031e-39
4574.98 1302.3 1291.87 9.2197031e-39
4614.8701 1273.46 1302.5699 9.2197031e-39
4651.9199 1242.92 1312.51 9.2197031e-39
4695.9102 1951.8101 1324.02 9.2197031e-39
4755.1499 1880.48 1339.92 9.2197031e-39
4730.7598 1919.1699 1333.37 9.2197031e-39
4755.9399 2039.51 1340.0699 9.2197031e-39
4804.96 1855.3501 1353.27 9.2197031e-39
4803.0898 2121.51 1352.67 9.2197031e-39
4850.8701 2205.5701 1365.4399 9.2197031e-39
4924.0898 2307.1299 1385.02 9.2197031e-39
5031.3901 2432.6499 1413.72 9.2197031e-39
6585.6401 3655.1401 1829.7 9.2197031e-39
9516.1201 5384.2402 2614.25 9.2197031e-39
9501.29 5491.2998 2610.23 9.2197031e-39
