# .PCD v0.7 - Point Cloud Data file format
VERSION 0.7
FIELDS x y z rgb
SIZE 4 4 4 4
TYPE F F F F
COUNT 1 1 1 1
WIDTH 328
HEIGHT 1
VIEWPOINT 0 0 0 1 0 0 0
POINTS 328
DATA ascii
2924.29 -1930.72 134 9.2197031e-39
-24.2847 -692.57202 136.85901 9.2197031e-39
-14.870659 -694.20679 137.4238 9.2197031e-39
-4.2588348 -693.62097 138.66049 9.2197031e-39
7.2048502 -693.35101 139.907 9.2197031e-39
-6.0111899 -688.53613 139.73801 9.2197031e-39
-277.479 -578.21387 139.09351 9.2197031e-39
-1143.75 -238.435 134 9.2197031e-39
-1130.12 -234.39499 136.403 9.2197031e-39
-1129.3101 -224.96301 138.82001 9.2197031e-39
2944.22 -1908.51 141.54601 9.2197031e-39
2954.6899 -1882.37 149.092 9.2197031e-39
-13.7949 -682.24048 140.495 9.2197031e-39
-9.3174801 -685.14618 140.237 9.2197031e-39
3.0146401 -689.46429 140.438 9.2197031e-39
-31.805401 -675.55499 140.295 9.2197031e-39
-23.7092 -674.5871 141.36783 9.2197031e-39
-17.995001 -671.38403 142.748 9.2197031e-39
-14.437901 -668.9408 143.71875 9.2197031e-39
-3.0056164 -665.14691 145.834 9.2197031e-39
2.279413 -663.2486 146.84799 9.2197031e-39
11.6918 -664.65491 147.468 9.2197031e-39
-11.46475 -658.59039 146.586 9.2197031e-39
-252.77042 -573.96204 142.6884 9.2197031e-39
-248.6185 -578.31702 142.03799 9.2197031e-39
-255.35501 -566.83679 144.185 9.2197031e-39
-262.9765 -555.85168 146.11801 9.2197031e-39
-258.827 -559.42352 145.662 9.2197031e-39
-330.76901 -524.85938 146.80901 9.2197031e-39
-363.05701 -504.7822 148.453 9.2197031e-39
-388.26801 -490.28851 149.444 9.2197031e-39
-1120.1899 -219.18201 141.189 9.2197031e-39
-1111.03 -213.52701 143.53 9.2197031e-39
-1109.1 -204.616 145.933 9.2197031e-39
-1098.96 -199.58099 148.22301 9.2197031e-39
2973.3101 -1859.37 156.69701 9.2197031e-39
-331.862 -491.66779 154.908 9.2197031e-39
-345.57501 -473.55847 157.9765 9.2197031e-39
-424.54199 -469.004 150.97701 9.2197031e-39
-445.32101 -458.71399 151.384 9.2197031e-39
-361.39099 -459.11099 159.923 9.2197031e-39
-502.42499 -425.534 153.715 9.2197031e-39
-544.06403 -403.42902 154.899 9.2197031e-39
-564.01898 -395.686 154.761 9.2197031e-39
-600.96899 -383.203 154.04601 9.2197031e-39
-589.25702 -385.14801 154.771 9.2197031e-39
-700.06702 -342.685 153.87199 9.2197031e-39
-849.75 -266.233 157.381 9.2197031e-39
-981.41901 -202.73499 159.539 9.2197031e-39
-1086.99 -195.56201 150.448 9.2197031e-39
-1094.72 -181.91599 153.02901 9.2197031e-39
-1085.34 -176.715 155.282 9.2197031e-39
-1076.8199 -171.17899 157.528 9.2197031e-39
-1066.5 -166.69101 159.7 9.2197031e-39
2991.75 -1836.14 164.341 9.2197031e-39
-377.534 -437.168 163.69 9.2197031e-39
-395.01999 -416.659 166.965 9.2197031e-39
3010.9399 -1813.03 172.035 9.2197031e-39
-424.95999 -383.315 172.133 9.2197031e-39
-435.29999 -368.414 174.755 9.2197031e-39
-452.38501 -346.246 178.481 9.2197031e-39
-469.10199 -323.776 182.32001 9.2197031e-39
-512.211 -272.95499 190.45599 9.2197031e-39
-610.89001 -161.224 207.942 9.2197031e-39
-682.70801 -74.872009 221.914 9.2197031e-39
-780.39697 42.880005 240.992 9.2197031e-39
-832.44397 113.33099 253.065 9.2197031e-39
-838.15503 133.13599 257.37701 9.2197031e-39
-837.73602 146.31403 260.67999 9.2197031e-39
-836.49103 158.78101 263.892 9.2197031e-39
-829.36603 164.414 266.01901 9.2197031e-39
-827.83801 176.89899 269.26501 9.2197031e-39
-817.44397 178.58698 270.75201 9.2197031e-39
-816.89301 192.61603 274.28 9.2197031e-39
-808.854 197.28998 276.26401 9.2197031e-39
-801.979 203.466 278.49899 9.2197031e-39
-797.41498 212.76099 281.26801 9.2197031e-39
-792.14502 221.24103 283.90799 9.2197031e-39
-789.08801 232.90503 287.10901 9.2197031e-39
-779.57397 235.69202 288.77701 9.2197031e-39
66.015503 -78.737488 298.013 9.2197031e-39
-771.18597 240.008 290.70801 9.2197031e-39
-768.34399 252.41803 294.07101 9.2197031e-39
-764.224 263.198 297.16199 9.2197031e-39
-755.60797 267.36298 299.07901 9.2197031e-39
-741.599 263.14301 299.47699 9.2197031e-39
97.667397 -82.276001 300.39499 9.2197031e-39
76.945099 -73.656006 300.39499 9.2197031e-39
82.152802 -75.744995 300.414 9.2197031e-39
95.5466 -72.947998 302.48499 9.2197031e-39
106.357 -76.606018 302.69199 9.2197031e-39
115.5685 -77.079514 303.5235 9.2197031e-39
136.6355 -73.21051 306.6485 9.2197031e-39
90.681602 -69.85199 302.75 9.2197031e-39
128.976 -68.955994 306.91299 9.2197031e-39
148.22501 -69.81897 308.67999 9.2197031e-39
65.514503 -55.851013 303.62399 9.2197031e-39
-746.745 288.815 305.298 9.2197031e-39
-742.61298 300.36401 308.58099 9.2197031e-39
157.53 -64.822021 310.87399 9.2197031e-39
162.83099 -67.599976 310.73199 9.2197031e-39
184.35699 -66.140015 313.30899 9.2197031e-39
175.09 -57.719971 314.43799 9.2197031e-39
181.877 -58.122009 315.03699 9.2197031e-39
70.764702 -23.846008 312.082 9.2197031e-39
57.277699 -6.9539795 314.87299 9.2197031e-39
71.688499 -2.65802 317.41901 9.2197031e-39
-733.69 304.31799 310.47699 9.2197031e-39
-730.81799 318.362 314.24799 9.2197031e-39
-716.25598 312.83398 314.37799 9.2197031e-39
-714.61401 329.38397 318.642 9.2197031e-39
205.76601 -41.622009 321.578 9.2197031e-39
-709.81403 340.81403 321.96399 9.2197031e-39
-704.849 352.23102 325.29901 9.2197031e-39
-695.96997 356.69299 327.31699 9.2197031e-39
81.419899 46.093994 330.48099 9.2197031e-39
72.855698 63.156982 333.82101 9.2197031e-39
-690.27698 367.17798 330.49701 9.2197031e-39
-685.79602 380.26202 334.19501 9.2197031e-39
-682.01099 395.099 338.255 9.2197031e-39
74.831902 92.927979 341.39001 9.2197031e-39
-592.12201 367.271 340.621 9.2197031e-39
-672.30603 398.474 340.08899 9.2197031e-39
-668.599 414.15997 344.35101 9.2197031e-39
-657.04797 413.84998 345.46399 9.2197031e-39
-650.51001 424.14001 348.68201 9.2197031e-39
-605.27502 423.28003 353.12399 9.2197031e-39
-643.41602 433.5 351.72699 9.2197031e-39
-634.59601 439.20996 354.04901 9.2197031e-39
-616.71503 477.73999 365.42001 9.2197031e-39
-612.927 496.91003 370.55301 9.2197031e-39
-602.37903 499.64001 372.314 9.2197031e-39
-595.315 511.44995 375.96201 9.2197031e-39
-586.703 519.54004 378.849 9.2197031e-39
-578.64398 529.41003 382.12 9.2197031e-39
-574.672 551.25 387.93301 9.2197031e-39
-564.94202 557.33997 390.44 9.2197031e-39
-557.91498 571.71997 394.72101 9.2197031e-39
-553.66901 595.39001 401.01401 9.2197031e-39
-543.75897 602.23999 403.729 9.2197031e-39
-538.87201 625.88 410.08099 9.2197031e-39
-518.27301 639.27002 415.51401 9.2197031e-39
-531.10498 641.06995 414.638 9.2197031e-39
-267.14099 754.46997 469.858 9.2197031e-39
3464.3501 -792.94702 471.06299 9.2197031e-39
-281.814 776.97998 473.918 9.2197031e-39
-296.20999 792.58997 476.297 9.2197031e-39
-257.15399 790.02002 479.681 9.2197031e-39
-310.784 807.08997 478.38501 9.2197031e-39
-341.707 843.42004 484.19199 9.2197031e-39
-328.37 844.67004 485.87201 9.2197031e-39
-372.12601 866.63 486.802 9.2197031e-39
-357.79599 862.33997 487.215 9.2197031e-39
-390.26599 894.88 491.92499 9.2197031e-39
-421.10999 910.45996 492.604 9.2197031e-39
-407.18701 912.35999 494.508 9.2197031e-39
-437.63101 922.82996 493.965 9.2197031e-39
-454.57101 936.01001 495.48099 9.2197031e-39
-470.802 944.22998 495.845 9.2197031e-39
-486.996 951.34998 495.939 9.2197031e-39
-505.422 967.84998 498.12601 9.2197031e-39
-598.86603 976.97998 490.76801 9.2197031e-39
3735.3501 -770.46899 504.51401 9.2197031e-39
-524.37799 985.13 500.44901 9.2197031e-39
-541.40399 992.69995 500.569 9.2197031e-39
-594.16699 1017.25 501.21399 9.2197031e-39
-579.07703 1019.66 503.362 9.2197031e-39
-561.16199 1010.54 502.95099 9.2197031e-39
3757.3301 -737.867 514.841 9.2197031e-39
3787.96 -705.008 526.12201 9.2197031e-39
3808.3301 -671.56873 536.492 9.2197031e-39
3839.3401 -637.73462 548.05402 9.2197031e-39
3869.04 -603.37109 559.612 9.2197031e-39
3892.4399 -568.60791 570.62097 9.2197031e-39
3916.52 -533.39862 581.80902 9.2197031e-39
3940.25 -497.7579 593.06897 9.2197031e-39
3904.1001 -464.43298 597.59302 9.2197031e-39
3958.9299 -426.711 612.56799 9.2197031e-39
4013.3701 -388.02499 627.74103 9.2197031e-39
4034.72 -350.72501 639.16602 9.2197031e-39
4063.6201 -312.38901 651.625 9.2197031e-39
4087.2 -273.961 663.55902 9.2197031e-39
4120.27 -234.125 676.81799 9.2197031e-39
4148.0098 -194.20401 689.54901 9.2197031e-39
4177.3101 -153.535 702.62598 9.2197031e-39
4013.5 -63.414978 708.06201 9.2197031e-39
4201.2798 -112.92401 715.13898 9.2197031e-39
4105.96 -87.59201 711.59601 9.2197031e-39
4010.1299 -27.393982 716.62701 9.2197031e-39
4152.1602 31.762024 745.87903 9.2197031e-39
4130.3198 66.086975 752.12299 9.2197031e-39
4087.73 96.494995 755.263 9.2197031e-39
4199.6299 154.91101 781.23199 9.2197031e-39
1488.83 1328.62 792.61902 9.2197031e-39
1465.21 1336.1801 792.05701 9.2197031e-39
1527.45 1338.59 799.05902 9.2197031e-39
1448.23 1351.8101 794.177 9.2197031e-39
2653.3999 932.45996 814.46301 9.2197031e-39
2629.2 951.26001 816.62299 9.2197031e-39
1585.33 1370.09 812.81 9.2197031e-39
4422.4302 237.00403 824.47101 9.2197031e-39
4293.6299 291.77502 824.76501 9.2197031e-39
4243.54 320.83899 826.79999 9.2197031e-39
2744.28 950.32996 828.237 9.2197031e-39
1509.95 1467.8999 829.25 9.2197031e-39
1417.47 1505.46 829.02301 9.2197031e-39
1369.1 1520.1001 827.66699 9.2197031e-39
4433.6802 280.25702 836.32898 9.2197031e-39
2657.1499 1000.51 831.68402 9.2197031e-39
1488.8 1480.1201 830.09698 9.2197031e-39
1446.26 1503.99 831.62299 9.2197031e-39
1474.5699 1501.4199 833.90198 9.2197031e-39
1399.47 1521.5601 831.15503 9.2197031e-39
1353.67 1539.8101 830.95599 9.2197031e-39
1339.63 1561.8401 834.96198 9.2197031e-39
1321.59 1578.1599 837.14203 9.2197031e-39
4267.4302 366.20801 840.48297 9.2197031e-39
2695.3101 1056.92 849.56598 9.2197031e-39
1305.48 1597.5901 840.29199 9.2197031e-39
1286.03 1612.03 841.862 9.2197031e-39
1272.0699 1635.3401 846.19202 9.2197031e-39
4307.1699 415.98999 856.888 9.2197031e-39
1270.88 1680.05 857.13202 9.2197031e-39
2741.8201 1119.74 869.89398 9.2197031e-39
4327.1602 461.78003 870.27399 9.2197031e-39
4368.6499 513.67004 887.383 9.2197031e-39
1796.4399 1575.1001 885.25403 9.2197031e-39
4351.3701 550.84998 894.802 9.2197031e-39
2786.5701 1182.98 890.14697 9.2197031e-39
4394.6401 604.66003 912.56702 9.2197031e-39
2831.21 1247.6801 910.74597 9.2197031e-39
4469.5098 668.53003 936.073 9.2197031e-39
2875.71 1313.83 931.69098 9.2197031e-39
2825.04 1356.66 937.073 9.2197031e-39
4476.3901 713.97998 948.02698 9.2197031e-39
2804.72 1381.26 941.06799 9.2197031e-39
2785 1406.24 945.21802 9.2197031e-39
2744.4199 1416.3199 943.53497 9.2197031e-39
395.58899 2394.77 943.86902 9.2197031e-39
4437.5498 745.89001 951.92401 9.2197031e-39
2937.96 1393.3 957.75702 9.2197031e-39
1442.0699 2014.51 957.492 9.2197031e-39
4477.4902 802.06006 969.92798 9.2197031e-39
2783.53 1483.79 964.25098 9.2197031e-39
439.625 2477.74 968.927 9.2197031e-39
385.901 2503.9299 969.87799 9.2197031e-39
4518.6201 859.64001 988.40601 9.2197031e-39
479.18701 2529.79 985.87598 9.2197031e-39
2955.51 1651.3401 1023.4 9.2197031e-39
4709.4902 968.17004 1034.9 9.2197031e-39
4658.3799 997.72998 1036.95 9.2197031e-39
4609 1027.21 1039.16 9.2197031e-39
4568.73 1059.34 1042.97 9.2197031e-39
4519.9702 1087.83 1045 9.2197031e-39
4479.3501 1118.8 1048.48 9.2197031e-39
4428.48 1145.27 1049.8 9.2197031e-39
3004.1101 1731.05 1048.12 9.2197031e-39
4390.2798 1176.16 1053.51 9.2197031e-39
4399.1299 1226.04 1066.76 9.2197031e-39
3034.5 1798.73 1068 9.2197031e-39
838.62402 2716.8201 1069.14 9.2197031e-39
814.32001 2747.23 1074.16 9.2197031e-39
787.255 2769.1001 1076.79 9.2197031e-39
758.64801 2786.1101 1078.05 9.2197031e-39
4440.8901 1290.38 1086.97 9.2197031e-39
730.77502 2806.6399 1080.26 9.2197031e-39
705.612 2839.1699 1085.72 9.2197031e-39
3240.99 2005.8401 1140.49 9.2197031e-39
3211.04 2030.96 1143.62 9.2197031e-39
3179.3999 2054.55 1146.2 9.2197031e-39
3146.8601 2077.2 1148.45 9.2197031e-39
3114.1799 2099.5 1150.61 9.2197031e-39
3082.8401 2122.74 1153.13 9.2197031e-39
3050.6201 2145.02 1155.33 9.2197031e-39
3018.26 2166.98 1157.4301 9.2197031e-39
2985.04 2187.95 1159.2 9.2197031e-39
2888.5 2200.96 1152.48 9.2197031e-39
2850.28 2215.95 1152.26 9.2197031e-39
2818.3101 2236.6101 1154.08 9.2197031e-39
2786.2 2256.95 1155.8 9.2197031e-39
2759.45 2282.48 1159.37 9.2197031e-39
2953.1299 2209.8999 1161.34 9.2197031e-39
2725.02 2300.1499 1160.2 9.2197031e-39
2701.25 2328.6799 1164.8101 9.2197031e-39
2667.22 2346.4399 1165.7 9.2197031e-39
2640.3501 2371.6899 1169.1801 9.2197031e-39
2607.3999 2390.25 1170.38 9.2197031e-39
2579.49 2414.29 1173.46 9.2197031e-39
4881.8799 1528.8899 1191.36 9.2197031e-39
4844.96 1564.99 1196.49 9.2197031e-39
4799.7402 1596.98 1199.76 9.2197031e-39
324.75201 3482.5701 1205.7 9.2197031e-39
288.67499 3496.99 1205.55 9.2197031e-39
251.737 3504.3601 1203.5699 9.2197031e-39
216.32899 3529.7598 1206.21 9.2197031e-39
142.668 3556.52 1205.25 9.2197031e-39
180.131 3550.0498 1207.51 9.2197031e-39
105.896 3575.2402 1206.1 9.2197031e-39
68.475899 3586.8999 1205.13 9.2197031e-39
31.297899 3607.9199 1206.51 9.2197031e-39
4788.1699 1644.1001 1210.22 9.2197031e-39
4818.6401 1711.4299 1230.01 9.2197031e-39
4878.25 1794.05 1256.59 9.2197031e-39
4911.2798 1865.25 1277.6 9.2197031e-39
869.086 3673.23 1308.89 9.2197031e-39
5017.6499 1974.95 1315.6899 9.2197031e-39
835.69598 3707.21 1313.86 9.2197031e-39
797.48401 3721.1099 1313.36 9.2197031e-39
761.66998 3747.0098 1316.08 9.2197031e-39
576.54498 3869.5298 1327.34 9.2197031e-39
538.67999 3894.7002 1329.67 9.2197031e-39
416.496 3917.54 1322.75 9.2197031e-39
501.53 3927.2598 1333.9 9.2197031e-39
462.96899 3952.8198 1336.26 9.2197031e-39
5144.1201 2097.99 1359.14 9.2197031e-39
14.1368 4229.6899 1358.5601 9.2197031e-39
-28.334 4281.4199 1366.99 9.2197031e-39
-71.947197 4317.2998 1371.38 9.2197031e-39
-116.229 4345.0498 1373.6899 9.2197031e-39
-160.995 4379.2402 1377.54 9.2197031e-39
-206.36099 4414.0298 1381.48 9.2197031e-39
-252.196 4441.6401 1383.59 9.2197031e-39
-298.76199 4477.6099 1387.7 9.2197031e-39
-345.62799 4504.4399 1389.51 9.2197031e-39
-439.47601 4533.6201 1387.0699 9.2197031e-39
-393.41901 4540.5898 1393.54 9.2197031e-39
9794.9902 4624.1699 2462.76 9.2197031e-39
9860.6396 4772.3101 2506.1699 9.2197031e-39
