# .PCD v0.7 - Point Cloud Data file format
VERSION 0.7
FIELDS x y z rgb
SIZE 4 4 4 4
TYPE F F F F
COUNT 1 1 1 1
WIDTH 328
HEIGHT 1
VIEWPOINT 0 0 0 1 0 0 0
POINTS 328
DATA ascii
2894.45 -1977.9301 134.185 9.2197031e-39
-52.505699 -750.56104 136.354 9.2197031e-39
-41.841148 -751.66602 137.173 9.2197031e-39
-33.473598 -754.9505 137.216 9.2197031e-39
-45.150551 -748.78101 137.548 9.2197031e-39
-32.820297 -747.33173 139.16925 9.2197031e-39
-1181.22 -293.57401 133.94 9.2197031e-39
-1177.59 -284.90601 136.45799 9.2197031e-39
-1160.3 -282.64801 138.787 9.2197031e-39
2911.26 -1955.26 141.519 9.2197031e-39
2923.74 -1929.27 149.23199 9.2197031e-39
-34.442699 -741.18701 140.52499 9.2197031e-39
-24.647499 -745.45996 140.4695 9.2197031e-39
-54.288799 -733.49097 140.39799 9.2197031e-39
-44.982281 -734.68219 141.056 9.2197031e-39
-53.357334 -727.63434 141.944 9.2197031e-39
-46.335503 -727.77295 142.62851 9.2197031e-39
-37.639999 -724.82129 144.24968 9.2197031e-39
-27.845501 -723.43298 145.59599 9.2197031e-39
-13.80865 -722.69348 147.21649 9.2197031e-39
-32.521599 -718.08899 146.44099 9.2197031e-39
-26.56115 -718.45654 146.95999 9.2197031e-39
-281.31601 -633.73108 141.855 9.2197031e-39
-274.23419 -634.97766 142.27121 9.2197031e-39
-281.23248 -623.18536 144.474 9.2197031e-39
-276.48001 -629.15601 143.483 9.2197031e-39
-283.98434 -616.49005 145.85066 9.2197031e-39
-291.77701 -608.75269 146.968 9.2197031e-39
-287.14468 -607.66852 147.711 9.2197031e-39
-375.17599 -569.32129 148.19299 9.2197031e-39
-399.37201 -555.09882 149.237 9.2197031e-39
-416.444 -546.3985 149.64301 9.2197031e-39
-455.03699 -530.37592 149.659 9.2197031e-39
-1171.1899 -267.67999 141.37801 9.2197031e-39
-1156.58 -264.47198 143.668 9.2197031e-39
-1155.4 -254.76501 146.19299 9.2197031e-39
-1144.38 -250.16199 148.461 9.2197031e-39
2951.3701 -1910.55 156.69701 9.2197031e-39
3.37043 -717.284 150.315 9.2197031e-39
-436.10901 -536.21722 150.151 9.2197031e-39
-463.56699 -521.55591 150.97 9.2197031e-39
-486.216 -514.19141 150.474 9.2197031e-39
-504.85101 -506.2532 150.532 9.2197031e-39
-536.55402 -490.99841 151.063 9.2197031e-39
-561.573 -480.19202 151.177 9.2197031e-39
-614.539 -453.87299 152.271 9.2197031e-39
-680.02399 -421.31299 153.62801 9.2197031e-39
-712.19098 -409.07501 153.36501 9.2197031e-39
-1126.84 -248.36499 150.701 9.2197031e-39
-1135.53 -234.37 153.27699 9.2197031e-39
-1124.22 -229.724 155.586 9.2197031e-39
-1108.65 -227.91901 157.627 9.2197031e-39
-1092.9 -225.95901 159.72501 9.2197031e-39
2959.7 -1882.77 164.42799 9.2197031e-39
-437.25699 -462.67401 168.244 9.2197031e-39
-1008.27 -252.43799 161.834 9.2197031e-39
-1080.04 -223.189 161.728 9.2197031e-39
2979.5 -1860.7 171.922 9.2197031e-39
-448.08801 -448.168 170.72701 9.2197031e-39
-471.39499 -420.85101 175.104 9.2197031e-39
-477.41 -410.061 177.16 9.2197031e-39
-495.73849 -383.59998 181.83551 9.2197031e-39
-511.366 -358.79498 186.377 9.2197031e-39
-556.76703 -304.729 195.116 9.2197031e-39
-605.79199 -244.63101 204.97701 9.2197031e-39
-708.84302 -123.63199 224.38699 9.2197031e-39
-794.30902 -17.715027 241.86301 9.2197031e-39
-796.90997 -3.052002 245.22701 9.2197031e-39
-850.28101 71.289978 258.17001 9.2197031e-39
-863.51501 100.15002 263.961 9.2197031e-39
-859.40002 109.75098 266.76001 9.2197031e-39
-853.00201 115.99799 268.96201 9.2197031e-39
-851.16302 128.64398 272.28201 9.2197031e-39
-845.67603 143.87549 276.61499 9.2197031e-39
-834.487 152.03003 279.78 9.2197031e-39
-832.66199 165.479 283.297 9.2197031e-39
-830.43799 177.896 286.599 9.2197031e-39
-819.51898 179.37 288.082 9.2197031e-39
-813.02502 186.11499 290.41699 9.2197031e-39
-804.93298 191.44501 292.56601 9.2197031e-39
-796.146 203.548 296.46198 9.2197031e-39
-790.97101 221.362 301.40302 9.2197031e-39
-781.47601 224.83197 303.23401 9.2197031e-39
-779.80103 239.64099 307.073 9.2197031e-39
-770.16602 242.99103 308.88901 9.2197031e-39
73.4095 -90.940002 312.578 9.2197031e-39
68.384102 -86.856995 313.07501 9.2197031e-39
84.861145 -86.777008 314.78149 9.2197031e-39
93.401901 -89.881012 314.888 9.2197031e-39
102.272 -85.330994 316.922 9.2197031e-39
117.19 -82.552002 319.138 9.2197031e-39
122.708 -85.139008 319.06201 9.2197031e-39
66.342499 -75.697998 315.629 9.2197031e-39
111.772 -79.005005 319.46201 9.2197031e-39
-766.08899 254.435 312.14001 9.2197031e-39
-756.854 258.49103 314.09 9.2197031e-39
-752.01898 269.03601 317.19601 9.2197031e-39
-743.15601 273.81299 319.28601 9.2197031e-39
134.85901 -81.884003 321.11249 9.2197031e-39
151.57201 -70.229004 325.70999 9.2197031e-39
160.78799 -66.255981 327.63699 9.2197031e-39
72.921799 -39.969971 325.14899 9.2197031e-39
-738.07898 284.297 322.40201 9.2197031e-39
-732.90002 295.849 325.793 9.2197031e-39
176.772 -50.617981 333.146 9.2197031e-39
199.963 -36.757019 338.953 9.2197031e-39
206.85201 -38.364014 339.26001 9.2197031e-39
61.734402 -13.35498 330.59399 9.2197031e-39
76.218597 -12.35199 332.32501 9.2197031e-39
76.487503 9.1119995 337.668 9.2197031e-39
-715.99902 306.49799 330.16 9.2197031e-39
-731.76001 314.09399 330.42801 9.2197031e-39
-710.87402 317.72998 333.466 9.2197031e-39
-706.47998 331.789 337.397 9.2197031e-39
216.96201 -35.195007 341.07999 9.2197031e-39
195.55701 -29.96698 340.18301 9.2197031e-39
240.198 -9.5419922 349.811 9.2197031e-39
71.383301 37.452026 344.16199 9.2197031e-39
-703.64801 348.28003 341.771 9.2197031e-39
-694.04999 352.61401 343.827 9.2197031e-39
-685.72302 358.43701 346.121 9.2197031e-39
-678.94299 368.85303 349.39499 9.2197031e-39
72.490501 63.549011 350.73801 9.2197031e-39
-674.117 382.61298 353.29599 9.2197031e-39
-664.19897 386.67999 355.319 9.2197031e-39
-660.61102 403.98999 359.97198 9.2197031e-39
-650.495 407.93402 361.98401 9.2197031e-39
-593.61798 406.51001 367.45599 9.2197031e-39
-643.84302 418.87 365.37201 9.2197031e-39
-636.16602 429.03003 368.67599 9.2197031e-39
-610.29401 421.56 369.474 9.2197031e-39
-633.52301 450.84998 374.34799 9.2197031e-39
-610.67297 484.53003 385.02802 9.2197031e-39
-600.98798 489.69995 387.29999 9.2197031e-39
-593.271 502.37 391.22699 9.2197031e-39
-587.13202 518.55005 395.86301 9.2197031e-39
-578.67902 530.20996 399.616 9.2197031e-39
-573.53802 551.01001 405.29099 9.2197031e-39
-563.77698 559.77002 408.45999 9.2197031e-39
-556.66699 575.81995 413.164 9.2197031e-39
-548.46399 591.05005 417.77301 9.2197031e-39
-543.461 616.44995 424.57599 9.2197031e-39
-534.159 629.70996 428.81201 9.2197031e-39
-523.76202 637.09998 431.70499 9.2197031e-39
-514.55402 652.12 436.367 9.2197031e-39
-286.117 746.52002 483.133 9.2197031e-39
-300.35001 764.28003 486.07199 9.2197031e-39
3683.9399 -851.31104 493.98801 9.2197031e-39
-274.60599 774.28003 491.18399 9.2197031e-39
-261.73499 775.70996 492.85599 9.2197031e-39
-317.186 799.30005 493.01999 9.2197031e-39
-248.85001 790.63 497.871 9.2197031e-39
-332.89499 823.55005 497.418 9.2197031e-39
3719.0601 -820.26404 505.27301 9.2197031e-39
-378.84601 855.69995 500.673 9.2197031e-39
-364.422 856.09998 502.24899 9.2197031e-39
-350.039 850.52002 502.33801 9.2197031e-39
-412.28601 890.27002 505.80801 9.2197031e-39
-397.802 892.89001 507.939 9.2197031e-39
-429.80801 911.68994 509.319 9.2197031e-39
3740.97 -786.72699 515.81897 9.2197031e-39
-446.67599 922.27002 510.211 9.2197031e-39
-463.03101 932.79004 511.14099 9.2197031e-39
-480.836 945.93005 512.57098 9.2197031e-39
-516.08899 969.89001 514.89398 9.2197031e-39
-498.90799 962.83997 514.909 9.2197031e-39
-533.89301 982.63 516.22699 9.2197031e-39
-553.104 996.97998 517.81097 9.2197031e-39
-590.01898 1018.58 519.38 9.2197031e-39
3765.5601 -754.48804 526.32098 9.2197031e-39
-573.599 1018.89 521.13898 9.2197031e-39
3795.8 -720.18604 537.90997 9.2197031e-39
3823.76 -687.03308 548.98297 9.2197031e-39
3841.4199 -651.85577 559.50098 9.2197031e-39
3866.77 -617.86609 570.513 9.2197031e-39
3890.72 -581.76129 581.90601 9.2197031e-39
3916.4199 -546.85321 593.17999 9.2197031e-39
3945.6299 -509.57391 605.40198 9.2197031e-39
3967.6699 -473.892 616.49402 9.2197031e-39
3996.1499 -435.61099 628.89001 9.2197031e-39
4015.52 -399.22101 639.883 9.2197031e-39
4049.1799 -359.47699 653.17102 9.2197031e-39
4068.8101 -322.15399 664.42297 9.2197031e-39
4099.71 -281.48801 677.65601 9.2197031e-39
4122.54 -242.89899 689.54901 9.2197031e-39
4150.6401 -201.375 702.70801 9.2197031e-39
4184.4902 -160.39301 716.32202 9.2197031e-39
4166.5498 -123.83099 723.53699 9.2197031e-39
4075.05 -99.88501 720.09802 9.2197031e-39
4012.54 -71.18103 720.80603 9.2197031e-39
4047.99 -29.510986 734.75403 9.2197031e-39
4149.98 26.049988 758.95502 9.2197031e-39
4105.4902 55.502014 761.69098 9.2197031e-39
4075 88.802979 766.815 9.2197031e-39
1471.4 1325.8101 806.52802 9.2197031e-39
1457.46 1345.15 809.89001 9.2197031e-39
4267.4902 204.45099 815.16101 9.2197031e-39
4198.5 228.672 814.09399 9.2197031e-39
1508.22 1332.58 811.97498 9.2197031e-39
1538.79 1332.9301 815.19202 9.2197031e-39
4387.3101 187.17297 823.151 9.2197031e-39
4217.71 273.48602 827.15698 9.2197031e-39
2672.8301 908.25 826.15002 9.2197031e-39
2636.01 919.44995 825.15302 9.2197031e-39
1593.09 1358.6801 827.12701 9.2197031e-39
2735.21 909.12 832.755 9.2197031e-39
2648.97 961.19995 836.81897 9.2197031e-39
1447.36 1450.51 834.94397 9.2197031e-39
1372.61 1470.2 832.16602 9.2197031e-39
1407.78 1478.75 837.88397 9.2197031e-39
1433.29 1471.3701 838.66998 9.2197031e-39
4243.6699 318.435 840.94501 9.2197031e-39
1510.86 1452.91 842.03998 9.2197031e-39
1489.8199 1464.99 842.87701 9.2197031e-39
1366.61 1504.74 840.104 9.2197031e-39
1353.47 1527.52 844.39801 9.2197031e-39
1337.42 1548.49 847.94897 9.2197031e-39
4291.6699 371.35303 858.96301 9.2197031e-39
2683.9399 1015.24 853.78003 9.2197031e-39
1320.54 1566.3 850.63 9.2197031e-39
1297.2 1576.52 850.76898 9.2197031e-39
1282.0601 1597.3201 854.37 9.2197031e-39
1265.63 1618.6699 857.97601 9.2197031e-39
4319.46 418.26001 873.42499 9.2197031e-39
2728.98 1078.41 874.034 9.2197031e-39
2740.8101 1120.5 885.66699 9.2197031e-39
4388.2202 478.57996 895.40002 9.2197031e-39
4350.0498 509.52002 899.15198 9.2197031e-39
2826.1101 1212.09 917.08197 9.2197031e-39
1349.3101 1802.9299 912.16699 9.2197031e-39
4414.6899 570.68994 920.91998 9.2197031e-39
381 2273.8 929.61603 9.2197031e-39
354.35699 2283.96 929.40198 9.2197031e-39
435.10501 2265.4299 933.08301 9.2197031e-39
462.58499 2266.25 936.099 9.2197031e-39
407.496 2270.3401 931.47302 9.2197031e-39
334.36401 2326.0901 937.78802 9.2197031e-39
2879.77 1283.77 940.32397 9.2197031e-39
2807.5601 1352.53 949.95697 9.2197031e-39
1916.29 1693.6201 943.15601 9.2197031e-39
4522.7798 643.70996 950.06702 9.2197031e-39
4497.8198 681.57996 956.88898 9.2197031e-39
4449.6699 709.94995 958.98297 9.2197031e-39
2852.03 1342.9399 952.13501 9.2197031e-39
2784.0601 1374.3101 952.94098 9.2197031e-39
2754.6899 1393.6899 954.73297 9.2197031e-39
2932.23 1358.37 964.16803 9.2197031e-39
2754.51 1432.2 964.25098 9.2197031e-39
4467.4102 760.68005 973.362 9.2197031e-39
4513.3999 819.05005 992.52197 9.2197031e-39
2892.78 1576.3301 1014.1 9.2197031e-39
4710.1201 931.41003 1040.49 9.2197031e-39
4663.8901 961.68005 1043.25 9.2197031e-39
4621.3501 994.98999 1047.14 9.2197031e-39
4572.96 1023.33 1049.2 9.2197031e-39
4531.8999 1056.1 1053.12 9.2197031e-39
4492.3999 1086.6899 1056.64 9.2197031e-39
3012.6001 1708.77 1059.16 9.2197031e-39
4450.04 1118 1060.0601 9.2197031e-39
4402.8999 1144.58 1061.8101 9.2197031e-39
4379.2798 1182.6 1068.8101 9.2197031e-39
4425.8301 1248.0699 1089.79 9.2197031e-39
880.02399 2685.0901 1082.55 9.2197031e-39
854.60999 2709.25 1085.9301 9.2197031e-39
826.52301 2730.9199 1088.42 9.2197031e-39
800.19299 2753.79 1091.39 9.2197031e-39
771.49402 2775.05 1093.71 9.2197031e-39
743.80402 2794.74 1095.75 9.2197031e-39
717.84003 2828.6899 1101.5 9.2197031e-39
3276.3201 1958.6001 1148.02 9.2197031e-39
3254.49 1989.54 1153.45 9.2197031e-39
3221.27 2013.8701 1156.0699 9.2197031e-39
3190.6499 2037.6399 1158.8199 9.2197031e-39
3149.6299 2055.0701 1158.9399 9.2197031e-39
3125.4399 2083.8 1163.58 9.2197031e-39
3090.8799 2106.1299 1165.5699 9.2197031e-39
3053.8201 2123.49 1166.0699 9.2197031e-39
2882 2172.24 1160.55 9.2197031e-39
2857.6001 2202.1299 1165.45 9.2197031e-39
2825.2 2221.73 1166.99 9.2197031e-39
2792.75 2243.6499 1169.09 9.2197031e-39
3027.75 2152.8301 1170.67 9.2197031e-39
2995.52 2174.05 1172.62 9.2197031e-39
2961.8501 2196.3 1174.6801 9.2197031e-39
2759.4299 2261.9099 1170.2 9.2197031e-39
2732.79 2289.45 1174.3 9.2197031e-39
2699.22 2307.1101 1175.23 9.2197031e-39
2672.1499 2334.1599 1179.16 9.2197031e-39
2639.6499 2352.6299 1180.4 9.2197031e-39
2610.8601 2377.75 1183.67 9.2197031e-39
2582.6001 2400.71 1186.46 9.2197031e-39
4882.8599 1496.1599 1198.01 9.2197031e-39
4856.1001 1535.76 1205.08 9.2197031e-39
4820.8301 1573.96 1210.9301 9.2197031e-39
4781.02 1607.1399 1215.0699 9.2197031e-39
334.814 3479.51 1223.4399 9.2197031e-39
300.53201 3505.6399 1226.4 9.2197031e-39
262.474 3517.2998 1225.39 9.2197031e-39
226.311 3530.3501 1224.91 9.2197031e-39
188.42101 3547.1602 1225.2 9.2197031e-39
152.304 3565.4102 1226.02 9.2197031e-39
76.034798 3578.9502 1221.5601 9.2197031e-39
113.104 3570.0098 1223.14 9.2197031e-39
37.1437 3591.6001 1220.71 9.2197031e-39
4823.98 1682.1299 1238.03 9.2197031e-39
4889.9702 1767.1299 1265.84 9.2197031e-39
4922.9502 1840.28 1287.33 9.2197031e-39
405.17099 3716.8198 1289.4 9.2197031e-39
886.65802 3658.6099 1324.29 9.2197031e-39
850.30298 3685.6099 1327.25 9.2197031e-39
815.08899 3709.9902 1329.6801 9.2197031e-39
5073.1001 1971.77 1335.26 9.2197031e-39
552.69598 3884.1602 1345.9399 9.2197031e-39
516.15997 3915.8901 1350.0601 9.2197031e-39
476.14099 3940.9702 1352.17 9.2197031e-39
5145.29 2069.29 1366.8 9.2197031e-39
26.479799 4254.9502 1383.88 9.2197031e-39
-18.3097 4281.8398 1385.95 9.2197031e-39
-61.102798 4318.9302 1390.75 9.2197031e-39
-106.877 4346.0498 1392.78 9.2197031e-39
-150.87199 4374.6699 1395.36 9.2197031e-39
-197.631 4411.7202 1399.75 9.2197031e-39
-242.63699 4437.6602 1401.5601 9.2197031e-39
-290.57101 4472.9502 1405.39 9.2197031e-39
-336.931 4510.7598 1410.01 9.2197031e-39
-386.05701 4543.2998 1413.03 9.2197031e-39
9836.2197 4628.4199 2480.79 9.2197031e-39
9847.46 4750.9399 2512.28 9.2197031e-39
