# .PCD v0.7 - Point Cloud Data file format
VERSION 0.7
FIELDS x y z rgb
SIZE 4 4 4 4
TYPE F F F F
COUNT 1 1 1 1
WIDTH 327
HEIGHT 1
VIEWPOINT 0 0 0 1 0 0 0
POINTS 327
DATA ascii
2833.23 -2076.3398 136.01601 9.2197031e-39
-52.87405 -782.5625 136.425 9.2197031e-39
-39.147999 -787.25098 136.78101 9.2197031e-39
-27.914301 -781.82599 139.338 9.2197031e-39
-60.981602 -777.00702 136.896 9.2197031e-39
-53.1656 -778.85602 137.299 9.2197031e-39
-45.749332 -778.64166 138.164 9.2197031e-39
-36.0811 -777.68103 139.457 9.2197031e-39
-1167.58 -296.12601 133.339 9.2197031e-39
-1168.27 -283.06601 136.45799 9.2197031e-39
-1160.02 -279.52701 138.226 9.2197031e-39
2841.3999 -2057.8 141.44701 9.2197031e-39
-33.870201 -773.09094 140.82199 9.2197031e-39
-25.694775 -776.479 140.88849 9.2197031e-39
-35.528385 -765.20465 142.569 9.2197031e-39
-35.7756 -759.44653 143.9505 9.2197031e-39
-26.559542 -754.99921 146.04672 9.2197031e-39
-48.972099 -746.5 145.672 9.2197031e-39
-36.1647 -749.08704 146.44099 9.2197031e-39
-17.1476 -748.06 148.774 9.2197031e-39
-290.634 -650.27417 142.745 9.2197031e-39
-294.43365 -643.90802 143.886 9.2197031e-39
-289.41101 -648.75818 143.2495 9.2197031e-39
-294.52441 -633.83417 146.33943 9.2197031e-39
-292.01501 -629.3139 147.72 9.2197031e-39
-363.46899 -599.22864 147.254 9.2197031e-39
-389.29999 -582.0741 148.621 9.2197031e-39
-408.02802 -572.1145 149.006 9.2197031e-39
-1153.6101 -266.06 142.2215 9.2197031e-39
-1140.74 -255.811 146.136 9.2197031e-39
-1137.75 -249.91699 147.905 9.2197031e-39
2863.6399 -2028.88 150.955 9.2197031e-39
2880.73 -2013.99 156.467 9.2197031e-39
-483.39001 -533.37482 150.229 9.2197031e-39
-483.63501 -528.45898 151.40401 9.2197031e-39
-489.80701 -516.47363 153.66 9.2197031e-39
-547.26099 -481.772 155.856 9.2197031e-39
-594.44299 -473.05301 152.82201 9.2197031e-39
-568.99298 -479.83801 153.94901 9.2197031e-39
-622.78601 -461.73499 152.487 9.2197031e-39
-595.31299 -468.89899 153.743 9.2197031e-39
-663.74701 -440.52698 153.189 9.2197031e-39
-732.21503 -406.87299 153.922 9.2197031e-39
-898.92902 -313.66101 158.465 9.2197031e-39
-1129.79 -241.07901 150.938 9.2197031e-39
-1116.98 -240.39401 152.509 9.2197031e-39
-1117.72 -227.064 155.688 9.2197031e-39
-1109.28 -224.20999 157.30901 9.2197031e-39
-1084.53 -225.112 159.799 9.2197031e-39
2902.51 -1984.49 166.06599 9.2197031e-39
-396.89801 -525.78619 161.55499 9.2197031e-39
-411.23001 -509.16168 164.05099 9.2197031e-39
-422.09399 -493.36108 166.726 9.2197031e-39
-1063.98 -229.505 160.97501 9.2197031e-39
2910.0701 -1965.5 171.53799 9.2197031e-39
-443.64999 -468.54498 170.435 9.2197031e-39
-460.74701 -445.03799 174.312 9.2197031e-39
-469.207 -432.55298 176.439 9.2197031e-39
-476.69699 -413.909 180.17799 9.2197031e-39
-484.177 -409.90399 180.339 9.2197031e-39
-509.784 -370.23599 187.23599 9.2197031e-39
-560.41998 -308.931 196.685 9.2197031e-39
-571.35101 -286.98499 200.855 9.2197031e-39
-775.54303 -44.648987 237.763 9.2197031e-39
-802.427 2.5650024 246.366 9.2197031e-39
-847.93701 66.575989 257.03799 9.2197031e-39
-860.93402 100.48102 263.90701 9.2197031e-39
-862.42902 113.07501 266.823 9.2197031e-39
-859.08197 127.98401 270.836 9.2197031e-39
-852.33398 130.48798 272.18701 9.2197031e-39
-843.84998 139.06403 275.21301 9.2197031e-39
-838.245 143.03802 276.79901 9.2197031e-39
-832.51801 155.474 280.46701 9.2197031e-39
-832.03302 166.60199 283.242 9.2197031e-39
-821.93402 173.36603 286.00101 9.2197031e-39
-815.53497 176.38501 287.44 9.2197031e-39
-807.552 186.23999 290.724 9.2197031e-39
-799.97699 187.51501 291.866 9.2197031e-39
-793.43701 199.71503 295.565 9.2197031e-39
-787.96698 204.19501 297.26001 9.2197031e-39
-784.83197 222.17297 302 9.2197031e-39
-777.10797 223.24701 303.108 9.2197031e-39
-772.00598 238.68701 307.44299 9.2197031e-39
-764.724 240.5 308.68301 9.2197031e-39
80.1101 -91.617004 319.96201 9.2197031e-39
75.863998 -89.911987 319.914 9.2197031e-39
-757.26398 252.479 312.42999 9.2197031e-39
-755.84198 264.45099 315.51401 9.2197031e-39
-748.48602 277.242 319.44699 9.2197031e-39
106.348 -94.371002 322.16101 9.2197031e-39
92.954048 -87.522491 322.36951 9.2197031e-39
105.595 -84.536987 324.483 9.2197031e-39
123.297 -82.438507 326.935 9.2197031e-39
71.194603 -79.78299 321.88 9.2197031e-39
136.485 -79.561005 329.08301 9.2197031e-39
75.667297 -54.604004 328.52701 9.2197031e-39
-741.96698 280.59698 320.98099 9.2197031e-39
-733.83398 292.42499 324.76401 9.2197031e-39
-732.76898 306.14301 328.23599 9.2197031e-39
-715.172 300.39301 328.75601 9.2197031e-39
145.05 -72.96698 331.633 9.2197031e-39
164.66 -58.423004 337.33701 9.2197031e-39
63.877102 -22.578003 335.06799 9.2197031e-39
76.695702 -27.153015 335.353 9.2197031e-39
63.765301 -7.2130127 338.814 9.2197031e-39
77.502098 -9.9730225 339.64301 9.2197031e-39
-718.34399 322.86902 333.90601 9.2197031e-39
-706.008 327.46301 336.38 9.2197031e-39
-703.47601 339.40302 339.577 9.2197031e-39
186.561 -40.870972 344.02701 9.2197031e-39
191.14301 -43.273987 343.94101 9.2197031e-39
217.748 -43.494995 346.79999 9.2197031e-39
204.67101 -37.366028 346.867 9.2197031e-39
-691.38599 344.71301 342.19901 9.2197031e-39
-686.08502 351.27197 344.384 9.2197031e-39
-675.888 360.87299 347.84799 9.2197031e-39
215.397 -28.913025 350.10901 9.2197031e-39
240.78 -14.35199 356.44901 9.2197031e-39
254.517 -10.026978 359.01099 9.2197031e-39
75.755096 59.078003 356.33899 9.2197031e-39
-673.21899 373.65302 351.26599 9.2197031e-39
-665.80902 390.36603 356.16501 9.2197031e-39
-659.69397 395.90198 358.18799 9.2197031e-39
-589.97101 392.49597 364.98901 9.2197031e-39
-649.20001 406.17499 361.849 9.2197031e-39
-604.086 408.51703 367.362 9.2197031e-39
-645.14301 417.09003 364.96301 9.2197031e-39
-635.38202 429.97998 369.18399 9.2197031e-39
-631.02197 440.85999 372.32199 9.2197031e-39
-604.27899 473.42004 383.21301 9.2197031e-39
-599.33801 484.18994 386.388 9.2197031e-39
-590.52802 503.21997 392.00601 9.2197031e-39
-584.33301 511.15002 394.62299 9.2197031e-39
-576.12 533.81995 401.06799 9.2197031e-39
-570.19702 543.56006 404.09698 9.2197031e-39
-560.45203 563.32996 410.00101 9.2197031e-39
-554.47101 573.93994 413.25 9.2197031e-39
-545.64899 599.27002 420.41101 9.2197031e-39
-539.534 610.77002 423.89099 9.2197031e-39
-518.65302 628.44995 430.50101 9.2197031e-39
-530.14697 636.95996 431.32501 9.2197031e-39
3603.7 -976.78796 489.28101 9.2197031e-39
-261.62399 749.13 488.15601 9.2197031e-39
-289.534 767.56995 489.612 9.2197031e-39
3617.49 -954.03198 496.35599 9.2197031e-39
-252.771 765.88 493.22299 9.2197031e-39
-307.55099 778.35999 490.276 9.2197031e-39
-280.27399 775.75 492.62601 9.2197031e-39
-319.34399 799.10999 494.061 9.2197031e-39
3652.45 -914.505 509.85001 9.2197031e-39
-340.50601 834.76001 500.461 9.2197031e-39
-352.29901 848.51001 502.53299 9.2197031e-39
-371.043 853.76001 501.76501 9.2197031e-39
-403.08401 878 504.186 9.2197031e-39
-384.07401 874.06995 505.30499 9.2197031e-39
-436.17099 902.62 506.58301 9.2197031e-39
-417.207 901.93994 508.49301 9.2197031e-39
-449.47699 917.63 508.797 9.2197031e-39
-470.17401 926.60999 508.72699 9.2197031e-39
-483.048 936.56006 509.75201 9.2197031e-39
3667.8101 -891.297 517.20801 9.2197031e-39
-506.379 956.66003 512.11298 9.2197031e-39
-518.68903 961.57996 511.96701 9.2197031e-39
-542.70001 981.21997 514.14301 9.2197031e-39
-559.45502 1004.99 518.12201 9.2197031e-39
-593.263 1011.4 515.98602 9.2197031e-39
-582.59698 1016.51 518.40399 9.2197031e-39
3700.0601 -850.57397 530.698 9.2197031e-39
3721.96 -826.96899 538.86902 9.2197031e-39
3750.47 -785.065 552.23798 9.2197031e-39
3768.96 -760.745 560.21002 9.2197031e-39
3802.6499 -717.79797 574.40198 9.2197031e-39
3815.71 -692.875 581.927 9.2197031e-39
3851.5701 -648.7478 596.64502 9.2197031e-39
3867.1399 -623.18988 604.59998 9.2197031e-39
3899.1699 -577.961 619.16901 9.2197031e-39
3910.28 -551.98718 626.737 9.2197031e-39
3948.3899 -505.29379 642.32898 9.2197031e-39
3960.98 -478.66 650.22101 9.2197031e-39
3998.1699 -430.69 666.02399 9.2197031e-39
4013.21 -403.24701 674.38202 9.2197031e-39
4042.54 -354.608 689.48798 9.2197031e-39
4067.8899 -325.52399 699.37598 9.2197031e-39
4106.0898 -274.62399 716.00702 9.2197031e-39
4120.9902 -245.767 724.69598 9.2197031e-39
4166.02 -192.53201 742.64502 9.2197031e-39
4191.1299 -161.55099 752.97101 9.2197031e-39
4107.6299 -124.811 752.81299 9.2197031e-39
4117.54 -95.868011 760.97699 9.2197031e-39
4037.46 -60.575989 760.84003 9.2197031e-39
4040.0801 -32.945984 767.88397 9.2197031e-39
4137.7202 31.997009 794.45697 9.2197031e-39
4103.73 53.763 796.05798 9.2197031e-39
4090.3601 99.794006 805.85199 9.2197031e-39
4125.77 134.90002 818.31403 9.2197031e-39
1458.76 1326.53 817.72803 9.2197031e-39
1492.3101 1320.0699 819.82397 9.2197031e-39
1520.11 1326.48 824.435 9.2197031e-39
1489.79 1394.15 837.66302 9.2197031e-39
1374.58 1453.66 839.60303 9.2197031e-39
4204.21 200.95898 843.05798 9.2197031e-39
2653.6899 904.76001 845.41302 9.2197031e-39
2636.5801 919.15002 847.06 9.2197031e-39
1591.35 1363.61 841.315 9.2197031e-39
1469.14 1418.1 841.25897 9.2197031e-39
1453.05 1426.35 841.51501 9.2197031e-39
1424.49 1439.85 841.69098 9.2197031e-39
1415.71 1457.97 845.159 9.2197031e-39
1365.5699 1471.5701 842.995 9.2197031e-39
4206.9399 230.48798 850.57898 9.2197031e-39
2739.3601 910.95996 856.30902 9.2197031e-39
1358.51 1515.96 853.07898 9.2197031e-39
1345.17 1528.25 854.62598 9.2197031e-39
1320.53 1547.71 856.68597 9.2197031e-39
1306.4301 1558.99 857.90002 9.2197031e-39
1280.37 1576.4299 859.31201 9.2197031e-39
4205.02 280.69897 862.64801 9.2197031e-39
2664.49 978.79004 864.70099 9.2197031e-39
1270.14 1594.05 862.50098 9.2197031e-39
4224.4702 314.53198 873.05103 9.2197031e-39
2688.6001 1018.64 877.08698 9.2197031e-39
1685.8199 1446.46 871.91901 9.2197031e-39
1266.23 1648.3 875.34003 9.2197031e-39
4302.8799 385.48999 898.99103 9.2197031e-39
4323.4102 420.90002 909.89697 9.2197031e-39
2745.4099 1098.89 902.93103 9.2197031e-39
2763.3701 1136.73 914.15302 9.2197031e-39
4400.1201 494.53003 936.30298 9.2197031e-39
415.71799 2269.96 934.25 9.2197031e-39
434.806 2262.8601 934.604 9.2197031e-39
361.314 2279.1001 930.52899 9.2197031e-39
380.681 2273.28 931.22498 9.2197031e-39
331.69501 2314.27 935.888 9.2197031e-39
4395.0601 524.23999 943.01501 9.2197031e-39
2843.22 1235.6801 947.09302 9.2197031e-39
2885.1299 1291.36 965.29999 9.2197031e-39
2838.22 1338.17 971.60999 9.2197031e-39
2882.8401 1339.8 976.896 9.2197031e-39
2778.73 1375.54 974.237 9.2197031e-39
2817.6101 1374.14 978.15198 9.2197031e-39
2745.8601 1402.33 977.19 9.2197031e-39
2726.7 1417.35 978.76599 9.2197031e-39
4555.3101 624.72998 985.13702 9.2197031e-39
4519.1099 646.58997 986.52002 9.2197031e-39
4476.3501 690.04004 992.46399 9.2197031e-39
4442.71 711.84998 994.11499 9.2197031e-39
4480.8198 780.55005 1015.09 9.2197031e-39
4568.1201 842.35999 1039.76 9.2197031e-39
2980.4299 1661.1599 1066.17 9.2197031e-39
4689.8999 942.91003 1077.6801 9.2197031e-39
4653.0098 964.62 1078.96 9.2197031e-39
2983.51 1696 1075.03 9.2197031e-39
4599.7002 1005.6 1083.14 9.2197031e-39
4569.9702 1029.08 1085.63 9.2197031e-39
4508.8398 1065.79 1087.91 9.2197031e-39
889.09497 2674.28 1084.96 9.2197031e-39
851.95898 2693.1001 1085.5 9.2197031e-39
833.78198 2714.8501 1088.83 9.2197031e-39
4478.8599 1088.41 1090.16 9.2197031e-39
4424.6699 1126.42 1093.53 9.2197031e-39
4397.1699 1149.35 1096.12 9.2197031e-39
777.64899 2755.54 1092.63 9.2197031e-39
801.05798 2750.8 1094.04 9.2197031e-39
742.33197 2784.46 1095.84 9.2197031e-39
723.99902 2809.4399 1099.9399 9.2197031e-39
4397.6499 1209.36 1110.85 9.2197031e-39
4458.8599 1270.4399 1132.49 9.2197031e-39
3260.6201 1971.55 1172.76 9.2197031e-39
3235.5 1987.8799 1174 9.2197031e-39
3196.6101 2019.97 1177.59 9.2197031e-39
3170.54 2035.1699 1178.45 9.2197031e-39
3129.76 2065.1899 1181.33 9.2197031e-39
3106.47 2082.3799 1182.98 9.2197031e-39
3068.22 2114.1399 1186.5601 9.2197031e-39
3040.3401 2127.01 1186.66 9.2197031e-39
2870.03 2177.3301 1180.3199 9.2197031e-39
2832.4299 2207.6499 1183.61 9.2197031e-39
2809.9399 2224.0701 1185.17 9.2197031e-39
2768.48 2250.24 1187.03 9.2197031e-39
3003.1299 2159.28 1190.48 9.2197031e-39
2976.54 2172.9099 1190.9 9.2197031e-39
2935.3501 2201.1101 1193.29 9.2197031e-39
2751.1899 2271.78 1190.41 9.2197031e-39
2711.3401 2299.3101 1192.77 9.2197031e-39
2691.03 2317.73 1195.0601 9.2197031e-39
2650.1201 2343.8101 1196.96 9.2197031e-39
2623.6799 2355.3999 1196.89 9.2197031e-39
2586.3301 2385.02 1200.05 9.2197031e-39
2565.48 2402.6799 1202.08 9.2197031e-39
342.561 3469.9299 1219.7 9.2197031e-39
295.935 3488.0801 1219.04 9.2197031e-39
222.547 3522.54 1219.4301 9.2197031e-39
147.843 3551.9302 1218.4399 9.2197031e-39
120.318 3561.3599 1217.73 9.2197031e-39
72.503601 3583.9702 1218.03 9.2197031e-39
44.813 3595.8501 1217.9 9.2197031e-39
269.755 3505.1399 1220.34 9.2197031e-39
195.744 3537.2402 1220.09 9.2197031e-39
4867.9702 1514.46 1236.96 9.2197031e-39
4836.2998 1538.8899 1239.47 9.2197031e-39
4794.52 1587.1299 1246.6899 9.2197031e-39
4782.8901 1620.51 1253.58 9.2197031e-39
4833.6201 1713.53 1281.88 9.2197031e-39
4912.3301 1792.54 1309.83 9.2197031e-39
413.71301 3800.1401 1308.25 9.2197031e-39
887.203 3660.1699 1325.86 9.2197031e-39
859.47302 3672.1499 1325.75 9.2197031e-39
813.08099 3702.3301 1328.0601 9.2197031e-39
787.87299 3727.1001 1331.35 9.2197031e-39
562.09802 3875.8999 1343.02 9.2197031e-39
513.48297 3911.79 1346.48 9.2197031e-39
485.121 3931.1499 1348.11 9.2197031e-39
5036.1699 1927.1001 1356.29 9.2197031e-39
21.9592 4254.73 1376.53 9.2197031e-39
-9.9709902 4275.1299 1378.02 9.2197031e-39
5102.9902 2004.0901 1382.4399 9.2197031e-39
-66.197701 4310.1201 1380.42 9.2197031e-39
-98.648399 4339.7002 1384.11 9.2197031e-39
-156.172 4368.9102 1384.95 9.2197031e-39
-189.48801 4396.02 1387.9301 9.2197031e-39
-248.209 4432.04 1390.3101 9.2197031e-39
-282.40799 4459.5698 1393.3 9.2197031e-39
-342.746 4504.3101 1397.64 9.2197031e-39
-377.84698 4530.29 1400.15 9.2197031e-39
6800.4199 3143.79 1847.01 9.2197031e-39
9820.9805 4594.3901 2532.49 9.2197031e-39
9876.4404 4707.2002 2566.1399 9.2197031e-39
