# .PCD v0.7 - Point Cloud Data file format
VERSION 0.7
FIELDS x y z rgb
SIZE 4 4 4 4
TYPE F F F F
COUNT 1 1 1 1
WIDTH 331
HEIGHT 1
VIEWPOINT 0 0 0 1 0 0 0
POINTS 331
DATA ascii
2758.53 -2170.25 134 9.2197031e-39
-46.62516 -804.60681 137.0222 9.2197031e-39
-35.45845 -801.229 139.13699 9.2197031e-39
-56.145649 -798.38696 137.41501 9.2197031e-39
-43.985401 -798.38403 138.83099 9.2197031e-39
-1163.97 -278.15701 134 9.2197031e-39
-1153.65 -272.97101 136.453 9.2197031e-39
-1149.5601 -264.78101 138.90601 9.2197031e-39
2777.6001 -2148.8398 141.386 9.2197031e-39
2789.24 -2123.8501 148.771 9.2197031e-39
-27.063 -801.20203 140.121 9.2197031e-39
-41.632301 -790.27502 141.062 9.2197031e-39
-31.699034 -795.65601 140.91966 9.2197031e-39
-28.585699 -799.323 140.397 9.2197031e-39
-40.801899 -786.74951 142.00949 9.2197031e-39
-33.634953 -785.87567 143.0545 9.2197031e-39
-28.582701 -781.69598 144.65199 9.2197031e-39
-33.5256 -776.47266 145.33633 9.2197031e-39
-22.070299 -778.80499 146.10699 9.2197031e-39
-16.781967 -776.84698 147.19566 9.2197031e-39
-40.050301 -769.82397 146.18201 9.2197031e-39
-35.979198 -769.078 146.836 9.2197031e-39
-290.746 -663.57159 142.64 9.2197031e-39
-284.33701 -664.26508 143.21867 9.2197031e-39
-295.37701 -658.22168 143.392 9.2197031e-39
-286.7558 -655.77118 144.987 9.2197031e-39
-293.914 -641.98022 147.48199 9.2197031e-39
-289.10501 -648.44012 146.483 9.2197031e-39
-299.32599 -634.73383 148.601 9.2197031e-39
-362.784 -608.17188 147.62399 9.2197031e-39
-405.73499 -580.35822 149.336 9.2197031e-39
-390.047 -589.49738 148.957 9.2197031e-39
-1133.84 -262.57001 141.27 9.2197031e-39
-1134.96 -251.76401 143.746 9.2197031e-39
-1133.33 -242.323 146.215 9.2197031e-39
-1124.5699 -236.711 148.589 9.2197031e-39
2809.77 -2102.8799 156.22301 9.2197031e-39
-4.1756601 -771.12799 150.043 9.2197031e-39
-374.20099 -557.51422 158.52 9.2197031e-39
-458.345 -543.90833 152.009 9.2197031e-39
-527.62097 -509.8851 152.155 9.2197031e-39
-536.52002 -489.96301 155.927 9.2197031e-39
-582.51099 -466.452 156.24699 9.2197031e-39
-571.94299 -468.94501 156.87601 9.2197031e-39
-667.12299 -430.50598 155.07201 9.2197031e-39
-640.104 -437.07202 156.633 9.2197031e-39
-669.31598 -423.07898 156.60899 9.2197031e-39
-718.48199 -403.03799 155.722 9.2197031e-39
-757.698 -384.47101 155.638 9.2197031e-39
-891.32501 -307.694 158.61099 9.2197031e-39
-1114.92 -231.70001 150.923 9.2197031e-39
-1093.9399 -233.23999 152.993 9.2197031e-39
-1092.08 -224.06601 155.424 9.2197031e-39
-1075.49 -223.53601 157.483 9.2197031e-39
-1064.95 -219.638 159.64999 9.2197031e-39
2828.3 -2080.8398 163.7 9.2197031e-39
-386.42999 -541.672 160.92 9.2197031e-39
-403.228 -520.5929 164.052 9.2197031e-39
-412.147 -507.17609 166.252 9.2197031e-39
-425.59201 -488.495 169.19501 9.2197031e-39
-1055.26 -215.358 161.812 9.2197031e-39
2848.5 -2059.3701 171.233 9.2197031e-39
2859.3201 -2033.76 178.674 9.2197031e-39
-444.099 -463.702 173.024 9.2197031e-39
-450.21701 -451.90198 175.159 9.2197031e-39
-464.70901 -430.29401 178.687 9.2197031e-39
-473.62601 -414.43201 181.47701 9.2197031e-39
-500.35999 -377.23102 187.343 9.2197031e-39
-531.57397 -333.47501 194.269 9.2197031e-39
-576.58698 -271.548 203.97501 9.2197031e-39
-673.71301 -143.24399 223.632 9.2197031e-39
-850.91998 90.028015 259.30099 9.2197031e-39
-856.38501 111.95599 263.957 9.2197031e-39
-855.461 126.159 267.492 9.2197031e-39
-846.55603 130.10797 269.48199 9.2197031e-39
-845.90601 145.12701 273.18201 9.2197031e-39
-836.85901 148.96997 275.16299 9.2197031e-39
-834.13898 161.59698 278.52701 9.2197031e-39
-826.10999 166.93799 280.75 9.2197031e-39
-819.159 173.841 283.22601 9.2197031e-39
-813.242 182.33301 285.96399 9.2197031e-39
-806.66998 189.96503 288.57101 9.2197031e-39
-797.29999 193.40503 290.492 9.2197031e-39
-793.25403 205.09399 293.784 9.2197031e-39
-790.62402 219.29401 297.517 9.2197031e-39
-782.073 224.24799 299.70801 9.2197031e-39
-778.08301 236.74799 303.189 9.2197031e-39
-768.86902 240.73798 305.22501 9.2197031e-39
-764.09802 252.34003 308.57999 9.2197031e-39
-754.43994 265.83551 312.96149 9.2197031e-39
-745.00201 280.13 317.51001 9.2197031e-39
74.7593 -84.816498 324.86652 9.2197031e-39
86.273804 -82.080994 326.867 9.2197031e-39
95.320099 -85.789001 327.02499 9.2197031e-39
107.364 -82.493988 329.22198 9.2197031e-39
-739.16602 290.771 320.758 9.2197031e-39
-728.58899 292.64301 322.44101 9.2197031e-39
-709.224 299.60699 326.37601 9.2197031e-39
-727.04401 311.97198 327.285 9.2197031e-39
125.4375 -66.172516 335.2655 9.2197031e-39
136.72 -65.984009 336.62399 9.2197031e-39
84.279602 -30.549011 339.07101 9.2197031e-39
-708.22101 320.66101 331.57401 9.2197031e-39
-709.87799 347.987 337.97601 9.2197031e-39
-696.80103 345.07898 338.79599 9.2197031e-39
159.57001 -50.067017 343.12601 9.2197031e-39
152.383 -48.778015 342.60001 9.2197031e-39
195.131 -43.096985 348.948 9.2197031e-39
174.88499 -34.96698 348.55301 9.2197031e-39
66.817299 -17.106995 340.28201 9.2197031e-39
76.2658 -11.192017 342.81 9.2197031e-39
82.610703 -14.492004 342.75201 9.2197031e-39
64.272903 21.452026 349.29199 9.2197031e-39
-687.10797 349.19598 340.918 9.2197031e-39
-682.22998 364.01398 345.06201 9.2197031e-39
-675.935 376.11902 348.716 9.2197031e-39
220.899 -41.659973 352.29401 9.2197031e-39
193.569 -30.314026 351.85101 9.2197031e-39
206.582 -37.140991 351.71799 9.2197031e-39
217.707 -32.176025 354.21201 9.2197031e-39
188.761 -23.533997 352.927 9.2197031e-39
80.483498 47.653992 357.50299 9.2197031e-39
-669.84698 389.09998 352.55801 9.2197031e-39
-655.25146 396.23547 355.979 9.2197031e-39
249.367 -22.283997 360.285 9.2197031e-39
245.62 -13.448975 361.98001 9.2197031e-39
-588.84497 387.55701 361.61499 9.2197031e-39
-647.48401 420.57001 362.75601 9.2197031e-39
-639.24701 429.75 365.92999 9.2197031e-39
-631.57397 440.70996 369.46799 9.2197031e-39
-623.737 451.62 373.01501 9.2197031e-39
-607.24597 472.37 379.94199 9.2197031e-39
-601.76501 491.5 385.19699 9.2197031e-39
-594.12903 505.03003 389.35001 9.2197031e-39
-585.68103 516.64001 393.13501 9.2197031e-39
-579.38 535.68994 398.46799 9.2197031e-39
-569.94098 545.32996 401.892 9.2197031e-39
-561.17902 557.71997 405.90399 9.2197031e-39
-553.55103 574.78003 410.90799 9.2197031e-39
-546.41498 594.63 416.53 9.2197031e-39
-540.94299 622.04004 423.78101 9.2197031e-39
-532.35999 638.98999 428.871 9.2197031e-39
-519.78003 640.67004 430.741 9.2197031e-39
-546.80902 810.93005 468.685 9.2197031e-39
3519.8601 -1103.187 480.15201 9.2197031e-39
3535.8501 -1072.8469 489.336 9.2197031e-39
-329.89999 773.94995 485.01099 9.2197031e-39
-302.55099 773.62 488.116 9.2197031e-39
3554.55 -1042.4761 498.84299 9.2197031e-39
-261.11899 763.5 490.49701 9.2197031e-39
-289.09698 776.18994 490.30399 9.2197031e-39
-275.35599 774.77002 491.55899 9.2197031e-39
-317.87399 792.29004 490.83701 9.2197031e-39
-351.08401 843.73999 499.38901 9.2197031e-39
3581.9199 -1012.411 509.285 9.2197031e-39
-368.32599 868.75 503.41699 9.2197031e-39
-383.711 875.19995 503.18399 9.2197031e-39
-400.129 888.29004 504.431 9.2197031e-39
-417.34299 905.08997 506.48199 9.2197031e-39
-433.98099 915.93994 507.16199 9.2197031e-39
-467.375 934.28003 507.70099 9.2197031e-39
-451.758 932.41003 509.07001 9.2197031e-39
-485.63101 950.43005 509.47299 9.2197031e-39
-503.099 960.64001 509.90399 9.2197031e-39
-521.90503 976.43994 511.52802 9.2197031e-39
-539.81702 986.31006 511.82501 9.2197031e-39
-559.164 1001.75 513.29797 9.2197031e-39
-580.52698 1024.63 516.33398 9.2197031e-39
3612.99 -982.12701 520.211 9.2197031e-39
3628.8899 -950.54504 529.68402 9.2197031e-39
3659.4099 -919.33801 540.76801 9.2197031e-39
3680.71 -887.29901 550.979 9.2197031e-39
3704.6899 -854.97302 561.573 9.2197031e-39
3721.4299 -822.10803 571.453 9.2197031e-39
3749.78 -789.05798 582.72998 9.2197031e-39
3763.9199 -755.505 592.474 9.2197031e-39
3785.7 -721.63403 603.18298 9.2197031e-39
3820.0701 -687.16309 615.50299 9.2197031e-39
3834.26 -652.58258 625.50098 9.2197031e-39
3859.04 -617.37183 636.883 9.2197031e-39
3879.51 -581.88055 647.83197 9.2197031e-39
3908.5701 -545.55988 659.98102 9.2197031e-39
3932.3201 -509.00641 671.56702 9.2197031e-39
3952.75 -472.216 682.82501 9.2197031e-39
3981.72 -434.35901 695.33301 9.2197031e-39
4015.25 -395.547 708.60303 9.2197031e-39
4037.53 -357.13901 720.46698 9.2197031e-39
4067.3201 -317.496 733.50201 9.2197031e-39
4099.6602 -276.96799 747.04797 9.2197031e-39
4128.6299 -236.18799 760.26202 9.2197031e-39
4149.3301 -195.86899 772.40302 9.2197031e-39
4183.3501 -153.25101 786.64899 9.2197031e-39
4113.2002 -125.16101 785.26099 9.2197031e-39
4136.71 -83.665009 798.01202 9.2197031e-39
4063.23 -57.528992 795.76599 9.2197031e-39
4050.99 -21.984009 802.91901 9.2197031e-39
4126.8799 29.492004 824.17798 9.2197031e-39
4095.4399 62 828.36298 9.2197031e-39
1477.85 1317.36 826.60699 9.2197031e-39
1462.51 1336.5 829.43903 9.2197031e-39
4079.25 97.138977 834.95801 9.2197031e-39
1526 1338.63 837.34497 9.2197031e-39
1450.48 1399.9301 843.34601 9.2197031e-39
1475.33 1392.3 844.39801 9.2197031e-39
1429.1 1411.95 843.75897 9.2197031e-39
4170.0098 154.45398 859.35602 9.2197031e-39
1582.1 1368.16 851.00098 9.2197031e-39
1427 1450.35 852.78101 9.2197031e-39
1378.36 1466.6299 851.04901 9.2197031e-39
1411.41 1470.8 855.90198 9.2197031e-39
1374.03 1503.48 859.43597 9.2197031e-39
2658.05 907.44995 865.07098 9.2197031e-39
2636.5901 928.53003 867.65802 9.2197031e-39
1358.34 1524.4099 862.66101 9.2197031e-39
1334.9399 1533.97 862.24402 9.2197031e-39
1314.12 1547.3601 863.05298 9.2197031e-39
1288 1552.4299 861.23499 9.2197031e-39
1267.54 1566.24 862.18799 9.2197031e-39
1252.5 1588.96 865.91901 9.2197031e-39
4203.1401 201.02802 874.453 9.2197031e-39
2736.1101 918.69995 876.87097 9.2197031e-39
2645.8101 968.15002 878.29401 9.2197031e-39
4200.1499 240.18799 883.55701 9.2197031e-39
1271.4399 1668.79 887.39099 9.2197031e-39
4188.1699 277.34998 891.13 9.2197031e-39
2689.3301 1029.6899 898.21301 9.2197031e-39
4229.48 327.53998 908.052 9.2197031e-39
2733.5901 1093.1801 918.68799 9.2197031e-39
368.05099 2275.9299 928.75 9.2197031e-39
342.02701 2287.8899 928.60699 9.2197031e-39
2761.3501 1147.54 935.03699 9.2197031e-39
394.81699 2268.52 930.07703 9.2197031e-39
422.82999 2267.53 933.099 9.2197031e-39
1851.4 1648.1499 949.92401 9.2197031e-39
2837.98 1235.24 965.125 9.2197031e-39
4589.2002 459.66003 981.81403 9.2197031e-39
2859.05 1288.03 980.31897 9.2197031e-39
2820.73 1340.61 988.547 9.2197031e-39
493.01401 2468.0801 989.66998 9.2197031e-39
2860.8999 1328.71 990.35101 9.2197031e-39
2810.75 1373.4301 995.30499 9.2197031e-39
2780.72 1391.97 996.28497 9.2197031e-39
2755.29 1413.64 998.55499 9.2197031e-39
4659.9502 522.48999 1005.21 9.2197031e-39
2767.8101 1463.71 1012.09 9.2197031e-39
4688.1001 575.22998 1021.22 9.2197031e-39
4646.4902 609.06006 1024.54 9.2197031e-39
4639.6299 652.48999 1034.22 9.2197031e-39
4631.4199 695.64001 1043.6801 9.2197031e-39
4602.1401 732.37 1049.14 9.2197031e-39
4570.7202 768.10999 1054.1 9.2197031e-39
4612.7998 827.79004 1073.4 9.2197031e-39
2986.55 1672.6899 1087.99 9.2197031e-39
869.508 2687.6399 1086.49 9.2197031e-39
841.81201 2708.4099 1088.28 9.2197031e-39
812.51099 2724.3301 1088.71 9.2197031e-39
787.89899 2757.74 1093.9 9.2197031e-39
758.05603 2773.24 1094.17 9.2197031e-39
730.90503 2799.75 1097.41 9.2197031e-39
4736.04 916.13 1109.0699 9.2197031e-39
4682.7002 945.48999 1109.95 9.2197031e-39
4644.9502 979.73999 1113.8199 9.2197031e-39
4601.4502 1011.4399 1116.41 9.2197031e-39
4551.3501 1040.11 1117.49 9.2197031e-39
4510.2798 1071.63 1120.3199 9.2197031e-39
4469.0298 1102.61 1122.99 9.2197031e-39
4426.6899 1132.66 1125.3199 9.2197031e-39
4385.1001 1162.52 1127.6801 9.2197031e-39
734.87201 2953.8101 1135.05 9.2197031e-39
4398.27 1215.45 1141.99 9.2197031e-39
3156.45 1850.3701 1150.65 9.2197031e-39
4507.6802 1311.4301 1177.89 9.2197031e-39
3256.3501 1977.98 1193.08 9.2197031e-39
3224.24 2002.3799 1195.23 9.2197031e-39
3193.48 2027.6799 1197.76 9.2197031e-39
3161.05 2051.4299 1199.71 9.2197031e-39
2856.8101 2190.96 1197.97 9.2197031e-39
2826.26 2214.0801 1199.99 9.2197031e-39
3128.48 2074.8401 1201.5699 9.2197031e-39
3095.02 2097.29 1203.09 9.2197031e-39
3062.1499 2120.04 1204.76 9.2197031e-39
3038.52 2150.9099 1209.46 9.2197031e-39
2996.72 2165.1899 1208.04 9.2197031e-39
2800.3401 2241.72 1203.65 9.2197031e-39
2765.3501 2260.1499 1204.02 9.2197031e-39
2739.01 2287.3 1207.51 9.2197031e-39
2705.77 2307.2 1208.4399 9.2197031e-39
52.245399 3592.7998 1209.8 9.2197031e-39
2971.24 2194.23 1212.08 9.2197031e-39
2934.25 2212.3701 1212.15 9.2197031e-39
2678.3401 2333.1699 1211.51 9.2197031e-39
2649.3701 2357.48 1214.01 9.2197031e-39
2616.3301 2377.22 1214.92 9.2197031e-39
2580.6101 2393.72 1214.75 9.2197031e-39
2553.05 2419.3899 1217.74 9.2197031e-39
351.00299 3470.6499 1215.1 9.2197031e-39
314.41501 3486.6101 1214.6899 9.2197031e-39
277.80701 3504.21 1214.6801 9.2197031e-39
240.561 3517.6499 1213.58 9.2197031e-39
203.731 3537.54 1214.1 9.2197031e-39
166.13 3551.3398 1213.05 9.2197031e-39
128.05299 3560.96 1210.9399 9.2197031e-39
90.694702 3583.8198 1212.11 9.2197031e-39
24.0462 3835.25 1265.03 9.2197031e-39
4877.3101 1527.46 1273.0601 9.2197031e-39
4825.3501 1557.1599 1274.1801 9.2197031e-39
4790.0898 1594.1101 1278.99 9.2197031e-39
4810.0801 1657.47 1296.61 9.2197031e-39
4887.21 1749.98 1327.91 9.2197031e-39
870.76001 3675.8701 1325.13 9.2197031e-39
832.89801 3694.2202 1325.15 9.2197031e-39
796.86902 3721.71 1327.59 9.2197031e-39
571.979 3878.0898 1339.15 9.2197031e-39
532.95398 3901.71 1340.3101 9.2197031e-39
493.72101 3925.98 1341.6 9.2197031e-39
455.55099 3960.5098 1345.49 9.2197031e-39
4946.4399 1835.6499 1355.48 9.2197031e-39
-1.40179 4276.6099 1368.58 9.2197031e-39
-45.621799 4305.3501 1370.37 9.2197031e-39
-90.336998 4332.7598 1371.78 9.2197031e-39
-135.476 4363.6802 1373.99 9.2197031e-39
-181.138 4390.3501 1375.11 9.2197031e-39
-227.35899 4428.3101 1378.89 9.2197031e-39
-274.04001 4455.1802 1379.9399 9.2197031e-39
5018.3901 1929.74 1386.5601 9.2197031e-39
-321.44601 4491.3901 1383.16 9.2197031e-39
-369.832 4536.9199 1388.52 9.2197031e-39
5120.1401 2041.71 1425.4301 9.2197031e-39
6787.2002 3160.05 1889.4 9.2197031e-39
9800.0195 4622.6899 2593.1299 9.2197031e-39
9838.3496 4757.9902 2630.24 9.2197031e-39
