# .PCD v0.7 - Point Cloud Data file format
VERSION 0.7
FIELDS x y z rgb
SIZE 4 4 4 4
TYPE F F F F
COUNT 1 1 1 1
WIDTH 319
HEIGHT 1
VIEWPOINT 0 0 0 1 0 0 0
POINTS 319
DATA ascii
248.52499 -2291.3599 134 9.2197031e-39
262.91199 -2298.3198 137.858 9.2197031e-39
259.742 -742.09601 136.40199 9.2197031e-39
271.69568 -744.54535 139.60567 9.2197031e-39
266.26724 -736.75732 138.14801 9.2197031e-39
261.74652 -726.9115 136.933 9.2197031e-39
259.10901 -713.07898 136.22099 9.2197031e-39
273.104 -443.134 139.86501 9.2197031e-39
251.78 -54.367004 134 9.2197031e-39
256.34698 -49.39502 135.222 9.2197031e-39
263.27649 -45.518982 137.0775 9.2197031e-39
270.37601 -39.72998 138.97701 9.2197031e-39
307.577 -2343.3799 149.84399 9.2197031e-39
292.34601 -2324.8301 145.755 9.2197031e-39
277.586 -2316.1401 141.797 9.2197031e-39
275.54501 -752.38403 140.64 9.2197031e-39
275.80399 -745.25 140.707 9.2197031e-39
294.85101 -741.92798 145.80901 9.2197031e-39
300.86401 -745.49146 147.42149 9.2197031e-39
278.15521 -736.26862 141.3334 9.2197031e-39
285.20596 -733.35004 143.22133 9.2197031e-39
295.71567 -735.10333 146.03801 9.2197031e-39
301.11151 -731.6355 147.4825 9.2197031e-39
282.67099 -727.83698 142.53967 9.2197031e-39
305.78534 -463.46301 148.63033 9.2197031e-39
286.255 -454.96503 143.39351 9.2197031e-39
298.923 -450.92499 146.787 9.2197031e-39
285.59 -445.73965 143.21199 9.2197031e-39
295.57523 -445.7648 145.8876 9.2197031e-39
306.52484 -445.72501 148.82152 9.2197031e-39
276.09399 -436.543 140.664 9.2197031e-39
304.086 -438.01001 148.16501 9.2197031e-39
279.41901 -424.96002 141.55099 9.2197031e-39
286.276 -423.31 143.38699 9.2197031e-39
282.05499 -418.34198 142.254 9.2197031e-39
275.86401 -409.18402 140.592 9.2197031e-39
286.89001 -409.133 143.54601 9.2197031e-39
287.40399 -398.021 143.679 9.2197031e-39
308.51199 -143.30801 149.23599 9.2197031e-39
310.70001 -93.187988 149.80299 9.2197031e-39
308.50101 -74.786011 149.20599 9.2197031e-39
278.56299 -61.132996 141.179 9.2197031e-39
282.90201 -63.396973 142.343 9.2197031e-39
292.09 -60.065979 144.80299 9.2197031e-39
302.724 -66.596497 147.65549 9.2197031e-39
274.40601 -53.911011 140.063 9.2197031e-39
287.61801 -59.715027 143.605 9.2197031e-39
296.64401 -59.460999 146.02299 9.2197031e-39
338.54501 -2371.05 158.15199 9.2197031e-39
323.08401 -2360.79 154.005 9.2197031e-39
311.202 -457.22699 150.07899 9.2197031e-39
316.91 -447.854 151.605 9.2197031e-39
1148.85 -3022.72 375.52802 9.2197031e-39
1150.28 -2964.24 375.88699 9.2197031e-39
1147.1801 -2896.6499 375.03101 9.2197031e-39
1166.96 -2889.3899 380.327 9.2197031e-39
1182.54 -2871.8101 384.496 9.2197031e-39
1201.74 -2863.3101 389.63599 9.2197031e-39
1217.34 -2846.4099 393.80899 9.2197031e-39
1232.33 -2828.48 397.819 9.2197031e-39
1251.5601 -2820.4399 402.97 9.2197031e-39
1274.0601 -2819.4399 408.996 9.2197031e-39
1296.61 -2818.2 415.03799 9.2197031e-39
1297.99 1623.6399 413.67599 9.2197031e-39
1345.8101 -2823.04 428.224 9.2197031e-39
1319.64 -2817.6299 421.20999 9.2197031e-39
1325.47 1584.8 421.056 9.2197031e-39
1323.53 1628.4099 420.517 9.2197031e-39
1361.03 -2805.96 432.29501 9.2197031e-39
1381.9301 -2800.27 437.892 9.2197031e-39
1407.87 -2804.03 444.84399 9.2197031e-39
1415.78 1717.72 445.202 9.2197031e-39
1428.35 -2797 450.32999 9.2197031e-39
1451.1801 -2794.1201 456.44501 9.2197031e-39
1462.47 1664.3899 457.733 9.2197031e-39
1445.73 1679.6399 453.242 9.2197031e-39
1437.01 1710.6399 450.89301 9.2197031e-39
1465.37 -2775.3899 460.242 9.2197031e-39
1489.61 -2774.6799 466.73599 9.2197031e-39
1493.52 1630.05 466.065 9.2197031e-39
1477.14 1645.54 461.67001 9.2197031e-39
1520.88 -2785.71 475.11899 9.2197031e-39
1530.76 1607.26 476.052 9.2197031e-39
1511.2 1617.02 470.80899 9.2197031e-39
1542.86 -2780.1201 481.00699 9.2197031e-39
1565.04 1579.5701 485.24899 9.2197031e-39
1545.6899 1589.6599 480.06 9.2197031e-39
1582.21 -2803.1699 491.55801 9.2197031e-39
1604.05 1559.6899 495.711 9.2197031e-39
1582.76 1566.78 490.00201 9.2197031e-39
1638.0601 1380 504.89301 9.2197031e-39
1645.5699 1427.4301 506.88699 9.2197031e-39
1640.73 1457.95 505.577 9.2197031e-39
1650.8199 1511.5901 508.26099 9.2197031e-39
1640.63 1535.75 505.521 9.2197031e-39
1622.66 1548.22 500.70099 9.2197031e-39
1675.8199 -2743.4099 516.61798 9.2197031e-39
1662.1 1377.83 511.33499 9.2197031e-39
1694.36 1386.55 519.97601 9.2197031e-39
1693.91 -2730.46 521.461 9.2197031e-39
1708.54 -2712.45 525.37299 9.2197031e-39
1720.14 -2690.29 528.47302 9.2197031e-39
1755.16 -2906.3999 537.94098 9.2197031e-39
1737.79 -2676.9299 533.19598 9.2197031e-39
1756.48 -2665.02 538.20001 9.2197031e-39
1786.17 -3093.26 546.323 9.2197031e-39
1788.3199 -3049.0701 546.88098 9.2197031e-39
1778.13 -2986.6799 544.12799 9.2197031e-39
1773.91 -2651.3401 542.86603 9.2197031e-39
1803.1 -2653.28 550.68701 9.2197031e-39
1877.4399 -2713.6001 570.63202 9.2197031e-39
2030.3 1802.97 609.828 9.2197031e-39
2126.0801 1886.78 635.45801 9.2197031e-39
2207.1499 -3098.73 659.125 9.2197031e-39
2204.72 1944.79 656.508 9.2197031e-39
2223.9199 -3075.5601 663.612 9.2197031e-39
2239.22 -3050.73 667.70099 9.2197031e-39
2254.25 -3025.8201 671.71802 9.2197031e-39
2269.01 -3000.8301 675.664 9.2197031e-39
2283.5 -2975.75 679.53699 9.2197031e-39
2283.26 2000.01 677.53101 9.2197031e-39
2297.73 -2950.6001 683.33899 9.2197031e-39
2311.6799 -2925.3799 687.06799 9.2197031e-39
2329.1899 1792.1101 689.91998 9.2197031e-39
2318.01 1821.26 686.91199 9.2197031e-39
2310.3 1854.9199 684.83301 9.2197031e-39
2310.3501 1898.49 684.82898 9.2197031e-39
2311.6799 1944.54 685.16901 9.2197031e-39
2325.3701 -2900.0801 690.72601 9.2197031e-39
2346.0901 -2882.7 696.271 9.2197031e-39
2357.96 -2855.76 699.44202 9.2197031e-39
2372.9299 -2832.3501 703.44202 9.2197031e-39
2391.74 -2813.0901 708.47699 9.2197031e-39
2394.95 1824.78 707.526 9.2197031e-39
2389.96 2087.9199 706.086 9.2197031e-39
2402.8301 -2785.9399 711.43799 9.2197031e-39
2415.02 -2760.1599 714.69202 9.2197031e-39
2433.9199 -2741.21 719.75098 9.2197031e-39
2451.27 -2720.72 724.39001 9.2197031e-39
2462.74 -2694.6699 727.45502 9.2197031e-39
2473.95 -2668.5801 730.44598 9.2197031e-39
2491.3799 -2648.4099 735.10999 9.2197031e-39
2502.0901 -2622.1802 737.96997 9.2197031e-39
2519.8701 -2602.4102 742.72601 9.2197031e-39
2536.01 -2581.1899 747.04102 9.2197031e-39
2545.26 -2554.1001 749.51001 9.2197031e-39
2541.25 1944.8301 746.68103 9.2197031e-39
2561.73 -2533.3 753.914 9.2197031e-39
2571.22 -2506.73 756.448 9.2197031e-39
2587.29 -2485.7 760.745 9.2197031e-39
2603.1799 -2464.52 764.99402 9.2197031e-39
2617.3501 -2441.99 768.78198 9.2197031e-39
2613.76 1117.17 766.43201 9.2197031e-39
2628.21 -2416.96 771.68402 9.2197031e-39
2642.74 -2394.8198 775.56799 9.2197031e-39
2658.6499 -2373.73 779.82202 9.2197031e-39
2640.01 1104.24 773.47198 9.2197031e-39
2634.7 1164.53 772.026 9.2197031e-39
2672.8 -2351.3301 783.60498 9.2197031e-39
2687.55 -2329.3799 787.54999 9.2197031e-39
2666.76 1221.2 780.59302 9.2197031e-39
2693.78 1309.62 787.79901 9.2197031e-39
2702.1599 1609.1101 789.92902 9.2197031e-39
2702.9199 -2307.8599 791.659 9.2197031e-39
2710.8701 -2281.22 793.77899 9.2197031e-39
2723.4099 -2257.8398 797.13 9.2197031e-39
2731.1001 1103.78 797.87903 9.2197031e-39
2716.73 1126.12 794.01898 9.2197031e-39
2705.8101 1284.51 791.03302 9.2197031e-39
2720.6101 1586.8899 794.88 9.2197031e-39
2747.1399 -2241.8999 803.48199 9.2197031e-39
2759.3301 -2218.22 806.73999 9.2197031e-39
2770.3601 1553.3701 808.22498 9.2197031e-39
2772.96 -2195.5 810.383 9.2197031e-39
2786.3999 -2172.6499 813.974 9.2197031e-39
2798.8101 -2149.1699 817.28998 9.2197031e-39
2782.78 1414.86 811.60498 9.2197031e-39
2803.3701 1543.0901 817.07202 9.2197031e-39
2784.8 1604.28 812.073 9.2197031e-39
2812.6899 -2126.6001 821.00098 9.2197031e-39
2825.54 -2103.3901 824.43597 9.2197031e-39
2838.2 -2080.0698 827.81799 9.2197031e-39
2827.51 1487.4399 823.56201 9.2197031e-39
2842.4399 1537.3501 827.54401 9.2197031e-39
2857.45 -2060.47 832.96802 9.2197031e-39
2869.74 -2036.86 836.25299 9.2197031e-39
2882.6899 -2013.61 839.71399 9.2197031e-39
2901.47 -1993.42 844.73798 9.2197031e-39
2913.2 -1969.42 847.87097 9.2197031e-39
2906.01 1920.99 844.42798 9.2197031e-39
2924.73 -1945.3199 850.95001 9.2197031e-39
2944.76 -1925.4301 856.31 9.2197031e-39
2955.9099 -1901.04 859.289 9.2197031e-39
2938.52 1864.04 853.16101 9.2197031e-39
2932.8301 1902.26 851.62097 9.2197031e-39
2961.4399 2357.96 859.10797 9.2197031e-39
2973.01 -1879.46 863.862 9.2197031e-39
2983.77 -1854.8199 866.737 9.2197031e-39
2996.9299 2344.8601 868.625 9.2197031e-39
3000.53 -1832.88 871.21698 9.2197031e-39
3012.6799 -1808.78 874.46301 9.2197031e-39
3030.8701 -1787.24 879.32898 9.2197031e-39
3032.4199 2331.3401 878.138 9.2197031e-39
3039.0601 -1761.3199 881.51501 9.2197031e-39
3058.71 -1740.14 886.771 9.2197031e-39
3068.3 -1714.73 889.33002 9.2197031e-39
3054.8799 2303.99 884.16901 9.2197031e-39
3093.04 -1695.21 895.953 9.2197031e-39
3104.0601 -1670.17 898.896 9.2197031e-39
3086.0701 2285.55 892.53302 9.2197031e-39
3113.0601 -1644.36 901.297 9.2197031e-39
3128.23 -1620.75 905.35199 9.2197031e-39
3147.2 2197.52 908.94598 9.2197031e-39
3146.75 2246.26 908.80603 9.2197031e-39
3122.73 2272.3101 902.35999 9.2197031e-39
3146.8799 -1598.22 910.34003 9.2197031e-39
3151.5901 -1570.7729 911.59198 9.2197031e-39
3178.1599 -1550.571 918.70398 9.2197031e-39
3192.6101 -1526.145 922.56598 9.2197031e-39
3208.72 -1502.1011 926.87402 9.2197031e-39
3224.6499 -1477.8369 931.13202 9.2197031e-39
3240.3899 -1453.355 935.341 9.2197031e-39
3247.5601 -1426.314 937.25 9.2197031e-39
3270.3799 -1403.489 943.35699 9.2197031e-39
3286.49 -1378.6121 947.664 9.2197031e-39
3303.3501 -1353.74 952.172 9.2197031e-39
3316.26 -1327.719 955.62 9.2197031e-39
3333.6699 -1302.6111 960.276 9.2197031e-39
3345.23 -1275.989 963.362 9.2197031e-39
3368.8701 -1251.822 969.68799 9.2197031e-39
3379.0701 -1224.589 972.40997 9.2197031e-39
3393.8 -1198.14 976.34497 9.2197031e-39
3403.5601 -1170.599 978.95001 9.2197031e-39
3407.3799 -1141.928 979.96301 9.2197031e-39
3410 -1113.075 980.65503 9.2197031e-39
3445.8101 -1089.439 990.23999 9.2197031e-39
3454.6799 -1061.259 992.60602 9.2197031e-39
3472.8899 -1034.277 997.47498 9.2197031e-39
3495.6799 -1007.617 1003.57 9.2197031e-39
3507.72 -979.31799 1006.78 9.2197031e-39
3515.6799 -950.41003 1008.91 9.2197031e-39
3530.1299 -922.06897 1012.77 9.2197031e-39
3543.3799 -893.40503 1016.31 9.2197031e-39
3553.52 -864.28796 1019.01 9.2197031e-39
3555.7 -834.44098 1019.59 9.2197031e-39
3559.5701 -804.70001 1020.61 9.2197031e-39
3574.75 -775.55402 1024.67 9.2197031e-39
3597.4199 -746.50903 1030.73 9.2197031e-39
3618.8799 -717.03198 1036.47 9.2197031e-39
3659.4099 -687.73169 1047.3199 9.2197031e-39
3698.74 -657.68939 1057.84 9.2197031e-39
3730.0801 -626.86292 1066.23 9.2197031e-39
3739.9199 -595.44421 1068.85 9.2197031e-39
3747.5601 -563.86517 1070.89 9.2197031e-39
3781.01 -531.71539 1079.84 9.2197031e-39
3798.73 -499.35559 1084.5699 9.2197031e-39
3822.9299 -466.43701 1091.05 9.2197031e-39
3837.2 -433.496 1094.86 9.2197031e-39
3861.79 -399.728 1101.4301 9.2197031e-39
3884.1499 -365.62299 1107.41 9.2197031e-39
3900.4299 -331.51001 1111.76 9.2197031e-39
3925.0801 -296.392 1118.35 9.2197031e-39
3947.49 -260.98099 1124.34 9.2197031e-39
3972.46 -224.85901 1131.02 9.2197031e-39
3994.22 -188.57101 1136.83 9.2197031e-39
4013.73 -152.086 1142.05 9.2197031e-39
4029.0701 -115.69901 1146.15 9.2197031e-39
4075.7 -74.741028 1158.62 9.2197031e-39
4054.3999 349.086 1152.75 9.2197031e-39
4108.52 -34.833984 1167.4 9.2197031e-39
4087.5901 320.72601 1161.66 9.2197031e-39
4096.04 396.15997 1163.89 9.2197031e-39
4131.4102 4.2410278 1173.52 9.2197031e-39
4128.1401 293.55798 1172.53 9.2197031e-39
4121.2598 439.81995 1170.63 9.2197031e-39
4146.0298 484.02002 1177.25 9.2197031e-39
4157.7402 44.390991 1180.5601 9.2197031e-39
4184.6499 85.226013 1187.75 9.2197031e-39
4178.9199 267.99902 1186.15 9.2197031e-39
4180.5898 531.66003 1186.49 9.2197031e-39
4203.54 125.216 1192.8 9.2197031e-39
4211.5601 237.82599 1194.91 9.2197031e-39
4217.4399 580.82996 1196.35 9.2197031e-39
4231.5601 167.40802 1200.29 9.2197031e-39
4262.02 210.72803 1208.4399 9.2197031e-39
4249.1099 629.33997 1204.8101 9.2197031e-39
4263.6299 673.27002 1208.6899 9.2197031e-39
4274.9502 716.66003 1211.7 9.2197031e-39
4295.0298 763.42004 1217.0699 9.2197031e-39
4309.1299 808.75 1220.83 9.2197031e-39
4320.9502 853.79004 1223.97 9.2197031e-39
4328.2998 1460.98 1225.71 9.2197031e-39
4335.0801 1510.1899 1227.51 9.2197031e-39
4359.6401 909.12 1234.3199 9.2197031e-39
4375.1001 1438.66 1238.26 9.2197031e-39
4374.9302 1577.3401 1238.16 9.2197031e-39
4403.1499 967.31006 1245.96 9.2197031e-39
4405.1401 1053.51 1246.46 9.2197031e-39
4413.9399 1411.86 1248.67 9.2197031e-39
4470.4399 1035.8101 1263.96 9.2197031e-39
4459.4702 1118.74 1260.99 9.2197031e-39
4456.1699 1386.16 1260 9.2197031e-39
4496.5 1359.05 1270.8199 9.2197031e-39
4534.9302 1330.55 1281.12 9.2197031e-39
4574.98 1302.3 1291.87 9.2197031e-39
4615.7598 1273.84 1302.8101 9.2197031e-39
4651.02 1242.55 1312.27 9.2197031e-39
4695.9102 1951.8101 1324.02 9.2197031e-39
4720.5698 1913.46 1330.64 9.2197031e-39
4764.54 1885.6299 1342.4301 9.2197031e-39
4755.9399 2039.51 1340.0699 9.2197031e-39
4804.96 1855.3501 1353.27 9.2197031e-39
4805.6001 2123.01 1353.34 9.2197031e-39
4850.8701 2205.5701 1365.4399 9.2197031e-39
4931.5498 2311.76 1387.02 9.2197031e-39
5035.5098 2435.25 1414.8199 9.2197031e-39
6586.4502 3655.6802 1829.92 9.2197031e-39
9507.9199 5378.9502 2612.05 9.2197031e-39
9501.29 5491.2998 2610.23 9.2197031e-39
