# .PCD v0.7 - Point Cloud Data file format
VERSION 0.7
FIELDS x y z rgb
SIZE 4 4 4 4
TYPE F F F F
COUNT 1 1 1 1
WIDTH 316
HEIGHT 1
VIEWPOINT 0 0 0 1 0 0 0
POINTS 316
DATA ascii
262.98199 -2308.3198 137.881 9.2197031e-39
248.52699 -2290.3599 134 9.2197031e-39
271.078 -744.97198 139.44 9.2197031e-39
265.1308 -734.00598 137.84241 9.2197031e-39
259.328 -725.08899 136.284 9.2197031e-39
262.41699 -727.85803 137.11301 9.2197031e-39
254.0145 -56.880493 134.5995 9.2197031e-39
260.85199 -52.461975 136.42999 9.2197031e-39
270.341 -40.729004 138.968 9.2197031e-39
265.814 -36.578003 137.75301 9.2197031e-39
307.60999 -2344.3799 149.853 9.2197031e-39
292.34601 -2324.8301 145.755 9.2197031e-39
277.586 -2316.1401 141.797 9.2197031e-39
275.04974 -744.86328 140.5045 9.2197031e-39
293.85199 -740.96399 145.541 9.2197031e-39
301.24033 -746.59332 147.52299 9.2197031e-39
278.577 -735.06702 141.446 9.2197031e-39
285.362 -732.96783 143.26283 9.2197031e-39
293.12399 -735.26666 145.34367 9.2197031e-39
300.12201 -734.66296 147.21899 9.2197031e-39
282.59399 -727.51697 142.519 9.2197031e-39
298.37601 -725.75201 146.74699 9.2197031e-39
292.44 -705.638 145.149 9.2197031e-39
302.039 -474.87601 147.631 9.2197031e-39
310.23599 -462.28601 149.82201 9.2197031e-39
285.65274 -453.75699 143.23175 9.2197031e-39
291.59 -453.68201 144.82251 9.2197031e-39
306.53268 -458.70334 148.82832 9.2197031e-39
310.79199 -458.133 149.97 9.2197031e-39
274.4205 -442.845 140.218 9.2197031e-39
284.79901 -445.53601 143 9.2197031e-39
295.47101 -447 145.8602 9.2197031e-39
305.04266 -445.83969 148.42435 9.2197031e-39
274.21799 -431.16901 140.159 9.2197031e-39
307.71899 -434.02499 149.13699 9.2197031e-39
278.74301 -428.89801 141.371 9.2197031e-39
286.36099 -426.39999 143.411 9.2197031e-39
284.88251 -415.3595 143.0105 9.2197031e-39
276.272 -406.21301 140.7 9.2197031e-39
288.21399 -398.189 143.8965 9.2197031e-39
308.38501 -144.29999 149.202 9.2197031e-39
310.70001 -93.187988 149.80299 9.2197031e-39
285.22552 -62.054993 142.965 9.2197031e-39
292.09 -60.065979 144.80299 9.2197031e-39
307.34201 -65.094482 148.892 9.2197031e-39
276.71451 -53.027985 140.681 9.2197031e-39
296.64401 -59.460999 146.02299 9.2197031e-39
301.117 -59.893005 147.222 9.2197031e-39
323.08401 -2360.79 154.005 9.2197031e-39
1146.79 -3017.1101 374.97101 9.2197031e-39
1149.22 -2961.45 375.60199 9.2197031e-39
1147.55 -2897.5801 375.12799 9.2197031e-39
1163.28 -2880.1499 379.33701 9.2197031e-39
1182.54 -2871.8101 384.496 9.2197031e-39
1201.74 -2863.3101 389.63599 9.2197031e-39
1217.34 -2846.4099 393.80899 9.2197031e-39
1232.73 -2829.3899 397.92599 9.2197031e-39
1251.5601 -2820.4399 402.97 9.2197031e-39
1270.3199 -2811.3101 407.99301 9.2197031e-39
1296.61 -2818.2 415.03799 9.2197031e-39
1297.99 1623.6399 413.67599 9.2197031e-39
1320.0699 1621.25 419.59299 9.2197031e-39
1319.64 -2817.6299 421.20999 9.2197031e-39
1342.3101 -2815.9099 427.284 9.2197031e-39
1325.03 1583.9099 420.939 9.2197031e-39
1365.48 -2814.8401 433.491 9.2197031e-39
1379.21 -2794.96 437.16299 9.2197031e-39
1406.95 -2802.28 444.59698 9.2197031e-39
1424.61 -2790 449.32599 9.2197031e-39
1431.1 1699.1699 449.314 9.2197031e-39
1415.78 1717.72 445.202 9.2197031e-39
1451.1801 -2794.1201 456.44501 9.2197031e-39
1460.55 -2766.72 458.94699 9.2197031e-39
1460.12 1660.02 457.10599 9.2197031e-39
1448.97 1685.79 454.10599 9.2197031e-39
1488.63 -2772.95 466.474 9.2197031e-39
1489.64 1623.1299 465.03 9.2197031e-39
1480 1650.75 462.435 9.2197031e-39
1520.38 -2784.8501 474.98599 9.2197031e-39
1545.1801 1588.8101 479.92499 9.2197031e-39
1526.27 1599.5601 474.85199 9.2197031e-39
1509.23 1613.5701 470.28299 9.2197031e-39
1545.38 -2784.3899 481.68301 9.2197031e-39
1573.02 -2787.8899 489.09 9.2197031e-39
1565.55 1580.4199 485.38699 9.2197031e-39
1604.05 1559.6899 495.711 9.2197031e-39
1585.88 1571.8301 490.83701 9.2197031e-39
1638.0601 1380 504.89301 9.2197031e-39
1643.88 1424.99 506.436 9.2197031e-39
1635.73 1450.58 504.241 9.2197031e-39
1655.76 1519 509.58099 9.2197031e-39
1620.52 1544.8899 500.129 9.2197031e-39
1646.59 1544.8601 507.11301 9.2197031e-39
1670.9 -2735.99 515.29797 9.2197031e-39
1661.52 1377.03 511.181 9.2197031e-39
1687.95 1377.78 518.263 9.2197031e-39
1694.46 -2731.28 521.60999 9.2197031e-39
1708.54 -2712.45 525.37299 9.2197031e-39
1719.5699 -2689.48 528.32098 9.2197031e-39
1756.24 -2908.0601 538.22998 9.2197031e-39
1737.79 -2676.9299 533.19598 9.2197031e-39
1756.48 -2665.02 538.20001 9.2197031e-39
1784.62 -3090.73 545.90601 9.2197031e-39
1787.27 -3047.3899 546.599 9.2197031e-39
1773.34 -2979.1699 542.84198 9.2197031e-39
1776.26 -2654.51 543.49597 9.2197031e-39
1803.1 -2653.28 550.68701 9.2197031e-39
1877.4399 -2713.6001 570.63202 9.2197031e-39
2030.3 1802.97 609.828 9.2197031e-39
2125.48 1885.99 635.29901 9.2197031e-39
2201.6899 -3091.73 657.65997 9.2197031e-39
2199.3 1937.75 655.05798 9.2197031e-39
2222.7 -3074.01 663.28302 9.2197031e-39
2237.98 -3049.2 667.36798 9.2197031e-39
2253 -3024.3 671.38202 9.2197031e-39
2269.01 -3000.8301 675.664 9.2197031e-39
2283.5 -2975.75 679.53699 9.2197031e-39
2289.3501 2007.78 679.15997 9.2197031e-39
2297.73 -2950.6001 683.33899 9.2197031e-39
2310.3799 -2923.8999 686.71899 9.2197031e-39
2329.1899 1792.1101 689.91998 9.2197031e-39
2319.29 1822.76 687.255 9.2197031e-39
2316.6499 1862.45 686.53101 9.2197031e-39
2306.5801 1893.9299 683.82098 9.2197031e-39
2312.9299 1946.0701 685.50201 9.2197031e-39
2331.29 -2906.6699 692.31403 9.2197031e-39
2346.0901 -2882.7 696.271 9.2197031e-39
2359.3 -2857.2 699.802 9.2197031e-39
2372.25 -2831.6399 703.26001 9.2197031e-39
2391.0601 -2812.3799 708.29401 9.2197031e-39
2394.95 1824.78 707.526 9.2197031e-39
2394.8799 2094.0801 707.40302 9.2197031e-39
2402.8301 -2785.9399 711.43799 9.2197031e-39
2415.02 -2760.1599 714.69202 9.2197031e-39
2433.23 -2740.52 719.56299 9.2197031e-39
2443.51 -2713.21 722.30798 9.2197031e-39
2461.3201 -2693.3201 727.073 9.2197031e-39
2480.3999 -2674.6101 732.177 9.2197031e-39
2491.3799 -2648.4099 735.10999 9.2197031e-39
2502.0901 -2622.1802 737.96997 9.2197031e-39
2519.1399 -2601.76 742.52899 9.2197031e-39
2536.01 -2581.1899 747.04102 9.2197031e-39
2545.26 -2554.1001 749.51001 9.2197031e-39
2536.6299 1939.72 745.44501 9.2197031e-39
2561.73 -2533.3 753.914 9.2197031e-39
2571.22 -2506.73 756.448 9.2197031e-39
2587.29 -2485.7 760.745 9.2197031e-39
2603.1799 -2464.52 764.99402 9.2197031e-39
2618.8899 -2443.1899 769.19501 9.2197031e-39
2612.96 1116.6 766.21997 9.2197031e-39
2627.4399 -2416.3599 771.47601 9.2197031e-39
2649.77 -2400.1201 777.45203 9.2197031e-39
2658.6499 -2373.73 779.82202 9.2197031e-39
2639.21 1103.6801 773.25897 9.2197031e-39
2634.7 1164.53 772.026 9.2197031e-39
2672.8 -2351.3301 783.60498 9.2197031e-39
2688.3501 -2329.95 787.763 9.2197031e-39
2666.76 1221.2 780.59302 9.2197031e-39
2699.96 1314.4301 789.45203 9.2197031e-39
2702.1599 1609.1101 789.92902 9.2197031e-39
2702.1201 -2307.3 791.44501 9.2197031e-39
2717.3101 -2285.6401 795.505 9.2197031e-39
2731.5 -2263.3 799.30103 9.2197031e-39
2715.9299 1125.5699 793.80499 9.2197031e-39
2705.03 1283.92 790.82501 9.2197031e-39
2720.6101 1586.8899 794.88 9.2197031e-39
2737.3799 -2235.4399 800.86298 9.2197031e-39
2759.3301 -2218.22 806.73999 9.2197031e-39
2749.6399 1116.45 802.84302 9.2197031e-39
2768.8701 1552.1001 807.82501 9.2197031e-39
2772.96 -2195.5 810.383 9.2197031e-39
2786.3999 -2172.6499 813.974 9.2197031e-39
2798.8101 -2149.1699 817.28998 9.2197031e-39
2788.9199 1419.72 813.24799 9.2197031e-39
2803.3701 1543.0901 817.07202 9.2197031e-39
2784.8 1604.28 812.073 9.2197031e-39
2811.8501 -2126.0898 820.77698 9.2197031e-39
2824.7 -2102.8999 824.211 9.2197031e-39
2837.3601 -2079.5898 827.59198 9.2197031e-39
2835.1299 1493.5801 825.60199 9.2197031e-39
2848.5 1542.3201 829.16498 9.2197031e-39
2857.45 -2060.47 832.96802 9.2197031e-39
2869.74 -2036.86 836.25299 9.2197031e-39
2881.8401 -2013.15 839.48499 9.2197031e-39
2893.73 -1989.33 842.66302 9.2197031e-39
2913.2 -1969.42 847.87097 9.2197031e-39
2901.73 1916.95 843.28302 9.2197031e-39
2924.73 -1945.3199 850.95001 9.2197031e-39
2944.76 -1925.4301 856.31 9.2197031e-39
2954.1599 -1900.1899 858.82001 9.2197031e-39
2934.8999 1860.74 852.19202 9.2197031e-39
2930.6699 1900.25 851.04401 9.2197031e-39
2961.4399 2357.96 859.10797 9.2197031e-39
2973.01 -1879.46 863.862 9.2197031e-39
2983.77 -1854.8199 866.737 9.2197031e-39
3000.53 -1832.88 871.21698 9.2197031e-39
3012.6799 -1808.78 874.46301 9.2197031e-39
3030.8701 -1787.24 879.32898 9.2197031e-39
3030.3799 2329.2 877.59399 9.2197031e-39
3002.3101 2350.6101 870.06403 9.2197031e-39
3040.8501 -1762.08 881.995 9.2197031e-39
3056.9099 -1739.4 886.28998 9.2197031e-39
3068.3 -1714.73 889.33002 9.2197031e-39
3063.78 2313.1699 886.54797 9.2197031e-39
3084.8999 -1692.04 893.771 9.2197031e-39
3102.25 -1669.49 898.40997 9.2197031e-39
3092.28 2291.8401 894.19397 9.2197031e-39
3111.24 -1643.6801 900.80902 9.2197031e-39
3128.23 -1620.75 905.35199 9.2197031e-39
3145.05 -1597.5801 909.849 9.2197031e-39
3135.8799 2186.6299 905.91699 9.2197031e-39
3146.75 2246.26 908.80603 9.2197031e-39
3122.73 2272.3101 902.35999 9.2197031e-39
3151.5901 -1570.7729 911.59198 9.2197031e-39
3178.1599 -1550.571 918.70398 9.2197031e-39
3184.3 -1523.501 920.33899 9.2197031e-39
3200.3899 -1499.533 924.64001 9.2197031e-39
3224.6499 -1477.8369 931.13202 9.2197031e-39
3240.3899 -1453.355 935.341 9.2197031e-39
3255.02 -1428.395 939.25 9.2197031e-39
3271.3201 -1403.741 943.60797 9.2197031e-39
3286.49 -1378.6121 947.664 9.2197031e-39
3301.47 -1353.271 951.66901 9.2197031e-39
3315.3201 -1327.4919 955.36798 9.2197031e-39
3331.79 -1302.175 959.771 9.2197031e-39
3345.23 -1275.989 963.362 9.2197031e-39
3359.4099 -1249.8149 967.15198 9.2197031e-39
3379.0701 -1224.589 972.40997 9.2197031e-39
3393.8 -1198.14 976.34497 9.2197031e-39
3403.5601 -1170.599 978.95001 9.2197031e-39
3406.4299 -1141.762 979.70801 9.2197031e-39
3410.96 -1113.2329 980.90997 9.2197031e-39
3445.8101 -1089.439 990.23999 9.2197031e-39
3463.29 -1062.5239 994.91199 9.2197031e-39
3481.51 -1035.464 999.784 9.2197031e-39
3496.6399 -1007.74 1003.83 9.2197031e-39
3506.76 -979.20398 1006.53 9.2197031e-39
3517.6001 -950.62201 1009.42 9.2197031e-39
3529.1599 -921.97198 1012.51 9.2197031e-39
3540.5 -893.14001 1015.53 9.2197031e-39
3546.78 -863.729 1017.21 9.2197031e-39
3555.7 -834.44098 1019.59 9.2197031e-39
3568.24 -805.263 1022.93 9.2197031e-39
3574.75 -775.55402 1024.67 9.2197031e-39
3597.4199 -746.50903 1030.73 9.2197031e-39
3618.8799 -717.03198 1036.47 9.2197031e-39
3652.6499 -687.53857 1045.51 9.2197031e-39
3691.98 -657.55737 1056.03 9.2197031e-39
3730.0801 -626.86292 1066.23 9.2197031e-39
3739.9199 -595.44421 1068.85 9.2197031e-39
3754.3201 -563.81403 1072.7 9.2197031e-39
3771.3501 -531.87592 1077.25 9.2197031e-39
3807.4199 -499.13269 1086.9 9.2197031e-39
3814.24 -466.73801 1088.72 9.2197031e-39
3837.2 -433.496 1094.86 9.2197031e-39
3861.79 -399.728 1101.4301 9.2197031e-39
3884.1499 -365.62299 1107.41 9.2197031e-39
3898.5 -331.647 1111.24 9.2197031e-39
3924.1201 -296.46899 1118.09 9.2197031e-39
3948.45 -260.89499 1124.6 9.2197031e-39
3969.5701 -225.14301 1130.25 9.2197031e-39
3983.6499 -189.70599 1134 9.2197031e-39
4012.77 -152.198 1141.79 9.2197031e-39
4040.5801 -114.254 1149.23 9.2197031e-39
4076.6599 -74.612 1158.88 9.2197031e-39
4054.3999 349.086 1152.75 9.2197031e-39
4112.3501 -34.28302 1168.4301 9.2197031e-39
4087.5901 320.72601 1161.66 9.2197031e-39
4104.4702 398.32501 1166.15 9.2197031e-39
4131.4102 4.2410278 1173.52 9.2197031e-39
4128.1401 293.55798 1172.53 9.2197031e-39
4128.7402 441.81995 1172.63 9.2197031e-39
4155.3599 486.58997 1179.75 9.2197031e-39
4157.7402 44.390991 1180.5601 9.2197031e-39
4183.6899 85.062012 1187.5 9.2197031e-39
4169.4702 265.93298 1183.61 9.2197031e-39
4180.5898 531.66003 1186.49 9.2197031e-39
4213.0601 126.93903 1195.35 9.2197031e-39
4211.5601 237.82599 1194.91 9.2197031e-39
4214.6499 580.01001 1195.6 9.2197031e-39
4238.21 168.67401 1202.0699 9.2197031e-39
4262.02 210.72803 1208.4399 9.2197031e-39
4239.8501 626.52002 1202.33 9.2197031e-39
4262.71 672.97998 1208.4399 9.2197031e-39
4274.0298 716.35999 1211.46 9.2197031e-39
4295.0298 763.42004 1217.0699 9.2197031e-39
4300.8901 805.91003 1218.62 9.2197031e-39
4320.9502 853.79004 1223.97 9.2197031e-39
4336.1201 1464.9099 1227.8 9.2197031e-39
4343.73 1514.6399 1229.8199 9.2197031e-39
4359.6401 909.12 1234.3199 9.2197031e-39
4375.1001 1438.66 1238.26 9.2197031e-39
4378.3799 1579.1499 1239.08 9.2197031e-39
4411.3301 970.37 1248.15 9.2197031e-39
4411.46 1056.01 1248.15 9.2197031e-39
4413.0698 1411.4399 1248.4399 9.2197031e-39
4455.29 1385.75 1259.76 9.2197031e-39
4463.2002 1033.02 1262.02 9.2197031e-39
4461.27 1119.47 1261.47 9.2197031e-39
4495.6201 1358.64 1270.58 9.2197031e-39
4534.04 1330.16 1280.89 9.2197031e-39
4574.0898 1301.91 1291.63 9.2197031e-39
4614.8701 1273.46 1302.5699 9.2197031e-39
4650.1299 1242.1801 1312.03 9.2197031e-39
4701.8301 1955.2 1325.6 9.2197031e-39
4720.5698 1913.46 1330.64 9.2197031e-39
4753.4102 2038.04 1339.39 9.2197031e-39
4767.96 1887.51 1343.35 9.2197031e-39
4801.5298 1853.51 1352.36 9.2197031e-39
4803.0898 2121.51 1352.67 9.2197031e-39
4850.8701 2205.5701 1365.4399 9.2197031e-39
4915.7998 2302 1382.8 9.2197031e-39
5021.4902 2426.3899 1411.0699 9.2197031e-39
6588.8799 3657.3101 1830.5699 9.2197031e-39
9493.1396 5485.9399 2608.05 9.2197031e-39
9503.8203 5376.3101 2610.96 9.2197031e-39
