# .PCD v0.7 - Point Cloud Data file format
VERSION 0.7
FIELDS x y z rgb
SIZE 4 4 4 4
TYPE F F F F
COUNT 1 1 1 1
WIDTH 323
HEIGHT 1
VIEWPOINT 0 0 0 1 0 0 0
POINTS 323
DATA ascii
263.00299 -2311.3198 137.88699 9.2197031e-39
248.522 -2293.3599 134 9.2197031e-39
266.17532 -741.8703 138.12534 9.2197031e-39
270.94199 -749.02698 139.405 9.2197031e-39
264.03201 -732.72803 137.547 9.2197031e-39
271.15802 -735.87402 139.45801 9.2197031e-39
259.63599 -721.06 136.36501 9.2197031e-39
263.40851 -725.73645 137.3775 9.2197031e-39
258.189 -715.14398 135.97501 9.2197031e-39
273.20801 -438.09 139.89101 9.2197031e-39
254.04401 -53.880493 134.60651 9.2197031e-39
260.88901 -50.463013 136.439 9.2197031e-39
265.65302 -42.575012 137.713 9.2197031e-39
270.05899 -48.723999 138.896 9.2197031e-39
307.771 -2349.3799 149.89799 9.2197031e-39
292.65601 -2337.8301 145.843 9.2197031e-39
277.63199 -2319.1401 141.81 9.2197031e-39
275.99399 -755.34698 140.76199 9.2197031e-39
277.46375 -743.16949 141.1505 9.2197031e-39
296.45102 -741.86432 146.23766 9.2197031e-39
300.616 -749.26599 147.35699 9.2197031e-39
279.40649 -732.8595 141.66699 9.2197031e-39
285.76761 -734.50623 143.37219 9.2197031e-39
295.61234 -736.18231 146.01067 9.2197031e-39
300.46899 -739.83099 147.314 9.2197031e-39
283.28799 -727.85699 142.705 9.2197031e-39
294.099 -713.52899 145.59599 9.2197031e-39
303.647 -471.23801 148.06 9.2197031e-39
283.59601 -460.68201 142.68401 9.2197031e-39
304.79501 -466.66165 148.36633 9.2197031e-39
286.79398 -454.33566 143.53766 9.2197031e-39
292.94034 -453.42969 145.18433 9.2197031e-39
306.48499 -453.965 148.814 9.2197031e-39
274.4245 -442.84601 140.21899 9.2197031e-39
286.62201 -446.01251 143.48849 9.2197031e-39
296.52649 -441.65851 146.14099 9.2197031e-39
303.44299 -442.81424 147.99475 9.2197031e-39
285.77399 -435.492 143.257 9.2197031e-39
306.70001 -436.83301 148.86501 9.2197031e-39
310.42499 -430.811 149.86099 9.2197031e-39
279.58899 -423.97601 141.595 9.2197031e-39
286.36099 -426.39999 143.411 9.2197031e-39
274.642 -418.09399 140.26801 9.2197031e-39
282.76501 -414.41 142.44299 9.2197031e-39
289.22501 -405.552 144.17 9.2197031e-39
288.771 -395.24451 144.045 9.2197031e-39
309.66 -134.38699 149.53999 9.2197031e-39
310.819 -92.195007 149.834 9.2197031e-39
307.60599 -62.609497 148.96201 9.2197031e-39
276.5585 -56.023987 140.64 9.2197031e-39
285.4455 -58.5625 143.02249 9.2197031e-39
294.60699 -56.773987 145.476 9.2197031e-39
301.58701 -54.916992 147.34599 9.2197031e-39
323.20599 -2363.78 154.039 9.2197031e-39
316.49301 -448.75598 151.494 9.2197031e-39
311.41199 -432.284 150.12601 9.2197031e-39
1147.13 -3018.05 375.064 9.2197031e-39
1142.17 -2942.8301 373.70499 9.2197031e-39
1146.46 -2894.8 374.83701 9.2197031e-39
1163.65 -2881.0701 379.436 9.2197031e-39
1179.91 -2865.3701 383.78799 9.2197031e-39
1202.89 -2866.0601 389.94601 9.2197031e-39
1218.51 -2849.1499 394.125 9.2197031e-39
1235.12 -2834.8601 398.57001 9.2197031e-39
1249.9399 -2816.8101 402.53201 9.2197031e-39
1272.4 -2815.8301 408.54999 9.2197031e-39
1294.0699 -2812.8101 414.35699 9.2197031e-39
1302.24 1632.6201 414.811 9.2197031e-39
1341 -2813.23 426.931 9.2197031e-39
1315.78 -2809.5701 420.17099 9.2197031e-39
1325.91 1585.6899 421.17401 9.2197031e-39
1324.8199 1631.0901 420.86401 9.2197031e-39
1361.92 -2807.74 432.534 9.2197031e-39
1378.3101 -2793.2 436.92001 9.2197031e-39
1404.65 -2797.8799 443.98001 9.2197031e-39
1426.95 -2794.3701 449.95401 9.2197031e-39
1432.46 1701.8101 449.67801 9.2197031e-39
1417.13 1720.3799 445.561 9.2197031e-39
1451.65 -2794.99 456.57199 9.2197031e-39
1462.96 -2771.05 459.59399 9.2197031e-39
1464.35 1667.8899 458.23499 9.2197031e-39
1450.35 1688.4199 454.47699 9.2197031e-39
1489.61 -2774.6799 466.73599 9.2197031e-39
1504.8101 1605.8301 469.10101 9.2197031e-39
1495.9399 1634.3701 466.71201 9.2197031e-39
1477.14 1645.54 461.67001 9.2197031e-39
1519.39 -2783.1299 474.71899 9.2197031e-39
1528.26 1602.98 475.38599 9.2197031e-39
1545.38 -2784.3899 481.68301 9.2197031e-39
1566.58 1582.1201 485.66101 9.2197031e-39
1546.1899 1590.51 480.19501 9.2197031e-39
1611.3101 -2851.55 499.37601 9.2197031e-39
1583.28 1567.6201 490.14099 9.2197031e-39
1607.22 1564.72 496.55701 9.2197031e-39
1640.34 1383.23 505.50201 9.2197031e-39
1646.13 1428.24 507.03699 9.2197031e-39
1637.39 1453.04 504.686 9.2197031e-39
1624.26 1550.72 501.129 9.2197031e-39
1652 1553.1499 508.561 9.2197031e-39
1675.8199 -2743.4099 516.61798 9.2197031e-39
1662.6801 1378.64 511.48901 9.2197031e-39
1690.87 1381.77 519.04199 9.2197031e-39
1657.4 1521.47 510.021 9.2197031e-39
1695.5699 -2732.9199 521.90601 9.2197031e-39
1709.66 -2714.0801 525.67401 9.2197031e-39
1720.71 -2691.1001 528.625 9.2197031e-39
1756.78 -2908.8899 538.375 9.2197031e-39
1733.77 -2671.3 532.11902 9.2197031e-39
1757.64 -2666.6201 538.51202 9.2197031e-39
1786.17 -3093.26 546.323 9.2197031e-39
1788.3199 -3049.0701 546.88098 9.2197031e-39
1773.88 -2980 542.98499 9.2197031e-39
1776.84 -2655.3101 543.65399 9.2197031e-39
1806.66 -2658.01 551.64301 9.2197031e-39
1879.84 -2716.74 571.276 9.2197031e-39
2020.87 1790.29 607.30701 9.2197031e-39
2133.23 1896.22 637.37097 9.2197031e-39
2202.8999 -3093.29 657.98499 9.2197031e-39
2203.51 1943.23 656.18597 9.2197031e-39
2223.9199 -3075.5601 663.612 9.2197031e-39
2239.22 -3050.73 667.70099 9.2197031e-39
2254.25 -3025.8201 671.71802 9.2197031e-39
2269.01 -3000.8301 675.664 9.2197031e-39
2284.78 -2977.25 679.88 9.2197031e-39
2283.26 2000.01 677.53101 9.2197031e-39
2299.02 -2952.0901 683.685 9.2197031e-39
2312.99 -2926.8501 687.41803 9.2197031e-39
2319.29 1822.76 687.255 9.2197031e-39
2312.2 1857.1799 685.34198 9.2197031e-39
2312.8601 1901.53 685.50201 9.2197031e-39
2320.3899 1955.25 687.49902 9.2197031e-39
2327.3401 -2902.27 691.255 9.2197031e-39
2346.75 -2883.4299 696.44897 9.2197031e-39
2359.3 -2857.2 699.802 9.2197031e-39
2333.0801 1796.5601 690.95898 9.2197031e-39
2379.01 -2838.78 705.07397 9.2197031e-39
2391.0601 -2812.3799 708.29401 9.2197031e-39
2394.95 1824.78 707.526 9.2197031e-39
2395.5 2094.8501 707.56799 9.2197031e-39
2402.8301 -2785.9399 711.43799 9.2197031e-39
2421.95 -2767.1101 716.55402 9.2197031e-39
2433.9199 -2741.21 719.75098 9.2197031e-39
2445.6201 -2715.26 722.87598 9.2197031e-39
2463.45 -2695.3501 727.64502 9.2197031e-39
2480.3999 -2674.6101 732.177 9.2197031e-39
2491.3799 -2648.4099 735.10999 9.2197031e-39
2502.0901 -2622.1802 737.96997 9.2197031e-39
2519.8701 -2602.4102 742.72601 9.2197031e-39
2536.75 -2581.8398 747.23901 9.2197031e-39
2545.26 -2554.1001 749.51001 9.2197031e-39
2538.6101 1941.9099 745.97498 9.2197031e-39
2562.48 -2533.9302 754.11499 9.2197031e-39
2571.22 -2506.73 756.448 9.2197031e-39
2588.05 -2486.3101 760.94897 9.2197031e-39
2603.1799 -2464.52 764.99402 9.2197031e-39
2619.6599 -2443.79 769.40198 9.2197031e-39
2617.72 1120.04 767.492 9.2197031e-39
2634.4199 -2421.73 773.34802 9.2197031e-39
2643.52 -2395.4102 775.77698 9.2197031e-39
2658.6499 -2373.73 779.82202 9.2197031e-39
2640.8101 1104.8101 773.685 9.2197031e-39
2636.28 1165.6899 772.44702 9.2197031e-39
2673.5901 -2351.9102 783.81702 9.2197031e-39
2688.3501 -2329.95 787.763 9.2197031e-39
2667.54 1221.79 780.80298 9.2197031e-39
2699.5901 1279.76 789.36798 9.2197031e-39
2697.6399 1312.62 788.83197 9.2197031e-39
2702.9199 -2307.8599 791.659 9.2197031e-39
2718.9199 -2286.75 795.93701 9.2197031e-39
2733.1201 -2264.3901 799.73499 9.2197031e-39
2735.1299 1106.54 798.95801 9.2197031e-39
2717.53 1126.6801 794.23401 9.2197031e-39
2724.29 1590.1299 795.86401 9.2197031e-39
2703.6201 1610.4199 790.32001 9.2197031e-39
2747.1399 -2241.8999 803.48199 9.2197031e-39
2753.6001 -2214.5 805.203 9.2197031e-39
2769.6201 1552.73 808.02502 9.2197031e-39
2774.6101 -2196.54 810.82397 9.2197031e-39
2779.78 -2168.52 812.19897 9.2197031e-39
2798.8101 -2149.1699 817.28998 9.2197031e-39
2789.6799 1420.33 813.453 9.2197031e-39
2804.1201 1543.72 817.27301 9.2197031e-39
2781.8401 1601.71 811.28003 9.2197031e-39
2814.3601 -2127.6001 821.44897 9.2197031e-39
2827.22 -2104.3799 824.88599 9.2197031e-39
2838.2 -2080.0698 827.81799 9.2197031e-39
2829.79 1489.28 824.17401 9.2197031e-39
2846.23 1540.46 828.55701 9.2197031e-39
2850.6599 -2056.6401 831.14801 9.2197031e-39
2870.5901 -2037.34 836.48199 9.2197031e-39
2882.6899 -2013.61 839.71399 9.2197031e-39
2901.47 -1993.42 844.73798 9.2197031e-39
2914.0601 -1969.87 848.10303 9.2197031e-39
2924.2 1894.24 849.31299 9.2197031e-39
2907.4399 1922.3401 844.81 9.2197031e-39
2933.3999 -1949.72 853.276 9.2197031e-39
2944.76 -1925.4301 856.31 9.2197031e-39
2955.9099 -1901.04 859.289 9.2197031e-39
2938.52 1864.04 853.16101 9.2197031e-39
2962.77 2359.4099 859.46503 9.2197031e-39
2974.77 -1880.3 864.33301 9.2197031e-39
2986.4199 -1856.05 867.44598 9.2197031e-39
2996.9299 2344.8601 868.625 9.2197031e-39
3004.0701 -1834.48 872.16602 9.2197031e-39
3014.45 -1809.5601 874.93903 9.2197031e-39
3032.6499 -1788.01 879.80798 9.2197031e-39
3033.77 2332.77 878.50098 9.2197031e-39
3042.6399 -1762.83 882.47498 9.2197031e-39
3058.71 -1740.14 886.771 9.2197031e-39
3070.1001 -1715.45 889.81299 9.2197031e-39
3065.1499 2314.5801 886.914 9.2197031e-39
3086.71 -1692.74 894.25598 9.2197031e-39
3104.0601 -1670.17 898.896 9.2197031e-39
3094.3501 2293.9399 894.74799 9.2197031e-39
3113.0601 -1644.36 901.297 9.2197031e-39
3130.05 -1621.4 905.841 9.2197031e-39
3145.05 -1597.5801 909.849 9.2197031e-39
3126.6799 2177.77 903.45697 9.2197031e-39
3150.25 2249.7 909.745 9.2197031e-39
3124.8201 2274.3899 902.91901 9.2197031e-39
3163.53 -1574.808 914.79199 9.2197031e-39
3171.72 -1548.457 916.97699 9.2197031e-39
3194.46 -1526.7319 923.06097 9.2197031e-39
3202.24 -1500.103 925.13599 9.2197031e-39
3218.1499 -1475.8979 929.39001 9.2197031e-39
3242.25 -1453.8921 935.84003 9.2197031e-39
3248.49 -1426.574 937.5 9.2197031e-39
3272.25 -1403.9919 943.85797 9.2197031e-39
3279 -1376.666 945.65503 9.2197031e-39
3302.4099 -1353.505 951.91998 9.2197031e-39
3318.1399 -1328.171 956.125 9.2197031e-39
3333.6699 -1302.6111 960.276 9.2197031e-39
3347.1201 -1276.408 963.86902 9.2197031e-39
3361.3 -1250.2161 967.659 9.2197031e-39
3380.97 -1224.974 972.91803 9.2197031e-39
3396.6399 -1198.6909 977.10901 9.2197031e-39
3407.3601 -1171.2991 979.96997 9.2197031e-39
3410.24 -1142.428 980.729 9.2197031e-39
3422.3999 -1115.127 983.97803 9.2197031e-39
3443.8999 -1089.141 989.72803 9.2197031e-39
3463.29 -1062.5239 994.91199 9.2197031e-39
3470.02 -1033.881 996.70502 9.2197031e-39
3485.1399 -1006.261 1000.75 9.2197031e-39
3506.76 -979.20398 1006.53 9.2197031e-39
3516.6399 -950.51599 1009.16 9.2197031e-39
3529.1599 -921.97198 1012.51 9.2197031e-39
3535.6899 -892.69702 1014.25 9.2197031e-39
3554.74 -834.37 1019.33 9.2197031e-39
3554.75 -804.388 1019.32 9.2197031e-39
3561.22 -864.927 1021.08 9.2197031e-39
3569.9299 -775.28503 1023.38 9.2197031e-39
3596.45 -746.46399 1030.47 9.2197031e-39
3628.53 -717.396 1039.0601 9.2197031e-39
3655.55 -687.6214 1046.28 9.2197031e-39
3700.6699 -657.72711 1058.36 9.2197031e-39
3730.0801 -626.86292 1066.23 9.2197031e-39
3744.75 -595.45123 1070.15 9.2197031e-39
3756.25 -563.79932 1073.22 9.2197031e-39
3784.8701 -531.65118 1080.87 9.2197031e-39
3800.6599 -499.30609 1085.09 9.2197031e-39
3822.9299 -466.43701 1091.05 9.2197031e-39
3841.0601 -433.327 1095.89 9.2197031e-39
3864.6799 -399.57501 1102.21 9.2197031e-39
3887.04 -365.444 1108.1899 9.2197031e-39
3902.3601 -331.37299 1112.28 9.2197031e-39
3927.01 -296.23801 1118.87 9.2197031e-39
3949.4099 -260.80899 1124.86 9.2197031e-39
3972.46 -224.85901 1131.02 9.2197031e-39
3996.1399 -188.36499 1137.35 9.2197031e-39
4013.73 -152.086 1142.05 9.2197031e-39
4041.54 -114.133 1149.49 9.2197031e-39
4057.22 349.78198 1153.51 9.2197031e-39
4081.45 -73.96698 1160.16 9.2197031e-39
4113.3101 -34.14502 1168.6801 9.2197031e-39
4091.3601 321.62 1162.66 9.2197031e-39
4096.9702 396.401 1164.14 9.2197031e-39
4134.27 4.6799927 1174.29 9.2197031e-39
4153.9199 43.770996 1179.54 9.2197031e-39
4130.9702 294.203 1173.29 9.2197031e-39
4129.6699 442.06006 1172.88 9.2197031e-39
4186.5498 85.552979 1188.26 9.2197031e-39
4172.2998 266.55298 1184.37 9.2197031e-39
4158.1602 487.35999 1180.5 9.2197031e-39
4183.3901 532.45996 1187.24 9.2197031e-39
4205.4502 125.56097 1193.3101 9.2197031e-39
4222.9302 240.20203 1197.95 9.2197031e-39
4213.7202 579.73999 1195.35 9.2197031e-39
4234.4102 167.95001 1201.0601 9.2197031e-39
4264.8599 211.29602 1209.2 9.2197031e-39
4250.96 629.91003 1205.3101 9.2197031e-39
4265.48 673.84998 1209.1801 9.2197031e-39
4274.9502 716.66003 1211.7 9.2197031e-39
4294.1201 763.12 1216.8199 9.2197031e-39
4304.5498 807.17004 1219.6 9.2197031e-39
4324.6001 855.08997 1224.95 9.2197031e-39
4329.1699 1461.4099 1225.9399 9.2197031e-39
4334.2202 1509.75 1227.27 9.2197031e-39
4372.3901 913.78003 1237.74 9.2197031e-39
4376.8398 1439.52 1238.72 9.2197031e-39
4377.52 1578.7 1238.85 9.2197031e-39
4404.0601 967.65002 1246.2 9.2197031e-39
4401.5298 1052.09 1245.49 9.2197031e-39
4416.5698 1413.12 1249.38 9.2197031e-39
4454.1401 1029.53 1259.6 9.2197031e-39
4463.0698 1120.2 1261.95 9.2197031e-39
4457.9199 1386.99 1260.47 9.2197031e-39
4496.5 1359.05 1270.8199 9.2197031e-39
4537.5898 1331.75 1281.84 9.2197031e-39
4576.7598 1303.0699 1292.34 9.2197031e-39
4617.5498 1274.6 1303.28 9.2197031e-39
4656.3999 1244.79 1313.71 9.2197031e-39
4698.4502 1953.26 1324.7 9.2197031e-39
4725.6602 1916.3201 1332 9.2197031e-39
4762.8301 1884.7 1341.98 9.2197031e-39
4755.9399 2039.51 1340.0699 9.2197031e-39
4807.5298 1856.74 1353.96 9.2197031e-39
4794.7202 2116.52 1350.4301 9.2197031e-39
4846.7002 2203.04 1364.3199 9.2197031e-39
4934.0298 2313.3 1387.6801 9.2197031e-39
5037.1602 2436.3 1415.26 9.2197031e-39
6586.4502 3655.6802 1829.92 9.2197031e-39
9513.6602 5382.6602 2613.5901 9.2197031e-39
9501.29 5491.2998 2610.23 9.2197031e-39
