# .PCD v0.7 - Point Cloud Data file format
VERSION 0.7
FIELDS x y z rgb
SIZE 4 4 4 4
TYPE F F F F
COUNT 1 1 1 1
WIDTH 323
HEIGHT 1
VIEWPOINT 0 0 0 1 0 0 0
POINTS 323
DATA ascii
257.94699 -2303.3198 137.869 9.2197031e-39
243.534 -2285.3599 134 9.2197031e-39
255.03 -747.08704 136.481 9.2197031e-39
265.19034 -743.0733 139.20166 9.2197031e-39
257.66599 -730.84698 137.181 9.2197031e-39
261.42899 -732.46997 138.19 9.2197031e-39
257.82498 -727.80634 137.222 9.2197031e-39
254.994 -711.00702 136.457 9.2197031e-39
255.651 -63.460022 136.381 9.2197031e-39
251.328 -51.393982 135.217 9.2197031e-39
246.79601 -43.367004 134 9.2197031e-39
260.60001 -44.575012 137.69901 9.2197031e-39
265.552 -34.732971 139.022 9.2197031e-39
302.384 -2337.3901 149.789 9.2197031e-39
287.41699 -2327.8301 145.77499 9.2197031e-39
272.509 -2311.1499 141.774 9.2197031e-39
270.99399 -755.34698 140.76199 9.2197031e-39
305.29599 -755.30701 149.953 9.2197031e-39
268.32999 -746.664 140.04401 9.2197031e-39
271.78366 -743.04437 140.96834 9.2197031e-39
287.31451 -740.37854 145.12849 9.2197031e-39
293.59 -745.72705 146.81233 9.2197031e-39
276.53696 -735.13501 142.239 9.2197031e-39
283.18832 -733.2583 144.02034 9.2197031e-39
293.57999 -735.55768 146.80566 9.2197031e-39
275.56348 -726.43054 141.97501 9.2197031e-39
289.099 -713.52899 145.59599 9.2197031e-39
297.14648 -473.27951 147.659 9.2197031e-39
302.10599 -466.284 148.985 9.2197031e-39
278.57098 -453.45599 142.674 9.2197031e-39
282.74475 -452.78726 143.79199 9.2197031e-39
301.095 -456.51349 148.71049 9.2197031e-39
286.53101 -449.4845 144.8055 9.2197031e-39
294.39783 -446.3638 146.91217 9.2197031e-39
303.405 -445.05399 149.325 9.2197031e-39
270.93301 -437.52899 140.621 9.2197031e-39
280.21698 -434.84799 143.108 9.2197031e-39
296.53601 -439.15698 147.48199 9.2197031e-39
301.70001 -436.83301 148.86501 9.2197031e-39
272.879 -425.70551 141.138 9.2197031e-39
275.02197 -412.41 141.707 9.2197031e-39
282.405 -414.353 143.686 9.2197031e-39
283.05399 -403.255 143.856 9.2197031e-39
283.147 -394.095 143.877 9.2197031e-39
277.66101 -67.390015 142.28 9.2197031e-39
282.34299 -63.705017 143.533 9.2197031e-39
302.60999 -62.610504 148.96301 9.2197031e-39
269.53699 -50.914001 140.09599 9.2197031e-39
273.875 -55.140991 141.25999 9.2197031e-39
287.24399 -58.072021 144.84399 9.2197031e-39
294.20099 -56.192993 146.707 9.2197031e-39
333.496 -2370.05 158.138 9.2197031e-39
317.759 -2352.79 153.91499 9.2197031e-39
308.573 -455.07001 150.714 9.2197031e-39
306.73499 -147.80499 150.101 9.2197031e-39
306.95499 -116.54401 150.14799 9.2197031e-39
308.56 -69.370972 150.56 9.2197031e-39
1144.89 -3025.52 375.806 9.2197031e-39
1143.87 -2960.52 375.50699 9.2197031e-39
1137.5 -2884.5901 373.771 9.2197031e-39
1155.33 -2872.75 378.54401 9.2197031e-39
1171.53 -2857.0801 382.87799 9.2197031e-39
1190.98 -2849.55 388.08801 9.2197031e-39
1210.38 -2841.8301 393.28299 9.2197031e-39
1229.3199 -2833.03 398.35501 9.2197031e-39
1241.27 -2808.6499 401.548 9.2197031e-39
1263.67 -2807.7 407.547 9.2197031e-39
1285.7 -2805.6101 413.44901 9.2197031e-39
1307.34 -2802.3999 419.24701 9.2197031e-39
1329.4399 -2799.8601 425.16901 9.2197031e-39
1324.4301 1592.8101 422.11401 9.2197031e-39
1317.66 1626.6201 420.28601 9.2197031e-39
1353.8101 -2801.52 431.698 9.2197031e-39
1375.5699 -2797.6201 437.52802 9.2197031e-39
1362.03 1621.1001 432.17599 9.2197031e-39
1399.65 -2797.8799 443.98001 9.2197031e-39
1420.08 -2790.8701 449.452 9.2197031e-39
1442.85 -2788.02 455.55301 9.2197031e-39
1459.35 1667.8899 458.23499 9.2197031e-39
1448.13 1693.6899 455.21799 9.2197031e-39
1430.65 1707.99 450.52899 9.2197031e-39
1472.9 -2797.9199 463.60599 9.2197031e-39
1486.08 -2777.26 467.13101 9.2197031e-39
1474.52 1649.8799 462.30801 9.2197031e-39
1496.75 1644.76 468.26501 9.2197031e-39
1505.46 -2767.6899 472.32001 9.2197031e-39
1521.77 1600.4099 474.98599 9.2197031e-39
1504.23 1613.5701 470.28299 9.2197031e-39
1539.37 -2782.6799 481.41299 9.2197031e-39
1562.91 -2779.3999 487.71799 9.2197031e-39
1563.12 1584.6599 486.07199 9.2197031e-39
1544.74 1596.47 481.142 9.2197031e-39
1582.4399 1574.3601 491.254 9.2197031e-39
1606.4399 1571.4299 497.68399 9.2197031e-39
1633.0601 1380 504.89301 9.2197031e-39
1646.1899 1435.5601 508.39001 9.2197031e-39
1630.17 1449.77 504.09201 9.2197031e-39
1643.75 1548.1799 507.69199 9.2197031e-39
1620.87 1553.22 501.55801 9.2197031e-39
1655.95 1376.23 511.02701 9.2197031e-39
1681.79 1376.1801 517.95099 9.2197031e-39
1660.08 1533 512.073 9.2197031e-39
1700.3 -2787.96 524.534 9.2197031e-39
1698.86 -2745.21 524.133 9.2197031e-39
1713.61 -2727.1201 528.07898 9.2197031e-39
1726.47 -2706.48 531.51599 9.2197031e-39
1738.52 -2684.98 534.73602 9.2197031e-39
1756.12 -2671.4099 539.44598 9.2197031e-39
1781.6899 -3094.1001 546.46198 9.2197031e-39
1786.99 -3054.95 547.867 9.2197031e-39
1774.73 -2989.1799 544.55603 9.2197031e-39
1764.71 -2928.8101 541.849 9.2197031e-39
1790.04 -2679.9299 548.53802 9.2197031e-39
1802.85 -2659.5901 551.96198 9.2197031e-39
1855.64 -2691.6699 566.12 9.2197031e-39
1872.12 1596.9199 568.86298 9.2197031e-39
2136.01 -3013.9299 641.37201 9.2197031e-39
2142.53 1915.1101 641.19501 9.2197031e-39
2218.9199 -3075.5601 663.612 9.2197031e-39
2239.8 -3057.6399 669.198 9.2197031e-39
2214.78 1964.3301 660.53601 9.2197031e-39
2250.5 -3027.3501 672.05499 9.2197031e-39
2265.28 -3002.3401 676.00299 9.2197031e-39
2279.78 -2977.25 679.88 9.2197031e-39
2294.02 -2952.0901 683.685 9.2197031e-39
2312.55 -2932.02 688.64203 9.2197031e-39
2318.78 1827.99 688.45502 9.2197031e-39
2307.8601 1901.53 685.50201 9.2197031e-39
2297.75 2024.8501 682.74298 9.2197031e-39
2327.6001 -2908.1299 692.66699 9.2197031e-39
2341.0901 -2882.7 696.271 9.2197031e-39
2355.27 1827.73 698.23297 9.2197031e-39
2326.25 1879.79 690.43597 9.2197031e-39
2339.03 1984.3301 693.82098 9.2197031e-39
2360.3301 -2863.6799 701.41998 9.2197031e-39
2373.3301 -2838.0601 704.89301 9.2197031e-39
2386.0601 -2812.3799 708.29401 9.2197031e-39
2393.22 1828.47 708.401 9.2197031e-39
2405.3999 -2793.6699 713.46802 9.2197031e-39
2416.95 -2767.1101 716.55402 9.2197031e-39
2423.73 2136.47 716.45801 9.2197031e-39
2435.22 -2747.4199 721.44098 9.2197031e-39
2446.97 -2721.4099 724.57898 9.2197031e-39
2457.74 -2694.6699 727.45502 9.2197031e-39
2468.95 -2668.5801 730.44598 9.2197031e-39
2486.3799 -2648.4099 735.10999 9.2197031e-39
2497.0901 -2622.1802 737.96997 9.2197031e-39
2521.47 -2608.27 744.49701 9.2197031e-39
2531.01 -2581.1899 747.04102 9.2197031e-39
2547.7 -2560.47 751.50702 9.2197031e-39
2556.73 -2533.3 753.914 9.2197031e-39
2573.02 -2512.3398 758.271 9.2197031e-39
2552.0801 1962.3601 750.91699 9.2197031e-39
2589.1299 -2491.25 762.58099 9.2197031e-39
2605.0701 -2470 766.84198 9.2197031e-39
2614.6599 -2443.79 769.40198 9.2197031e-39
2616.6799 1122.9 768.552 9.2197031e-39
2629.4199 -2421.73 773.34802 9.2197031e-39
2645.55 -2400.71 777.66199 9.2197031e-39
2635.01 1104.24 773.47198 9.2197031e-39
2637.5701 1170.33 774.133 9.2197031e-39
2662.29 -2380.1299 782.14001 9.2197031e-39
2675.7 -2357.0801 785.72498 9.2197031e-39
2684.9399 -2331.0898 788.19 9.2197031e-39
2670.3601 1227.65 782.896 9.2197031e-39
2697.9199 -2307.8599 791.659 9.2197031e-39
2713.9199 -2286.75 795.93701 9.2197031e-39
2728.1201 -2264.3901 799.73499 9.2197031e-39
2716.4199 1097.17 795.289 9.2197031e-39
2718.1399 1130.59 795.73602 9.2197031e-39
2707.8101 1289.86 792.90503 9.2197031e-39
2706.54 1323.4399 792.55298 9.2197031e-39
2720.02 1590.78 796.06 9.2197031e-39
2711.03 1621.5601 793.64001 9.2197031e-39
2742.1399 -2241.8999 803.48199 9.2197031e-39
2754.3301 -2218.22 806.73999 9.2197031e-39
2762.3799 1550.8301 807.42603 9.2197031e-39
2769.6101 -2196.54 810.82397 9.2197031e-39
2781.3999 -2172.6499 813.974 9.2197031e-39
2794.6399 -2149.6802 817.513 9.2197031e-39
2793.1201 1427.02 815.71198 9.2197031e-39
2799.1201 1543.72 817.27301 9.2197031e-39
2774.6101 1599.79 810.685 9.2197031e-39
2807.6899 -2126.6001 821.00098 9.2197031e-39
2829.78 -2108.8198 826.914 9.2197031e-39
2840.8 -2084.45 829.85602 9.2197031e-39
2839.27 1500.96 828.04901 9.2197031e-39
2854.99 -2061.9102 833.65002 9.2197031e-39
2865.5901 -2037.34 836.48199 9.2197031e-39
2878.3101 1570.9099 838.48199 9.2197031e-39
2885.3999 -2017.78 841.78003 9.2197031e-39
2897.3301 -1993.88 844.96899 9.2197031e-39
2909.0601 -1969.87 848.10303 9.2197031e-39
2920.6399 1895.5801 849.69702 9.2197031e-39
2895.3101 1915.6001 842.901 9.2197031e-39
2928.3999 -1949.72 853.276 9.2197031e-39
2940.6299 -1925.86 856.54401 9.2197031e-39
2950.9099 -1901.04 859.289 9.2197031e-39
2937.8701 1868.01 854.32397 9.2197031e-39
2969.77 -1880.3 864.33301 9.2197031e-39
2988.47 -1859.3101 869.33698 9.2197031e-39
2962.4299 2364.48 860.71198 9.2197031e-39
2997.3 -1833.6801 871.69202 9.2197031e-39
3015.6699 -1812.3101 876.60699 9.2197031e-39
3027.6499 -1788.01 879.80798 9.2197031e-39
3027.4199 2331.3401 878.138 9.2197031e-39
2998.6499 2352.05 870.42297 9.2197031e-39
3035.8501 -1762.08 881.995 9.2197031e-39
3062.6899 -1743.8101 889.17902 9.2197031e-39
3058.78 2313.1699 886.54797 9.2197031e-39
3072.3101 -1718.3199 891.74597 9.2197031e-39
3089.8501 -1695.91 896.43799 9.2197031e-39
3099.0601 -1670.17 898.896 9.2197031e-39
3089.3501 2293.9399 894.74799 9.2197031e-39
3116.25 -1647.37 903.492 9.2197031e-39
3133.27 -1624.34 908.04303 9.2197031e-39
3119.8201 2274.3899 902.91901 9.2197031e-39
3141.8799 -1598.22 910.34003 9.2197031e-39
3156.6899 -1574.187 914.29999 9.2197031e-39
3173.1599 -1550.571 918.70398 9.2197031e-39
3157.0601 2211.8201 912.92102 9.2197031e-39
3150.1699 2254.51 911.05902 9.2197031e-39
3189.46 -1526.7319 923.06097 9.2197031e-39
3204.6499 -1502.386 927.12201 9.2197031e-39
3220.5801 -1478.114 931.38098 9.2197031e-39
3236.3201 -1453.623 935.59003 9.2197031e-39
3251.8799 -1428.916 939.75 9.2197031e-39
3268.1899 -1404.244 944.10901 9.2197031e-39
3290.8601 -1381.0449 950.17603 9.2197031e-39
3297.4099 -1353.505 951.91998 9.2197031e-39
3322.55 -1330.4351 958.646 9.2197031e-39
3328.6699 -1302.6111 960.276 9.2197031e-39
3351.5601 -1278.5 966.40002 9.2197031e-39
3364.8201 -1252.0229 969.94202 9.2197031e-39
3381.6499 -1226.127 974.44299 9.2197031e-39
3396.3899 -1199.609 978.38098 9.2197031e-39
3405.21 -1171.824 980.73401 9.2197031e-39
3408.0901 -1142.927 981.49402 9.2197031e-39
3423.1201 -1116.074 985.51202 9.2197031e-39
3445.5801 -1090.1851 991.52002 9.2197031e-39
3458.29 -1062.5239 994.91199 9.2197031e-39
3474.5901 -1035.2 999.271 9.2197031e-39
3491.6399 -1007.74 1003.83 9.2197031e-39
3497.9199 -978.745 1005.5 9.2197031e-39
3511.6399 -950.51599 1009.16 9.2197031e-39
3527.05 -922.263 1013.28 9.2197031e-39
3539.3401 -893.49402 1016.57 9.2197031e-39
3547.55 -864.20801 1018.75 9.2197031e-39
3553.5901 -834.65399 1020.36 9.2197031e-39
3554.5701 -804.70001 1020.61 9.2197031e-39
3578.4299 -776.03699 1026.99 9.2197031e-39
3604 -747.04901 1033.83 9.2197031e-39
3628.3601 -717.57703 1040.35 9.2197031e-39
3662.1399 -687.95239 1049.39 9.2197031e-39
3705.3201 -657.91571 1060.95 9.2197031e-39
3727.98 -626.89331 1067.01 9.2197031e-39
3740.72 -595.45264 1070.41 9.2197031e-39
3756.0801 -563.7627 1074.51 9.2197031e-39
3785.6699 -531.55493 1082.4301 9.2197031e-39
3805.3201 -499.05829 1087.6801 9.2197031e-39
3817.9299 -466.43701 1091.05 9.2197031e-39
3843.78 -432.98901 1097.96 9.2197031e-39
3858.72 -399.62601 1101.95 9.2197031e-39
3882.04 -365.444 1108.1899 9.2197031e-39
3906.99 -330.69 1114.86 9.2197031e-39
3930.6699 -295.54401 1121.1899 9.2197031e-39
3944.4099 -260.80899 1124.86 9.2197031e-39
3967.46 -224.85901 1131.02 9.2197031e-39
3991.1399 -188.36499 1137.35 9.2197031e-39
4009.6899 -151.974 1142.3101 9.2197031e-39
4035.5801 -114.254 1149.23 9.2197031e-39
4060.6799 351.87097 1155.77 9.2197031e-39
4083.1499 -73.062988 1161.96 9.2197031e-39
4110.2202 -33.869995 1169.2 9.2197031e-39
4086.3601 321.62 1162.66 9.2197031e-39
4094.79 397.12201 1164.89 9.2197031e-39
4137.8701 5.9979858 1176.59 9.2197031e-39
4125.9702 294.203 1173.29 9.2197031e-39
4125.6099 442.31006 1173.13 9.2197031e-39
4156.5601 45.010986 1181.58 9.2197031e-39
4181.5498 85.552979 1188.26 9.2197031e-39
4167.2998 266.55298 1184.37 9.2197031e-39
4161.5601 489.68005 1182.75 9.2197031e-39
4178.3901 532.45996 1187.24 9.2197031e-39
4209.0098 127.11102 1195.6 9.2197031e-39
4217.9302 240.20203 1197.95 9.2197031e-39
4216.1499 581.93005 1197.34 9.2197031e-39
4237.02 169.39697 1203.09 9.2197031e-39
4247.8198 630.46997 1205.8101 9.2197031e-39
4263.25 674.72998 1209.9301 9.2197031e-39
4268.3999 213.00098 1211.48 9.2197031e-39
4274.5601 718.16003 1212.9399 9.2197031e-39
4294.6299 764.95996 1218.3 9.2197031e-39
4307.7998 810.02002 1221.8101 9.2197031e-39
4319.6001 855.08997 1224.95 9.2197031e-39
4331.1201 1464.9099 1227.8 9.2197031e-39
4330.9502 1510.6399 1227.74 9.2197031e-39
4367.3901 913.78003 1237.74 9.2197031e-39
4407.2402 970.70996 1248.39 9.2197031e-39
4409.1699 1057.09 1248.87 9.2197031e-39
4380.5698 1443.8101 1241.0601 9.2197031e-39
4388.8799 1587.3 1243.23 9.2197031e-39
4420.3301 1417.34 1251.72 9.2197031e-39
4460.0098 1033.72 1262.5 9.2197031e-39
4468.8599 1124.58 1264.84 9.2197031e-39
4452.9199 1386.99 1260.47 9.2197031e-39
4493.27 1359.86 1271.29 9.2197031e-39
4534.3599 1332.54 1282.3101 9.2197031e-39
4572.6499 1303.46 1292.58 9.2197031e-39
4622.3701 1278.8 1305.92 9.2197031e-39
4659.4702 1248.15 1315.87 9.2197031e-39
4695.98 1954.71 1325.38 9.2197031e-39
4722.3599 1917.27 1332.46 9.2197031e-39
4762.1001 1887.04 1343.12 9.2197031e-39
4758.5098 2043.9399 1342.09 9.2197031e-39
4805.1001 1858.1201 1354.65 9.2197031e-39
4797.25 2121.01 1352.45 9.2197031e-39
4854.2002 2210.6299 1367.67 9.2197031e-39
4929.0298 2313.3 1387.6801 9.2197031e-39
5032.1602 2436.3 1415.26 9.2197031e-39
6581.4502 3655.6802 1829.92 9.2197031e-39
9516.8604 5387.9399 2615.78 9.2197031e-39
9501.1797 5494.52 2611.54 9.2197031e-39
