# .PCD v0.7 - Point Cloud Data file format
VERSION 0.7
FIELDS x y z rgb
SIZE 4 4 4 4
TYPE F F F F
COUNT 1 1 1 1
WIDTH 359
HEIGHT 1
VIEWPOINT 0 0 0 1 0 0 0
POINTS 359
DATA ascii
1106.26 1898.4399 -280.789 1.8403113e-38
1011.05 1974.4399 -280.806 1.8403113e-38
919.54797 2045.49 -280.26001 1.8403113e-38
911.93799 2053.8101 -280.89899 1.8403113e-38
904.71899 2064.9399 -282.42801 1.8403113e-38
895.92102 2070.51 -282.01401 1.8403113e-38
879.16602 2086.1001 -282.64999 1.8403113e-38
889.04602 2083.3401 -284.10699 1.8403113e-38
869.66602 2091.6599 -282.07401 1.8403113e-38
862.29199 2102.3799 -283.452 1.8403113e-38
844.71899 2117.53 -283.77499 1.8403113e-38
853.99597 2112.3401 -284.40302 1.8403113e-38
835.922 2126.47 -284.32199 1.8403113e-38
816.51898 2136.6699 -282.82199 1.8403113e-38
826.75098 2132.4399 -283.94 1.8403113e-38
808.39099 2147.1001 -283.94501 1.8403113e-38
788.77399 2157.8101 -282.53799 1.8403113e-38
798.69702 2153.95 -283.69299 1.8403113e-38
770.91699 2177.5 -284.08801 1.8403113e-38
781.43597 2175.6299 -285.94501 1.8403113e-38
761.60498 2187.79 -284.90399 1.8403113e-38
752.66602 2197.8899 -285.75 1.8403113e-38
741.992 2202.46 -284.62601 1.8403113e-38
733.63898 2217.1201 -286.90302 1.8403113e-38
723.24402 2224.3501 -286.60199 1.8403113e-38
702.409 2236.5801 -285.35199 1.8403113e-38
713.44 2232.3301 -286.647 1.8403113e-38
692.00897 2241.5701 -284.41299 1.8403113e-38
682.37201 2257 -286.616 1.8403113e-38
649.18298 2265.6699 -281.55099 1.8403113e-38
660.737 2268.6001 -285.00601 1.8403113e-38
672.33899 2266.5901 -287.06601 1.8403113e-38
627.48102 2279.6001 -280.58899 1.8403113e-38
618.01001 2309.8701 -287.05099 1.8403113e-38
607.01703 2317.0901 -286.61099 1.8403113e-38
595.73602 2330.99 -288.00601 1.8403113e-38
572.47101 2344.1101 -286.45999 1.8403113e-38
584.617 2340.9199 -288.30801 1.8403113e-38
561.28802 2359.6201 -288.336 1.8403113e-38
548.99799 2364.54 -286.94699 1.8403113e-38
524.85498 2382.6899 -286.63199 1.8403113e-38
537.44 2382.77 -289.51001 1.8403113e-38
512.86298 2394.01 -287.13101 1.8403113e-38
500.09698 2403.3401 -286.88901 1.8403113e-38
487.82901 2410.6201 -286.17599 1.8403113e-38
474.633 2424.5601 -287.14801 1.8403113e-38
462.004 2433.5701 -286.84399 1.8403113e-38
448.69199 2440.55 -285.811 1.8403113e-38
435.30499 2458.02 -287.74301 1.8403113e-38
421.729 2463.8201 -286.31299 1.8403113e-38
394.216 2483.75 -285.73901 1.8403113e-38
407.849 2481.0701 -288.07199 1.8403113e-38
379.61099 2503.6699 -288.091 1.8403113e-38
365.064 2512.8401 -287.401 1.8403113e-38
350.38901 2527.7 -288.298 1.8403113e-38
335.47198 2536.6201 -287.452 1.8403113e-38
321.06601 2545.46 -286.69601 1.8403113e-38
305.44501 2557 -286.436 1.8403113e-38
289.465 2574.23 -287.711 1.8403113e-38
273.67599 2583.5701 -286.78601 1.8403113e-38
257.008 2601.47 -288.09601 1.8403113e-38
239.987 2615.3101 -288.172 1.8403113e-38
224.44701 2623.3401 -286.92899 1.8403113e-38
206.435 2639.74 -287.508 1.8403113e-38
190.535 2647.47 -286.10001 1.8403113e-38
172.992 2658.78 -285.33499 1.8403113e-38
154.10899 2678.6001 -286.689 1.8403113e-38
135.858 2690.51 -285.93701 1.8403113e-38
116.56 2709.02 -286.82501 1.8403113e-38
95.960403 2728.1599 -287.59698 1.8403113e-38
76.710098 2743.45 -287.578 1.8403113e-38
57.170799 2755.5701 -286.59201 1.8403113e-38
37.646599 2769.54 -286.13501 1.8403113e-38
16.312 2785.98 -285.97198 1.8403113e-38
-6.1918998 2808.02 -287.13501 1.8403113e-38
-27.354601 2821.2 -286.08301 1.8403113e-38
-48.277 2835.29 -285.345 1.8403113e-38
-72.029602 2854.5801 -285.444 1.8403113e-38
-92.916496 2866.3799 -284.05801 1.8403113e-38
-119.205 2890.76 -285.03101 1.8403113e-38
-145.13699 2915.0901 -286.06799 1.8403113e-38
-171.67999 2937.05 -286.29199 1.8403113e-38
-196.8 2956.1899 -286.039 1.8403113e-38
-225.87199 2982.1799 -286.83499 1.8403113e-38
-250.358 2997.0901 -285.521 1.8403113e-38
-280.672 3023.3601 -286.117 1.8403113e-38
-310.25 3048.6699 -286.60599 1.8403113e-38
-342.30301 3076.0701 -287.129 1.8403113e-38
-368.61499 3090.72 -285.32501 1.8403113e-38
-403.16299 3121.04 -286.11099 1.8403113e-38
-435.383 3146.78 -286.12399 1.8403113e-38
-472.67001 3179.8899 -287.08099 1.8403113e-38
-505.08801 3203.0601 -286.319 1.8403113e-38
-539.73401 3227.27 -285.345 1.8403113e-38
-576.92102 3257.7 -285.56201 1.8403113e-38
-613.448 3282.8301 -284.42499 1.8403113e-38
-653.06702 3315.03 -284.59399 1.8403113e-38
-683.39301 3325.2 -280.60599 1.8403113e-38
-918.51001 3517.9399 -282.08899 1.8403113e-38
-983.38202 3580.25 -285.09601 1.8403113e-38
-1028.61 3608.99 -283.009 1.8403113e-38
-1082.17 3647.6101 -281.84399 1.8403113e-38
2475.6599 769.164 -270.246 1.8403113e-38
2459.01 787.44702 -271.668 1.8403113e-38
2315.8601 895.88599 -270.03601 1.8403113e-38
2278.3899 928.31897 -270.76099 1.8403113e-38
2202.9299 989.40198 -271.017 1.8403113e-38
2185.46 1004.25 -271.27701 1.8403113e-38
2168.9099 1018.11 -271.46399 1.8403113e-38
2152.1899 1032.4 -271.737 1.8403113e-38
2104.47 1072.4 -272.28799 1.8403113e-38
2081.53 1085.29 -270.75 1.8403113e-38
2072.1699 1098.01 -272.24301 1.8403113e-38
2054.8701 1110.6801 -271.923 1.8403113e-38
2037.58 1122.42 -271.34 1.8403113e-38
2023.98 1134.88 -271.79999 1.8403113e-38
2015.23 1146.96 -273.24899 1.8403113e-38
2000.49 1158.9301 -273.311 1.8403113e-38
1982.9 1169.7 -272.384 1.8403113e-38
1972.8199 1181.78 -273.53201 1.8403113e-38
1963.72 1193.22 -274.72299 1.8403113e-38
1943.89 1203.64 -273.18799 1.8403113e-38
1932.74 1214.4399 -273.729 1.8403113e-38
1919.47 1225.37 -273.82901 1.8403113e-38
1911.03 1236.3101 -275.02701 1.8403113e-38
1894.77 1246.37 -274.19901 1.8403113e-38
1879.5601 1255.76 -273.41901 1.8403113e-38
1872.65 1267.1899 -275.103 1.8403113e-38
1861.1 1276.97 -275.26501 1.8403113e-38
1843.6801 1285.9399 -273.86499 1.8403113e-38
1834.84 1295.98 -274.71301 1.8403113e-38
1828.5601 1307.12 -276.45901 1.8403113e-38
1818.64 1316.71 -276.936 1.8403113e-38
1803.83 1325.55 -276.08801 1.8403113e-38
1790.08 1333.85 -275.33099 1.8403113e-38
1779.8199 1343.5 -275.74899 1.8403113e-38
1776.14 1354.3 -277.98599 1.8403113e-38
1753.78 1360.24 -274.60199 1.8403113e-38
1754.5601 1372.2 -278.18301 1.8403113e-38
1723.67 1386.58 -275.26401 1.8403113e-38
1744.97 1381.62 -278.686 1.8403113e-38
1710.36 1394.4399 -274.48001 1.8403113e-38
1698.14 1401.9 -273.82901 1.8403113e-38
1681.48 1419.73 -275.121 1.8403113e-38
1693.79 1412.54 -275.871 1.8403113e-38
1668.9301 1427.24 -274.41101 1.8403113e-38
1665.48 1437.48 -276.54199 1.8403113e-38
1652.84 1444.72 -275.73401 1.8403113e-38
1650.13 1455.21 -278.10199 1.8403113e-38
1624.89 1468.49 -276.15201 1.8403113e-38
1638.28 1462.54 -277.5 1.8403113e-38
1612.99 1475.49 -275.44299 1.8403113e-38
1606.53 1484.17 -276.44601 1.8403113e-38
1594.5601 1490.89 -275.64301 1.8403113e-38
1575.11 1505.42 -275.36301 1.8403113e-38
1592.3 1501.4 -278.121 1.8403113e-38
1564.17 1511.65 -274.65302 1.8403113e-38
1546.22 1526.29 -274.74399 1.8403113e-38
1557.21 1520.3101 -275.53799 1.8403113e-38
1539.99 1535.21 -275.87 1.8403113e-38
1515.11 1545.62 -273.18399 1.8403113e-38
1528.9301 1540.95 -274.99301 1.8403113e-38
1495.98 1558.64 -272.54999 1.8403113e-38
1509 1553.8199 -274.13199 1.8403113e-38
1491.42 1567.63 -274.07101 1.8403113e-38
1486.5 1577.01 -275.62601 1.8403113e-38
1460.62 1585.29 -272.10599 1.8403113e-38
1474.5 1581.52 -274.18399 1.8403113e-38
1442.73 1598 -271.664 1.8403113e-38
1454.23 1593.01 -272.853 1.8403113e-38
1442.5699 1609.72 -274.961 1.8403113e-38
1430.99 1614.52 -273.70099 1.8403113e-38
1412.79 1626.53 -272.98401 1.8403113e-38
1424.39 1621.98 -274.323 1.8403113e-38
1402.26 1631.08 -271.89001 1.8403113e-38
1393.77 1649.74 -275.27399 1.8403113e-38
1400.58 1642.55 -274.77499 1.8403113e-38
1381.33 1653.27 -273.45499 1.8403113e-38
1362.76 1664.12 -272.328 1.8403113e-38
1374.45 1660.28 -273.89001 1.8403113e-38
1334.91 1679.4399 -270.366 1.8403113e-38
1349.22 1678.73 -273.41101 1.8403113e-38
1359.49 1673.92 -274.37201 1.8403113e-38
1329.6899 1688.23 -271.68399 1.8403113e-38
1325.42 1697.25 -273.28101 1.8403113e-38
1313.66 1700.4 -271.508 1.8403113e-38
1290.2 1718.52 -271.33899 1.8403113e-38
1300.27 1714.78 -272.561 1.8403113e-38
1313.47 1713.09 -275.07599 1.8403113e-38
1283.22 1725.72 -271.80301 1.8403113e-38
1266.72 1736.96 -271.26001 1.8403113e-38
1275.83 1731.86 -271.87601 1.8403113e-38
1258.6 1742.3 -270.935 1.8403113e-38
1245.83 1757.13 -272.25699 1.8403113e-38
1252.74 1750.58 -271.95801 1.8403113e-38
1230.87 1769.71 -272.44101 1.8403113e-38
1211.96 1777.83 -270.45901 1.8403113e-38
1223.46 1776.41 -272.66501 1.8403113e-38
1208.2 1788.6 -272.673 1.8403113e-38
1199.16 1792.67 -271.77499 1.8403113e-38
1184.26 1805.16 -271.95099 1.8403113e-38
1196.4 1804.84 -274.61499 1.8403113e-38
1173.74 1815.54 -272.51599 1.8403113e-38
1153.3 1828.67 -271.612 1.8403113e-38
1160.77 1822.85 -271.65399 1.8403113e-38
1141.17 1844.9399 -273.48999 1.8403113e-38
1152.74 1844.47 -275.983 1.8403113e-38
1135.88 1854.6899 -275.065 1.8403113e-38
1124.8601 1864.3899 -275.323 1.8403113e-38
1116.9 1878.64 -277.57101 1.8403113e-38
1108.5699 1884.38 -277.314 1.8403113e-38
1075.5699 1906.15 -276.01801 1.8403113e-38
1084.09 1900.6801 -276.39499 1.8403113e-38
1095.71 1900.9399 -279.108 1.8403113e-38
1058.8101 1916.61 -275.194 1.8403113e-38
1067.42 1911.29 -275.63 1.8403113e-38
1054.83 1928.95 -277.797 1.8403113e-38
1045.6 1933.35 -276.95801 1.8403113e-38
1028.85 1944.16 -276.23001 1.8403113e-38
1041.34 1945.66 -279.49399 1.8403113e-38
1024.37 1956.41 -278.69901 1.8403113e-38
1016.25 1963.05 -278.746 1.8403113e-38
1001.07 1977.61 -279.44299 1.8403113e-38
982.72998 1986.01 -277.67099 1.8403113e-38
993.159 1983.85 -279.42599 1.8403113e-38
976.70599 1996.39 -279.26001 1.8403113e-38
957.711 2003.51 -276.97501 1.8403113e-38
967.76801 2001.8199 -278.77701 1.8403113e-38
950.93298 2013.99 -278.41699 1.8403113e-38
933.48297 2025.03 -277.59799 1.8403113e-38
943.37402 2021.62 -278.87201 1.8403113e-38
927.51398 2036.9301 -279.63101 1.8403113e-38
637.60199 2267.48 -279.43799 1.8403113e-38
-711.59497 3332.8701 -276.38699 1.8403113e-38
2820.5901 467.07401 -262.569 1.8403113e-38
2796.1299 493.36801 -264.49799 1.8403113e-38
2765.45 519.505 -264.974 1.8403113e-38
2738.53 545.25598 -266.19199 1.8403113e-38
2707.3601 570.35797 -266.259 1.8403113e-38
2673.1499 596.37701 -265.89999 1.8403113e-38
2653.1299 618.29999 -267.595 1.8403113e-38
2625.25 642.08398 -268.034 1.8403113e-38
2595.1001 664.80902 -267.65799 1.8403113e-38
2573.5801 686.55499 -268.961 1.8403113e-38
2542.04 708.45697 -268.03699 1.8403113e-38
2517.2 729.75098 -268.45801 1.8403113e-38
2493.0801 749.64899 -268.646 1.8403113e-38
2415.8701 808.90503 -267.98401 1.8403113e-38
2395.96 826.672 -268.521 1.8403113e-38
2376.8999 844.81299 -269.35599 1.8403113e-38
2355.71 861.98999 -269.436 1.8403113e-38
2335.3701 879.52197 -269.80801 1.8403113e-38
2292.3 912.87299 -269.52301 1.8403113e-38
2253.5901 944.61798 -269.771 1.8403113e-38
2227.72 959.78802 -268.216 1.8403113e-38
2214.3899 975.06897 -269.54001 1.8403113e-38
2127.6399 1045.51 -269.89499 1.8403113e-38
2109.76 1059.15 -269.716 1.8403113e-38
1233.36 1758.49 -269.81299 1.8403113e-38
-745.771 3303.3899 -260.24301 1.8403113e-38
-731.138 3321.45 -268.703 1.8403113e-38
2831.48 423.448 -252.62601 1.8403113e-38
2826.71 445.686 -257.871 1.8403113e-38
-779.49597 3317.6101 -256.63599 1.8403113e-38
-1032.47 3518.76 -256.45999 1.8403113e-38
2828.1499 382.94601 -240.34599 1.8403113e-38
2822.8201 405.52701 -245.562 1.8403113e-38
-1679.1 3984.21 -242.149 1.8403113e-38
2837.3 360.164 -235.939 1.8403113e-38
2834.73 318.95999 -223.632 1.8403113e-38
2832.6599 340.03 -229.158 1.8403113e-38
-955.88898 3349.02 -225.53999 1.8403113e-38
2839.9199 275.08301 -212.32401 1.8403113e-38
2840.1499 295.71399 -218.24699 1.8403113e-38
-1615.42 3846.74 -217.48399 1.8403113e-38
2834.51 254.976 -205.375 1.8403113e-38
-902.76001 3223.8899 -201.994 1.8403113e-38
-1623.78 3810.3701 -205.237 1.8403113e-38
2828.1101 214.30499 -192.351 1.8403113e-38
2825.4199 237.133 -198.235 1.8403113e-38
-903.19202 3183.3201 -190.351 1.8403113e-38
-1657.8199 3805.47 -196.118 1.8403113e-38
-1749.33 3875.4399 -195.257 1.8403113e-38
-1838.35 3936.98 -192.56799 1.8403113e-38
-1966.36 4046.1201 -194.571 1.8403113e-38
-2137.0601 4200.0098 -199.618 1.8403113e-38
2830.3201 170.36501 -180.349 1.8403113e-38
2829 193.007 -186.493 1.8403113e-38
-907.58502 3151.71 -180.35899 1.8403113e-38
3062.25 -33.190399 -175.065 1.8403113e-38
2834.53 147.593 -174.82401 1.8403113e-38
-938.526 3158.3501 -175.226 1.8403113e-38
3058.1699 -80.904602 -160.561 1.8403113e-38
3060.5901 -57.754501 -167.698 1.8403113e-38
2908.8999 51.445801 -164.345 1.8403113e-38
2828.02 106.139 -161.552 1.8403113e-38
2833.54 125.504 -168.314 1.8403113e-38
-963.70001 3157.8101 -169.36 1.8403113e-38
-1000.66 3171.9199 -164.98599 1.8403113e-38
3052.3701 -103.924 -152.696 1.8403113e-38
-1046.09 3159.8301 -151.23599 1.8403113e-38
-1018.04 3159.3999 -157.479 1.8403113e-38
3051.3301 -127.881 -145.64301 1.8403113e-38
-1760.28 3700.96 -143.127 1.8403113e-38
3043.5901 -174.849 -130.521 1.8403113e-38
3050.53 -153.332 -138.21899 1.8403113e-38
-1770.51 3667.0601 -131.158 1.8403113e-38
3040.5 -199.48599 -122.81 1.8403113e-38
3031.3501 -220.054 -114.88 1.8403113e-38
3026.8999 -244.21899 -106.994 1.8403113e-38
3023.0901 -294.241 -91.896202 1.8403113e-38
3027.1499 -269.595 -99.829697 1.8403113e-38
3021.0601 -318.79099 -84.449303 1.8403113e-38
3009.47 -339.67999 -75.874702 1.8403113e-38
3004.55 -390.29999 -60.355701 1.8403113e-38
3007.8401 -364.702 -68.386497 1.8403113e-38
2999.8101 -413.91599 -52.5592 1.8403113e-38
-2827.3 4253.7598 -58.262501 1.8403113e-38
2996 -439.54501 -44.401402 1.8403113e-38
-2840.47 4212.0298 -43.400501 1.8403113e-38
2992.49 -464.17801 -36.595402 1.8403113e-38
2984.97 -515.03198 -20.4193 1.8403113e-38
2988.1399 -489.84201 -28.3067 1.8403113e-38
-4265.3101 5284.1299 -25.0914 1.8403113e-38
2979.24 -540.19702 -11.9574 1.8403113e-38
-2745.21 4019.8501 -10.3342 1.8403113e-38
2967.1101 -560.06097 -3.55305 1.8403113e-38
2963.4099 -586.784 4.8917298 1.8403113e-38
-2691.95 3923.1599 5.08915 1.8403113e-38
2957.54 -610.89099 13.0818 1.8403113e-38
2946.8999 -661.75598 29.9716 1.8403113e-38
2959.9099 -642.11102 21.427401 1.8403113e-38
2944.52 -690.25598 38.620098 1.8403113e-38
-256.88 1871.65 36.2005 1.8403113e-38
-268.353 1899.79 30.7967 1.8403113e-38
-242.351 1814.16 49.262299 1.8403113e-38
-245.785 1831.13 45.2118 1.8403113e-38
-249.968 1849.99 40.7952 1.8403113e-38
2771.1299 -596.54901 51.308498 1.8403113e-38
-256.86401 1815.84 52.076302 1.8403113e-38
-287.172 1820.39 57.660801 1.8403113e-38
-277.34698 1824.13 54.366901 1.8403113e-38
2710.71 -581.64502 60.778599 1.8403113e-38
-291.01099 1811.1899 61.148998 1.8403113e-38
-314.255 1820.63 63.738701 1.8403113e-38
-519.14203 1974.42 66.477402 1.8403113e-38
2570.04 -532.10303 78.606697 1.8403113e-38
2585.98 -517.09198 70.718102 1.8403113e-38
2543.45 -537.65601 86.223 1.8403113e-38
-520.28601 1897.83 88.531303 1.8403113e-38
-502.146 1897.2 84.592003 1.8403113e-38
2536.05 -558.94702 93.959801 1.8403113e-38
-520.63599 1883.7 92.630501 1.8403113e-38
-572.50403 1912.25 96.277496 1.8403113e-38
-865.18298 2139.01 98.177498 1.8403113e-38
2563.4099 -634.302 109.192 1.8403113e-38
2563.6799 -606.54602 101.233 1.8403113e-38
-882.49701 2133.6799 103.624 1.8403113e-38
-2804.26 3648.6599 108.687 1.8403113e-38
