# .PCD v0.7 - Point Cloud Data file format
VERSION 0.7
FIELDS x y z rgb
SIZE 4 4 4 4
TYPE F F F F
COUNT 1 1 1 1
WIDTH 318
HEIGHT 1
VIEWPOINT 0 0 0 1 0 0 0
POINTS 318
DATA ascii
3097.6499 3654.72 -280.543 1.8403113e-38
3069.8899 3664.1499 -280.82199 1.8403113e-38
3075.3401 3664.25 -281.444 1.8403113e-38
3051.6399 3671.96 -281.565 1.8403113e-38
2998.29 3684.71 -280.237 1.8403113e-38
2849.3601 3730.7 -280.14499 1.8403113e-38
2709.4199 3776.9199 -281.10001 1.8403113e-38
2687.02 3784.97 -281.48001 1.8403113e-38
2692.22 3787.6599 -282.97699 1.8403113e-38
2708.6201 3782.6101 -282.992 1.8403113e-38
2647.3101 3795.25 -280.76801 1.8403113e-38
2592.52 3811.1599 -280.383 1.8403113e-38
2513.3999 3836.23 -280.55399 1.8403113e-38
2459.5901 3852.8799 -280.53201 1.8403113e-38
2422.6001 3869.8301 -282.42899 1.8403113e-38
2438.8201 3865.96 -282.83499 1.8403113e-38
2442.74 3867.8899 -283.931 1.8403113e-38
2458.23 3861.02 -283.21301 1.8403113e-38
2401.6001 3875.4551 -282.11548 1.8403113e-38
2419.53 3871.5 -282.67801 1.8403113e-38
2362.5649 3885.0049 -281.22101 1.8403113e-38
2382.7949 3884.0898 -283.08801 1.8403113e-38
2321.6399 3894.45 -280.086 1.8403113e-38
2341.78 3893.29 -281.85999 1.8403113e-38
2303.78 3900.6748 -280.3205 1.8403113e-38
2264.5352 3917.3599 -281.884 1.8403113e-38
2282.95 3913.5801 -282.56 1.8403113e-38
2224.0649 3925.2451 -280.25549 1.8403113e-38
2203.7451 3933.885 -281.06451 1.8403113e-38
2160.6201 3946.4099 -280.76199 1.8403113e-38
2181.3999 3943.1899 -281.88599 1.8403113e-38
2139.6499 3951.1799 -280.15601 1.8403113e-38
2143.1101 3952.1399 -280.86401 1.8403113e-38
2096.5701 3968.1699 -281.41 1.8403113e-38
2100.05 3969.25 -282.16 1.8403113e-38
2118.1799 3961.27 -281.345 1.8403113e-38
2121.7 3961.3401 -281.75201 1.8403113e-38
2074.6299 3975.6499 -281.64099 1.8403113e-38
2033.76 3987.9299 -281.49799 1.8403113e-38
2052.0701 3985.5901 -282.66 1.8403113e-38
2007.16 3995.8401 -281.375 1.8403113e-38
2029.53 3992.3201 -282.565 1.8403113e-38
1985.5649 4004.3652 -282.00598 1.8403113e-38
1940.6801 4014.9399 -280.83801 1.8403113e-38
1958.92 4017.6399 -283.74399 1.8403113e-38
1963.84 4011.6001 -282.177 1.8403113e-38
1914.14 4023.605 -280.98199 1.8403113e-38
1934.85 4024.6299 -283.57401 1.8403113e-38
1886.29 4035.46 -282.095 1.8403113e-38
3117.1499 3644.79 -279.1965 1.8403113e-38
3089.3799 3652.1399 -278.75201 1.8403113e-38
3042.8501 3668.3899 -279.375 1.8403113e-38
3015.96 3671.99 -277.724 1.8403113e-38
3023.3201 3674.3701 -279.34698 1.8403113e-38
2967.75 3682.98 -276.34 1.8403113e-38
2976.23 3687.0601 -278.67499 1.8403113e-38
2999.75 3680.97 -279.09799 1.8403113e-38
2924.1399 3696.96 -276.48999 1.8403113e-38
2947.5 3691.99 -277.284 1.8403113e-38
2955.8799 3696.22 -279.66199 1.8403113e-38
2882.2598 3708.5149 -275.98602 1.8403113e-38
2902.6399 3703.6499 -276.49301 1.8403113e-38
2910.8 3708.2 -278.957 1.8403113e-38
2933.02 3702.0801 -279.23001 1.8403113e-38
2836.55 3718.8 -274.62601 1.8403113e-38
2857.97 3713.4399 -275.07501 1.8403113e-38
2866.47 3719.0601 -277.944 1.8403113e-38
2798.01 3734.53 -275.93201 1.8403113e-38
2800.8999 3732.74 -275.621 1.8403113e-38
2824.3999 3734.0752 -278.62299 1.8403113e-38
2758.71 3748.04 -276.38501 1.8403113e-38
2782.375 3744.5752 -277.73499 1.8403113e-38
2745.0601 3757.8999 -278.33899 1.8403113e-38
2766.5801 3754.3899 -279.44199 1.8403113e-38
2723.2749 3763.835 -278.04999 1.8403113e-38
2742.5701 3760.3601 -278.923 1.8403113e-38
2665.6399 3779.5701 -277.297 1.8403113e-38
2648.3701 3789.6201 -278.92401 1.8403113e-38
2662.6201 3780.99 -277.46399 1.8403113e-38
2604.6101 3797.1899 -276.832 1.8403113e-38
2628.0049 3797.0552 -279.31 1.8403113e-38
2549.1201 3808.3601 -274.72299 1.8403113e-38
2567.6602 3806.6001 -276.11298 1.8403113e-38
2586.26 3804.53 -277.40201 1.8403113e-38
2609.8899 3801.1201 -278.767 1.8403113e-38
2531.52 3817.45 -275.983 1.8403113e-38
2490.6499 3829.47 -275.746 1.8403113e-38
2513.71 3826.27 -277.12601 1.8403113e-38
2530.8 3825.6299 -278.746 1.8403113e-38
2550.78 3822.73 -279.896 1.8403113e-38
2497.05 3839.3201 -279.862 1.8403113e-38
2475.77 3843.0801 -278.87299 1.8403113e-38
2343.24 3879.72 -277.297 1.8403113e-38
2324.74 3892.1001 -279.604 1.8403113e-38
2285.52 3903.8201 -279.44299 1.8403113e-38
2244.075 3915.8149 -279.138 1.8403113e-38
2184.9299 3930.8101 -277.96399 1.8403113e-38
2164.1899 3942.5901 -279.819 1.8403113e-38
2078.9199 3968.3 -279.548 1.8403113e-38
2056.96 3974.53 -279.34601 1.8403113e-38
2011.77 3989.6499 -279.72 1.8403113e-38
1868.8 4028.0701 -277.63901 1.8403113e-38
1892.29 4026.8999 -279.76901 1.8403113e-38
749.45697 4361.96 -272.845 1.8403113e-38
154.047 4540.9702 -270.784 1.8403113e-38
3432.8101 3494.8401 -261.15701 1.8403113e-38
1873.01 3997.75 -267.55701 1.8403113e-38
772.80298 4345.5898 -269.67599 1.8403113e-38
509.32401 4400.7202 -260.392 1.8403113e-38
547.75702 4408.52 -267.25101 1.8403113e-38
551.09302 4414.29 -269.61899 1.8403113e-38
310.52899 4463.2202 -260.65201 1.8403113e-38
199.85001 4511.7798 -265.582 1.8403113e-38
92.215103 4543.7998 -265.091 1.8403113e-38
51.853699 4567.0098 -268.802 1.8403113e-38
-54.879299 4592.6602 -266.194 1.8403113e-38
-179.603 4627.98 -265.00201 1.8403113e-38
3434.71 3467.8601 -251.981 1.8403113e-38
3433.3201 3490.3899 -259.66299 1.8403113e-38
462.49899 4390.8901 -251.92 1.8403113e-38
505.33801 4395.5298 -258.15601 1.8403113e-38
438.789 4403.5 -253.743 1.8403113e-38
340.64899 4446.0298 -257.931 1.8403113e-38
3426.52 3458.96 -248.005 1.8403113e-38
1870.28 3927.76 -242.93401 1.8403113e-38
1871.33 3936.8101 -246.19299 1.8403113e-38
110.156 4471.52 -241.90401 1.8403113e-38
-162.373 4553.52 -240.98199 1.8403113e-38
-154.06 4557.5098 -243.267 1.8403113e-38
3423.5601 3408.1299 -230.01801 1.8403113e-38
3424.0098 3432.78 -238.6335 1.8403113e-38
3027.49 3538.02 -232.40201 1.8403113e-38
1862.65 3893.5701 -230.22501 1.8403113e-38
3428.1299 3405.8899 -229.73199 1.8403113e-38
3019.8101 3507.95 -221.121 1.8403113e-38
3033.0701 3514.71 -224.905 1.8403113e-38
1861.33 3886.3601 -227.576 1.8403113e-38
82.896301 4436.5801 -226.815 1.8403113e-38
3418.2749 3377.3701 -218.75349 1.8403113e-38
3029.1001 3486.4399 -214.649 1.8403113e-38
3030.6699 3491.8401 -216.696 1.8403113e-38
1855.0801 3846.2749 -212.97 1.8403113e-38
-159.34 4491.6499 -219.80299 1.8403113e-38
3419.03 3329.0901 -202.054 1.8403113e-38
3441.4399 3334.1799 -206.242 1.8403113e-38
3413.1001 3347.4299 -207.791 1.8403113e-38
3413.1101 3351.6699 -209.265 1.8403113e-38
3053.51 3437.1699 -200.159 1.8403113e-38
3035.28 3447.2 -201.677 1.8403113e-38
3040.3899 3447.0701 -202.18201 1.8403113e-38
3034.21 3466.1499 -208.149 1.8403113e-38
3034.3899 3470.3301 -209.619 1.8403113e-38
-180.966 4448.3799 -202.42799 1.8403113e-38
-160.64 4444.04 -203.117 1.8403113e-38
3413.4399 3298 -190.646 1.8403113e-38
3417.25 3303.6201 -193.009 1.8403113e-38
3077.1799 3403.77 -191.105 1.8403113e-38
3080.0801 3409.5 -193.41 1.8403113e-38
3056.1899 3412.23 -191.77901 1.8403113e-38
3063.74 3421.27 -195.73599 1.8403113e-38
3055.51 3434.7 -199.51601 1.8403113e-38
1848.02 3802.6799 -197.054 1.8403113e-38
1848.54 3810.79 -199.927 1.8403113e-38
3447.8999 3266.27 -183.33501 1.8403113e-38
3465.98 3268.6001 -186.097 1.8403113e-38
3426.52 3278.7 -185.347 1.8403113e-38
3435 3285.98 -188.793 1.8403113e-38
3117.3601 3365.75 -182.228 1.8403113e-38
3158.1399 3367.1399 -187.114 1.8403113e-38
3100.98 3374.25 -183.414 1.8403113e-38
3171.71 3371.05 -189.936 1.8403113e-38
3080.155 3385.2051 -184.97299 1.8403113e-38
3105.73 3380.8899 -186.23399 1.8403113e-38
1841.38 3766.8 -183.866 1.8403113e-38
1841.33 3775.79 -186.98599 1.8403113e-38
-189.26401 4396.5898 -183.532 1.8403113e-38
-192.06799 4408.02 -187.201 1.8403113e-38
3112.49 3359.1899 -179.422 1.8403113e-38
1835.8049 3735.45 -172.366 1.8403113e-38
174.91901 4261.7002 -175.965 1.8403113e-38
3401.405 3224.3701 -163.7515 1.8403113e-38
1825.95 3709.47 -162.27299 1.8403113e-38
1828.67 3710.3899 -162.88499 1.8403113e-38
-193.862 4343.3501 -164.53101 1.8403113e-38
-196.916 4354.6802 -168.138 1.8403113e-38
3481.3101 3176.73 -155.81799 1.8403113e-38
3490.4399 3183.29 -159.086 1.8403113e-38
3447.03 3194.3101 -158.23199 1.8403113e-38
3459.6001 3194.1299 -159.524 1.8403113e-38
3397.1599 3201.9399 -155.498 1.8403113e-38
3405 3200.6101 -155.881 1.8403113e-38
1819.28 3681.7 -151.901 1.8403113e-38
1822.67 3680.8701 -151.976 1.8403113e-38
1250.2 3859.3701 -152.21201 1.8403113e-38
1098.27 3910.8701 -153.713 1.8403113e-38
-208.14101 4306.3301 -150.12199 1.8403113e-38
1814.3199 3652.2 -141.10899 1.8403113e-38
1813.33 3661.0801 -144.091 1.8403113e-38
1134.85 3880.1899 -146.99699 1.8403113e-38
-215.868 4301.8999 -147.74699 1.8403113e-38
1809.3101 3628.0601 -132.177 1.8403113e-38
1242.97 3798.3501 -130.224 1.8403113e-38
1311.6801 3796.6899 -137.064 1.8403113e-38
1235 3812.26 -134.19701 1.8403113e-38
-217.452 4257.52 -132.149 1.8403113e-38
3464.4399 3080.3101 -120.484 1.8403113e-38
3479.8701 3087.3301 -124.589 1.8403113e-38
3342.1001 3120.3201 -121.184 1.8403113e-38
1804.33 3599.49 -121.71 1.8403113e-38
1803.74 3606.5601 -124.104 1.8403113e-38
3453.4299 3055.8301 -110.787 1.8403113e-38
3458.3601 3060.49 -112.939 1.8403113e-38
3366.45 3080.8501 -110.092 1.8403113e-38
3339.6399 3098.8601 -113.456 1.8403113e-38
3340.6299 3095.6201 -112.44 1.8403113e-38
3342.2 3116.8301 -119.982 1.8403113e-38
1807.1 3566.04 -110.382 1.8403113e-38
1801.29 3571.9399 -111.805 1.8403113e-38
-231.45799 4203.1899 -111.754 1.8403113e-38
-227.42 4209.7798 -114.481 1.8403113e-38
3438.5698 3033.0801 -101.274 1.8403113e-38
3357.8401 3082.3999 -109.702 1.8403113e-38
1798.6801 3545.3501 -102.281 1.8403113e-38
1795.88 3555.77 -105.6 1.8403113e-38
3424.97 3007.5601 -90.936096 1.8403113e-38
3433.02 3012.3999 -93.489197 1.8403113e-38
1793.61 3524.8101 -94.594398 1.8403113e-38
1791.53 3533.47 -97.378304 1.8403113e-38
112.305 4052.24 -96.397697 1.8403113e-38
-213.686 4149.52 -95.017998 1.8403113e-38
3424.8101 2988.105 -84.157745 1.8403113e-38
1785.92 3487.3899 -80.7575 1.8403113e-38
1780.37 3492.1499 -81.814102 1.8403113e-38
1787.73 3506.8201 -87.705002 1.8403113e-38
1790.3 3507.02 -88.054001 1.8403113e-38
3454.8201 2947.4199 -73.256104 1.8403113e-38
3454.28 2950.96 -74.4263 1.8403113e-38
3432.4751 2967.96 -77.982101 1.8403113e-38
1781.22 3465.0901 -72.497002 1.8403113e-38
1778.53 3473.5801 -75.159203 1.8403113e-38
1779.1899 3443.9299 -64.9263 1.8403113e-38
1780.5601 3445.8301 -65.7313 1.8403113e-38
91.651497 3972.53 -66.463203 1.8403113e-38
1773.78 3408.5049 -52.027451 1.8403113e-38
1778.37 3422.0801 -57.242699 1.8403113e-38
1780.2 3423.1599 -57.815399 1.8403113e-38
1765.1 3380.4099 -41.326698 1.8403113e-38
1772.985 3388.4551 -44.970703 1.8403113e-38
-256.02399 4010.6899 -42.188801 1.8403113e-38
-257.957 4020.01 -45.220699 1.8403113e-38
3241.8701 2889.8799 -30.262199 1.8403113e-38
3240.54 2892.74 -31.1143 1.8403113e-38
3238.72 2907.28 -35.972301 1.8403113e-38
3237.3401 2910.1201 -36.8106 1.8403113e-38
1761.155 3364.1851 -35.259003 1.8403113e-38
1768.13 3373.05 -39.093102 1.8403113e-38
3335.8301 2839.0801 -22.750799 1.8403113e-38
3237.625 2873.51 -24.11385 1.8403113e-38
1728.29 3349.3101 -26.5394 1.8403113e-38
1759.74 3347.0449 -29.148651 1.8403113e-38
1718.96 3356.97 -28.1945 1.8403113e-38
1739.595 3352.9399 -29.023251 1.8403113e-38
487.23901 3718.21 -20.7754 1.8403113e-38
489.85199 3722.8501 -22.671 1.8403113e-38
296.73001 3779.5801 -21.5387 1.8403113e-38
-188.78101 3937.78 -24.1085 1.8403113e-38
3268.1101 2840.73 -16.011999 1.8403113e-38
3247.6001 2856.395 -19.243 1.8403113e-38
469.16 3697.8101 -11.73 1.8403113e-38
-163.03999 3917.72 -19.914 1.8403113e-38
3245.3301 2819.73 -6.2532201 1.8403113e-38
3253.1599 2822.72 -8.1371202 1.8403113e-38
-146.57401 3871.29 -5.5532799 1.8403113e-38
3176.26 2803.1299 6.9752302 1.8403113e-38
3187.1399 2805.76 4.8863602 1.8403113e-38
68.296997 3767.2 7.4272799 1.8403113e-38
3154.6001 2787.4199 14.7751 1.8403113e-38
3152.5901 2790.1499 14.0403 1.8403113e-38
3127.29 2757.1399 28.246099 1.8403113e-38
3134.3401 2759.3301 26.725901 1.8403113e-38
3139.5901 2772.1201 21.712 1.8403113e-38
3145.6001 2774.5 20.236601 1.8403113e-38
90.0979 3716.3 22.7658 1.8403113e-38
92.666397 3722.05 20.490801 1.8403113e-38
3104.04 2730.77 39.921101 1.8403113e-38
3107.8301 2744.4048 34.7752 1.8403113e-38
198.651 3637.73 38.356201 1.8403113e-38
3087.03 2717.4099 46.402 1.8403113e-38
3094.75 2714.03 46.7444 1.8403113e-38
3103.8701 2728.24 40.821301 1.8403113e-38
236.104 3615.99 41.871498 1.8403113e-38
3072.9399 2688.1548 58.092499 1.8403113e-38
3085.5049 2701.3601 52.14735 1.8403113e-38
247.112 3574.49 55.105598 1.8403113e-38
241.817 3582.75 52.807999 1.8403113e-38
3055.8101 2660.1699 69.669701 1.8403113e-38
3061.1201 2661.6899 68.567001 1.8403113e-38
3064.5901 2674.6299 63.695648 1.8403113e-38
249.658 3537.04 67.847801 1.8403113e-38
243.263 3545.52 65.5905 1.8403113e-38
3065.28 2628.5801 79.627899 1.8403113e-38
3059.8999 2632.24 78.9375 1.8403113e-38
3061.8999 2645.48 74.118149 1.8403113e-38
245.478 3508.54 78.207397 1.8403113e-38
3072.8101 2597.71 89.545395 1.8403113e-38
3065.915 2614.6201 84.411453 1.8403113e-38
163.19 3500.6001 89.848999 1.8403113e-38
230.35201 3507.8501 80.077797 1.8403113e-38
3075.29 2567.3101 99.842003 1.8403113e-38
3076.6201 2579.96 95.304497 1.8403113e-38
3072.4199 2583.6699 94.465599 1.8403113e-38
139.487 3502.3301 91.807701 1.8403113e-38
-887.99103 3799.77 99.356003 1.8403113e-38
3085.72 2545.76 106.206 1.8403113e-38
3078.79 2550.52 105.301 1.8403113e-38
3071.73 2565.6899 100.79 1.8403113e-38
-843.979 3776.51 102.689 1.8403113e-38
3088.6299 2531.4399 110.87 1.8403113e-38
