# .PCD v0.7 - Point Cloud Data file format
VERSION 0.7
FIELDS x y z rgb
SIZE 4 4 4 4
TYPE F F F F
COUNT 1 1 1 1
WIDTH 317
HEIGHT 1
VIEWPOINT 0 0 0 1 0 0 0
POINTS 317
DATA ascii
1803.48 3875.75 -281.18301 1.8403113e-38
1823.73 3877.6899 -281.14499 1.8403113e-38
1847.85 3877.23 -280.09601 1.8403113e-38
1843.11 3882.95 -282.34201 1.8403113e-38
1886.03 3881.28 -280.1665 1.8403113e-38
1904.1 3883.8799 -280.44601 1.8403113e-38
1924.0601 3885.05 -280.13901 1.8403113e-38
1946.9399 3889.1101 -280.76901 1.8403113e-38
2046.03 3897.48 -280.17599 1.8403113e-38
2085.8 3901.3799 -280.129 1.8403113e-38
2124.24 3907.7549 -281.0325 1.8403113e-38
2142.6499 3908.1799 -280.51001 1.8403113e-38
2146.4399 3915.5701 -283.047 1.8403113e-38
2183.3899 3913.5701 -280.97299 1.8403113e-38
2208.05 3922.02 -283.13 1.8403113e-38
2226.9951 3923.0449 -282.806 1.8403113e-38
2249.1201 3921.5 -281.43701 1.8403113e-38
2290.78 3922.3899 -280.23499 1.8403113e-38
2355.6201 3928.8899 -280.215 1.8403113e-38
2313.72 3932.02 -282.883 1.8403113e-38
2643.8201 3958.24 -280.29099 1.8403113e-38
-460.92899 3616.9299 -270.36099 1.8403113e-38
-359.815 3630.6499 -271.62799 1.8403113e-38
166.85201 3686.8999 -272.71399 1.8403113e-38
138.043 3693.1899 -276.04599 1.8403113e-38
209.202 3699.8899 -275.86801 1.8403113e-38
241.362 3691.3 -271.582 1.8403113e-38
274.67001 3707.1001 -276.08401 1.8403113e-38
299.52899 3701.3101 -273.078 1.8403113e-38
362.70901 3707.01 -272.827 1.8403113e-38
428.10999 3709.52 -271.34201 1.8403113e-38
338.04099 3713.3301 -276.021 1.8403113e-38
400.185 3718.22 -275.51501 1.8403113e-38
583.58197 3728.54 -272.539 1.8403113e-38
558.91101 3737.3999 -276.64801 1.8403113e-38
626.53003 3737.22 -274.108 1.8403113e-38
677.49597 3739.46 -273.05399 1.8403113e-38
611.20697 3740.8899 -275.99799 1.8403113e-38
661.49597 3744 -275.284 1.8403113e-38
719.98999 3745.75 -273.77701 1.8403113e-38
704.13397 3750.6299 -276.12299 1.8403113e-38
742.56201 3758.9199 -277.71799 1.8403113e-38
760.66901 3752.05 -274.569 1.8403113e-38
790.31702 3759.4099 -276.14899 1.8403113e-38
805.07501 3754.45 -273.811 1.8403113e-38
881.46802 3758.96 -272.64801 1.8403113e-38
832.20801 3762.7 -275.806 1.8403113e-38
842.15601 3760.9299 -274.79999 1.8403113e-38
881.35999 3764.6899 -274.72699 1.8403113e-38
919.54797 3768.0701 -274.55099 1.8403113e-38
909.78198 3770.28 -275.70999 1.8403113e-38
941.854 3777.8601 -277.28299 1.8403113e-38
953.763 3773.5901 -275.297 1.8403113e-38
987.40851 3775.7998 -274.867 1.8403113e-38
1018.66 3779.1699 -274.94501 1.8403113e-38
1033.87 3771.1699 -271.48801 1.8403113e-38
1049.46 3784.9399 -275.905 1.8403113e-38
1059.54 3781.25 -274.19901 1.8403113e-38
1094.96 3781.4099 -272.96201 1.8403113e-38
1121.21 3789.5601 -274.95001 1.8403113e-38
1078.05 3791.99 -277.41101 1.8403113e-38
1110.67 3794.3301 -277.064 1.8403113e-38
1146.25 3795.4751 -276.17801 1.8403113e-38
1178.23 3799.23 -276.366 1.8403113e-38
1240.37 3799.8501 -274.31601 1.8403113e-38
1297.72 3796.1599 -270.88 1.8403113e-38
1169.26 3803 -278.061 1.8403113e-38
1203.085 3804.0249 -277.1915 1.8403113e-38
1229.12 3806.8799 -277.272 1.8403113e-38
1258.1 3808.53 -276.80899 1.8403113e-38
1266.11 3804.96 -275.224 1.8403113e-38
1786.02 3869.8201 -279.67651 1.8403113e-38
1809.41 3866.55 -277.63501 1.8403113e-38
1828.5699 3872.04 -278.92401 1.8403113e-38
1866.65 3876.72 -279.2225 1.8403113e-38
1908.33 3878.8501 -278.46899 1.8403113e-38
1927.77 3882.74 -279.16501 1.8403113e-38
1944.49 3882.1599 -278.345 1.8403113e-38
1965.825 3884.2451 -278.31702 1.8403113e-38
1985.62 3884.855 -277.814 1.8403113e-38
2005.245 3887.0151 -277.87701 1.8403113e-38
2023.27 3888.75 -277.84601 1.8403113e-38
2043.14 3886.0701 -276.146 1.8403113e-38
2026.3199 3893.6399 -279.50699 1.8403113e-38
2064.3198 3893.905 -278.21051 1.8403113e-38
2082.47 3893.8201 -277.513 1.8403113e-38
2102.3 3895.8 -277.504 1.8403113e-38
2165.48 3899.6001 -276.56799 1.8403113e-38
2105.74 3901.4199 -279.41599 1.8403113e-38
2162.6899 3907.29 -279.45499 1.8403113e-38
2186.3301 3908.6499 -279.082 1.8403113e-38
2202.5901 3903.5901 -276.655 1.8403113e-38
2243.52 3906.98 -276.38501 1.8403113e-38
2266.5801 3912.585 -277.56952 1.8403113e-38
2286.1799 3916.4199 -278.241 1.8403113e-38
2307.0701 3916.8799 -277.642 1.8403113e-38
2370.6299 3917.9399 -275.70001 1.8403113e-38
2329.48 3923.4399 -279.19699 1.8403113e-38
2332.6799 3921.8799 -278.51401 1.8403113e-38
2351.3 3925.9199 -279.29599 1.8403113e-38
2398.04 3926.1699 -277.67499 1.8403113e-38
2419.4299 3924.72 -276.366 1.8403113e-38
2442.8999 3929.21 -277.134 1.8403113e-38
2460.4299 3926.1899 -275.39801 1.8403113e-38
2377.4199 3930 -279.81699 1.8403113e-38
2395.6599 3930.6299 -279.38 1.8403113e-38
2418.49 3933.76 -279.67599 1.8403113e-38
2440.0601 3931.96 -278.233 1.8403113e-38
2466.9399 3934.1599 -278.048 1.8403113e-38
2488.24 3935.625 -277.79849 1.8403113e-38
2508.3101 3933.1799 -276.17899 1.8403113e-38
2516.2 3943.5801 -279.65601 1.8403113e-38
2537.1899 3942.4551 -278.47998 1.8403113e-38
2559.3601 3943.6201 -278.08801 1.8403113e-38
2564.3201 3945.8501 -278.71399 1.8403113e-38
2586.6951 3946.5352 -278.14349 1.8403113e-38
2608.3999 3945.1101 -276.83301 1.8403113e-38
2635.26 3949.4399 -277.41901 1.8403113e-38
2615.9299 3952.3301 -279.17401 1.8403113e-38
2664.8398 3953.7251 -277.88751 1.8403113e-38
2688.1001 3953.0901 -276.80701 1.8403113e-38
2695.6699 3959.05 -278.686 1.8403113e-38
2716.25 3956.6299 -277.05801 1.8403113e-38
2742.78 3956.28 -275.957 1.8403113e-38
2771.46 3958.6699 -275.77399 1.8403113e-38
2723.98 3962.45 -278.88 1.8403113e-38
2749.6699 3960.29 -277.159 1.8403113e-38
2780.47 3965.8301 -278.03699 1.8403113e-38
2804.49 3963.1499 -276.18652 1.8403113e-38
2829.6399 3961.6499 -274.72299 1.8403113e-38
2868.0601 3968.0601 -275.63901 1.8403113e-38
2841.1001 3971.6799 -277.935 1.8403113e-38
2864.54 3970.1799 -276.53299 1.8403113e-38
2899.3999 3977.1101 -277.76801 1.8403113e-38
2900.1399 3970.97 -275.51801 1.8403113e-38
2926.73 3972.3601 -275.04599 1.8403113e-38
2959.98 3974.73 -274.69 1.8403113e-38
2994.75 3977.8799 -274.55701 1.8403113e-38
3028.52 3971.6899 -271.078 1.8403113e-38
2937.72 3980.1599 -277.47 1.8403113e-38
2970.5801 3981.5601 -276.77399 1.8403113e-38
3008.54 3988.29 -277.819 1.8403113e-38
3375.28 4015.0698 -274.0925 1.8403113e-38
3419.8701 4017.8701 -273.474 1.8403113e-38
3430.8401 4020.72 -274.104 1.8403113e-38
-902.40302 3548.4199 -261.71301 1.8403113e-38
-966.55499 3554.9099 -266.414 1.8403113e-38
-767.867 3566.3799 -263.29199 1.8403113e-38
-828.89099 3573.52 -268.11301 1.8403113e-38
-644.17798 3583.0701 -264.80899 1.8403113e-38
-700.16901 3590.21 -269.44299 1.8403113e-38
-525.57703 3597.3501 -265.63699 1.8403113e-38
-573.70801 3603.47 -269.61401 1.8403113e-38
-419.63901 3611.8201 -267.00101 1.8403113e-38
-307.46201 3620.8899 -266.177 1.8403113e-38
133.625 3655.8899 -262.70401 1.8403113e-38
33.989799 3664.4099 -269.43701 1.8403113e-38
132.66499 3662.8501 -265.25699 1.8403113e-38
557.43799 3708.95 -266.39999 1.8403113e-38
1310.98 3785.7 -266.60699 1.8403113e-38
3036.0352 3943.905 -260.742 1.8403113e-38
3018.8401 3966.75 -269.64499 1.8403113e-38
-133.30701 3604.6101 -253.90401 1.8403113e-38
1787.61 3801.47 -254.869 1.8403113e-38
3045.4099 3919.1101 -251.41701 1.8403113e-38
-3164.53 3275.9099 -245.849 1.8403113e-38
-2789.1399 3324.8101 -249.81599 1.8403113e-38
-2626.72 3321.3899 -242.627 1.8403113e-38
-122.729 3593.9199 -249.647 1.8403113e-38
641.18201 3655.03 -243.81 1.8403113e-38
1780.85 3761.29 -240.565 1.8403113e-38
1789 3786.21 -249.29201 1.8403113e-38
3059.4399 3890.6899 -240.61501 1.8403113e-38
3060.74 3898.3701 -243.34599 1.8403113e-38
3044.9099 3912.1299 -248.91 1.8403113e-38
-4061.7 3149.3501 -232.866 1.8403113e-38
-3550.5901 3215.6001 -238.142 1.8403113e-38
-3362.99 3217.77 -232.061 1.8403113e-38
-2981.05 3274.3101 -238.554 1.8403113e-38
208.569 3586.8899 -234.97301 1.8403113e-38
1782.9301 3745.2 -234.662 1.8403113e-38
3105.8501 3869.605 -231.2785 1.8403113e-38
3078.21 3877.1602 -235.02701 1.8403113e-38
-4610.0698 3067.8301 -223.42101 1.8403113e-38
-3820.2 3153.02 -225.35201 1.8403113e-38
-758.10602 3455.3999 -222.74699 1.8403113e-38
-760.88 3464.3401 -226.08501 1.8403113e-38
694.19598 3598.48 -221.38901 1.8403113e-38
676.31403 3603.1299 -223.72701 1.8403113e-38
1775.485 3716.7651 -224.63699 1.8403113e-38
3122.9199 3848.0601 -222.854 1.8403113e-38
3126.01 3857.05 -225.996 1.8403113e-38
3158.8501 3853.5 -223.507 1.8403113e-38
3165.54 3853.9299 -223.41901 1.8403113e-38
-4367.54 3076.9199 -217.83099 1.8403113e-38
142.67799 3538.4399 -219.838 1.8403113e-38
1770.55 3683.9299 -212.92799 1.8403113e-38
-797.23102 3414.05 -209.205 1.8403113e-38
-763.15997 3415.3701 -208.435 1.8403113e-38
1765.87 3649.4199 -200.603 1.8403113e-38
1771.14 3674.1799 -209.377 1.8403113e-38
-4844.7202 2962.3 -193.798 1.8403113e-38
-4822.04 2980.9099 -199.705 1.8403113e-38
-796.58002 3364.3201 -191.174 1.8403113e-38
-797.72101 3372.8301 -194.297 1.8403113e-38
391.617 3485.2 -191.44701 1.8403113e-38
1468.49 3614.1499 -198.717 1.8403113e-38
1765.01 3644.1101 -198.713 1.8403113e-38
-1037.9 3311.8701 -181.015 1.8403113e-38
363.54501 3462.98 -184.429 1.8403113e-38
391.354 3479.8 -189.50101 1.8403113e-38
1758.46 3617.6201 -189.35699 1.8403113e-38
1761.65 3616.79 -188.94099 1.8403113e-38
-961.72998 3291.3799 -170.808 1.8403113e-38
-793.98401 3314.6499 -173.091 1.8403113e-38
-790.38599 3322.26 -175.715 1.8403113e-38
1756.92 3581.6299 -176.383 1.8403113e-38
1755.9301 3590.3701 -179.58299 1.8403113e-38
1753.05 3556.6599 -167.481 1.8403113e-38
-967.58698 3240.79 -152.7 1.8403113e-38
-975.05603 3250.4399 -156.46899 1.8403113e-38
1743.13 3508.1101 -150.26401 1.8403113e-38
1748.4351 3532.1599 -158.778 1.8403113e-38
3046.9399 3656.0701 -156.11099 1.8403113e-38
1728.495 3479.23 -140.34149 1.8403113e-38
1735.65 3497.3701 -146.64799 1.8403113e-38
1730.91 3501.4199 -148.287 1.8403113e-38
1746.53 3506.53 -149.567 1.8403113e-38
-981.138 3199.8 -138.354 1.8403113e-38
-979.42798 3190.99 -135.10001 1.8403113e-38
1727.63 3453.355 -131.00299 1.8403113e-38
2984.05 3597.3899 -137.164 1.8403113e-38
-4056.9399 2862.8999 -128.96001 1.8403113e-38
1624.6 3418.1899 -122.04 1.8403113e-38
1716.88 3422.9099 -120.373 1.8403113e-38
1723.01 3435.425 -124.6785 1.8403113e-38
2958.75 3550.1799 -120.993 1.8403113e-38
2964.0601 3558.8301 -123.93 1.8403113e-38
-3977.3101 2845.73 -119.826 1.8403113e-38
1717.74 3396.135 -110.6425 1.8403113e-38
1717.51 3417.8401 -118.512 1.8403113e-38
2966.6101 3535.8301 -115.507 1.8403113e-38
2974.1499 3537.7 -115.912 1.8403113e-38
3616.3899 3608.6399 -118.086 1.8403113e-38
-4348.8398 2758.98 -102.014 1.8403113e-38
1693.59 3366.8799 -100.9335 1.8403113e-38
1710.05 3366.04 -100.026 1.8403113e-38
1675.515 3370.95 -103.069 1.8403113e-38
1709.99 3383.8401 -106.474 1.8403113e-38
1713.85 3381.72 -105.566 1.8403113e-38
2976.27 3494.9399 -100.349 1.8403113e-38
2963.9299 3509.3401 -106.015 1.8403113e-38
2973.01 3512.3401 -106.768 1.8403113e-38
3626.0552 3584.115 -108.8515 1.8403113e-38
-4188.9302 2743.3799 -90.5103 1.8403113e-38
1708.36 3364.98 -99.7062 1.8403113e-38
2979.1399 3469.8301 -91.149696 1.8403113e-38
2981.1599 3475.1499 -93.002998 1.8403113e-38
2974.3701 3489.5701 -98.473297 1.8403113e-38
3468.53 3538.0601 -97.942001 1.8403113e-38
3624.9199 3549.3401 -96.299599 1.8403113e-38
3623.6201 3553.98 -98.027298 1.8403113e-38
2974.425 3445.73 -82.594604 1.8403113e-38
3622.3501 3517.1699 -84.7444 1.8403113e-38
3620.25 3521.3799 -86.345596 1.8403113e-38
3010.9551 3425.7651 -74.028946 1.8403113e-38
2991.7148 3435.2749 -78.175201 1.8403113e-38
3618.5151 3487.5898 -74.173599 1.8403113e-38
-4293.04 2654.8401 -62.259399 1.8403113e-38
3036.0249 3397.52 -62.88245 1.8403113e-38
3022.0901 3412.6499 -68.872803 1.8403113e-38
3031.4299 3414.78 -69.300003 1.8403113e-38
3613.1899 3455.4399 -62.725948 1.8403113e-38
-4280.7202 2637.6299 -55.577 1.8403113e-38
3096.5 3368.4099 -50.128502 1.8403113e-38
3075.6802 3376.9751 -53.991199 1.8403113e-38
3116.51 3375.4099 -51.928699 1.8403113e-38
3056.54 3389.6899 -59.2948 1.8403113e-38
3063.3999 3389.99 -59.1521 1.8403113e-38
3604.8601 3425.1899 -52.0784 1.8403113e-38
3598.6201 3393.98 -41.0019 1.8403113e-38
3598.3201 3417.77 -49.628101 1.8403113e-38
3593.5701 3363.8 -30.2598 1.8403113e-38
3603.1201 3390.8601 -39.709499 1.8403113e-38
-4332.2202 2548.3501 -25.133101 1.8403113e-38
3596.1101 3359.99 -28.7869 1.8403113e-38
-4333.5601 2530.5901 -18.7509 1.8403113e-38
3382.3401 3260.6101 -0.62463897 1.8403113e-38
3453.75 3288.7 -8.1840801 1.8403113e-38
3350.6699 3230.78 9.0193195 1.8403113e-38
-4214.6899 2449.8301 14.8469 1.8403113e-38
3376.8 3215.76 15.4143 1.8403113e-38
3389.4399 3215.6299 15.9234 1.8403113e-38
3340.47 3223.6899 11.2105 1.8403113e-38
-4213.7202 2432.49 21.1616 1.8403113e-38
3430.4199 3184.01 28.875 1.8403113e-38
3433.48 3208.7 20.0455 1.8403113e-38
3443.26 3207.4199 20.867701 1.8403113e-38
3415.22 3152.74 39.639999 1.8403113e-38
3428.79 3160 37.508202 1.8403113e-38
3434.3701 3181.0701 30.0832 1.8403113e-38
3342.98 3116.8501 49.993301 1.8403113e-38
3356.1099 3096.115 57.9818 1.8403113e-38
3348.7 3114.5 51.053699 1.8403113e-38
3438.52 3088.49 63.7617 1.8403113e-38
3437.75 3092.21 62.386299 1.8403113e-38
-2071.55 2498.05 75.8479 1.8403113e-38
-2101.3201 2507.28 71.414398 1.8403113e-38
3403.75 3040.8301 79.747101 1.8403113e-38
3425.7998 3065.165 71.741898 1.8403113e-38
3393.165 3015.2852 88.608948 1.8403113e-38
3404.3701 3037.2 81.083397 1.8403113e-38
3386.26 2992.5449 96.592148 1.8403113e-38
-1975.14 2438.5801 100.912 1.8403113e-38
3391.54 2969.6499 105.075 1.8403113e-38
3382.1899 2972.24 103.794 1.8403113e-38
3390.3899 2951.51 111.602 1.8403113e-38
