# .PCD v0.7 - Point Cloud Data file format
VERSION 0.7
FIELDS x y z rgb
SIZE 4 4 4 4
TYPE F F F F
COUNT 1 1 1 1
WIDTH 355
HEIGHT 1
VIEWPOINT 0 0 0 1 0 0 0
POINTS 355
DATA ascii
1665 2115.6101 -290.867 1.8403113e-38
1682.4399 2114.3501 -292.66901 1.8403113e-38
1627.09 2129.52 -290.76199 1.8403113e-38
1621.52 2139.79 -293.547 1.8403113e-38
1593.52 2145.8701 -292.04099 1.8403113e-38
1581.35 2150.24 -291.97198 1.8403113e-38
1531.99 2165.6799 -290.92401 1.8403113e-38
1544.14 2161.8701 -291.17801 1.8403113e-38
1510.41 2175.5701 -291.535 1.8403113e-38
1462.53 2189.1799 -290.04999 1.8403113e-38
1430.6899 2202.4199 -290.492 1.8403113e-38
1358.22 2232.3 -291.409 1.8403113e-38
1315.22 2245.29 -290.33801 1.8403113e-38
1195.62 2289.6101 -290.151 1.8403113e-38
1187.02 2295.3101 -290.995 1.8403113e-38
1137.35 2311.04 -290.00201 1.8403113e-38
1149.1 2311.5901 -291.69199 1.8403113e-38
1090.86 2332.29 -291.298 1.8403113e-38
1052.36 2346.1599 -291.10199 1.8403113e-38
1014.75 2362.27 -291.78601 1.8403113e-38
987.75 2378.48 -293.858 1.8403113e-38
938.08698 2391.74 -292.026 1.8403113e-38
949.229 2393.4099 -294.021 1.8403113e-38
908.80701 2401.6201 -291.64999 1.8403113e-38
930.11102 2401.78 -294.42801 1.8403113e-38
859.69397 2418.04 -290.966 1.8403113e-38
902.47198 2419.72 -297.00699 1.8403113e-38
851.30798 2429.4199 -293.771 1.8403113e-38
871.091 2422.29 -293.87201 1.8403113e-38
892.13898 2421.28 -296.21701 1.8403113e-38
821.10999 2438.1201 -292.87601 1.8403113e-38
830.89899 2433.45 -292.534 1.8403113e-38
842.086 2437.04 -295.189 1.8403113e-38
790.51801 2445.1599 -291.36099 1.8403113e-38
802.49103 2455.6499 -296.47 1.8403113e-38
750.38397 2464.01 -292.65601 1.8403113e-38
761.31897 2467.3899 -295.20599 1.8403113e-38
772.02399 2467.8601 -296.73499 1.8403113e-38
782.53198 2466.3701 -297.57001 1.8403113e-38
698.28802 2476.8201 -290.35901 1.8403113e-38
719.47498 2475.9099 -292.758 1.8403113e-38
730.10797 2475.79 -294.077 1.8403113e-38
740.44598 2471.8201 -294.047 1.8403113e-38
688.08301 2488 -292.866 1.8403113e-38
709.40997 2486.3101 -295.017 1.8403113e-38
666.87097 2496.9099 -293.189 1.8403113e-38
677.48798 2491.55 -292.72101 1.8403113e-38
623.77197 2505.1599 -290.48999 1.8403113e-38
634.59399 2502.99 -291.13501 1.8403113e-38
645.37799 2503.5801 -292.71301 1.8403113e-38
656.20203 2506.9099 -295.233 1.8403113e-38
612.83398 2510.0801 -290.76801 1.8403113e-38
568.19299 2529.8 -291.78 1.8403113e-38
579.36298 2527.1399 -292.30099 1.8403113e-38
590.62 2521.54 -291.83401 1.8403113e-38
601.59698 2520.5901 -292.914 1.8403113e-38
522.48401 2545.1799 -291.17801 1.8403113e-38
534.06 2541.01 -291.23499 1.8403113e-38
556.341 2540.8899 -294.04401 1.8403113e-38
498.98999 2554.1799 -291.242 1.8403113e-38
510.09601 2555.8799 -293.23901 1.8403113e-38
474.89999 2564.6699 -291.73599 1.8403113e-38
486.81201 2560.8899 -291.97198 1.8403113e-38
426.70401 2577.8 -290.04901 1.8403113e-38
462.21899 2573.0601 -292.97299 1.8403113e-38
413.57901 2585.76 -291.08099 1.8403113e-38
448.936 2584.1599 -295.05701 1.8403113e-38
374.09 2605.1499 -292.64099 1.8403113e-38
387.06299 2600.3601 -292.66901 1.8403113e-38
398.297 2603.8999 -295.31 1.8403113e-38
335.711 2614.1499 -290.80099 1.8403113e-38
346.987 2618.1001 -293.58899 1.8403113e-38
360.81201 2610.75 -292.85199 1.8403113e-38
320.298 2626.8301 -293.15302 1.8403113e-38
266.88101 2639.1399 -290.517 1.8403113e-38
280.604 2635.3201 -290.97 1.8403113e-38
294.237 2631.3799 -291.36899 1.8403113e-38
306.81299 2631.02 -292.85501 1.8403113e-38
252.521 2644.6799 -290.56699 1.8403113e-38
236.058 2656.5 -292.492 1.8403113e-38
192.97301 2668.1699 -290.95901 1.8403113e-38
206.929 2665.9399 -291.983 1.8403113e-38
176.739 2676.6399 -291.76999 1.8403113e-38
145.73599 2687.6499 -291.56 1.8403113e-38
161.95 2680.4099 -291.16299 1.8403113e-38
113.884 2698.96 -291.34 1.8403113e-38
131.069 2690.23 -290.561 1.8403113e-38
98.297798 2703.03 -290.73401 1.8403113e-38
64.204201 2716.95 -291.11899 1.8403113e-38
80.0522 2713.21 -291.86899 1.8403113e-38
47.112499 2723.2 -291.064 1.8403113e-38
10.5067 2739.6001 -291.97101 1.8403113e-38
-23.1098 2747.3201 -290.30499 1.8403113e-38
-4.6271601 2740.02 -290.181 1.8403113e-38
-42.1828 2755.29 -290.58401 1.8403113e-38
-139.323 2790.3301 -290.103 1.8403113e-38
-203.55499 2815.73 -290.548 1.8403113e-38
1685.41 2101.97 -288.82999 1.8403113e-38
1631.8 2118.6399 -287.65601 1.8403113e-38
1646.12 2115.46 -288.40201 1.8403113e-38
1596.99 2133.95 -288.422 1.8403113e-38
1560.6899 2146.8201 -288.168 1.8403113e-38
1549.99 2152.1299 -288.60901 1.8403113e-38
1515.75 2165.3899 -288.75 1.8403113e-38
1465.45 2176.5601 -286.12601 1.8403113e-38
1480.15 2176.1899 -287.87799 1.8403113e-38
1492.23 2172.95 -288.31699 1.8403113e-38
1442.0601 2183.03 -285.33899 1.8403113e-38
1411.11 2196.4099 -285.94299 1.8403113e-38
1435.16 2191.3401 -287.28601 1.8403113e-38
1393.26 2208.1899 -287.67499 1.8403113e-38
1404.6801 2205.21 -288.11801 1.8403113e-38
1360.27 2217.8899 -286.76099 1.8403113e-38
1372.26 2215.99 -287.647 1.8403113e-38
1381.26 2210.3301 -286.866 1.8403113e-38
1338.12 2223.54 -285.854 1.8403113e-38
1284.29 2237.6101 -283.76501 1.8403113e-38
1320.49 2234.8 -287.439 1.8403113e-38
1330.1801 2230.3401 -287.15601 1.8403113e-38
1275.67 2243.21 -284.573 1.8403113e-38
1302.6899 2245.77 -288.901 1.8403113e-38
1245.98 2254.05 -284.47101 1.8403113e-38
1264.7351 2254.6201 -287.0625 1.8403113e-38
1206.4 2267.49 -283.98901 1.8403113e-38
1214.73 2261.6499 -283.06299 1.8403113e-38
1227.95 2263.75 -285.47198 1.8403113e-38
1239.75 2263.3201 -286.83301 1.8403113e-38
1201.33 2278.96 -287.25 1.8403113e-38
1168.9301 2283.6001 -284.68799 1.8403113e-38
1109.2 2299.3799 -282.42899 1.8403113e-38
1153.52 2297.8401 -287.57199 1.8403113e-38
1163.92 2295.73 -288.181 1.8403113e-38
1090.95 2307.6299 -282.90701 1.8403113e-38
1101.27 2306.1001 -283.70599 1.8403113e-38
1121.5601 2301.9099 -284.871 1.8403113e-38
1072.9301 2316.4399 -283.60699 1.8403113e-38
1057.59 2331.9299 -286.923 1.8403113e-38
1069.12 2333.3101 -288.86899 1.8403113e-38
1030.66 2346.45 -288.427 1.8403113e-38
1041.49 2346.3501 -289.78 1.8403113e-38
991.26703 2356.5 -286.81799 1.8403113e-38
1000.52 2352.3401 -286.582 1.8403113e-38
1022.44 2353.5 -289.78 1.8403113e-38
962.164 2364.96 -285.979 1.8403113e-38
974.03601 2369.1001 -288.90701 1.8403113e-38
954.88898 2376.04 -288.82401 1.8403113e-38
915.297 2385.3401 -286.92999 1.8403113e-38
877.87201 2404.3501 -288.62399 1.8403113e-38
809.88702 2433.3999 -289.83301 1.8403113e-38
545.95398 2532 -289.68701 1.8403113e-38
439.20499 2572.5601 -289.85999 1.8403113e-38
224.317 2652.5801 -289.65601 1.8403113e-38
31.4312 2725.74 -289.923 1.8403113e-38
-57.152401 2754.3601 -288.35101 1.8403113e-38
-76.947197 2762.8201 -288.70401 1.8403113e-38
-97.380096 2771.9299 -289.19601 1.8403113e-38
-118.02 2780.8201 -289.58499 1.8403113e-38
-157.57201 2793.6299 -288.89499 1.8403113e-38
-178.302 2800.99 -288.75201 1.8403113e-38
-221.772 2817.54 -288.83499 1.8403113e-38
-241.565 2821.6799 -287.71399 1.8403113e-38
-287.16901 2838.4399 -287.59698 1.8403113e-38
-264.51599 2830.6101 -287.823 1.8403113e-38
-314.69601 2853.46 -289.194 1.8403113e-38
-339.38501 2863.21 -289.35901 1.8403113e-38
-364.30801 2872.6699 -289.396 1.8403113e-38
-411.543 2885.8401 -287.84601 1.8403113e-38
-388.918 2881.02 -289.095 1.8403113e-38
-439.88199 2898.46 -288.52399 1.8403113e-38
-466.25699 2907.54 -288.24399 1.8403113e-38
-495.14301 2919.48 -288.621 1.8403113e-38
-526.04401 2933.45 -289.431 1.8403113e-38
-554.92603 2943.8799 -289.293 1.8403113e-38
-583.47498 2953.1799 -288.811 1.8403113e-38
-614.65802 2965.24 -288.935 1.8403113e-38
-644.315 2974.5901 -288.32999 1.8403113e-38
-679.11603 2989.73 -289.04001 1.8403113e-38
-704.97998 2992.97 -286.83499 1.8403113e-38
-740.99799 3008.05 -287.36801 1.8403113e-38
-777.367 3022.6599 -287.698 1.8403113e-38
-808.96899 3030.8101 -286.43399 1.8403113e-38
-882.65399 3057.01 -285.94199 1.8403113e-38
-851.78302 3051.21 -287.914 1.8403113e-38
-926.23999 3076.3701 -286.966 1.8403113e-38
-960.284 3084.21 -285.28601 1.8403113e-38
-1010.69 3108.98 -287.284 1.8403113e-38
-1042.64 3112.96 -284.55499 1.8403113e-38
-1081.61 3123.6699 -283.22198 1.8403113e-38
-1132.62 3145.8999 -284.27301 1.8403113e-38
-1184.83 3168.1201 -285.17099 1.8403113e-38
-1225.58 3177.79 -283.25699 1.8403113e-38
-1254.5699 3175.2 -278.66699 1.8403113e-38
1640.46 2054.48 -266.89801 1.8403113e-38
-1169.22 3062.74 -251.257 1.8403113e-38
-1181.53 3045.45 -243.789 1.8403113e-38
-1190.02 3024.7 -235.633 1.8403113e-38
-1181.41 2988.5801 -224.427 1.8403113e-38
-1190.75 2969.25 -216.64301 1.8403113e-38
-1219.27 2939.54 -202.873 1.8403113e-38
-1196.14 2946.5901 -208.233 1.8403113e-38
-1340.11 2987.0701 -203.621 1.8403113e-38
-3453.55 3779.95 -203.599 1.8403113e-38
2887.3301 1370.27 -193.15601 1.8403113e-38
2889.99 1389.0699 -199.901 1.8403113e-38
1455.77 1907.6 -193.23199 1.8403113e-38
-1252.96 2941.22 -199.13901 1.8403113e-38
-1339.2 2958.4199 -193.97301 1.8403113e-38
2900.3501 1332.9301 -182.09599 1.8403113e-38
2898.3799 1351.7 -188.241 1.8403113e-38
1448.08 1891.22 -186.668 1.8403113e-38
-1371.91 2957.3799 -189.437 1.8403113e-38
-2247.22 3258.1499 -180.019 1.8403113e-38
-3445.1499 3729.3601 -187.43401 1.8403113e-38
2903.1299 1314.14 -176.048 1.8403113e-38
1464.39 1839.46 -171.11501 1.8403113e-38
1475.91 1836.49 -171.57401 1.8403113e-38
1466.865 1856.4399 -177.2155 1.8403113e-38
1437.53 1862.8101 -175.63499 1.8403113e-38
1452.28 1862.4 -177.383 1.8403113e-38
1435.4301 1871.75 -178.416 1.8403113e-38
-1337.84 2902.72 -175.168 1.8403113e-38
-2317.1101 3269.6499 -175.002 1.8403113e-38
-2426.76 3305.53 -173.20799 1.8403113e-38
-3445.6599 3684.55 -172.099 1.8403113e-38
2908.1899 1276.46 -163.854 1.8403113e-38
2900.78 1295.38 -169.355 1.8403113e-38
-1353.0699 2887.9099 -168.172 1.8403113e-38
2918.51 1238.4399 -152.218 1.8403113e-38
2908.47 1257.63 -157.476 1.8403113e-38
1450.4399 1810.9399 -159.612 1.8403113e-38
-1352.97 2835.0601 -150.17599 1.8403113e-38
-1351.61 2860.22 -158.925 1.8403113e-38
-3437.8401 3635.46 -156.37 1.8403113e-38
2917.46 1219.59 -145.66 1.8403113e-38
1407.1801 1775.5601 -142.024 1.8403113e-38
-1346.04 2804.05 -140.493 1.8403113e-38
-2286.1101 3180.8 -148.687 1.8403113e-38
-2582.4199 3294.5601 -149.569 1.8403113e-38
2923.77 1181.4 -133.453 1.8403113e-38
2915.24 1200.8199 -138.979 1.8403113e-38
1488.3199 1710.22 -130.132 1.8403113e-38
1429.13 1734.1899 -130.73199 1.8403113e-38
1399.1 1744.17 -130.295 1.8403113e-38
1394.96 1750.58 -131.94701 1.8403113e-38
1400.74 1762.75 -136.83701 1.8403113e-38
-1362.01 2790.26 -133.75101 1.8403113e-38
-2296.02 3153.26 -138.037 1.8403113e-38
-3363.0801 3549.8201 -136.743 1.8403113e-38
2932.3601 1142.79 -121.393 1.8403113e-38
2930.1399 1161.99 -127.652 1.8403113e-38
1478.99 1688.47 -121.529 1.8403113e-38
1490.36 1702.26 -127.68 1.8403113e-38
1435.35 1719.9301 -126.669 1.8403113e-38
1444.4301 1715.76 -126.409 1.8403113e-38
1456.11 1712.73 -126.87 1.8403113e-38
1475.7 1713.24 -129.547 1.8403113e-38
1402.96 1729 -125.617 1.8403113e-38
1431.42 1726.63 -128.448 1.8403113e-38
1401.49 1736.8101 -128.093 1.8403113e-38
-1414.79 2777.1001 -122.519 1.8403113e-38
-1376.26 2775.1399 -126.778 1.8403113e-38
-3337.1299 3492.76 -120.616 1.8403113e-38
2939.3601 1123.12 -115.586 1.8403113e-38
1475.46 1678.35 -117.626 1.8403113e-38
-1466.78 2762.04 -110.74 1.8403113e-38
-1469.03 2789.29 -119.739 1.8403113e-38
2937.96 1084.98 -102.411 1.8403113e-38
2939.24 1104 -109.055 1.8403113e-38
-3364.22 3464.95 -107.676 1.8403113e-38
2940.46 1065.54 -96.104202 1.8403113e-38
1415.87 1637.14 -95.964897 1.8403113e-38
1405.54 1640.66 -95.842499 1.8403113e-38
-3443.3 3464.1499 -97.294098 1.8403113e-38
2944.9299 1026.51 -83.375801 1.8403113e-38
2939.8201 1046.41 -89.502197 1.8403113e-38
2957.54 986.01703 -71.188599 1.8403113e-38
2948.8601 1006.66 -77.114403 1.8403113e-38
1428.11 1558.48 -70.725601 1.8403113e-38
1408.27 1566.89 -71.0541 1.8403113e-38
1419.13 1563.05 -71.132698 1.8403113e-38
1405.75 1573.3101 -72.9198 1.8403113e-38
1359.46 1585.72 -71.231102 1.8403113e-38
1350.4301 1596.34 -73.694603 1.8403113e-38
1347.66 1602.29 -75.367599 1.8403113e-38
-3330.5801 3363.73 -77.485001 1.8403113e-38
2956.1699 966.742 -64.444901 1.8403113e-38
1423.79 1535.54 -62.355801 1.8403113e-38
1428.13 1543.9399 -65.772003 1.8403113e-38
1429.5699 1551.61 -68.569099 1.8403113e-38
1357.9301 1564.42 -63.776798 1.8403113e-38
1359.33 1578.7 -68.821198 1.8403113e-38
1369.25 1575.22 -68.904099 1.8403113e-38
1343.14 1586.6 -69.441704 1.8403113e-38
2958.79 927.21301 -51.310001 1.8403113e-38
2962.5 946.19202 -58.250999 1.8403113e-38
1411.1801 1504.28 -50.088299 1.8403113e-38
1410.595 1514.51 -53.49995 1.8403113e-38
1416.51 1526.5 -58.342098 1.8403113e-38
-3192.3101 3253.1699 -57.487099 1.8403113e-38
2962.77 906.86499 -44.884602 1.8403113e-38
1732.67 1364.64 -43.606098 1.8403113e-38
1420.33 1478.83 -42.585201 1.8403113e-38
1435.5 1474.91 -43.188801 1.8403113e-38
1410.92 1483.71 -43.047901 1.8403113e-38
1407.33 1496.54 -46.9589 1.8403113e-38
1412.03 1490.76 -45.5905 1.8403113e-38
-3219.21 3227.0801 -45.158298 1.8403113e-38
2973.0901 865.34497 -32.054401 1.8403113e-38
2969.5 885.88 -38.593601 1.8403113e-38
1420.27 1444.98 -31.042 1.8403113e-38
1419.83 1451.62 -33.249199 1.8403113e-38
1432.595 1464 -39.101051 1.8403113e-38
-3227.8999 3192 -32.0909 1.8403113e-38
2965.72 846.94598 -24.8424 1.8403113e-38
1502.14 1384.76 -20.9909 1.8403113e-38
1450.12 1401.45 -20.026699 1.8403113e-38
1459.77 1416.21 -26.2911 1.8403113e-38
1467.75 1410.12 -25.2355 1.8403113e-38
1454.085 1425.91 -28.86875 1.8403113e-38
1423.5699 1438.77 -29.349899 1.8403113e-38
1430.72 1433.0699 -28.3211 1.8403113e-38
2976.8101 804.58301 -11.8239 1.8403113e-38
2971.8501 825.71698 -18.392799 1.8403113e-38
1522.23 1364.11 -16.522699 1.8403113e-38
1507.7949 1374.3 -18.148449 1.8403113e-38
1474.65 1389.8 -19.191299 1.8403113e-38
1459.9399 1395.51 -19.2563 1.8403113e-38
-3232.6101 3155.1799 -18.941 1.8403113e-38
2981.55 783.34302 -5.19278 1.8403113e-38
-3231.5 3115.8799 -5.6917701 1.8403113e-38
3000.1201 738.14001 7.8379598 1.8403113e-38
2986.0901 761.99902 1.50027 1.8403113e-38
-3224.51 3074.24 7.6022601 1.8403113e-38
3020.6599 712.276 14.0249 1.8403113e-38
-3254.54 3049.4099 19.905001 1.8403113e-38
3018.51 671.12097 28.3251 1.8403113e-38
3017.75 692.22101 21.2313 1.8403113e-38
3024.8201 648.336 35.281898 1.8403113e-38
-3284.3899 3024.1899 32.315899 1.8403113e-38
3039.6299 601.48499 49.354301 1.8403113e-38
3028.03 626.25598 42.396099 1.8403113e-38
-3283.6599 2985.74 45.326199 1.8403113e-38
3040.46 579.75299 56.653801 1.8403113e-38
-3298.24 2953.8899 58.042999 1.8403113e-38
3043.9399 557.052 63.9454 1.8403113e-38
3047.3501 512.32001 78.752899 1.8403113e-38
3046.23 534.56598 71.314903 1.8403113e-38
-3365.3799 2943.23 70.259399 1.8403113e-38
3048.24 490.01199 86.240898 1.8403113e-38
-3434.4299 2932.3 82.812897 1.8403113e-38
3051.73 466.63501 93.760498 1.8403113e-38
-5044.5098 3512.95 90.7985 1.8403113e-38
3140.3799 388.65701 108.999 1.8403113e-38
3140.4399 411.88699 101.075 1.8403113e-38
-5051.9902 3462.3501 108.999 1.8403113e-38
