# .PCD v0.7 - Point Cloud Data file format
VERSION 0.7
FIELDS x y z rgb
SIZE 4 4 4 4
TYPE F F F F
COUNT 1 1 1 1
WIDTH 343
HEIGHT 1
VIEWPOINT 0 0 0 1 0 0 0
POINTS 343
DATA ascii
-231.86501 71.5681 -280.20599 1.8403113e-38
-138.42101 149.439 -281.134 1.8403113e-38
-95.227798 184.55 -281.80499 1.8403113e-38
-51.521599 228.114 -280.27802 1.8403113e-38
-12.356 259.16599 -281.10199 1.8403113e-38
26.0543 292.867 -281.01901 1.8403113e-38
62.8829 325.36099 -280.88901 1.8403113e-38
98.696602 359.48801 -280.069 1.8403113e-38
131.12801 379.81799 -282.23001 1.8403113e-38
139.72099 390.78699 -281.26999 1.8403113e-38
163.33501 404.57199 -283.12299 1.8403113e-38
172.366 421.46899 -280.63901 1.8403113e-38
194.442 427.95401 -284.13 1.8403113e-38
203.077 444.991 -281.51199 1.8403113e-38
225.564 460.55399 -282.608 1.8403113e-38
233.49699 474.828 -280.582 1.8403113e-38
255.319 490.771 -281.414 1.8403113e-38
262.009 493.57501 -282.242 1.8403113e-38
283.194 507.94601 -283.354 1.8403113e-38
290.20901 518.59003 -282.10599 1.8403113e-38
310.487 525.57898 -285.02899 1.8403113e-38
317.285 537.297 -283.43399 1.8403113e-38
337.59299 559.10498 -282.29401 1.8403113e-38
343.88101 563.198 -282.672 1.8403113e-38
363.38 572.77301 -284.698 1.8403113e-38
369.582 584.68402 -282.90799 1.8403113e-38
388.685 591.677 -285.54901 1.8403113e-38
394.59601 604.63898 -283.401 1.8403113e-38
413.14301 619.63397 -283.711 1.8403113e-38
419.017 623.052 -284.17599 1.8403113e-38
443.035 637.99597 -285.80701 1.8403113e-38
437.01199 640.25098 -283.74899 1.8403113e-38
460.814 651.63098 -286.30801 1.8403113e-38
466.01599 661.93701 -284.72 1.8403113e-38
484.05499 666.25897 -287.84 1.8403113e-38
488.70801 680.46002 -285.05099 1.8403113e-38
506.48099 685.06 -288.03201 1.8403113e-38
511.702 690.73199 -287.72101 1.8403113e-38
528.65802 701.32703 -288.86099 1.8403113e-38
532.81403 714.67798 -286.186 1.8403113e-38
549.45697 724.55603 -287.448 1.8403113e-38
554.745 727.52502 -287.89499 1.8403113e-38
569.23999 749.93903 -285.20001 1.8403113e-38
573.50201 758.64203 -283.828 1.8403113e-38
590.31799 763.31799 -286.55899 1.8403113e-38
594.229 773.01599 -284.82901 1.8403113e-38
609.961 782.63397 -285.94501 1.8403113e-38
614.73499 786.75598 -285.953 1.8403113e-38
629.61499 799.40503 -286.03201 1.8403113e-38
634.47101 802.659 -286.298 1.8403113e-38
649.21399 814.58398 -286.54401 1.8403113e-38
651.396 829.03497 -283.09601 1.8403113e-38
667.03198 835.578 -285.03299 1.8403113e-38
670.98102 841.72803 -284.28699 1.8403113e-38
687.23499 855.74048 -284.32001 1.8403113e-38
703.677 868.11102 -284.84799 1.8403113e-38
704.68701 883.47198 -280.871 1.8403113e-38
718.70502 893.35797 -281.50299 1.8403113e-38
723.29797 896.00201 -281.87399 1.8403113e-38
736.78699 906.99298 -282.07599 1.8403113e-38
742.79602 905.20203 -284.004 1.8403113e-38
755.97998 924.505 -281.84998 1.8403113e-38
773.80054 937.32153 -282.58551 1.8403113e-38
788.99597 949.38599 -282.901 1.8403113e-38
791.92297 955.80603 -281.83701 1.8403113e-38
804.992 965.73602 -282.23001 1.8403113e-38
807.052 973.93201 -280.47101 1.8403113e-38
823.02148 982.91602 -281.81702 1.8403113e-38
839.62201 990.39801 -283.72699 1.8403113e-38
842.54303 996.05103 -282.87201 1.8403113e-38
855.10498 1011.915 -281.51401 1.8403113e-38
867.73199 1027.05 -280.37399 1.8403113e-38
872.07397 1029.37 -280.772 1.8403113e-38
884.341 1039.3 -280.97601 1.8403113e-38
892.14398 1035.02 -284.01501 1.8403113e-38
903.27747 1052.1951 -281.9545 1.8403113e-38
916.81799 1064.54 -281.79901 1.8403113e-38
936.336 1080.91 -281.965 1.8403113e-38
1864.9301 1894.22 -280.341 1.8403113e-38
1886.98 1912.5699 -280.56601 1.8403113e-38
1894.5699 1918.49 -280.754 1.8403113e-38
2017.21 2024.9301 -280.80701 1.8403113e-38
2086.6799 2084.45 -281.04999 1.8403113e-38
2729.5701 2645.05 -280.60699 1.8403113e-38
2802.4099 2708.3701 -280.60999 1.8403113e-38
2962.7 2848.75 -280.33301 1.8403113e-38
3056.4099 2928.6201 -280.77499 1.8403113e-38
-733.40997 -352.89301 -277.013 1.8403113e-38
-448.09799 -104.08 -276.81 1.8403113e-38
-432.203 -88.556 -276.34201 1.8403113e-38
-389.95801 -57.542301 -277.91299 1.8403113e-38
-372.54099 -36.135399 -276.19299 1.8403113e-38
-331.966 -5.1080298 -277.36099 1.8403113e-38
-316.45901 12.9302 -276.10901 1.8403113e-38
-281.50201 31.7724 -279.28299 1.8403113e-38
-263.74701 58.5191 -276.17599 1.8403113e-38
-215.058 97.701897 -277.04199 1.8403113e-38
-181.51601 119.911 -278.952 1.8403113e-38
-165.392 146.35899 -275.539 1.8403113e-38
-123.159 175.22 -277.698 1.8403113e-38
-81.060997 208.69901 -278.556 1.8403113e-38
-41.102402 239.18401 -279.72601 1.8403113e-38
-0.62081897 278.06601 -278.71399 1.8403113e-38
36.7355 309.09698 -279.112 1.8403113e-38
72.267097 336.978 -279.94 1.8403113e-38
108.353 375.11499 -278.08301 1.8403113e-38
917.73102 1072.78 -279.755 1.8403113e-38
928.836 1083.99 -279.32599 1.8403113e-38
943.32898 1098.73 -278.73999 1.8403113e-38
947.38501 1101.35 -278.98801 1.8403113e-38
959.53998 1110.48 -279.383 1.8403113e-38
962.01099 1115.54 -278.58401 1.8403113e-38
976.73602 1125.04 -279.491 1.8403113e-38
989.72302 1137.0699 -279.28699 1.8403113e-38
992.54401 1141.42 -278.767 1.8403113e-38
1004.695 1154.4099 -278.10052 1.8403113e-38
1015.48 1169.04 -276.659 1.8403113e-38
1022.1 1168.2 -278.46899 1.8403113e-38
1032.1801 1179.6899 -277.724 1.8403113e-38
1033 1186.35 -276.09 1.8403113e-38
1046.97 1192.8199 -277.646 1.8403113e-38
1051.84 1194.4 -278.37601 1.8403113e-38
1066.36 1207.84 -278.15201 1.8403113e-38
1057.87 1210.49 -275.39801 1.8403113e-38
1080.17 1214.83 -279.53101 1.8403113e-38
1080.65 1221.51 -277.81 1.8403113e-38
1095.16 1231.37 -278.5665 1.8403113e-38
1111.29 1243.095 -279.19901 1.8403113e-38
1124.5601 1254.46 -279.24799 1.8403113e-38
1124.03 1261.8 -277.103 1.8403113e-38
1140.72 1266.4 -279.82599 1.8403113e-38
1138.04 1275.7 -276.63199 1.8403113e-38
1152.8999 1285.525 -277.48248 1.8403113e-38
1168.37 1294.98 -278.57901 1.8403113e-38
1169.55 1300.39 -277.37701 1.8403113e-38
1183.96 1307.74 -278.79599 1.8403113e-38
1185.05 1313.17 -277.56699 1.8403113e-38
1197.9301 1322.02 -278.21399 1.8403113e-38
1200.38 1326.25 -277.63501 1.8403113e-38
1216.0601 1332.96 -279.53699 1.8403113e-38
1214.05 1340.8 -276.905 1.8403113e-38
1229.64 1347.78 -278.70901 1.8403113e-38
1235.6801 1349.23 -279.755 1.8403113e-38
1245.995 1363.62 -278.26648 1.8403113e-38
1256.85 1377.5699 -277.026 1.8403113e-38
1262.09 1379.78 -277.67099 1.8403113e-38
1269.71 1393.08 -275.83701 1.8403113e-38
1275.7 1394.85 -276.78101 1.8403113e-38
1283.11 1408.29 -274.85901 1.8403113e-38
1293 1407.5601 -277.42401 1.8403113e-38
1302.8149 1422.4399 -275.67902 1.8403113e-38
1319.63 1432.97 -276.802 1.8403113e-38
1323.16 1436.59 -276.65201 1.8403113e-38
1329.1801 1451.01 -274.12701 1.8403113e-38
1337.53 1451.8101 -275.905 1.8403113e-38
1346.62 1464.49 -274.58899 1.8403113e-38
1350.04 1468.24 -274.37701 1.8403113e-38
1362.24 1479.28 -274.26001 1.8403113e-38
1368.95 1481.3101 -275.30399 1.8403113e-38
1381.86 1495.05 -274.61249 1.8403113e-38
1397.15 1507.77 -274.772 1.8403113e-38
1399.58 1512.1801 -274.13901 1.8403113e-38
1413.0699 1523.24 -274.323 1.8403113e-38
1420.59 1525.3 -275.55399 1.8403113e-38
1431.38 1537.91 -274.66901 1.8403113e-38
1437.15 1540.9 -275.22501 1.8403113e-38
1447.78 1553.78 -274.22699 1.8403113e-38
1452.65 1557.27 -274.42899 1.8403113e-38
1458.7 1572.2 -271.77301 1.8403113e-38
1476.74 1570.42 -276.569 1.8403113e-38
1488.83 1583.22 -275.94101 1.8403113e-38
1493.63 1586.98 -276.056 1.8403113e-38
1506.45 1599.75 -275.60901 1.8403113e-38
1511.2 1603.62 -275.67999 1.8403113e-38
1523.86 1616.72 -275.10501 1.8403113e-38
1534.87 1618.54 -277.23599 1.8403113e-38
1546.48 1632.35 -276.21701 1.8403113e-38
1550.23 1636.77 -275.89899 1.8403113e-38
1560.74 1651.14 -274.45999 1.8403113e-38
1574.48 1652.59 -277.34399 1.8403113e-38
1586.66 1666.8199 -276.345 1.8403113e-38
1593.98 1670.41 -277.10501 1.8403113e-38
1602.27 1685.99 -274.80701 1.8403113e-38
1603.99 1691.21 -273.78201 1.8403113e-38
1625.04 1703.6899 -275.383 1.8403113e-38
1643.4399 1704.88 -279.45001 1.8403113e-38
1647.61 1722.05 -275.73001 1.8403113e-38
1659.47 1725.11 -277.72198 1.8403113e-38
1670.89 1740.85 -276.12601 1.8403113e-38
1689.3101 1742.8199 -279.98599 1.8403113e-38
1693.9399 1760.33 -276.27899 1.8403113e-38
1703.86 1764.3 -277.55899 1.8403113e-38
1715.79 1780.65 -275.91699 1.8403113e-38
1724.72 1785.02 -276.849 1.8403113e-38
1746.89 1800.11 -277.99899 1.8403113e-38
1756.73 1804.59 -279.11801 1.8403113e-38
1774.5349 1824.0249 -278.034 1.8403113e-38
1792.1 1843.9 -276.76999 1.8403113e-38
1802.79 1848.75 -277.98999 1.8403113e-38
1813.77 1866.85 -275.638 1.8403113e-38
1833.04 1871.09 -279.07901 1.8403113e-38
1844.73 1889.62 -276.77899 1.8403113e-38
1901.84 1938.3 -277.04901 1.8403113e-38
1912.24 1944.25 -277.89801 1.8403113e-38
1931.79 1963.92 -277.16599 1.8403113e-38
1949.88 1969.9301 -279.83401 1.8403113e-38
1958.46 1990.55 -276.21799 1.8403113e-38
1976.46 1996.97 -278.755 1.8403113e-38
2000.26 2018.04 -278.65201 1.8403113e-38
2033.87 2046.78 -278.78601 1.8403113e-38
2041.95 2053.8899 -278.763 1.8403113e-38
2056.3101 2076.24 -276.05301 1.8403113e-38
2096.77 2107.3899 -277.15799 1.8403113e-38
2112.4099 2115.46 -278.677 1.8403113e-38
2130.8701 2139.49 -276.48499 1.8403113e-38
2154.1799 2148.54 -279.565 1.8403113e-38
2168.3301 2173.0801 -276.20599 1.8403113e-38
2189.54 2182.5 -278.685 1.8403113e-38
2212.99 2208.73 -277.078 1.8403113e-38
2226.26 2217.8501 -277.742 1.8403113e-38
2248.26 2244.8401 -275.58499 1.8403113e-38
2270.1299 2255.4399 -277.896 1.8403113e-38
2297.46 2284.1799 -276.53 1.8403113e-38
2323.03 2295.9099 -279.41299 1.8403113e-38
2335.26 2323.53 -274.74899 1.8403113e-38
2364.51 2336.48 -278.17499 1.8403113e-38
2388.79 2367.0601 -275.578 1.8403113e-38
2417.8101 2380.74 -278.74899 1.8403113e-38
2433.75 2410.95 -274.258 1.8403113e-38
2467.3501 2426.27 -278.07501 1.8403113e-38
2494.24 2459.8401 -275.27499 1.8403113e-38
2524.6699 2475.3799 -278.276 1.8403113e-38
2551.8201 2510.3999 -275.13901 1.8403113e-38
2588.6799 2528.26 -279.03699 1.8403113e-38
2618.8999 2565.5601 -276.01001 1.8403113e-38
2653.51 2583.8601 -279.24799 1.8403113e-38
2681.96 2622.3201 -275.48099 1.8403113e-38
2759.04 2685.5701 -276.51501 1.8403113e-38
2829.04 2749.8401 -275.57999 1.8403113e-38
2874.8101 2774.55 -279.72299 1.8403113e-38
2915.55 2822.27 -276.345 1.8403113e-38
3003.23 2898.71 -276.289 1.8403113e-38
3087.28 2977.6001 -274.69299 1.8403113e-38
3137.05 3007.78 -278.29001 1.8403113e-38
3177.8501 3062.6101 -272.97501 1.8403113e-38
3239.0701 3098.6101 -277.70801 1.8403113e-38
3278.4299 3155.5701 -271.46301 1.8403113e-38
3351.8201 3198.1899 -277.284 1.8403113e-38
-460.59799 -57.2771 -260.97 1.8403113e-38
3367.5901 3248.3501 -267.272 1.8403113e-38
-720.146 -249.13901 -251.683 1.8403113e-38
-620.91699 -135.216 -244.09 1.8403113e-38
-434.54401 30.678101 -243.034 1.8403113e-38
3199.8301 3192.5901 -242.526 1.8403113e-38
-684.302 -152.603 -233.728 1.8403113e-38
-451.91901 59.894199 -230.86 1.8403113e-38
-457.31799 69.226501 -227.007 1.8403113e-38
-491.45599 80.0672 -215.877 1.8403113e-38
-478.21701 88.702103 -216.66701 1.8403113e-38
3049.26 3169.6201 -212.87199 1.8403113e-38
3011.3 3165.8101 -204.853 1.8403113e-38
3008.73 3204.3301 -193.661 1.8403113e-38
-574.495 133.062 -181.49001 1.8403113e-38
2996.1899 3211.3301 -188.744 1.8403113e-38
2982.1201 3244.7 -176.218 1.8403113e-38
2970.3501 3251.8601 -171.44099 1.8403113e-38
3392.55 3625.4099 -169.67 1.8403113e-38
3378.5601 3633.3601 -164.14301 1.8403113e-38
-518.841 261.04999 -159.627 1.8403113e-38
2957.51 3285.73 -159.07001 1.8403113e-38
2961.6699 3300.6299 -155.972 1.8403113e-38
3397.49 3692.6499 -152.379 1.8403113e-38
3423.3101 3722.8799 -150.242 1.8403113e-38
-648.16803 216.94 -140.85699 1.8403113e-38
-587.89697 271.98599 -140.132 1.8403113e-38
-529.65302 310.849 -143.367 1.8403113e-38
2971.21 3346.1899 -145.739 1.8403113e-38
3006.02 3377.29 -145.508 1.8403113e-38
-651.60797 227.666 -137.09 1.8403113e-38
-563.56097 299.75201 -138.317 1.8403113e-38
-489.401 370.70001 -136.541 1.8403113e-38
-1740.77 -675.65503 -125.089 1.8403113e-38
-659.44897 265.52899 -124.818 1.8403113e-38
-662.56201 276.25201 -121.129 1.8403113e-38
-1746.71 -661.21002 -119.701 1.8403113e-38
-788.84399 204.105 -110.787 1.8403113e-38
-776.60303 207.265 -112.842 1.8403113e-38
-706.646 268.978 -112.599 1.8403113e-38
-697.38898 268.30301 -114.995 1.8403113e-38
-818.07501 208.96201 -102.472 1.8403113e-38
3120.0701 3613.1001 -107.974 1.8403113e-38
-825.45898 213.509 -99.459602 1.8403113e-38
-851.87201 223.05901 -90.528397 1.8403113e-38
3062.1799 3624.6799 -90.970703 1.8403113e-38
-864.84497 219.554 -88.392998 1.8403113e-38
3051.73 3632.9199 -86.212402 1.8403113e-38
-884.59198 253.993 -74.217903 1.8403113e-38
-874.51398 253.252 -76.828201 1.8403113e-38
3021.04 3659.79 -71.501701 1.8403113e-38
-920.06897 266.203 -62.391602 1.8403113e-38
-907.03601 269.28101 -64.658798 1.8403113e-38
3013.01 3669.3701 -66.953903 1.8403113e-38
-989.38702 234.79601 -54.463501 1.8403113e-38
-971.276 243.85001 -56.301899 1.8403113e-38
3001.23 3707.96 -53.541 1.8403113e-38
2988.8201 3714.6899 -48.728298 1.8403113e-38
-1158.58 145.05701 -38.7062 1.8403113e-38
2982.97 3757.49 -35.574501 1.8403113e-38
2985.3201 3774.0801 -31.58 1.8403113e-38
3360.6499 4081.3201 -36.826698 1.8403113e-38
3355.0601 4094.98 -31.7397 1.8403113e-38
-1163.6 186.02901 -26.253599 1.8403113e-38
-1164.53 199.634 -22.294001 1.8403113e-38
3300.99 4111.9102 -14.1798 1.8403113e-38
-1162.55 247.20599 -9.7006702 1.8403113e-38
-1152.5601 272.73599 -5.0732498 1.8403113e-38
3279.8401 4114.23 -8.4883404 1.8403113e-38
-1144.47 325 7.3484702 1.8403113e-38
3215.3501 4121.9399 9.0292797 1.8403113e-38
-1113.71 372.41 13.025 1.8403113e-38
3200.6899 4128.48 14.327 1.8403113e-38
-1920.4 -279.99301 26.485901 1.8403113e-38
-1899.23 -276.927 22.2701 1.8403113e-38
-1132.01 406.198 26.6754 1.8403113e-38
-1114.65 412.03101 24.130301 1.8403113e-38
-1161.88 414.754 36.159901 1.8403113e-38
3118.1799 4120.5098 31.8421 1.8403113e-38
3121.77 4140.6099 36.504601 1.8403113e-38
3117.3 4192.1899 51.741501 1.8403113e-38
-1018.8 656.203 68.304901 1.8403113e-38
-2818.46 -901.474 70.259399 1.8403113e-38
-2799.6599 -861.29303 76.805901 1.8403113e-38
-999.07599 686.04199 71.791199 1.8403113e-38
-1042.76 688.14001 82.798897 1.8403113e-38
-1025.09 694.22498 80.251297 1.8403113e-38
1857.86 3202.49 80.683998 1.8403113e-38
1692.34 3097.22 91.2976 1.8403113e-38
1688.0699 3102.4399 93.752701 1.8403113e-38
-1072.37 736.77698 103.23 1.8403113e-38
-1063.15 755.04797 106.047 1.8403113e-38
1692.04 3133.5901 101.359 1.8403113e-38
1689.13 3140.1101 103.842 1.8403113e-38
1691.61 3170.8601 111.699 1.8403113e-38
