# .PCD v0.7 - Point Cloud Data file format
VERSION 0.7
FIELDS x y z rgb
SIZE 4 4 4 4
TYPE F F F F
COUNT 1 1 1 1
WIDTH 357
HEIGHT 1
VIEWPOINT 0 0 0 1 0 0 0
POINTS 357
DATA ascii
321.98901 523.00403 -290.68799 1.8403113e-38
457.24399 617.784 -291.612 1.8403113e-38
480.332 628.84399 -293.27899 1.8403113e-38
524.526 662.49799 -292.789 1.8403113e-38
566.47498 698.35901 -291.17001 1.8403113e-38
-390.056 38.470402 -281.56699 1.8403113e-38
-336.91199 77.249901 -281.47601 1.8403113e-38
-311.48199 96.743401 -281.15701 1.8403113e-38
-288.41501 108.925 -282.48901 1.8403113e-38
-265.02701 125.265 -282.66299 1.8403113e-38
-241.84 139.774 -283.33401 1.8403113e-38
-219.715 154.74699 -283.642 1.8403113e-38
-193.649 179.925 -281.78201 1.8403113e-38
-173.11099 192.58701 -282.43201 1.8403113e-38
-152.37 204.33 -283.397 1.8403113e-38
-132.61 216.466 -284.03699 1.8403113e-38
-108.389 241.70599 -281.76501 1.8403113e-38
-90.309799 250.50999 -283.02802 1.8403113e-38
-70.347603 264.017 -283.306 1.8403113e-38
-51.109798 278.815 -283.04901 1.8403113e-38
-30.186199 298.36499 -281.75101 1.8403113e-38
-12.7501 308.82501 -282.38901 1.8403113e-38
5.1900301 319.319 -283.12399 1.8403113e-38
22.228001 330.10599 -283.57999 1.8403113e-38
40.623501 344.728 -283.19601 1.8403113e-38
57.0154 354.88599 -283.69901 1.8403113e-38
75.100502 370.797 -282.86801 1.8403113e-38
91.638901 384.117 -282.47101 1.8403113e-38
107.143 389.87601 -284.082 1.8403113e-38
122.563 399.673 -284.48499 1.8403113e-38
139.467 415.26099 -283.49701 1.8403113e-38
154.479 425.336 -283.73099 1.8403113e-38
170.86 441.22 -282.54401 1.8403113e-38
185.45799 451.56299 -282.60999 1.8403113e-38
199.194 452.40201 -285.29501 1.8403113e-38
213.629 463.95001 -284.97101 1.8403113e-38
229.076 480.37799 -283.42499 1.8403113e-38
242.633 488.33499 -283.97198 1.8403113e-38
256.38599 493.49899 -285.38501 1.8403113e-38
269.418 498.802 -286.603 1.8403113e-38
283.39301 509.00201 -286.578 1.8403113e-38
296.27399 515.48602 -287.41599 1.8403113e-38
310.17899 529.758 -286.17599 1.8403113e-38
335.771 541.34003 -288.22299 1.8403113e-38
348.46701 555.92999 -286.63199 1.8403113e-38
361.366 565.83002 -286.466 1.8403113e-38
373.34299 569.091 -288.061 1.8403113e-38
386.02802 583.995 -286.37399 1.8403113e-38
397.83099 592.24701 -286.45999 1.8403113e-38
410.121 592.95502 -288.875 1.8403113e-38
421.72101 601.396 -288.862 1.8403113e-38
433.83301 607.09698 -289.76599 1.8403113e-38
444.918 624.33099 -287.05099 1.8403113e-38
467.67801 640.91302 -287.01999 1.8403113e-38
489.905 657.83698 -286.77499 1.8403113e-38
501.49701 661.22101 -288.25101 1.8403113e-38
512.15997 668.42902 -288.40201 1.8403113e-38
545.03198 686.90997 -289.96899 1.8403113e-38
532.93701 690.75598 -286.254 1.8403113e-38
555.05902 696.32898 -289.332 1.8403113e-38
575.09198 716.41199 -287.68701 1.8403113e-38
585.21198 726.13599 -286.98001 1.8403113e-38
595.83502 728.302 -288.60901 1.8403113e-38
606.03497 736.297 -288.42801 1.8403113e-38
615.09003 747.05499 -287.189 1.8403113e-38
624.85303 756.12 -286.60101 1.8403113e-38
635.052 759.53302 -287.771 1.8403113e-38
644.59302 768.73798 -287.09399 1.8403113e-38
654.07703 775.08801 -287.246 1.8403113e-38
663.36902 784.42102 -286.47699 1.8403113e-38
672.65802 790.901 -286.54901 1.8403113e-38
681.698 800.35498 -285.69101 1.8403113e-38
690.32599 808.79797 -285.04401 1.8403113e-38
704.76245 817.15247 -285.66199 1.8403113e-38
718.54498 827.474 -285.56 1.8403113e-38
725.96002 838.87201 -283.78299 1.8403113e-38
735.60999 844.13202 -284.29099 1.8403113e-38
742.73999 855.61298 -282.42801 1.8403113e-38
753.664 856.50299 -284.49799 1.8403113e-38
763.82898 858.21503 -286.16199 1.8403113e-38
772.64203 865.55902 -285.87799 1.8403113e-38
778.36603 879.90002 -282.87201 1.8403113e-38
786.92401 887.33502 -282.50601 1.8403113e-38
797.56201 887.56598 -284.70901 1.8403113e-38
806.67297 893.37799 -284.94 1.8403113e-38
814.90503 899.93701 -284.763 1.8403113e-38
823.87903 905.88098 -284.92599 1.8403113e-38
832.32599 911.68597 -285.017 1.8403113e-38
838.94397 922.96002 -283.10599 1.8403113e-38
847.97498 927.14203 -283.79999 1.8403113e-38
856.26703 934.19098 -283.492 1.8403113e-38
865.99597 936.80103 -284.79901 1.8403113e-38
874.966 942.27698 -285.099 1.8403113e-38
879.33698 956.07202 -281.965 1.8403113e-38
891.46399 954.89899 -284.89899 1.8403113e-38
897.26501 965.37903 -283.047 1.8403113e-38
905.09198 972.76801 -282.539 1.8403113e-38
915.04199 974.98297 -284.01001 1.8403113e-38
922.74402 982.49701 -283.43799 1.8403113e-38
930.38397 988.99298 -283.15399 1.8403113e-38
938.38397 995.78998 -282.85699 1.8403113e-38
947.29901 999.95001 -283.534 1.8403113e-38
952.30499 1011.73 -281.13 1.8403113e-38
961.10303 1016 -281.74701 1.8403113e-38
967.33099 1025.42 -280.29999 1.8403113e-38
977.53302 1027.4399 -281.88199 1.8403113e-38
985.62402 1033.78 -281.73901 1.8403113e-38
1000.69 1047.16 -281.01001 1.8403113e-38
1007.13 1054.96 -280.08499 1.8403113e-38
1023.95 1065.5699 -280.54599 1.8403113e-38
1033.33 1069.99 -281.245 1.8403113e-38
1042.28 1074.21 -281.914 1.8403113e-38
1048.79 1082.55 -280.84201 1.8403113e-38
1056.53 1088.4 -280.76901 1.8403113e-38
1066.35 1092.4 -281.68799 1.8403113e-38
1072.84 1099.86 -280.87299 1.8403113e-38
1084.38 1101.83 -282.755 1.8403113e-38
1098.6801 1115.92 -281.65302 1.8403113e-38
1103.7 1125.02 -280.04199 1.8403113e-38
1112.71 1130.21 -280.43399 1.8403113e-38
1133.4399 1137.05 -282.84 1.8403113e-38
1147.0699 1151.87 -281.38101 1.8403113e-38
1155.5601 1157.15 -281.63599 1.8403113e-38
1167.01 1160.16 -283.19299 1.8403113e-38
1174.13 1166.96 -282.70901 1.8403113e-38
1178.87 1176.8 -280.819 1.8403113e-38
1189.24 1180.42 -281.965 1.8403113e-38
1196.54 1187.74 -281.36401 1.8403113e-38
1203.4399 1194.77 -280.763 1.8403113e-38
1210.62 1202.21 -280.10199 1.8403113e-38
1223.01 1204.3199 -282.125 1.8403113e-38
1239.66 1216.76 -282.01199 1.8403113e-38
1253.99 1231.34 -280.772 1.8403113e-38
1264.51 1236.22 -281.57901 1.8403113e-38
1288.64 1256.01 -280.89401 1.8403113e-38
1304.62 1269.73 -280.26001 1.8403113e-38
1339.9 1295.42 -280.215 1.8403113e-38
1394.5 1335.05 -280.185 1.8403113e-38
1512.23 1419.1 -280.534 1.8403113e-38
1543.3199 1441.95 -280.431 1.8403113e-38
1564.64 1457.3101 -280.452 1.8403113e-38
1597.54 1480.61 -280.604 1.8403113e-38
1808.29 1631.67 -281.052 1.8403113e-38
1837.73 1651.5601 -281.47101 1.8403113e-38
1875.66 1683.7 -280.08899 1.8403113e-38
1958.76 1739.09 -281.495 1.8403113e-38
1970.85 1751.04 -280.55301 1.8403113e-38
2010.38 1774.5699 -282.05099 1.8403113e-38
2044.76 1799.77 -281.96301 1.8403113e-38
2072.97 1826.4301 -280.12299 1.8403113e-38
2115.3899 1853.23 -281.272 1.8403113e-38
-695.34802 -170.873 -278.12701 1.8403113e-38
-626.07501 -121.965 -278.49301 1.8403113e-38
-576.12 -63.081799 -271.79501 1.8403113e-38
-434.42899 24.3006 -276.27399 1.8403113e-38
-413.535 29.160801 -279.29999 1.8403113e-38
-359.79999 67.397797 -279.496 1.8403113e-38
990.15302 1044.63 -279.50699 1.8403113e-38
1014.42 1062.3 -279.47699 1.8403113e-38
1085.98 1115.21 -279.151 1.8403113e-38
1119.4399 1137.27 -279.789 1.8403113e-38
1134.99 1149.79 -279.41599 1.8403113e-38
1224.45 1216.91 -278.72101 1.8403113e-38
1243.78 1226.95 -279.888 1.8403113e-38
1267.34 1246.74 -279.07999 1.8403113e-38
1276.3 1252.97 -279.15799 1.8403113e-38
1289.28 1268.73 -277.28201 1.8403113e-38
1310.4 1278.58 -278.88599 1.8403113e-38
1316.5601 1286.51 -277.862 1.8403113e-38
1328.38 1291.09 -279.03201 1.8403113e-38
1340.73 1307.7 -276.771 1.8403113e-38
1353.76 1311.1801 -278.52802 1.8403113e-38
1358.36 1320.9 -276.642 1.8403113e-38
1375.37 1322.11 -279.918 1.8403113e-38
1376.64 1333.99 -276.686 1.8403113e-38
1397.23 1346.03 -277.53 1.8403113e-38
1405.3 1353.22 -277.134 1.8403113e-38
1413.61 1360.9301 -276.633 1.8403113e-38
1425.72 1365.97 -277.73401 1.8403113e-38
1431.45 1375.27 -276.215 1.8403113e-38
1445.2 1379.66 -277.853 1.8403113e-38
1452.49 1388.24 -276.88101 1.8403113e-38
1468.76 1391.65 -279.34698 1.8403113e-38
1475.98 1400.46 -278.29001 1.8403113e-38
1487.14 1406.78 -278.81 1.8403113e-38
1494.24 1415.77 -277.67499 1.8403113e-38
1517.52 1429.12 -278.70499 1.8403113e-38
1531.17 1434.8199 -279.94199 1.8403113e-38
1547.29 1452.12 -278.28101 1.8403113e-38
1572.02 1466.2 -279.40701 1.8403113e-38
1576.9 1476.73 -277.34601 1.8403113e-38
1599.61 1492.36 -277.58401 1.8403113e-38
1614.85 1498.67 -278.974 1.8403113e-38
1619.45 1509.5601 -276.74899 1.8403113e-38
1631.91 1517.15 -277.16901 1.8403113e-38
1643.63 1525.75 -277.13599 1.8403113e-38
1656.9301 1533.38 -277.72198 1.8403113e-38
1668.5699 1542.3199 -277.57199 1.8403113e-38
1681.79 1550.3101 -278.03699 1.8403113e-38
1692.41 1559.86 -277.48999 1.8403113e-38
1707.4 1567.6801 -278.384 1.8403113e-38
1716.0601 1578.0601 -277.17099 1.8403113e-38
1730.97 1586.26 -277.935 1.8403113e-38
1749.76 1594.3 -279.57599 1.8403113e-38
1761.8 1603.66 -279.38599 1.8403113e-38
1774.9 1613.55 -279.26599 1.8403113e-38
1787.77 1623.04 -279.21301 1.8403113e-38
1810.67 1643.77 -277.98999 1.8403113e-38
1842.79 1663.33 -279.07901 1.8403113e-38
1855.52 1674.4 -278.535 1.8403113e-38
1886.35 1695.52 -278.88599 1.8403113e-38
1898.72 1706.5601 -278.27301 1.8403113e-38
1908.28 1718.84 -276.69299 1.8403113e-38
1930.11 1728.9 -278.38599 1.8403113e-38
1982.02 1763.95 -279.13101 1.8403113e-38
2018.47 1788.23 -279.75 1.8403113e-38
2049.74 1814.04 -278.819 1.8403113e-38
2090.3799 1840.24 -279.76401 1.8403113e-38
2117.98 1868.27 -277.39099 1.8403113e-38
2145.72 1881.79 -279.32999 1.8403113e-38
2165.6399 1896.6801 -279.19 1.8403113e-38
2189.3 1911.08 -279.991 1.8403113e-38
2206.0601 1926.6801 -278.97101 1.8403113e-38
2226.5601 1941.79 -278.89301 1.8403113e-38
2237.21 1957.9 -276.41501 1.8403113e-38
2266.28 1973.76 -277.94601 1.8403113e-38
2284.5 1990.58 -276.87201 1.8403113e-38
2315.28 2007.37 -278.492 1.8403113e-38
2338.1201 2025.13 -278.13 1.8403113e-38
2368.6299 2042.87 -279.41299 1.8403113e-38
2381.3799 2060.8601 -276.82999 1.8403113e-38
2412.5801 2079.53 -277.98599 1.8403113e-38
2440.6799 2099.3401 -278.14301 1.8403113e-38
2470.5901 2118.9299 -278.74899 1.8403113e-38
2495.3999 2139.4299 -278.00201 1.8403113e-38
2522.03 2159.6699 -277.71799 1.8403113e-38
2549.4099 2181.3601 -277.16599 1.8403113e-38
2584.47 2203.5701 -278.10199 1.8403113e-38
2604.6001 2225.3701 -275.97198 1.8403113e-38
2639.26 2248.6299 -276.51099 1.8403113e-38
2680.45 2274.4299 -277.69601 1.8403113e-38
2714.6499 2298.9099 -277.77899 1.8403113e-38
2748.52 2324.9399 -277.33301 1.8403113e-38
2788.0901 2351.5901 -277.922 1.8403113e-38
2821.4399 2378.8501 -277.004 1.8403113e-38
2869.22 2408.45 -278.474 1.8403113e-38
2899.1001 2436.4199 -276.60501 1.8403113e-38
2945.3201 2467.3 -277.367 1.8403113e-38
2992.02 2500.23 -277.62201 1.8403113e-38
3037.5901 2532.6899 -277.78 1.8403113e-38
3091.29 2569.0601 -278.51901 1.8403113e-38
3141.9299 2604.54 -278.866 1.8403113e-38
3192.9099 2642.28 -278.621 1.8403113e-38
3184.26 2664.22 -270.306 1.8403113e-38
3289.0901 2717.98 -276.82999 1.8403113e-38
3345.78 2759.02 -276.82999 1.8403113e-38
3399.8 2801.71 -275.77399 1.8403113e-38
3437.47 2839.29 -272.733 1.8403113e-38
-626.79602 -79.656799 -265.866 1.8403113e-38
-469.19501 33.4212 -266.16501 1.8403113e-38
-439.75201 56.7673 -265.56601 1.8403113e-38
3412.6799 2859.8999 -261.367 1.8403113e-38
-484.00299 44.622398 -259.702 1.8403113e-38
-491.897 68.048897 -251.11 1.8403113e-38
-598.89899 53.9175 -232.439 1.8403113e-38
3266.79 2840.6499 -235.90401 1.8403113e-38
3420.1399 2944.3501 -238.062 1.8403113e-38
3267.51 2867.74 -228.07201 1.8403113e-38
3348.47 2948.3301 -221.591 1.8403113e-38
3349.5 2975.3701 -213.838 1.8403113e-38
-547.33197 185.57201 -204.63 1.8403113e-38
3353.6399 3005.0601 -205.97 1.8403113e-38
3364.3999 3036.0701 -199.125 1.8403113e-38
3407 3080.9199 -194.993 1.8403113e-38
3429.0901 3117.3501 -188.967 1.8403113e-38
-481.83899 339.16299 -173.326 1.8403113e-38
3365.23 3121.4399 -174.13 1.8403113e-38
3377.53 3154.24 -167.088 1.8403113e-38
3420.28 3201.6101 -162.244 1.8403113e-38
-796.539 174.617 -154.67101 1.8403113e-38
-707.35699 245.64 -152.76601 1.8403113e-38
-665.74799 279.741 -151.593 1.8403113e-38
-838.57898 176.617 -145.10899 1.8403113e-38
-813.66101 181.858 -148.882 1.8403113e-38
-722.18298 254.57899 -146.967 1.8403113e-38
-815.70599 239.927 -131.325 1.8403113e-38
-411.01199 523.48901 -134.099 1.8403113e-38
-391.19501 530.04303 -136.396 1.8403113e-38
-816.328 267.79199 -122.977 1.8403113e-38
-416.85901 539.88599 -128.017 1.8403113e-38
3102.8301 3094.27 -126.138 1.8403113e-38
-1395.84 -139.881 -119.483 1.8403113e-38
-1321.1 -86.326202 -119.646 1.8403113e-38
-832.66998 275.30701 -117.274 1.8403113e-38
-849.46002 280.91 -112.038 1.8403113e-38
-491.01999 524.14697 -116.829 1.8403113e-38
-447.23401 568.73999 -113.027 1.8403113e-38
-415.94101 568.49799 -119.777 1.8403113e-38
-410.905 601.771 -111.042 1.8403113e-38
3064.3799 3104.51 -114.912 1.8403113e-38
-886.71997 289.20001 -101.642 1.8403113e-38
-863.883 291.11499 -105.951 1.8403113e-38
3046.3799 3122.05 -105.9 1.8403113e-38
-1258.9301 50.6716 -92.524101 1.8403113e-38
-1069.98 178.36301 -95.205498 1.8403113e-38
-922.10699 300.60501 -90.726799 1.8403113e-38
-900.42603 300.51501 -95.3806 1.8403113e-38
3027.79 3140.4299 -96.513702 1.8403113e-38
-1359.78 1.5956399 -85.468498 1.8403113e-38
-1274.4399 63.700001 -85.372002 1.8403113e-38
-932.50897 316.069 -83.947601 1.8403113e-38
2994.1699 3150.3 -86.426804 1.8403113e-38
-1387.1801 3.0009201 -79.205101 1.8403113e-38
2984.3701 3172.3601 -77.830399 1.8403113e-38
-1351.1801 73.725098 -66.038597 1.8403113e-38
2954.22 3183.2 -68.199501 1.8403113e-38
2970.8899 3218.26 -61.423401 1.8403113e-38
-1796.67 -215.507 -56.229698 1.8403113e-38
2978.76 3248.0801 -54.309101 1.8403113e-38
2976.03 3274.1001 -46.057701 1.8403113e-38
3363.7 3568.5701 -41.9818 1.8403113e-38
3694.3201 3786.97 -48.157299 1.8403113e-38
-1108.4399 357.19 -34.2747 1.8403113e-38
2972.6799 3298.6201 -38.112 1.8403113e-38
2983.48 3332.28 -30.493 1.8403113e-38
3698.8701 3824.3999 -38.0895 1.8403113e-38
-1529.37 77.685799 -26.838499 1.8403113e-38
-1138.34 378.19101 -21.701099 1.8403113e-38
-1117.15 374.71399 -27.2498 1.8403113e-38
-1165.87 376.901 -16.205601 1.8403113e-38
-1342.15 284.59799 -5.79633 1.8403113e-38
-1904.26 -73.646698 8.5579596 1.8403113e-38
-2107.9299 -215.993 10.0595 1.8403113e-38
3071.5701 3554.51 16.2236 1.8403113e-38
-1004.89 647.18597 29.122999 1.8403113e-38
3047.7 3569.1201 25.624399 1.8403113e-38
-1086.8199 616.52002 37.566799 1.8403113e-38
-1021.82 653.58502 34.622799 1.8403113e-38
3045.1101 3598.3301 34.790699 1.8403113e-38
3034.4299 3621.1299 43.791698 1.8403113e-38
-1063.8101 700.61902 57.450401 1.8403113e-38
3011.1399 3637.27 53.523102 1.8403113e-38
-1063.77 720.61603 63.3386 1.8403113e-38
-1060.11 744.29102 69.536797 1.8403113e-38
3010.0901 3666.45 62.348598 1.8403113e-38
-1052.54 769.74298 75.425499 1.8403113e-38
2995.5801 3688.3501 71.904099 1.8403113e-38
-1051.39 790.638 81.340401 1.8403113e-38
-1054.26 807.17798 86.829697 1.8403113e-38
2993.1101 3717.01 80.877899 1.8403113e-38
-1054.22 826.71301 92.579803 1.8403113e-38
-1039.09 856.38501 98.098999 1.8403113e-38
2989.6101 3746.76 90.398697 1.8403113e-38
3214.6399 3937.8501 98.705299 1.8403113e-38
-1042.09 890.742 108.868 1.8403113e-38
-986.95898 913.60602 103.842 1.8403113e-38
3343.54 4066.98 109.266 1.8403113e-38
