# .PCD v0.7 - Point Cloud Data file format
VERSION 0.7
FIELDS x y z rgb
SIZE 4 4 4 4
TYPE F F F F
COUNT 1 1 1 1
WIDTH 359
HEIGHT 1
VIEWPOINT 0 0 0 1 0 0 0
POINTS 359
DATA ascii
462.97501 -93.475403 -290.41699 1.8403113e-38
517.84302 -67.8312 -291.681 1.8403113e-38
558.755 -41.434799 -290.293 1.8403113e-38
570.83698 -39.355499 -291.71399 1.8403113e-38
595.66901 -33.018902 -293.974 1.8403113e-38
584.41803 -28.638 -290.62701 1.8403113e-38
608.82001 -23.9865 -293.353 1.8403113e-38
621.302 -13.8728 -292.26901 1.8403113e-38
634.04401 -5.57692 -291.81299 1.8403113e-38
658.45001 10.382 -290.91699 1.8403113e-38
669.77399 10.4027 -292.867 1.8403113e-38
682.039 20.0599 -291.892 1.8403113e-38
705.27899 29.1689 -292.98901 1.8403113e-38
693.59497 30.757099 -290.46201 1.8403113e-38
716.56403 39.094398 -291.759 1.8403113e-38
728.23602 48.178699 -290.86499 1.8403113e-38
739.22998 52.564098 -291.35999 1.8403113e-38
750.63202 61.828999 -290.362 1.8403113e-38
783.98102 62.514 -295.90399 1.8403113e-38
772.70398 72.025803 -290.90799 1.8403113e-38
794.50299 81.621902 -291.60001 1.8403113e-38
804.84698 89.363503 -290.90701 1.8403113e-38
815.87299 93.454903 -291.50201 1.8403113e-38
825.927 102.299 -290.405 1.8403113e-38
847.33899 108.003 -292.27701 1.8403113e-38
877.74402 130.87801 -290.202 1.8403113e-38
898.685 136.47 -292.02899 1.8403113e-38
918.59198 148.00301 -291.77301 1.8403113e-38
957.039 173.798 -290.15201 1.8403113e-38
1070.45 234.961 -290.15201 1.8403113e-38
1314.55 365.77899 -290.41699 1.8403113e-38
1323.4399 371.30099 -290.18301 1.8403113e-38
1343.24 378.38 -291.33701 1.8403113e-38
1350.02 386.19901 -290.00201 1.8403113e-38
1378.33 399.76801 -290.54599 1.8403113e-38
1388.1801 403.258 -291.13101 1.8403113e-38
1414.47 420.10199 -290.27701 1.8403113e-38
1424.83 423.20401 -291.073 1.8403113e-38
1472.28 447.668 -291.43301 1.8403113e-38
1479.45 454.88699 -290.35999 1.8403113e-38
1517.36 475.397 -290.33801 1.8403113e-38
1742.85 595.65698 -290.76901 1.8403113e-38
1763.4399 608.73901 -290.13501 1.8403113e-38
1798.67 626.66101 -290.48199 1.8403113e-38
1809.9 632.77698 -290.46201 1.8403113e-38
1820.6 639.98401 -290.00201 1.8403113e-38
2300.3401 895.276 -291.10101 1.8403113e-38
2566.1599 1025.46 -295.32101 1.8403113e-38
2580.1101 1039.99 -293.07599 1.8403113e-38
-207.5 -444.40302 -287.00201 1.8403113e-38
-224.112 -438.74399 -282.319 1.8403113e-38
-181.07899 -429.63 -286.83401 1.8403113e-38
-151.073 -408.79999 -285.345 1.8403113e-38
-123.557 -389.914 -284.04901 1.8403113e-38
-99.598602 -378.91599 -284.66501 1.8403113e-38
-72.773399 -359.431 -283.05701 1.8403113e-38
-51.061798 -351.414 -284.23999 1.8403113e-38
-27.7897 -337.564 -283.82401 1.8403113e-38
-2.4809501 -320.17599 -282.62601 1.8403113e-38
19.3988 -307.59399 -282.375 1.8403113e-38
44.814301 -287.87 -280.44699 1.8403113e-38
64.2136 -279.29001 -281.04999 1.8403113e-38
84.483597 -269.84601 -281.52701 1.8403113e-38
124.071 -249.19501 -281.75101 1.8403113e-38
143.02901 -238.912 -281.73199 1.8403113e-38
161.76601 -230.463 -282.26199 1.8403113e-38
178.658 -224.369 -283.228 1.8403113e-38
198.017 -212.80499 -282.86801 1.8403113e-38
215.85001 -202.696 -282.711 1.8403113e-38
232.293 -198.10899 -284.082 1.8403113e-38
250.66 -184.892 -283.021 1.8403113e-38
267.96701 -176.276 -283.25101 1.8403113e-38
281.90799 -175.675 -285.46701 1.8403113e-38
299.20099 -165.814 -285.29599 1.8403113e-38
314.591 -159.364 -285.888 1.8403113e-38
334.345 -138.92101 -282.75201 1.8403113e-38
347.353 -139.631 -285.22699 1.8403113e-38
362.431 -134.73801 -286.26401 1.8403113e-38
376.77399 -129.588 -287.09299 1.8403113e-38
390.51901 -129.11501 -289.31601 1.8403113e-38
406.63101 -115.252 -287.65799 1.8403113e-38
421.44699 -108.87 -288.17401 1.8403113e-38
434.72101 -106.03 -289.55701 1.8403113e-38
449.883 -96.554901 -289.14099 1.8403113e-38
478.00299 -82.7892 -289.58899 1.8403113e-38
491.56 -75.685501 -289.65601 1.8403113e-38
505.90201 -66.632202 -289.23401 1.8403113e-38
533.60699 -47.139099 -287.77499 1.8403113e-38
545.78003 -45.267799 -289.27899 1.8403113e-38
646.49701 9.5072002 -289.13199 1.8403113e-38
761.32703 71.142097 -289.22601 1.8403113e-38
836.28601 112.227 -289.01401 1.8403113e-38
856.99402 122.804 -289.20401 1.8403113e-38
867.18799 126.288 -289.849 1.8403113e-38
886.70099 142.967 -287.87701 1.8403113e-38
906.12 157.108 -286.702 1.8403113e-38
926.87903 161.27901 -288.952 1.8403113e-38
936.81299 167.26801 -288.75 1.8403113e-38
946.33398 172.28999 -288.78601 1.8403113e-38
965.87598 181.743 -289.134 1.8403113e-38
975.09497 189.871 -288.12299 1.8403113e-38
984.12 196.092 -287.689 1.8403113e-38
995.31403 195.17101 -289.918 1.8403113e-38
1003.09 206.114 -287.75601 1.8403113e-38
1011.9 214.49699 -286.59201 1.8403113e-38
1021.57 217.33099 -287.354 1.8403113e-38
1031.1899 222.20799 -287.45499 1.8403113e-38
1041.59 222.48199 -289.16299 1.8403113e-38
1054.825 232.698 -288.177 1.8403113e-38
1077.3101 246.315 -287.69901 1.8403113e-38
1088.71 245.38901 -289.966 1.8403113e-38
1096.89 252.394 -289.13599 1.8403113e-38
1105.46 259.629 -288.297 1.8403113e-38
1114.76 263.21301 -288.75699 1.8403113e-38
1120.48 277.60199 -285.13599 1.8403113e-38
1132.04 275.172 -287.91101 1.8403113e-38
1138.52 287.009 -285.23901 1.8403113e-38
1148.3199 289.11401 -286.25699 1.8403113e-38
1157.11 294.96701 -285.89999 1.8403113e-38
1167.63 295.51199 -287.543 1.8403113e-38
1176.71 300.65601 -287.465 1.8403113e-38
1184.91 306.51599 -287.00299 1.8403113e-38
1194.28 310.94601 -287.20401 1.8403113e-38
1202.77 316.08301 -287.02399 1.8403113e-38
1212.0601 320.66299 -287.16299 1.8403113e-38
1220.87 325.095 -287.26501 1.8403113e-38
1230.09 329.827 -287.34201 1.8403113e-38
1239.27 333.57199 -287.728 1.8403113e-38
1249.76 335.978 -288.76901 1.8403113e-38
1256.1801 344.828 -287.04401 1.8403113e-38
1266.62 347.39999 -288.02301 1.8403113e-38
1273.34 355.526 -286.582 1.8403113e-38
1285.64 355.02701 -288.866 1.8403113e-38
1294.66 359.24301 -289.07401 1.8403113e-38
1304.09 363.79501 -289.24399 1.8403113e-38
1331.33 377.41299 -289.58899 1.8403113e-38
1354.4399 398.19901 -286.92099 1.8403113e-38
1366.42 398.39099 -288.931 1.8403113e-38
1393.9301 413.16199 -288.95099 1.8403113e-38
1401.4301 419.79599 -288.121 1.8403113e-38
1435.405 434.9375 -289.14099 1.8403113e-38
1447.03 445.32001 -287.82401 1.8403113e-38
1457.29 448.76501 -288.49301 1.8403113e-38
1488.21 461.09201 -289.88501 1.8403113e-38
1495.9 467.73199 -289.086 1.8403113e-38
1503.91 474.772 -288.216 1.8403113e-38
1521.36 486.67401 -287.41599 1.8403113e-38
1532.8199 489.55301 -288.47501 1.8403113e-38
1539.98 497.565 -287.14401 1.8403113e-38
1553.46 498.69 -289.11401 1.8403113e-38
1564.64 502.952 -289.67899 1.8403113e-38
1574.74 507.617 -289.931 1.8403113e-38
1579.64 517.87799 -287.48901 1.8403113e-38
1593.1801 519.53998 -289.297 1.8403113e-38
1594.38 533.04102 -285.17899 1.8403113e-38
1612.1899 531.203 -288.84399 1.8403113e-38
1617.51 541.06097 -286.60501 1.8403113e-38
1630.35 543.85901 -287.927 1.8403113e-38
1639.91 550.21802 -287.54199 1.8403113e-38
1652.77 553.29999 -288.77701 1.8403113e-38
1663.04 559.29901 -288.62799 1.8403113e-38
1669.1801 567.914 -286.92999 1.8403113e-38
1683.13 571.22101 -288.28101 1.8403113e-38
1690.6899 578.84399 -287.14401 1.8403113e-38
1706.9399 580.76501 -289.33701 1.8403113e-38
1715.97 587.48199 -288.746 1.8403113e-38
1722.97 596.36499 -287.10901 1.8403113e-38
1749.78 604.76898 -289.04901 1.8403113e-38
1771.05 617.50098 -288.64499 1.8403113e-38
1783.89 622.28003 -289.332 1.8403113e-38
1825.2 650.24902 -287.509 1.8403113e-38
1839.1 655.73602 -288.15201 1.8403113e-38
1852.6899 660.92798 -288.83801 1.8403113e-38
1864.92 667.70697 -288.77802 1.8403113e-38
1870.1 677.80798 -286.43701 1.8403113e-38
1885.62 683.03302 -287.444 1.8403113e-38
1895.76 690.62701 -286.763 1.8403113e-38
1912.97 695.35999 -288.22101 1.8403113e-38
1924.77 702.39203 -288.00601 1.8403113e-38
1930.79 713.02399 -285.64099 1.8403113e-38
1951.16 716.172 -288.15201 1.8403113e-38
1964.03 723.78497 -287.936 1.8403113e-38
1969.59 734.21802 -285.55499 1.8403113e-38
1982.37 742.10303 -285.23599 1.8403113e-38
1997.48 748.47101 -285.80701 1.8403113e-38
2018.17 753.33899 -287.82199 1.8403113e-38
2032.39 760.53198 -287.974 1.8403113e-38
2039.71 771.34698 -285.77399 1.8403113e-38
2051.1599 779.91803 -285.00699 1.8403113e-38
2067.3301 787.479 -285.37799 1.8403113e-38
2085.9299 793.68799 -286.603 1.8403113e-38
2098.4399 803.04199 -285.767 1.8403113e-38
2127.95 805.888 -289.95401 1.8403113e-38
2127.6101 820.10101 -285.34299 1.8403113e-38
2147.0701 826.95697 -286.508 1.8403113e-38
2174.1299 832.32599 -289.46201 1.8403113e-38
2180.6599 843.85901 -286.897 1.8403113e-38
2200.3101 852.13898 -287.63901 1.8403113e-38
2219.71 860.086 -288.444 1.8403113e-38
2243.04 867.89001 -289.97601 1.8403113e-38
2255.8601 878.237 -288.87601 1.8403113e-38
2275.3999 887.66101 -289.233 1.8403113e-38
2311.3401 907.42999 -289.10699 1.8403113e-38
2330.55 917.03601 -289.349 1.8403113e-38
2341.3899 929.55402 -287.21301 1.8403113e-38
2364.3 938.82098 -288.202 1.8403113e-38
2374.03 951.93402 -285.68301 1.8403113e-38
2400.6699 961.01398 -287.375 1.8403113e-38
2422.6799 972.13397 -287.61499 1.8403113e-38
2449.25 981.99701 -289.047 1.8403113e-38
2472.1299 993.66998 -289.26001 1.8403113e-38
2486.1101 1006.4 -287.59698 1.8403113e-38
2500.1699 1020.07 -285.646 1.8403113e-38
2587.98 1054.72 -289.72 1.8403113e-38
2612.3999 1068.3 -289.58499 1.8403113e-38
2631.72 1082.03 -288.52399 1.8403113e-38
2661.8101 1095.74 -289.332 1.8403113e-38
2681.9399 1110.05 -288.224 1.8403113e-38
2707.95 1124.98 -287.936 1.8403113e-38
2740.5901 1138.95 -289.099 1.8403113e-38
2765.4399 1154.84 -288.302 1.8403113e-38
2788.1101 1170.4 -287.23599 1.8403113e-38
2822.54 1186.54 -288.01199 1.8403113e-38
2852.8501 1202.55 -288.121 1.8403113e-38
2885.1001 1219.86 -288.14801 1.8403113e-38
2911.25 1236.95 -287.189 1.8403113e-38
2953.0901 1255.08 -288.612 1.8403113e-38
2980.96 1273.11 -287.64899 1.8403113e-38
3022.54 1292.5 -288.62201 1.8403113e-38
3039.29 1311.47 -285.43701 1.8403113e-38
3064.8 1331.8 -283.33099 1.8403113e-38
3168.55 1374.41 -287.60501 1.8403113e-38
3208.3301 1396.02 -287.556 1.8403113e-38
3255.8301 1419.7 -288.17899 1.8403113e-38
3307.0901 1443.34 -289.461 1.8403113e-38
3343.3501 1467.9301 -287.845 1.8403113e-38
3369.54 1491.33 -284.87601 1.8403113e-38
-934.71997 -797.62201 -274.51801 1.8403113e-38
-822.78802 -725.46802 -270.741 1.8403113e-38
-281.58899 -437.728 -272.064 1.8403113e-38
-260.354 -434.15601 -274.58801 1.8403113e-38
-240.89 -435.009 -278.224 1.8403113e-38
106.774 -252.73399 -279.896 1.8403113e-38
3081.23 1351.37 -279.901 1.8403113e-38
3380.7 1515.03 -279.211 1.8403113e-38
3385.78 1537.29 -272.95801 1.8403113e-38
-933.72803 -761.65002 -263.16501 1.8403113e-38
-851.45898 -728.31097 -266.698 1.8403113e-38
-321.586 -437.918 -265.21399 1.8403113e-38
-298.664 -432.23999 -267.35501 1.8403113e-38
3397.5 1561.41 -267.25601 1.8403113e-38
-359.20099 -433.117 -257.17801 1.8403113e-38
-375.21701 -425.25 -251.89 1.8403113e-38
-336.617 -428.71301 -259.66901 1.8403113e-38
3395.27 1583.14 -259.909 1.8403113e-38
3401.6399 1606.97 -253.37601 1.8403113e-38
-904.13898 -689.97498 -245.31599 1.8403113e-38
-398.508 -430.035 -249.399 1.8403113e-38
-437.409 -425.327 -241.17 1.8403113e-38
-418.862 -428.38199 -245.353 1.8403113e-38
3408.8501 1629.92 -247.27 1.8403113e-38
3415.76 1654.1 -240.718 1.8403113e-38
-479.815 -424.664 -233.632 1.8403113e-38
-460.07101 -426.505 -237.632 1.8403113e-38
3410.76 1675.63 -232.957 1.8403113e-38
-577.26898 -436.371 -220.545 1.8403113e-38
-527.70697 -430.27301 -227.15401 1.8403113e-38
-549.55603 -428.85001 -222.924 1.8403113e-38
-500.33401 -422.147 -229.28 1.8403113e-38
3423.1201 1700.83 -227.019 1.8403113e-38
3428.51 1724.05 -220.509 1.8403113e-38
3425.71 1747.1801 -212.616 1.8403113e-38
3430.6699 1770.53 -205.992 1.8403113e-38
3429.3899 1794.02 -198.248 1.8403113e-38
3432.9399 1817.3199 -191.396 1.8403113e-38
3453.6499 1845.34 -185.99699 1.8403113e-38
3450.8999 1867.71 -178.356 1.8403113e-38
3454.55 1892.66 -170.995 1.8403113e-38
3458.1799 1916.5699 -163.961 1.8403113e-38
3462.3301 1941.92 -156.558 1.8403113e-38
3464.53 1965.76 -149.299 1.8403113e-38
3468.1899 1991.28 -141.757 1.8403113e-38
-646.27899 -190.976 -130.00999 1.8403113e-38
-434.539 -95.741203 -136.082 1.8403113e-38
3479.5701 2017.79 -135.231 1.8403113e-38
-689.33002 -211.52901 -129.15601 1.8403113e-38
-417.30701 -51.517799 -124.892 1.8403113e-38
3484.6499 2044.08 -127.687 1.8403113e-38
3485.9099 2068.29 -120.15 1.8403113e-38
-641.51898 -137.241 -113.618 1.8403113e-38
-498.061 -52.551102 -111.272 1.8403113e-38
-411.13901 -22.357401 -116.616 1.8403113e-38
-420.82599 -10.8033 -111.242 1.8403113e-38
3488.5601 2094.23 -112.298 1.8403113e-38
-636.09802 -107.45 -105.011 1.8403113e-38
-436.44601 -7.0267901 -107.333 1.8403113e-38
3491.26 2119.1201 -104.79 1.8403113e-38
-622.66901 -71.303902 -95.751404 1.8403113e-38
3501.99 2147.8601 -97.437202 1.8403113e-38
-609.98401 -35.625198 -86.513199 1.8403113e-38
-615.41199 -19.555901 -80.427498 1.8403113e-38
-606.854 10.8535 -72.164398 1.8403113e-38
3251.1001 2093.1101 -71.629997 1.8403113e-38
-603.82599 34.352402 -65.1595 1.8403113e-38
3210.6399 2103.4199 -61.3377 1.8403113e-38
-717.14301 15.1268 -51.7411 1.8403113e-38
-604.651 54.861698 -58.446701 1.8403113e-38
-609.83099 70.065804 -52.681099 1.8403113e-38
3173.3 2113.03 -51.807201 1.8403113e-38
-672.66699 75.553398 -40.0672 1.8403113e-38
-613.86401 87.143799 -46.513401 1.8403113e-38
3144.1201 2125.98 -42.619301 1.8403113e-38
-675.203 93.104202 -34.006599 1.8403113e-38
3131.21 2143.1399 -34.8904 1.8403113e-38
-715.466 99.393898 -25.035601 1.8403113e-38
-695.56897 96.406403 -29.430201 1.8403113e-38
3104.6799 2156.3501 -26.0744 1.8403113e-38
-753.51398 108.565 -15.5242 1.8403113e-38
-728.15802 109.509 -19.602501 1.8403113e-38
3083.0901 2169.9399 -17.991501 1.8403113e-38
3089.0801 2194.8201 -11.0543 1.8403113e-38
-752.02002 130.16499 -8.8629398 1.8403113e-38
-756.87201 145.57201 -3.08899 1.8403113e-38
3076.54 2211.6399 -3.4997101 1.8403113e-38
-1134.22 -27.160801 6.7681198 1.8403113e-38
-1035.3199 20.5854 4.9777398 1.8403113e-38
-855.01099 131.5 9.3581696 1.8403113e-38
-792.21802 138.605 0.78582299 1.8403113e-38
-796.91498 154.269 6.6154299 1.8403113e-38
3057.01 2226.6599 4.6861801 1.8403113e-38
-1169.58 -29.499701 12.1288 1.8403113e-38
-1171.03 -6.8372402 19.639 1.8403113e-38
3054.3899 2247.27 11.7405 1.8403113e-38
3043.8101 2265.74 19.483999 1.8403113e-38
-1156.77 25.058901 27.392799 1.8403113e-38
3038.97 2285.51 26.653299 1.8403113e-38
-1161.77 44.713001 34.5536 1.8403113e-38
3042.7 2310.1899 33.916599 1.8403113e-38
-1171.92 59.792999 41.137199 1.8403113e-38
-1150.41 96.178398 49.077999 1.8403113e-38
3042.9299 2332.4299 41.000702 1.8403113e-38
3044.3201 2356.49 48.467098 1.8403113e-38
-1157.5699 112.78 55.632599 1.8403113e-38
3044.0801 2378.8501 55.672501 1.8403113e-38
-1142.9 143.82001 63.043098 1.8403113e-38
-1136.78 168.10001 69.763901 1.8403113e-38
3053.0901 2406.9399 63.113899 1.8403113e-38
-1135.99 189.903 76.611099 1.8403113e-38
3079.3101 2442.6201 70.016899 1.8403113e-38
3254.98 2554.6201 75.545998 1.8403113e-38
-1140.54 207.347 82.986504 1.8403113e-38
-1130.6 233.991 89.804298 1.8403113e-38
3241.3601 2573 83.787697 1.8403113e-38
-1121.65 258.67499 96.165298 1.8403113e-38
3381.52 2672.3401 91.395103 1.8403113e-38
3412.9099 2715.95 99.944 1.8403113e-38
-1119.8199 280.04501 102.696 1.8403113e-38
-1072.47 324.79099 108.849 1.8403113e-38
3470.4399 2775.96 109.228 1.8403113e-38
