# .PCD v0.7 - Point Cloud Data file format
VERSION 0.7
FIELDS x y z rgb
SIZE 4 4 4 4
TYPE F F F F
COUNT 1 1 1 1
WIDTH 321
HEIGHT 1
VIEWPOINT 0 0 0 1 0 0 0
POINTS 321
DATA ascii
2600.55 -2530.6899 -285.59399 1.8403113e-38
2603.8101 -2522.4099 -282.405 1.8403113e-38
2527.1001 -2478.1799 -283.48099 1.8403113e-38
2481.6499 -2458.4399 -286.117 1.8403113e-38
2425.5601 -2430.05 -288.121 1.8403113e-38
2408.8899 -2411.6799 -285.646 1.8403113e-38
2362.03 -2382.79 -285.72601 1.8403113e-38
2309.5801 -2353.5701 -286.77499 1.8403113e-38
2342.4199 -2357.01 -281.52899 1.8403113e-38
2292.6299 -2331.8799 -283.328 1.8403113e-38
2256.3501 -2318.73 -286.23801 1.8403113e-38
2239.53 -2295.8201 -282.392 1.8403113e-38
2204.9299 -2283.6201 -285.26901 1.8403113e-38
958.987 -1501.01 -282.86499 1.8403113e-38
962.60999 -1501.85 -282.42899 1.8403113e-38
945.58649 -1487.4099 -281.23599 1.8403113e-38
910.08099 -1472.67 -283.504 1.8403113e-38
926.60303 -1476.8101 -281.608 1.8403113e-38
931.10199 -1476.12 -280.53201 1.8403113e-38
910.78601 -1464.35 -280.79901 1.8403113e-38
894.54248 -1456.21 -281.40552 1.8403113e-38
880.414 -1444.64 -280.54599 1.8403113e-38
857.07202 -1437.38 -282.78601 1.8403113e-38
861.11603 -1437.79 -282.13699 1.8403113e-38
843.03748 -1425.6851 -281.87051 1.8403113e-38
826.26801 -1411.73 -280.78101 1.8403113e-38
808.97998 -1401.58 -280.966 1.8403113e-38
813.565 -1401.4399 -280.04199 1.8403113e-38
787.211 -1397.0601 -283.75299 1.8403113e-38
794.12799 -1394.04 -281.491 1.8403113e-38
777.08197 -1383.3199 -281.45499 1.8403113e-38
596.88397 -1271.52 -281.53299 1.8403113e-38
577.20898 -1260.92 -282.039 1.8403113e-38
581.15399 -1262.52 -281.776 1.8403113e-38
563.6615 -1247.495 -280.49548 1.8403113e-38
403.89301 -1151.6 -281.565 1.8403113e-38
399.26401 -1149.7 -281.86801 1.8403113e-38
376.62 -1137.08 -282.31799 1.8403113e-38
382.905 -1138.16 -281.444 1.8403113e-38
345.63901 -1128.36 -285.577 1.8403113e-38
341.315 -1109.76 -280.66199 1.8403113e-38
281.01801 -1083.77 -284.21799 1.8403113e-38
292.521 -1083.01 -281.771 1.8403113e-38
259.95901 -1072.38 -284.74399 1.8403113e-38
257.16 -1069.01 -284.241 1.8403113e-38
228.129 -1055.86 -285.755 1.8403113e-38
239.72301 -1055.58 -283.44299 1.8403113e-38
213.461 -1040.8101 -283.92401 1.8403113e-38
207.17599 -1038.7 -284.479 1.8403113e-38
185.07449 -1023.845 -284.13751 1.8403113e-38
158.659 -1005.41 -283.51501 1.8403113e-38
166.724 -1007.16 -282.508 1.8403113e-38
140.899 -990.35303 -282.276 1.8403113e-38
131.015 -989.02899 -283.767 1.8403113e-38
104.434 -971.59003 -283.48599 1.8403113e-38
113.407 -973.42999 -282.32999 1.8403113e-38
78.9552 -953.13898 -282.67999 1.8403113e-38
86.074997 -955.74103 -282.116 1.8403113e-38
53.6833 -933.98602 -281.61801 1.8403113e-38
64.495796 -935.70398 -280.07101 1.8403113e-38
22.089399 -915.84998 -282.08499 1.8403113e-38
-2.7504699 -895.19098 -280.47501 1.8403113e-38
-32.999599 -875.11499 -280.08401 1.8403113e-38
-72.522697 -856.117 -281.80899 1.8403113e-38
-106.158 -834.83197 -281.69501 1.8403113e-38
-142.425 -813.03003 -281.927 1.8403113e-38
-851.05499 -377.69 -283.57901 1.8403113e-38
-908.01001 -333.57999 -280.89301 1.8403113e-38
2525.97 -2462.3301 -278.79599 1.8403113e-38
2452.05 -2416.95 -278.98099 1.8403113e-38
2181.3401 -2243.29 -277.34 1.8403113e-38
878.40503 -1441.14 -279.849 1.8403113e-38
831.38702 -1410.75 -279.49301 1.8403113e-38
780.15698 -1373.79 -277.91599 1.8403113e-38
619.461 -1279.1899 -279.565 1.8403113e-38
604.42102 -1269.96 -279.604 1.8403113e-38
636.80798 -1268.6899 -272.98401 1.8403113e-38
559.323 -1226.96 -274.98099 1.8403113e-38
365.40701 -1122.42 -279.94199 1.8403113e-38
345.24701 -1103.23 -277.88699 1.8403113e-38
349.07101 -1080.97 -270.272 1.8403113e-38
35.707001 -917.078 -279.84799 1.8403113e-38
9.9330597 -896.93402 -278.57599 1.8403113e-38
-12.7604 -875.41998 -276.28799 1.8403113e-38
-52.2449 -856.86499 -278.142 1.8403113e-38
-86.809097 -836.19 -278.396 1.8403113e-38
-124.978 -815.14001 -279.22601 1.8403113e-38
-160.041 -792.47101 -278.95901 1.8403113e-38
-164.01601 -787.92297 -278.31699 1.8403113e-38
-160.097 -763.93903 -270.151 1.8403113e-38
-815.76398 -387.12201 -279.711 1.8403113e-38
-876.797 -343.44501 -277.94199 1.8403113e-38
-921.33502 -299.332 -272.86801 1.8403113e-38
2677.97 -2508.6201 -263.892 1.8403113e-38
2681.49 -2501.03 -260.866 1.8403113e-38
2609.6599 -2470.52 -265.24301 1.8403113e-38
578.04102 -1208.04 -265.535 1.8403113e-38
503.20499 -1165.45 -266.75601 1.8403113e-38
509.77301 -1156.72 -262.79501 1.8403113e-38
493.616 -1147.05 -262.914 1.8403113e-38
460.30099 -1138.72 -266.742 1.8403113e-38
471.36301 -1136.45 -263.91199 1.8403113e-38
351.436 -1075.41 -268.09698 1.8403113e-38
-163.024 -759.216 -269.254 1.8403113e-38
-167.364 -736.47101 -263.05801 1.8403113e-38
2605 -2449.5701 -259.664 1.8403113e-38
598.09399 -1172.72 -250.765 1.8403113e-38
520.48901 -1125.84 -251.19099 1.8403113e-38
-157.619 -730.21997 -259.25299 1.8403113e-38
-162.422 -705.13501 -252.4225 1.8403113e-38
-851.21997 -299.41101 -259.41599 1.8403113e-38
-1060.73 -156.489 -255.51199 1.8403113e-38
-1107.85 -141.38 -259.89801 1.8403113e-38
2685.1399 -2447.9199 -243.75 1.8403113e-38
2686.24 -2437.02 -240.16901 1.8403113e-38
599.72498 -1167.1899 -248.741 1.8403113e-38
568.76801 -1145.74 -248.063 1.8403113e-38
576.08502 -1136.53 -243.81 1.8403113e-38
-159.39551 -676.84851 -243.09799 1.8403113e-38
-792.34601 -274.24399 -240.321 1.8403113e-38
608.69397 -1137.2 -237.748 1.8403113e-38
621.59601 -1132.2 -233.72501 1.8403113e-38
-154.063 -651.14203 -234.12801 1.8403113e-38
-154.69299 -646.19702 -232.72099 1.8403113e-38
-784.99701 -268.25 -237.056 1.8403113e-38
2697.6499 -2398.1499 -225.961 1.8403113e-38
2697.9099 -2386.45 -222.298 1.8403113e-38
1138.3101 -1415.62 -222.007 1.8403113e-38
1141.1899 -1416.74 -221.797 1.8403113e-38
-157.36301 -623.66998 -226.271 1.8403113e-38
-150.08 -618.34302 -223.22501 1.8403113e-38
-773.11798 -231.705 -223.478 1.8403113e-38
-764.896 -239.67101 -224.35899 1.8403113e-38
-152.56149 -593.44153 -216.00549 1.8403113e-38
2690.1101 -2321.6101 -203.756 1.8403113e-38
2693.95 -2315.6899 -201.19 1.8403113e-38
1168.34 -1380.67 -205.429 1.8403113e-38
-154.33301 -566.05249 -207.88049 1.8403113e-38
-157.44 -541.138 -200.77699 1.8403113e-38
-823.45099 -153.688 -209.039 1.8403113e-38
1113.4399 -1302.75 -191.899 1.8403113e-38
1085.825 -1291.955 -193.87149 1.8403113e-38
-157.715 -536.203 -199.30499 1.8403113e-38
-149.92101 -513.883 -190.908 1.8403113e-38
-753.27197 -158.787 -197.125 1.8403113e-38
2708.5601 -2285.1699 -188.946 1.8403113e-38
2708.75 -2274.3999 -185.58099 1.8403113e-38
1198.4 -1340.41 -187.209 1.8403113e-38
1185.24 -1339.7 -189.51801 1.8403113e-38
1201.6 -1339.53 -186.32201 1.8403113e-38
1160.1899 -1317.9399 -187.61 1.8403113e-38
1160.65 -1308.99 -184.75301 1.8403113e-38
1105.16 -1290.49 -189.703 1.8403113e-38
1119.4 -1296.1801 -188.72501 1.8403113e-38
1133.365 -1298.905 -186.88 1.8403113e-38
1150.84 -1292.66 -181.592 1.8403113e-38
1102.67 -1289.29 -189.80901 1.8403113e-38
-150.10699 -508.97601 -189.427 1.8403113e-38
-157.68399 -483.94098 -183.146 1.8403113e-38
-751.12701 -127.988 -187.194 1.8403113e-38
-747.245 -121.865 -184.55499 1.8403113e-38
2726.05 -2248.5701 -174.274 1.8403113e-38
2725.99 -2237.8301 -170.964 1.8403113e-38
1155.42 -1288.47 -179.41701 1.8403113e-38
-174.709 -453.23401 -176.927 1.8403113e-38
-153.061 -459.30701 -174.64301 1.8403113e-38
1364.0699 -1370.4301 -164.646 1.8403113e-38
1381.9399 -1371.12 -161.423 1.8403113e-38
1393.76 -1379.35 -161.696 1.8403113e-38
1334.15 -1365.25 -168.795 1.8403113e-38
1349.34 -1366.09 -166.134 1.8403113e-38
1351.79 -1368.4301 -166.38699 1.8403113e-38
1366.97 -1368.96 -163.633 1.8403113e-38
1379.42 -1368.86 -161.209 1.8403113e-38
1338.04 -1357.3101 -165.591 1.8403113e-38
966.35797 -1125.3101 -165.327 1.8403113e-38
972.25299 -1114.35 -160.806 1.8403113e-38
-673.59302 -105.67 -165.39301 1.8403113e-38
2728.6399 -2193.78 -156.841 1.8403113e-38
2728.28 -2183.1101 -153.61 1.8403113e-38
1425.36 -1383.595 -156.93301 1.8403113e-38
1439.15 -1385.64 -154.91299 1.8403113e-38
1441.91 -1383.92 -153.851 1.8403113e-38
1455.71 -1386.655 -152.0455 1.8403113e-38
1397.0699 -1371.13 -158.519 1.8403113e-38
1409.14 -1376.3101 -157.798 1.8403113e-38
1411.86 -1376.59 -157.364 1.8403113e-38
969.59998 -1096.29 -155.73399 1.8403113e-38
971.48401 -1097.87 -155.86 1.8403113e-38
959.22498 -1087.42 -154.989 1.8403113e-38
964.85999 -1084.83 -153.105 1.8403113e-38
954.4295 -1074.41 -151.88699 1.8403113e-38
892.29602 -1056.62 -158.33099 1.8403113e-38
903.07501 -1050.1 -154.245 1.8403113e-38
919.11804 -1052.1699 -151.80249 1.8403113e-38
-577.34003 -119.012 -151.01601 1.8403113e-38
-1471.45 431.45999 -152.73399 1.8403113e-38
2740.8 -2153.29 -141.99001 1.8403113e-38
1547.91 -1410.75 -141.772 1.8403113e-38
1550.7 -1410.61 -141.19099 1.8403113e-38
1567.33 -1418.27 -140.364 1.8403113e-38
1517.62 -1404.04 -145.519 1.8403113e-38
1533.0601 -1403.6699 -142.43701 1.8403113e-38
1486.3051 -1393.475 -148.2715 1.8403113e-38
1501.505 -1392.1899 -144.953 1.8403113e-38
1469.48 -1384.41 -148.703 1.8403113e-38
1472.23 -1385.46 -148.50101 1.8403113e-38
948.04297 -1061.5901 -149.153 1.8403113e-38
937.271 -1053.39 -148.69051 1.8403113e-38
2735.22 -2136.47 -137.86301 1.8403113e-38
1598.24 -1422.4 -135.698 1.8403113e-38
1612.51 -1420.84 -132.474 1.8403113e-38
1629.64 -1426.45 -130.916 1.8403113e-38
1632.47 -1426.0699 -130.25101 1.8403113e-38
1579.87 -1415.4 -137.064 1.8403113e-38
1582.6801 -1415.16 -136.451 1.8403113e-38
1614.97 -1418.61 -131.308 1.8403113e-38
1563.1899 -1407.96 -137.972 1.8403113e-38
-544.43103 -97.307503 -137.98199 1.8403113e-38
-534.61902 -93.2304 -134.836 1.8403113e-38
-889.27698 110.764 -139.95399 1.8403113e-38
2745.55 -2105.1599 -126.201 1.8403113e-38
2744.03 -2093.8301 -122.991 1.8403113e-38
1701.45 -1444.5449 -122.70399 1.8403113e-38
1717.87 -1447.9399 -120.596 1.8403113e-38
1646.78 -1430.8101 -128.968 1.8403113e-38
1650.04 -1432.27 -128.78999 1.8403113e-38
1665.3049 -1433.6851 -126.2935 1.8403113e-38
1683.1399 -1438.8101 -124.45 1.8403113e-38
-523.01245 -64.310448 -123.667 1.8403113e-38
-637.60999 3.5630801 -124.715 1.8403113e-38
-753.81 65.990799 -127.755 1.8403113e-38
-1283.09 410.186 -123.104 1.8403113e-38
-1389.6 456.68201 -129.205 1.8403113e-38
-1525.2 554.75549 -124.957 1.8403113e-38
1800.11 -1473.48 -112.685 1.8403113e-38
1816 -1475.6899 -110.31 1.8403113e-38
1759.7 -1460.6899 -116.496 1.8403113e-38
1777.325 -1464.9351 -114.423 1.8403113e-38
1794.46 -1467.05 -111.782 1.8403113e-38
1737.62 -1451.275 -117.832 1.8403113e-38
1754.95 -1455.9 -115.932 1.8403113e-38
1720.76 -1447.28 -119.839 1.8403113e-38
1337.1899 -1191.84 -114.612 1.8403113e-38
1347.265 -1198.3501 -114.6885 1.8403113e-38
1336.6 -1182.98 -111.987 1.8403113e-38
1327.505 -1173.085 -110.677 1.8403113e-38
1316.24 -1164.41 -110.162 1.8403113e-38
-577.37799 -18.596201 -119.987 1.8403113e-38
-699.82703 89.7071 -110.049 1.8403113e-38
2743.79 -2051.23 -109.868 1.8403113e-38
2748.45 -2047.53 -107.832 1.8403113e-38
1837.92 -1483.88 -108.632 1.8403113e-38
1818.61 -1473.83 -109.235 1.8403113e-38
1837.5601 -1474.73 -105.871 1.8403113e-38
1318.48 -1164.02 -109.609 1.8403113e-38
1297.79 -1150.49 -109.405 1.8403113e-38
1307.26 -1156.13 -109.32899 1.8403113e-38
1286.985 -1142.29 -108.94749 1.8403113e-38
1295.8 -1149.9 -109.607 1.8403113e-38
1276.96 -1132.12 -107.731 1.8403113e-38
1280.51 -1127.33 -105.57 1.8403113e-38
-686.70001 92.7985 -106.57 1.8403113e-38
-902.45099 234.536 -104.231 1.8403113e-38
-1516.0699 602.26099 -108.52 1.8403113e-38
-1511.95 610.78998 -105.091 1.8403113e-38
-681.70599 122.964 -96.286697 1.8403113e-38
-690.37402 132.66901 -94.953201 1.8403113e-38
2631.8701 -1874.73 -76.8274 1.8403113e-38
2631.3501 -1866.14 -74.2743 1.8403113e-38
-1259.22 555.034 -73.746803 1.8403113e-38
-1208.0699 543.56299 -67.4608 1.8403113e-38
-1116.71 547.01703 -48.8335 1.8403113e-38
-1112.71 554.302 -45.813099 1.8403113e-38
-1175.0699 623.07001 -36.5448 1.8403113e-38
-1178.14 633.76099 -33.8298 1.8403113e-38
-1178.08 676.53497 -20.5979 1.8403113e-38
2310.28 -1478.78 -16.264 1.8403113e-38
2300.3601 -1462.39 -13.1038 1.8403113e-38
-1175.5 684.79797 -17.547001 1.8403113e-38
2313.8601 -1451.96 -7.2849998 1.8403113e-38
2316.6499 -1449.48 -5.9824901 1.8403113e-38
-1170.97 726.00598 -3.9402299 1.8403113e-38
-1170.91 735.56403 -0.97486502 1.8403113e-38
-1161.97 775.05798 12.9507 1.8403113e-38
-1159.9399 783.73602 16.0228 1.8403113e-38
2092.02 -1194.9301 29.5187 1.8403113e-38
2090.53 -1189.53 30.900801 1.8403113e-38
2094.46 -1174.215 36.38945 1.8403113e-38
-1151.98 824.09302 30.025299 1.8403113e-38
-1156.85 836.492 32.921799 1.8403113e-38
2095.385 -1154.54 42.64875 1.8403113e-38
2106.0552 -1144.4751 47.810551 1.8403113e-38
-1147.16 876.44098 47.1325 1.8403113e-38
2744.21 -1520.89 54.1273 1.8403113e-38
2739.97 -1511.6899 56.156502 1.8403113e-38
2114.6748 -1132.5549 53.15155 1.8403113e-38
2137.9099 -1131.6 57.912998 1.8403113e-38
2128.5801 -1127.04 57.5289 1.8403113e-38
-1143.89 884.63202 50.292099 1.8403113e-38
2772.1101 -1502.4 65.205704 1.8403113e-38
2754.72 -1495.62 63.959301 1.8403113e-38
2381 -1264.9301 63.429001 1.8403113e-38
2311.25 -1214.54 65.593697 1.8403113e-38
2152.2251 -1125.95 62.410149 1.8403113e-38
2165.0549 -1117.0701 67.620346 1.8403113e-38
-1137.75 926.96399 64.556602 1.8403113e-38
-1142.99 940.08502 67.603699 1.8403113e-38
2542.8601 -1312.96 79.693001 1.8403113e-38
2455.26 -1246.42 83.421997 1.8403113e-38
2466.3999 -1234.08 89.3769 1.8403113e-38
-1133.33 981.047 82.122398 1.8403113e-38
-1131.42 990.22498 85.324699 1.8403113e-38
2471.76 -1233.35 90.634804 1.8403113e-38
2503.5701 -1234.52 96.385101 1.8403113e-38
2485.5601 -1218.25 97.951698 1.8403113e-38
-1126.03 1034.28 99.976799 1.8403113e-38
2448.4099 -1170.77 105.487 1.8403113e-38
2453.29 -1178 104.189 1.8403113e-38
-1129.04 1046.61 103.209 1.8403113e-38
2454.24 -1155.77 111.242 1.8403113e-38
