# .PCD v0.7 - Point Cloud Data file format
VERSION 0.7
FIELDS x y z rgb
SIZE 4 4 4 4
TYPE F F F F
COUNT 1 1 1 1
WIDTH 357
HEIGHT 1
VIEWPOINT 0 0 0 1 0 0 0
POINTS 357
DATA ascii
-48.341499 578.95398 -317.892 1.8403113e-38
208.49699 -865.11499 -305.88901 1.8403113e-38
197.41499 -764.27698 -304.26199 1.8403113e-38
182.77 -675.59003 -304.59399 1.8403113e-38
169.42101 -602.19598 -305.31 1.8403113e-38
155.146 -525.26001 -306.16199 1.8403113e-38
146.34 -441.254 -304.65399 1.8403113e-38
135.24699 -361.522 -304.20599 1.8403113e-38
126.56 -288.33899 -303.25699 1.8403113e-38
116.371 -215.52499 -302.86801 1.8403113e-38
99.943497 -182.896 -306.961 1.8403113e-38
93.463203 -103.456 -304.87 1.8403113e-38
92.024803 -19.126699 -300.694 1.8403113e-38
82.384399 38.995201 -300.92599 1.8403113e-38
73.9132 89.679901 -301.15201 1.8403113e-38
67.153603 151.467 -300.14401 1.8403113e-38
59.712399 200.123 -300.112 1.8403113e-38
48.640202 241.90401 -301.76901 1.8403113e-38
44.694801 297.034 -300.12 1.8403113e-38
34.708698 337.79099 -301.44299 1.8403113e-38
-1.77239 592.02899 -300.41299 1.8403113e-38
-14.6937 608.73199 -304.13101 1.8403113e-38
-31.4252 667.66998 -306.86899 1.8403113e-38
-25.9259 730.495 -301.39401 1.8403113e-38
-32.7607 758.03601 -302.319 1.8403113e-38
-42.3839 782.776 -304.40399 1.8403113e-38
-41.565498 825.448 -301.73401 1.8403113e-38
236.83 -887.13501 -296.92401 1.8403113e-38
31.0387 388.98199 -299.914 1.8403113e-38
24.006599 434.29099 -299.92099 1.8403113e-38
19.4944 478.767 -299.06799 1.8403113e-38
12.4924 520.21301 -299.28 1.8403113e-38
7.1826801 558.98199 -299.03201 1.8403113e-38
-41.216801 869.65399 -299.14801 1.8403113e-38
-44.626499 900.495 -298.65799 1.8403113e-38
-48.625999 932.95099 -298.29001 1.8403113e-38
-50.724998 964.50702 -297.28799 1.8403113e-38
-59.108002 986.32501 -299.08899 1.8403113e-38
-62.653999 1013.4 -298.858 1.8403113e-38
-62.148998 1050.72 -296.59799 1.8403113e-38
-70.458603 1067.3101 -298.664 1.8403113e-38
-75.163101 1093.3 -298.909 1.8403113e-38
-78.205002 1118.41 -298.60599 1.8403113e-38
-81.700104 1145.13 -298.37601 1.8403113e-38
-85.043297 1168.41 -298.28299 1.8403113e-38
-83.3069 1202.5 -295.76001 1.8403113e-38
-90.517601 1218.14 -297.483 1.8403113e-38
-90.510902 1247.86 -295.827 1.8403113e-38
-90.990196 1273.3199 -294.582 1.8403113e-38
-96.505096 1292.99 -295.47101 1.8403113e-38
-96.346603 1318.28 -294.00601 1.8403113e-38
-101.84 1337.0601 -294.93701 1.8403113e-38
-103.248 1358.97 -294.224 1.8403113e-38
-109.342 1376.09 -295.46201 1.8403113e-38
-106.852 1402.62 -293.09 1.8403113e-38
-111.869 1420.45 -293.90201 1.8403113e-38
-117.349 1435.05 -295.061 1.8403113e-38
-117.294 1459.04 -293.70499 1.8403113e-38
-125.894 1468.99 -296.245 1.8403113e-38
-122.926 1495.89 -293.67999 1.8403113e-38
-127.012 1511.16 -294.29999 1.8403113e-38
-125.21 1535.55 -292.29401 1.8403113e-38
-124.584 1555.95 -290.93399 1.8403113e-38
-130.81599 1569.72 -292.409 1.8403113e-38
-133.476 1585.5699 -292.483 1.8403113e-38
-139.38 1599.35 -293.84 1.8403113e-38
-134.039 1623.8101 -290.55701 1.8403113e-38
-140.185 1636.8 -292.04501 1.8403113e-38
-142.07899 1652.48 -291.853 1.8403113e-38
-143.985 1669.7 -291.58099 1.8403113e-38
-145.505 1685.28 -291.26001 1.8403113e-38
-152.338 1696.86 -293.073 1.8403113e-38
-156.22099 1709.65 -293.758 1.8403113e-38
-152.63 1731.46 -291.25201 1.8403113e-38
-160.27901 1740.13 -293.521 1.8403113e-38
-163.12199 1755.1 -293.70999 1.8403113e-38
-165.72099 1768.47 -293.901 1.8403113e-38
-171.036 1780.77 -295.12799 1.8403113e-38
-172.65199 1794.76 -294.92999 1.8403113e-38
-166.30701 1817.29 -291.39401 1.8403113e-38
-176.871 1822.9 -294.88199 1.8403113e-38
-178.019 1838.3101 -294.43701 1.8403113e-38
-173.923 1856.47 -291.953 1.8403113e-38
-179.81799 1867.45 -293.46201 1.8403113e-38
-189.13901 1889.78 -295.57101 1.8403113e-38
-176.077 1884.8 -291.151 1.8403113e-38
-193.31 1900.52 -296.474 1.8403113e-38
-181.466 1925.04 -290.849 1.8403113e-38
-181.54201 1938.55 -290.125 1.8403113e-38
-189.72099 1947.21 -292.58401 1.8403113e-38
-194.92 1956.73 -293.92401 1.8403113e-38
-199.873 1967.78 -295.091 1.8403113e-38
-204.12601 1977.91 -296.05701 1.8403113e-38
-197.937 1996.58 -292.79099 1.8403113e-38
-205.09 2004.53 -294.922 1.8403113e-38
-200.108 2021.92 -292.16199 1.8403113e-38
-198.33701 2035.62 -290.763 1.8403113e-38
-204.155 2045.5699 -292.30099 1.8403113e-38
-204.532 2057.6499 -291.76401 1.8403113e-38
-218.203 2088.3201 -294.97501 1.8403113e-38
-205.444 2082.6399 -290.702 1.8403113e-38
-209.94701 2105.0701 -291.073 1.8403113e-38
-220.937 2111.8601 -294.64801 1.8403113e-38
-222.382 2135.76 -293.83701 1.8403113e-38
-217.481 2162.55 -290.58301 1.8403113e-38
-225.29601 2216.9399 -290.366 1.8403113e-38
-226.11 2228.6599 -290.00699 1.8403113e-38
-229.015 2238.26 -290.517 1.8403113e-38
-233.621 2270.8601 -290.35999 1.8403113e-38
-234.43201 2281.1799 -290.077 1.8403113e-38
-238.13499 2291.4199 -290.83899 1.8403113e-38
-242.29401 2312.02 -291.189 1.8403113e-38
-200.465 2073.6101 -289.41299 1.8403113e-38
-205.746 2132.05 -288.06 1.8403113e-38
-213.506 2152.04 -289.73801 1.8403113e-38
-215.864 2174.6899 -289.32501 1.8403113e-38
-216.24899 2186.8799 -288.78601 1.8403113e-38
-218.64301 2196.8401 -289.09201 1.8403113e-38
-222.218 2207.3601 -289.793 1.8403113e-38
-226.14999 2251.4299 -288.754 1.8403113e-38
-229.741 2260.6499 -289.53201 1.8403113e-38
-233.474 2303.71 -288.478 1.8403113e-38
-232.98399 2325.75 -287.07501 1.8403113e-38
-236.302 2335.98 -287.69901 1.8403113e-38
-239.233 2345.27 -288.237 1.8403113e-38
-235.217 2357.8601 -286.091 1.8403113e-38
-241.57001 2366.01 -287.922 1.8403113e-38
-245.44299 2376.04 -288.75699 1.8403113e-38
-242.644 2386.99 -287.14099 1.8403113e-38
-244.53 2397.55 -287.23199 1.8403113e-38
-247.888 2406.6499 -287.93301 1.8403113e-38
-251.42 2416.77 -288.64001 1.8403113e-38
-250.98599 2426.8601 -287.922 1.8403113e-38
-254.34801 2437.02 -288.56601 1.8403113e-38
-249.166 2448.1499 -286.08301 1.8403113e-38
-254.183 2457.8999 -287.345 1.8403113e-38
-251.56599 2468.3 -285.82401 1.8403113e-38
-246.7305 2484.9399 -283.159 1.8403113e-38
-249.99899 2499.8601 -283.504 1.8403113e-38
-254.42799 2508.75 -284.60199 1.8403113e-38
-252.099 2529.4399 -282.61301 1.8403113e-38
-245.97 2520.8201 -280.888 1.8403113e-38
-255.522 2539.54 -283.28201 1.8403113e-38
-255.93201 2549.0901 -282.89801 1.8403113e-38
-253.597 2559.96 -281.453 1.8403113e-38
-252.912 2569.5801 -280.67099 1.8403113e-38
-254.12801 2579.9399 -280.53201 1.8403113e-38
-259.82999 2588.8899 -282.08499 1.8403113e-38
-270.802 2658.8899 -282.13501 1.8403113e-38
-276.854 2668.29 -283.78799 1.8403113e-38
-278.16199 2678.8601 -283.67099 1.8403113e-38
-279.358 2688.4399 -283.56699 1.8403113e-38
-279.552 2699.04 -283.047 1.8403113e-38
-280.59 2708.6599 -282.88501 1.8403113e-38
-285.31601 2719.3701 -283.98901 1.8403113e-38
-285.254 2729.02 -283.42999 1.8403113e-38
-286.04001 2739.7 -283.117 1.8403113e-38
-281.116 2749.1201 -280.82199 1.8403113e-38
-286.98999 2769.78 -281.785 1.8403113e-38
-290.64099 2790.49 -281.94601 1.8403113e-38
-293.711 2801.54 -282.435 1.8403113e-38
-293.94601 2811.3401 -281.974 1.8403113e-38
-298.70599 2822.71 -283.05301 1.8403113e-38
-299.599 2843.5801 -282.21301 1.8403113e-38
-301.37201 2853.73 -282.285 1.8403113e-38
-305.746 2865.3601 -283.211 1.8403113e-38
-310.142 2876.0701 -284.19601 1.8403113e-38
-301.26801 2885.6499 -280.47101 1.8403113e-38
-309.21301 2897.0901 -282.69199 1.8403113e-38
-311.327 2908.6399 -282.81 1.8403113e-38
-305.14899 2917.5601 -280.091 1.8403113e-38
-315.41299 2930.8799 -283.04099 1.8403113e-38
-309.07599 2939.75 -280.26901 1.8403113e-38
-320.03299 2953.54 -283.44199 1.8403113e-38
-318.14401 2963.45 -282.211 1.8403113e-38
-315.97 2974.3601 -280.82101 1.8403113e-38
-319.81201 2997.3101 -280.92599 1.8403113e-38
-331.45599 3022.8401 -283.69299 1.8403113e-38
-322.65302 3030.9399 -280.07599 1.8403113e-38
-326.25601 3043.8401 -280.65399 1.8403113e-38
-333.63199 3056.95 -282.577 1.8403113e-38
-328.845 3067.3999 -280.27399 1.8403113e-38
-338.69199 3081.6201 -283.02399 1.8403113e-38
-341.495 3105.9299 -282.67899 1.8403113e-38
-340.77802 3118.03 -281.74799 1.8403113e-38
-344.73999 3130.78 -282.46301 1.8403113e-38
-342.01401 3142.27 -280.84299 1.8403113e-38
-345.74399 3155.1599 -281.46701 1.8403113e-38
-343.686 3167.03 -280.06699 1.8403113e-38
-346.297 3179.6899 -280.30099 1.8403113e-38
-358.93701 3198.01 -283.828 1.8403113e-38
-355.142 3208.22 -281.89401 1.8403113e-38
-366.55099 3226.53 -284.979 1.8403113e-38
-359.927 3235.5901 -282.09201 1.8403113e-38
-364.16501 3263.28 -282.07501 1.8403113e-38
-389.29099 3458.0901 -280.26901 1.8403113e-38
-254.328 2599.8999 -279.49301 1.8403113e-38
-253.323 2609.45 -278.60001 1.8403113e-38
-252.32001 2619.9399 -277.655 1.8403113e-38
-259.60101 2628.9099 -279.77399 1.8403113e-38
-259.367 2639.3799 -279.108 1.8403113e-38
-258.04901 2648.8999 -278.104 1.8403113e-38
-279.84601 2759.6699 -279.77899 1.8403113e-38
-282.72501 2780.1399 -279.67401 1.8403113e-38
-291.28101 2831.6399 -279.88501 1.8403113e-38
-313.918 2984.24 -279.534 1.8403113e-38
-318.496 3007.47 -279.88699 1.8403113e-38
-331.004 3091.1499 -279.729 1.8403113e-38
-353.67801 3246.03 -279.263 1.8403113e-38
-359.409 3274.5801 -279.73499 1.8403113e-38
-332.76999 3273.51 -270.21301 1.8403113e-38
-377.67599 3406.5 -278.96301 1.8403113e-38
-378.26099 3421.9199 -278.315 1.8403113e-38
-380.07999 3436.8401 -278.13901 1.8403113e-38
-385.89499 3470.0901 -278.379 1.8403113e-38
-383.384 3484.22 -276.69 1.8403113e-38
-391.77802 3504.3 -278.59201 1.8403113e-38
-388.92999 3518.55 -276.77399 1.8403113e-38
-395.314 3537.8301 -277.99701 1.8403113e-38
-396.07199 3554.98 -277.315 1.8403113e-38
-396.54199 3570.5701 -276.617 1.8403113e-38
-403.93701 3593.0601 -278.02399 1.8403113e-38
-403.25299 3608.25 -276.93301 1.8403113e-38
-407.06799 3628.7 -277.16699 1.8403113e-38
-408.32501 3645.8201 -276.66599 1.8403113e-38
-404.07401 3660.48 -274.32001 1.8403113e-38
-405.73099 3678.3301 -273.923 1.8403113e-38
-410.151 3700.45 -274.28201 1.8403113e-38
-324.92999 3361.98 -262.46799 1.8403113e-38
-474.14001 4268.0298 -265.70599 1.8403113e-38
-298.104 3269.0601 -257.992 1.8403113e-38
-435.33899 4195.6401 -255.778 1.8403113e-38
-282.08301 3323.22 -249.215 1.8403113e-38
-393.47501 4119.21 -244.97501 1.8403113e-38
-412.55099 4274.1699 -243.211 1.8403113e-38
-396.763 4279.9399 -237.211 1.8403113e-38
-208.03799 3233.3999 -227.58099 1.8403113e-38
-200.14 3241.3601 -224.297 1.8403113e-38
-192.621 3248.3 -221.20599 1.8403113e-38
-195.509 3262.1899 -221.472 1.8403113e-38
-341.91501 4132.0498 -225.715 1.8403113e-38
-338.73801 4151.9702 -223.463 1.8403113e-38
-376.15201 4281.8599 -229.69 1.8403113e-38
-365.04999 4293.6001 -225.04401 1.8403113e-38
358.32199 -279.38101 -219.396 1.8403113e-38
-327.52399 4298.52 -211.272 1.8403113e-38
-349.09201 4301.4902 -218.86501 1.8403113e-38
-204.149 3544.9199 -208.843 1.8403113e-38
-182.879 3542.6001 -201.321 1.8403113e-38
-311.00699 4305.1899 -204.96001 1.8403113e-38
-154.30901 3532.05 -191.631 1.8403113e-38
-170.653 3656.78 -190.56799 1.8403113e-38
-230.287 3906.2 -198.13499 1.8403113e-38
-294.63901 4309.0601 -198.85699 1.8403113e-38
-274.23401 4309.6201 -191.487 1.8403113e-38
-342.95801 4648.54 -197.341 1.8403113e-38
423.45801 -9.5345802 -180.94701 1.8403113e-38
-260.64401 4317.21 -186.17599 1.8403113e-38
-247.317 4328.1099 -180.77499 1.8403113e-38
-260.17599 4377.1802 -182.66901 1.8403113e-38
447.61401 8.4085999 -171.25999 1.8403113e-38
-106.333 3505.1399 -175.873 1.8403113e-38
-133.46899 3635.5701 -178.373 1.8403113e-38
-117.917 3636.8899 -172.70599 1.8403113e-38
-257.444 4471.3701 -176.444 1.8403113e-38
470.375 0.57779002 -163.509 1.8403113e-38
-78.357002 3493.53 -166.457 1.8403113e-38
-61.505199 3492.79 -160.437 1.8403113e-38
-109.978 3644.1899 -169.44501 1.8403113e-38
-107.979 3659.3101 -167.884 1.8403113e-38
-94.516701 3660.79 -162.959 1.8403113e-38
-191.79401 4300.75 -162.328 1.8403113e-38
-189.709 4326.1602 -160.16299 1.8403113e-38
490.10199 -14.6106 -157.258 1.8403113e-38
-49.653198 3495 -156.05 1.8403113e-38
-39.313 3499.8401 -152.062 1.8403113e-38
-48.595501 3522.0701 -154.16299 1.8403113e-38
-86.294899 3669.3799 -159.524 1.8403113e-38
-78.779503 3677.1001 -156.39101 1.8403113e-38
-78.239197 3694.3301 -155.237 1.8403113e-38
-78.284103 3710.8401 -154.33501 1.8403113e-38
516.91699 12.5953 -146.099 1.8403113e-38
541.17401 41.380798 -135.772 1.8403113e-38
568.09497 81.0597 -123.88 1.8403113e-38
590.01599 95.478401 -115.193 1.8403113e-38
614.84601 123.796 -104.686 1.8403113e-38
636.21301 139.655 -96.116997 1.8403113e-38
660.38202 172.457 -85.598 1.8403113e-38
681.16901 190.741 -77.1035 1.8403113e-38
721.92603 173.935 -63.3792 1.8403113e-38
702.97803 193.13901 -69.125702 1.8403113e-38
150.05701 3836.49 -65.208603 1.8403113e-38
762.716 133.92 -50.934601 1.8403113e-38
743.03198 147.802 -57.242298 1.8403113e-38
784.57001 108.161 -44.507999 1.8403113e-38
227.02 3722.25 -43.885101 1.8403113e-38
827.39502 64.276299 -31.547001 1.8403113e-38
804.763 91.638298 -38.164501 1.8403113e-38
243.054 3714.7 -38.537998 1.8403113e-38
253.34399 3715.1599 -34.811798 1.8403113e-38
266.29599 3712.48 -30.301901 1.8403113e-38
847.55603 93.0597 -22.693001 1.8403113e-38
273.26801 3718.8401 -27.440001 1.8403113e-38
285.21799 3717.6599 -23.207399 1.8403113e-38
960.15002 -482.646 -14.2392 1.8403113e-38
893.03998 4.40658 -11.2676 1.8403113e-38
871.56 24.170099 -17.893801 1.8403113e-38
296.73401 3715 -19.213301 1.8403113e-38
305.91501 3718.8899 -15.6949 1.8403113e-38
317.327 3715.98 -11.7519 1.8403113e-38
914.59998 46.783699 -1.15378 1.8403113e-38
328.20401 3716.0601 -7.8348198 1.8403113e-38
348.20801 3717.26 -0.572887 1.8403113e-38
336.13501 3720.1201 -4.75632 1.8403113e-38
359.37799 3713.8601 3.2553699 1.8403113e-38
368.116 3718.03 6.6308498 1.8403113e-38
1104.12 -973.51703 10.2212 1.8403113e-38
993.06201 -176.22 14.6553 1.8403113e-38
378.78699 3715.3201 10.3177 1.8403113e-38
388.68201 3716.54 13.945 1.8403113e-38
398.86499 3714.52 17.495199 1.8403113e-38
1124.25 -841.69098 24.799601 1.8403113e-38
1012.56 -102.046 25.7957 1.8403113e-38
410.90399 3709.96 21.5718 1.8403113e-38
418.08099 3715.1499 24.442101 1.8403113e-38
429.64099 3711.28 28.3848 1.8403113e-38
1151.17 -832.39801 35.001301 1.8403113e-38
450.32101 3706.5801 35.561501 1.8403113e-38
438.233 3712.5701 31.5471 1.8403113e-38
457.20901 3712.3899 38.362801 1.8403113e-38
1181.64 -830.54797 46.064098 1.8403113e-38
469.14499 3706.1599 42.308701 1.8403113e-38
477.01501 3708.98 45.296501 1.8403113e-38
486.33499 3710.1001 48.7117 1.8403113e-38
1209.25 -828.70801 56.097599 1.8403113e-38
495.42599 3708.96 51.9175 1.8403113e-38
505.00601 3708.9399 55.362301 1.8403113e-38
512.62097 3712.3999 58.294102 1.8403113e-38
1268.8101 -1065.51 64.340599 1.8403113e-38
523.27802 3708.3501 61.901901 1.8403113e-38
542.21997 3704.51 68.500999 1.8403113e-38
531.172 3710.7 64.871696 1.8403113e-38
1298.13 -1061.9399 75.085197 1.8403113e-38
549.83698 3707.6499 71.415703 1.8403113e-38
564.40601 3703.22 76.409599 1.8403113e-38
1330.86 -1060.66 86.927399 1.8403113e-38
576.10901 3710.27 81.011299 1.8403113e-38
568.13098 3783.3701 82.210602 1.8403113e-38
568.70502 3826.5601 84.820999 1.8403113e-38
569.46002 3867.6499 87.379898 1.8403113e-38
1361 -1062.48 97.666603 1.8403113e-38
614.336 3735.97 96.191704 1.8403113e-38
624.008 3733.72 99.545403 1.8403113e-38
581.87299 3857.97 91.306198 1.8403113e-38
1395.3 -1070.47 109.559 1.8403113e-38
630.92603 3742.0701 102.499 1.8403113e-38
644.50751 3741.29 107.34 1.8403113e-38
