# .PCD v0.7 - Point Cloud Data file format
VERSION 0.7
FIELDS x y z rgb
SIZE 4 4 4 4
TYPE F F F F
COUNT 1 1 1 1
WIDTH 351
HEIGHT 1
VIEWPOINT 0 0 0 1 0 0 0
POINTS 351
DATA ascii
-1355.58 1850.34 -285.29999 1.8403113e-38
-1353.83 1863.45 -283.978 1.8403113e-38
-1360.41 1873.89 -285.79599 1.8403113e-38
-1354.49 1889.5699 -282.832 1.8403113e-38
-1360.04 1900.54 -284.25101 1.8403113e-38
-1356.97 1913.9301 -282.439 1.8403113e-38
-1356.6899 1928.48 -281.56799 1.8403113e-38
-1370.2 1931.09 -286.298 1.8403113e-38
-1378.59 1940.2 -288.83499 1.8403113e-38
-1378.3101 1951.47 -288.14001 1.8403113e-38
-1369.39 1970.8101 -283.905 1.8403113e-38
-1380.11 1989.22 -286.79001 1.8403113e-38
-1366.38 1983.33 -282.16 1.8403113e-38
-1381.04 1999.4 -286.58801 1.8403113e-38
-1388.03 2009.1899 -288.58801 1.8403113e-38
-1378.76 2024.6899 -284.431 1.8403113e-38
-1389.74 2032.3101 -287.98001 1.8403113e-38
-1387.77 2043.71 -286.66901 1.8403113e-38
-1376.6 2062.4299 -281.65601 1.8403113e-38
-1381.16 2070.3101 -282.883 1.8403113e-38
-1378.15 2084.6201 -281.04199 1.8403113e-38
-1382.5601 2092.53 -282.21301 1.8403113e-38
-1385.3101 2104 -282.59601 1.8403113e-38
-1386.13 2113.5 -282.39099 1.8403113e-38
-1388.6801 2124.96 -282.70001 1.8403113e-38
-1388.46 2134.8 -282.10199 1.8403113e-38
-1404.77 2140.5801 -287.67001 1.8403113e-38
-1394.78 2154.3101 -283.34799 1.8403113e-38
-1395.17 2166.46 -282.84299 1.8403113e-38
-1391.96 2177.21 -281.11899 1.8403113e-38
-1395.65 2187.98 -281.87799 1.8403113e-38
-1398.46 2196.4199 -282.44501 1.8403113e-38
-1401.97 2207.25 -283.13699 1.8403113e-38
-1397.5 2218.1101 -280.953 1.8403113e-38
-1402.6 2228.3501 -282.24899 1.8403113e-38
-1400.63 2238.24 -281.01801 1.8403113e-38
-1405.5601 2248.54 -282.24799 1.8403113e-38
-1407.9399 2257.05 -282.65399 1.8403113e-38
-1409.08 2268.47 -282.461 1.8403113e-38
-1407.6899 2277.99 -281.45499 1.8403113e-38
-1414.08 2287.95 -283.233 1.8403113e-38
-1415.27 2296.75 -283.19299 1.8403113e-38
-1413.28 2308.8401 -281.841 1.8403113e-38
-1416.14 2317.1799 -282.42899 1.8403113e-38
-1419.46 2327.96 -283.05301 1.8403113e-38
-1416.67 2337.55 -281.54099 1.8403113e-38
-1417.96 2348.73 -281.41501 1.8403113e-38
-1417.77 2357.6699 -280.87299 1.8403113e-38
-1424.42 2367.8201 -282.73099 1.8403113e-38
-1421.3101 2377.27 -281.11099 1.8403113e-38
-1424.08 2388.1499 -281.534 1.8403113e-38
-1425.25 2408.1101 -280.90302 1.8403113e-38
-1424.62 2417.01 -280.20401 1.8403113e-38
-1440.4 2526.75 -280.08301 1.8403113e-38
-1446.09 2555.3999 -280.61899 1.8403113e-38
-1448.26 2575.45 -280.341 1.8403113e-38
-1452.76 2606.96 -280.29501 1.8403113e-38
-1458.2 2616.0701 -281.772 1.8403113e-38
-1455.02 2627.26 -280.03699 1.8403113e-38
-1489.15 2850.8999 -280.50299 1.8403113e-38
-1559.63 3335.4199 -280.26901 1.8403113e-38
-1563.92 3355.1299 -280.76999 1.8403113e-38
-1093.2 283.362 -273.65799 1.8403113e-38
-1093.9301 353.306 -270.22501 1.8403113e-38
-1101.41 384.828 -271.25101 1.8403113e-38
-1110.58 424.633 -272.448 1.8403113e-38
-1418.95 2397.79 -279.17801 1.8403113e-38
-1421.4399 2428.6499 -278.44199 1.8403113e-38
-1422.52 2437.26 -278.37601 1.8403113e-38
-1424.74 2448.1799 -278.60001 1.8403113e-38
-1428.49 2456.53 -279.50699 1.8403113e-38
-1427.73 2467.78 -278.63901 1.8403113e-38
-1425.72 2476.6599 -277.44501 1.8403113e-38
-1429.46 2487.51 -278.21799 1.8403113e-38
-1431.05 2496.1101 -278.33701 1.8403113e-38
-1432.74 2507.1699 -278.35999 1.8403113e-38
-1431.37 2515.9299 -277.40601 1.8403113e-38
-1439.83 2535.52 -279.41599 1.8403113e-38
-1433.63 2546.8 -276.58801 1.8403113e-38
-1441.59 2566.6299 -278.40399 1.8403113e-38
-1445.46 2586.6499 -278.73901 1.8403113e-38
-1447.28 2595.48 -278.92899 1.8403113e-38
-1453.73 2636.04 -279.108 1.8403113e-38
-1456.01 2647.5701 -279.319 1.8403113e-38
-1453.64 2656.25 -278.005 1.8403113e-38
-1458.54 2668.1001 -279.14499 1.8403113e-38
-1453.21 2676.47 -276.78101 1.8403113e-38
-1459.79 2688.6299 -278.509 1.8403113e-38
-1464.62 2698.2 -279.742 1.8403113e-38
-1462.5699 2709.48 -278.40799 1.8403113e-38
-1468.17 2719.3 -279.905 1.8403113e-38
-1460.33 2729.74 -276.52899 1.8403113e-38
-1470.4301 2740.4099 -279.604 1.8403113e-38
-1460.55 2750.4299 -275.51401 1.8403113e-38
-1470.47 2761.3101 -278.51401 1.8403113e-38
-1471.5699 2773.29 -278.27399 1.8403113e-38
-1477.59 2783.72 -279.89001 1.8403113e-38
-1471.98 2794.47 -277.30399 1.8403113e-38
-1472.28 2803.8201 -276.91599 1.8403113e-38
-1479.42 2817.3999 -278.76999 1.8403113e-38
-1484.16 2827.9399 -279.918 1.8403113e-38
-1483.6899 2839.98 -279.112 1.8403113e-38
-1484.8 2862.04 -278.34698 1.8403113e-38
-1487.33 2872.3501 -278.71399 1.8403113e-38
-1492.8199 2886.3101 -279.95401 1.8403113e-38
-1487.88 2894.6101 -277.73401 1.8403113e-38
-1494.95 2909.28 -279.50299 1.8403113e-38
-1492.5699 2918.3999 -278.164 1.8403113e-38
-1495.75 2932.1201 -278.58499 1.8403113e-38
-1499.52 2943.3601 -279.34698 1.8403113e-38
-1498.84 2956.02 -278.435 1.8403113e-38
-1500.61 2966.76 -278.504 1.8403113e-38
-1497.92 2978.8101 -276.897 1.8403113e-38
-1502.17 2990.6299 -277.80399 1.8403113e-38
-1508.14 3006.1499 -279.13199 1.8403113e-38
-1511.26 3017.8301 -279.64099 1.8403113e-38
-1514.27 3032.54 -279.94601 1.8403113e-38
-1512.77 3042.54 -278.87601 1.8403113e-38
-1509.36 3054.74 -277.00299 1.8403113e-38
-1554.4399 3319.0701 -279.26099 1.8403113e-38
-1562.34 3367.4299 -279.55099 1.8403113e-38
-1601.75 3734.03 -274.35999 1.8403113e-38
-1598.36 3748.6201 -272.36801 1.8403113e-38
-1623.4 3858.8201 -275.561 1.8403113e-38
-1623.74 3884.3799 -274.33099 1.8403113e-38
-1079.58 267.771 -269.577 1.8403113e-38
-1309.65 1868.6899 -267.79099 1.8403113e-38
-1568.04 3742.04 -261.797 1.8403113e-38
-1596.36 3788.1499 -269.55899 1.8403113e-38
-1586.5699 3802.0801 -265.297 1.8403113e-38
-1033.72 280.73401 -252.38 1.8403113e-38
-1049.11 290.32999 -257.414 1.8403113e-38
-1484.97 3331.5701 -253.586 1.8403113e-38
-1557.76 3858.77 -251.925 1.8403113e-38
-1429.8199 3030.5 -249.64301 1.8403113e-38
-1530.62 3805.1101 -244.98801 1.8403113e-38
-1396.01 3028.0901 -237.59399 1.8403113e-38
-1398.84 3039.1899 -238.028 1.8403113e-38
-1396.3 3050.6599 -236.507 1.8403113e-38
-1404.1 3064.3701 -238.59 1.8403113e-38
-1388.4399 3069.54 -232.677 1.8403113e-38
-1385.38 3090.8999 -230.444 1.8403113e-38
-1387.61 3102.24 -230.651 1.8403113e-38
-1525.92 3934.47 -236.45599 1.8403113e-38
-1533.47 3970.4299 -237.27499 1.8403113e-38
-980.74298 385.798 -227.746 1.8403113e-38
-1191.5601 1945.29 -221.216 1.8403113e-38
-1359.23 3064.8 -222.409 1.8403113e-38
-1380.23 3111.3899 -227.507 1.8403113e-38
-1372.17 3117.22 -224.297 1.8403113e-38
-1379.73 3134.6599 -226.099 1.8403113e-38
-1365.71 3137.0601 -220.922 1.8403113e-38
-1376.29 3156.6001 -223.69901 1.8403113e-38
-1377.9 3168.1699 -223.666 1.8403113e-38
-1376.54 3181.0801 -222.495 1.8403113e-38
-1388.55 3199.3799 -225.85201 1.8403113e-38
-1411.39 3292.95 -229.12801 1.8403113e-38
-1484.7 3797.8 -228.839 1.8403113e-38
-1466.27 3801.1101 -222.02699 1.8403113e-38
-1479.4301 3834.95 -224.97701 1.8403113e-38
-1479.97 3860.3999 -223.827 1.8403113e-38
-1155.55 1902.71 -210.49899 1.8403113e-38
-1378.78 3285.1399 -217.80099 1.8403113e-38
-1371.33 3291.55 -214.778 1.8403113e-38
-1370.95 3306.46 -213.854 1.8403113e-38
-1361.83 3311.6001 -210.295 1.8403113e-38
-1387.52 3375.4199 -216.173 1.8403113e-38
-1382.52 3384.2 -213.91 1.8403113e-38
-1388.5601 3405.72 -214.946 1.8403113e-38
-1378.11 3410.1499 -210.951 1.8403113e-38
-1403.01 3526.8601 -213.74699 1.8403113e-38
-826.42902 -316.45599 -209.30299 1.8403113e-38
-805.29102 -318.547 -201.80099 1.8403113e-38
-885.97101 104.04 -208.51401 1.8403113e-38
-865.57397 112.186 -200.73801 1.8403113e-38
-1120.49 1859.74 -200.144 1.8403113e-38
-1127.05 1864.7 -202.245 1.8403113e-38
-1131.45 1874.7 -203.302 1.8403113e-38
-1134.34 1882.9399 -203.908 1.8403113e-38
-1139.83 1902.46 -204.85001 1.8403113e-38
-1128.4301 1901.73 -200.785 1.8403113e-38
-1133.84 1931.0601 -201.18201 1.8403113e-38
-1133.08 1944.58 -200.19299 1.8403113e-38
-1153.51 1956.1951 -206.93701 1.8403113e-38
-1361.1899 3326.52 -209.27699 1.8403113e-38
-1351.96 3331.5 -205.69 1.8403113e-38
-1354.14 3406.6101 -202.506 1.8403113e-38
-1351.84 3417.6899 -201.09 1.8403113e-38
-1433.87 3870.0901 -206.71201 1.8403113e-38
-777.034 -312.66101 -191.315 1.8403113e-38
-840.17999 120.312 -191.164 1.8403113e-38
-1113.63 1846.395 -198.38 1.8403113e-38
-1092.9 1846.55 -190.907 1.8403113e-38
-1127.89 1958.61 -197.58501 1.8403113e-38
-1329.48 3414.8701 -193.187 1.8403113e-38
-1343.01 3440.1201 -196.72301 1.8403113e-38
-1346.53 3460.6299 -196.908 1.8403113e-38
-756.63397 -319.27399 -184.31799 1.8403113e-38
-807.82898 -44.5303 -188.229 1.8403113e-38
-822.672 115.214 -185.129 1.8403113e-38
-895.18597 634.34399 -183.79601 1.8403113e-38
-728.81 -314.827 -174.063 1.8403113e-38
-799.44897 113.077 -176.879 1.8403113e-38
-872.19397 647.72302 -174.80901 1.8403113e-38
-707.05902 -310.18201 -165.985 1.8403113e-38
-831.12201 614.67999 -161.765 1.8403113e-38
-835.24298 659.18201 -160.897 1.8403113e-38
-852.14099 667.375 -166.549 1.8403113e-38
-1017.01 1784.23 -166.875 1.8403113e-38
-1003.55 1784.8101 -161.99699 1.8403113e-38
-1024.97 1889.87 -164.153 1.8403113e-38
-1016.67 1887.89 -161.27 1.8403113e-38
-1031.9399 1896.2 -166.33 1.8403113e-38
-680.23602 -312.125 -156.429 1.8403113e-38
-805.95398 573.78497 -154.864 1.8403113e-38
-812.80798 610.55103 -155.38901 1.8403113e-38
-994.19702 1784.05 -158.668 1.8403113e-38
-991.44598 1826.38 -155.439 1.8403113e-38
-992.63702 1839.62 -155.168 1.8403113e-38
-990.909 1852.78 -153.85001 1.8403113e-38
-991.10303 1866.61 -153.189 1.8403113e-38
-1004.62 1876.42 -157.536 1.8403113e-38
-993.59198 1874.65 -153.66 1.8403113e-38
-1008.97 1882.4301 -158.787 1.8403113e-38
-658.745 -308.05701 -148.474 1.8403113e-38
-631.43201 -303.54001 -138.39999 1.8403113e-38
-610.71997 -306.01199 -131.07201 1.8403113e-38
-844.05701 1221.0601 -134.36501 1.8403113e-38
-583.56799 -300.98001 -121.028 1.8403113e-38
-917.25897 1865.3101 -126.665 1.8403113e-38
-900.84399 1875.25 -120.229 1.8403113e-38
-562.88202 -303.06201 -113.689 1.8403113e-38
-895.552 1868.05 -118.704 1.8403113e-38
-884.63898 1871.4 -114.596 1.8403113e-38
-304.30499 -1962.87 -108.324 1.8403113e-38
-535.78003 -295.52899 -103.531 1.8403113e-38
-782.724 1427 -101.391 1.8403113e-38
-790.61102 1431.5 -103.993 1.8403113e-38
-792.22803 1459.13 -103.115 1.8403113e-38
-870.75702 1864.8101 -109.946 1.8403113e-38
-856.04297 1865.33 -104.62 1.8403113e-38
-845.28198 1860.52 -100.999 1.8403113e-38
-870.67297 1876.05 -109.322 1.8403113e-38
-262.27701 -1973.8 -93.767303 1.8403113e-38
-515.14099 -297.22198 -96.1884 1.8403113e-38
-782.13397 1508.52 -96.868301 1.8403113e-38
-835.26099 1863.8 -97.217003 1.8403113e-38
-826.03003 1862.88 -93.941597 1.8403113e-38
-817.73602 1863.95 -90.897903 1.8403113e-38
-229.67101 -1970.45 -81.848701 1.8403113e-38
-488.397 -292.16901 -86.290398 1.8403113e-38
-767.10199 1574.13 -87.986603 1.8403113e-38
-767.10901 1594.8101 -86.896004 1.8403113e-38
-768.00201 1618.1801 -85.981796 1.8403113e-38
-759.95898 1655.83 -81.095001 1.8403113e-38
-770.55298 1732.52 -80.855499 1.8403113e-38
-773.52802 1742.08 -81.421097 1.8403113e-38
-784.83197 1754.37 -84.8423 1.8403113e-38
-779.37903 1750 -83.109497 1.8403113e-38
-790.513 1762.37 -86.465302 1.8403113e-38
-786.09698 1784.86 -83.685898 1.8403113e-38
-780.086 1813.33 -80.0159 1.8403113e-38
-811.18402 1859.16 -88.792 1.8403113e-38
-803.46301 1859.59 -85.988701 1.8403113e-38
-793.83002 1859.9301 -82.501801 1.8403113e-38
-1015.96 3374.4299 -82.425598 1.8403113e-38
-1024.67 3444.8899 -81.833603 1.8403113e-38
-467.79099 -293.47699 -78.938904 1.8403113e-38
-759.17297 1680.75 -79.494698 1.8403113e-38
-755.40198 1706.41 -76.7798 1.8403113e-38
-761.28198 1715.1 -78.437599 1.8403113e-38
-763.21899 1727.3101 -78.489899 1.8403113e-38
-776.42603 1832.98 -77.659203 1.8403113e-38
-784.04901 1848.51 -79.583504 1.8403113e-38
-775.90802 1850.1 -76.567497 1.8403113e-38
-785.18298 1862.22 -79.267097 1.8403113e-38
-1003.47 3371.0801 -78.104202 1.8403113e-38
-992.47198 3372.8701 -74.047897 1.8403113e-38
-983.11298 3373.1299 -70.664001 1.8403113e-38
-1015.45 3446.1299 -78.450203 1.8403113e-38
-187.84 -1969.62 -66.7407 1.8403113e-38
-343.57401 -898.99298 -66.220001 1.8403113e-38
-441.39301 -294.90799 -69.5084 1.8403113e-38
-420.77399 -295.83499 -62.1325 1.8403113e-38
-960.638 3387.9099 -61.7892 1.8403113e-38
-394.36499 -296.77701 -52.6721 1.8403113e-38
-942.75299 3375.72 -55.993099 1.8403113e-38
-937.573 3384.79 -53.648102 1.8403113e-38
-373.80399 -318.29099 -46.405102 1.8403113e-38
-905.83203 3374.1899 -42.778549 1.8403113e-38
-925.565 3380.3401 -49.559101 1.8403113e-38
-186.138 -1300.8199 -30.7698 1.8403113e-38
-895.495 3381.74 -38.656799 1.8403113e-38
-889.64398 3385.9099 -36.329399 1.8403113e-38
-886.69299 3405.425 -34.23505 1.8403113e-38
-878.76202 3417.3501 -30.7481 1.8403113e-38
-80.201401 -1974.48 -28.236099 1.8403113e-38
-876.68402 3428.21 -29.426001 1.8403113e-38
-871.23499 3437.6299 -26.9659 1.8403113e-38
-866.93799 3445.04 -25.0268 1.8403113e-38
-863.67297 3458.73 -23.1271 1.8403113e-38
-859.16699 3466.1101 -21.114201 1.8403113e-38
-45.9832 -1866.4 -10.2 1.8403113e-38
-855.09698 3478.9299 -18.9708 1.8403113e-38
-843.46301 3473.0901 -15.0901 1.8403113e-38
-833.29999 3474.3201 -11.3649 1.8403113e-38
-837.95697 3500.1499 -11.6764 1.8403113e-38
-847.80103 3542.3101 -12.993 1.8403113e-38
-851.60699 3568.4399 -12.9818 1.8403113e-38
-890.32501 3747.1799 -17.4751 1.8403113e-38
-888.01703 3796.7 -14.0258 1.8403113e-38
-900.38599 3800.8101 -18.2624 1.8403113e-38
-174.41 -869.34601 -3.7350399 1.8403113e-38
-841.10498 3570.5801 -9.0870304 1.8403113e-38
-832.63202 3571.5701 -5.9835601 1.8403113e-38
-836.89801 3606.1299 -5.69238 1.8403113e-38
-864.44299 3797.5 -5.4941702 1.8403113e-38
-849.81702 3794.0701 -0.408461 1.8403113e-38
-876.30603 3800.9399 -9.5841503 1.8403113e-38
-30.617001 -1656 6.4570799 1.8403113e-38
-823.34497 3785.6699 8.6801596 1.8403113e-38
-838.12201 3790.3601 3.6070499 1.8403113e-38
37.380402 -1981.7 13.7245 1.8403113e-38
71.228104 -1990.86 25.429001 1.8403113e-38
113.495 -1989.89 40.701302 1.8403113e-38
-650.46503 3364.1201 48.649502 1.8403113e-38
-684.56097 3434.29 40.081001 1.8403113e-38
145.685 -1981.52 52.735901 1.8403113e-38
-644.71503 3366.3101 50.835602 1.8403113e-38
-637.646 3369.98 53.575298 1.8403113e-38
-626.13251 3367.1851 57.5737 1.8403113e-38
189.953 -1996.63 67.8778 1.8403113e-38
-616.20801 3369 61.2435 1.8403113e-38
-604.18103 3366.605 65.448105 1.8403113e-38
-593.62201 3368.8401 69.368599 1.8403113e-38
-584.50403 3373.075 72.876099 1.8403113e-38
-575.07703 3376.24 76.438202 1.8403113e-38
-569.755 3386.98 78.922096 1.8403113e-38
208.91299 -1885.51 80.581001 1.8403113e-38
-536.79901 3366.1599 89.689598 1.8403113e-38
-561.96198 3380.73 81.398102 1.8403113e-38
-554.59253 3396.9351 84.90905 1.8403113e-38
264.125 -1983.12 95.302597 1.8403113e-38
-509.642 3326.8899 97.393097 1.8403113e-38
-517.05701 3335.6101 95.183701 1.8403113e-38
-528.198 3353.71 92.128998 1.8403113e-38
297.95401 -1986.41 107.311 1.8403113e-38
-484.414 3295.8701 104.838 1.8403113e-38
-495.259 3302.6201 101.289 1.8403113e-38
-480.05801 3302.6399 106.764 1.8403113e-38
-473.67099 3306.6399 109.276 1.8403113e-38
