# .PCD v0.7 - Point Cloud Data file format
VERSION 0.7
FIELDS x y z rgb
SIZE 4 4 4 4
TYPE F F F F
COUNT 1 1 1 1
WIDTH 337
HEIGHT 1
VIEWPOINT 0 0 0 1 0 0 0
POINTS 337
DATA ascii
64.526398 1064.46 -282 1.8403113e-38
57.812901 1072.96 -280.021 1.8403113e-38
7.2227898 1086.88 -282.06201 1.8403113e-38
-12.983 1093.6801 -282.45999 1.8403113e-38
11.0181 1090.35 -280.383 1.8403113e-38
-182.295 1165.17 -280.871 1.8403113e-38
-242.817 1185.75 -281.987 1.8403113e-38
-597.35303 1315.97 -285.255 1.8403113e-38
-658.276 1336.74 -286.35999 1.8403113e-38
-611.58197 1335.95 -280.39099 1.8403113e-38
-707.39502 1374.39 -280.17599 1.8403113e-38
1881.22 382.55399 -270.215 1.8403113e-38
1284.8101 615.98901 -270.84399 1.8403113e-38
1215.6 636.784 -273.04901 1.8403113e-38
1143.75 663.86603 -273.47699 1.8403113e-38
1080.62 683.55798 -275.241 1.8403113e-38
1054.13 705.698 -271.284 1.8403113e-38
1009.53 716.46399 -273.59601 1.8403113e-38
989.00098 732.13898 -271.03101 1.8403113e-38
945.25 744.09302 -272.828 1.8403113e-38
931.59399 751.53003 -272.134 1.8403113e-38
886.86902 766.95001 -272.88699 1.8403113e-38
870.62598 778.68597 -271.08301 1.8403113e-38
833.52899 785.59003 -273.70099 1.8403113e-38
817.05798 798.46802 -271.54099 1.8403113e-38
781.14502 805.49103 -273.95999 1.8403113e-38
766.10999 817.07599 -272.04599 1.8403113e-38
730.28003 825.80402 -273.87701 1.8403113e-38
679.88702 848.13599 -273.047 1.8403113e-38
626.48297 867.354 -273.673 1.8403113e-38
636.55798 861.591 -274.27899 1.8403113e-38
665.00299 861.16699 -270.62299 1.8403113e-38
591.99902 879.38898 -274.20499 1.8403113e-38
581.16498 887.06299 -273.05399 1.8403113e-38
550.185 894.77802 -274.57999 1.8403113e-38
540.98602 900.10901 -274.004 1.8403113e-38
473.70801 918.755 -276.677 1.8403113e-38
508.67599 911.94397 -274.31201 1.8403113e-38
495.142 926.08099 -271.33401 1.8403113e-38
436.19601 932.39301 -277.07001 1.8403113e-38
457.42401 939.20697 -271.92801 1.8403113e-38
423.73599 946.138 -274.08099 1.8403113e-38
397.30701 951.21997 -275.89001 1.8403113e-38
387.22101 960.79602 -273.995 1.8403113e-38
357.68799 974.42102 -273.327 1.8403113e-38
290.841 986.83002 -278.05499 1.8403113e-38
317.77701 988.81598 -273.784 1.8403113e-38
323.58801 987.78003 -273.35901 1.8403113e-38
346.32401 987.74597 -270.33401 1.8403113e-38
266.59698 992.20898 -279.47198 1.8403113e-38
293.72601 992.86603 -275.62601 1.8403113e-38
256.104 1006.1 -276.17001 1.8403113e-38
229.709 1019.26 -275.242 1.8403113e-38
195.29201 1028.5 -276.70901 1.8403113e-38
223.815 1021.54 -275.255 1.8403113e-38
145.797 1038.64 -279.88699 1.8403113e-38
170.77499 1039.9 -276.12399 1.8403113e-38
196.72701 1038.87 -273.00699 1.8403113e-38
139.33 1044.01 -278.93399 1.8403113e-38
163.90601 1046.08 -274.95001 1.8403113e-38
115.349 1057.22 -277.66299 1.8403113e-38
82.704002 1069.92 -277.72198 1.8403113e-38
109.06 1062.71 -276.64499 1.8403113e-38
86.149902 1074.53 -275.703 1.8403113e-38
34.5406 1090.24 -277.27899 1.8403113e-38
-39.880798 1115.3101 -278.73099 1.8403113e-38
-21.8955 1117.53 -275.57599 1.8403113e-38
24.739201 1113.8 -270.60901 1.8403113e-38
-66.492302 1126.8301 -278.384 1.8403113e-38
-47.013802 1131.76 -274.11301 1.8403113e-38
-93.973602 1149.24 -274.46701 1.8403113e-38
-89.162102 1144.86 -275.30801 1.8403113e-38
-136.0285 1153.255 -278.7265 1.8403113e-38
-114.36951 1154.46 -275.42499 1.8403113e-38
-157.36501 1174.27 -274.46201 1.8403113e-38
-200.716 1189.73 -275.017 1.8403113e-38
-179.205 1182.29 -274.66199 1.8403113e-38
-162.112 1182.67 -272.25101 1.8403113e-38
-222.011 1199.41 -274.58301 1.8403113e-38
-204.953 1194.48 -273.974 1.8403113e-38
-267.73999 1206.75 -278.20499 1.8403113e-38
-246.95599 1209.58 -274.47198 1.8403113e-38
-226.17101 1206.13 -272.866 1.8403113e-38
-263.68399 1211.28 -276.13199 1.8403113e-38
-283.98901 1225.75 -273.944 1.8403113e-38
-324.371 1236.76 -275.61099 1.8403113e-38
-306.07599 1234.095 -274.07001 1.8403113e-38
-287.70099 1232.64 -272.10599 1.8403113e-38
-343.76099 1249.33 -273.944 1.8403113e-38
-327.80801 1243.76 -273.70099 1.8403113e-38
-365.74451 1252.135 -275.931 1.8403113e-38
-347.45499 1251.6801 -273.64301 1.8403113e-38
-404.86902 1264.3401 -277.02499 1.8403113e-38
-385.1225 1260.1851 -275.79352 1.8403113e-38
-443.44949 1277.3201 -277.784 1.8403113e-38
-423.85699 1273.005 -276.629 1.8403113e-38
-480.41 1286.9301 -279.46701 1.8403113e-38
-462.67798 1283.34 -278.31299 1.8403113e-38
-498.33899 1298.12 -278.07199 1.8403113e-38
-482.32501 1296.09 -276.62 1.8403113e-38
-520.815 1306.03 -278.396 1.8403113e-38
-516.19 1308.66 -276.88699 1.8403113e-38
-501.608 1300.9 -277.56699 1.8403113e-38
-556.74451 1318.015 -279.13699 1.8403113e-38
-536.961 1315.015 -277.51202 1.8403113e-38
-577.62903 1324.2 -279.83401 1.8403113e-38
-593.71899 1338.58 -277.11499 1.8403113e-38
-571.43799 1331.0699 -276.67999 1.8403113e-38
-612.29102 1345.21 -277.35001 1.8403113e-38
-645.229 1358.84 -277.13501 1.8403113e-38
-630.41602 1353.02 -277.12601 1.8403113e-38
-627.21002 1350.79 -277.45401 1.8403113e-38
-686.37097 1367.99 -279.534 1.8403113e-38
-702.72498 1375.34 -279.229 1.8403113e-38
-662.63147 1373.1001 -274.63049 1.8403113e-38
-718.20697 1388.8199 -276.73199 1.8403113e-38
-735.505 1398.3199 -275.82599 1.8403113e-38
-721.62903 1390.47 -276.63199 1.8403113e-38
-738.89502 1400.02 -275.703 1.8403113e-38
-1808.3 1830.96 -272.64401 1.8403113e-38
-1849.3199 1847.9 -272.38699 1.8403113e-38
-1833.39 1847.0699 -270.54001 1.8403113e-38
-1892.12 1865.48 -272.14999 1.8403113e-38
-1938.59 1883.3 -272.32599 1.8403113e-38
-1925.42 1880.9301 -271.36801 1.8403113e-38
-1988.76 1901.53 -272.85501 1.8403113e-38
-1967.0601 1901.01 -270.13199 1.8403113e-38
-2034.0699 1922.4 -271.84201 1.8403113e-38
-2016.15 1920.49 -270.09399 1.8403113e-38
-2084 1943.5699 -271.34201 1.8403113e-38
-2137.6001 1965.48 -271.08301 1.8403113e-38
-2252.96 2012.78 -270.48001 1.8403113e-38
2474 153.04601 -268.742 1.8403113e-38
2388.6201 207.787 -261.612 1.8403113e-38
2298.8201 223.261 -268.367 1.8403113e-38
2233.8201 263.85699 -263.30399 1.8403113e-38
2142.6399 284.92001 -268.353 1.8403113e-38
2093.7 313.93301 -265.06699 1.8403113e-38
2004.12 337.83301 -268.94101 1.8403113e-38
1964.11 360.673 -266.55099 1.8403113e-38
1829.51 417.76099 -265.202 1.8403113e-38
1758.33 432.724 -269.64301 1.8403113e-38
1713.25 463.55301 -265.228 1.8403113e-38
1648.36 475.88599 -269.71899 1.8403113e-38
1604.77 506.97699 -265.01501 1.8403113e-38
1541.13 521.34497 -268.651 1.8403113e-38
1510.09 541.33502 -266.02899 1.8403113e-38
1452.35 552.53101 -269.95001 1.8403113e-38
1418.46 576.78601 -266.26501 1.8403113e-38
1363.14 588.24298 -269.776 1.8403113e-38
1333.88 608.84198 -266.70901 1.8403113e-38
1261.3199 631.28497 -268.80301 1.8403113e-38
1186.76 659.32397 -269.26901 1.8403113e-38
1116.73 685.47302 -269.76999 1.8403113e-38
708.17902 849.22601 -268.89899 1.8403113e-38
-1782.24 1833.87 -268.17499 1.8403113e-38
-1871.48 1865.66 -269.332 1.8403113e-38
-2067.01 1941.02 -269.93799 1.8403113e-38
-2118.6899 1962.89 -269.43399 1.8403113e-38
-2189.1001 1989.38 -269.86899 1.8403113e-38
-2174.05 1985.62 -269.13199 1.8403113e-38
-2218.55 2011.85 -266.19601 1.8403113e-38
-2281.22 2036.63 -266.17899 1.8403113e-38
-2303.99 2040.03 -268.06799 1.8403113e-38
-2380.0801 2065.53 -269.59601 1.8403113e-38
-2354.3899 2061.9199 -267.388 1.8403113e-38
-2435.3899 2095.78 -266.742 1.8403113e-38
-2409.72 2091.5901 -264.73499 1.8403113e-38
-2593.02 2157.6001 -266.867 1.8403113e-38
-2560.53 2152.6599 -264.203 1.8403113e-38
-2632.4299 2186.99 -262.18399 1.8403113e-38
-2675.72 2192.01 -266.26501 1.8403113e-38
-2754.03 2229.25 -264.11499 1.8403113e-38
-2721.6499 2222.74 -261.995 1.8403113e-38
-2851.5901 2268.4399 -263.88 1.8403113e-38
-2810.3799 2261.3701 -260.767 1.8403113e-38
-2946.6201 2310.8101 -262.22699 1.8403113e-38
-3050.9199 2356.3201 -260.75201 1.8403113e-38
2509.1299 185.002 -253.229 1.8403113e-38
-2417.5601 2127.6599 -253.567 1.8403113e-38
-2412.72 2135.22 -250.362 1.8403113e-38
-2903.52 2302.8 -259.18201 1.8403113e-38
-3004.95 2347.26 -257.677 1.8403113e-38
-3105.6899 2395.03 -254.959 1.8403113e-38
-3163.4299 2405.4199 -259.15601 1.8403113e-38
-3224.49 2446.75 -253.317 1.8403113e-38
-3293.98 2458.9199 -258.479 1.8403113e-38
-3362.24 2503.3899 -252.541 1.8403113e-38
-3426.5901 2516.8799 -256.56799 1.8403113e-38
-3567.0801 2579.8501 -254.015 1.8403113e-38
-3723.26 2648.95 -251.481 1.8403113e-38
2519.46 191.12601 -249.77699 1.8403113e-38
-3495.03 2564.3 -249.65401 1.8403113e-38
-3650.48 2631.6201 -247.62601 1.8403113e-38
-3800.6799 2703.6899 -243.287 1.8403113e-38
-3897.8999 2725.3 -248.95799 1.8403113e-38
-3999.8899 2786.71 -241.787 1.8403113e-38
-4103.6299 2811.4099 -247.28101 1.8403113e-38
-4329.2798 2907.3799 -244.92999 1.8403113e-38
-4585.3599 3015.9099 -242.39 1.8403113e-38
-4900.9399 3143.6399 -241.295 1.8403113e-38
2527.8601 243.59399 -230.89 1.8403113e-38
-1197.9 1716.08 -230.004 1.8403113e-38
-1599.3199 1847.28 -239.203 1.8403113e-38
-1588.26 1846.26 -238.07001 1.8403113e-38
-1544.6801 1841.66 -233.80701 1.8403113e-38
-1601.83 1872.8 -230.897 1.8403113e-38
-1591.72 1871.3 -230.054 1.8403113e-38
-4215.1499 2878.76 -239.37399 1.8403113e-38
-4459.96 2982.78 -236.858 1.8403113e-38
-4739.8398 3101.27 -234.12399 1.8403113e-38
2542.79 246.25101 -227.995 1.8403113e-38
-1177.8101 1733.96 -221.26801 1.8403113e-38
-1295.33 1782.59 -220.49899 1.8403113e-38
-1502.96 1853.01 -224.392 1.8403113e-38
2558.9399 292.25299 -210.26401 1.8403113e-38
-1274.5601 1789.25 -215.47301 1.8403113e-38
-1302.77 1802.3101 -214.819 1.8403113e-38
-1288.72 1805.0699 -212.008 1.8403113e-38
-1310.42 1817.3 -210.763 1.8403113e-38
2559.29 305.67099 -205.674 1.8403113e-38
-1015.09 1731.85 -200.25 1.8403113e-38
-1223.67 1798.67 -205.48599 1.8403113e-38
-1209.88 1802.08 -202.48599 1.8403113e-38
-1312.41 1820.78 -209.851 1.8403113e-38
-1312.8 1839.2 -203.668 1.8403113e-38
-890.95703 1707.625 -191.8685 1.8403113e-38
-1014.36 1736.76 -198.48599 1.8403113e-38
-1024.46 1746.91 -196.401 1.8403113e-38
-1049.52 1754.47 -197.188 1.8403113e-38
-1022.87 1752.38 -194.33501 1.8403113e-38
-1028.92 1765.49 -190.705 1.8403113e-38
-1107.16 1797.89 -190.185 1.8403113e-38
-1167.16 1808.74 -194.528 1.8403113e-38
-1154.37 1812.05 -191.698 1.8403113e-38
-1305.1 1847.21 -199.92599 1.8403113e-38
-1313.4299 1863.7151 -195.452 1.8403113e-38
2575.1899 351.142 -188.15401 1.8403113e-38
2580.1499 361.086 -184.125 1.8403113e-38
-640.49103 1616.88 -189.136 1.8403113e-38
-890.01801 1733.42 -183.011 1.8403113e-38
-885.03802 1733.91 -182.179 1.8403113e-38
-961.40503 1757.58 -184.364 1.8403113e-38
-1032.415 1786.415 -184.08701 1.8403113e-38
-1055.7 1791.3101 -185.539 1.8403113e-38
-1105.95 1802.78 -188.37 1.8403113e-38
-1127.01 1811.0601 -188.37801 1.8403113e-38
-1110.27 1817.2 -184.065 1.8403113e-38
-1308.16 1886.1 -187.16901 1.8403113e-38
-1307.25 1890.71 -185.48599 1.8403113e-38
-1314.35 1909.49 -180.076 1.8403113e-38
-742.88098 1707.7 -172.063 1.8403113e-38
-727.99799 1702.89 -171.70599 1.8403113e-38
-742.86102 1712.36 -170.485 1.8403113e-38
-835.27399 1743.4301 -172.308 1.8403113e-38
-890.354 1754.9301 -175.771 1.8403113e-38
-885.40002 1755.38 -174.95799 1.8403113e-38
-917.55298 1769.12 -174.601 1.8403113e-38
-903.271 1762.5349 -174.92349 1.8403113e-38
-920.388 1770.73 -174.435 1.8403113e-38
-928.44598 1780.77 -172.11099 1.8403113e-38
-1308.1801 1907.86 -179.804 1.8403113e-38
2587.6599 411.716 -165.98 1.8403113e-38
2594.8601 420.00601 -162.211 1.8403113e-38
-616.22302 1667.86 -168.634 1.8403113e-38
-709.91998 1707.59 -167.698 1.8403113e-38
-723.51501 1713.5699 -167.49001 1.8403113e-38
-702.11798 1713.6899 -164.591 1.8403113e-38
-751.23999 1720.91 -168.70799 1.8403113e-38
-748.73999 1728.48 -165.81 1.8403113e-38
-761.29553 1733.96 -165.634 1.8403113e-38
-806.26501 1751.95 -165.549 1.8403113e-38
-795.05402 1759.78 -161.40199 1.8403113e-38
-814.617 1760.54 -163.756 1.8403113e-38
-610.25598 1707.3199 -154.476 1.8403113e-38
-608.42603 1705.26 -154.92999 1.8403113e-38
-619.22601 1718.76 -151.80099 1.8403113e-38
-780.336 1758.45 -159.884 1.8403113e-38
-768.07098 1767.9301 -155.037 1.8403113e-38
-751.9425 1766.9399 -153.21799 1.8403113e-38
2606.27 467.25601 -144.69 1.8403113e-38
2618.29 472.358 -141.35699 1.8403113e-38
-613.64502 1723.1801 -149.561 1.8403113e-38
-650.12299 1744.96 -147.058 1.8403113e-38
-643.79401 1749.88 -144.548 1.8403113e-38
-633.67053 1743.615 -145.31601 1.8403113e-38
-617.19153 1745.29 -142.54901 1.8403113e-38
-656.47699 1756.9 -143.86499 1.8403113e-38
-3649.74 2975.0901 -131.239 1.8403113e-38
2632.96 517.03601 -124.271 1.8403113e-38
2638.1101 526.57599 -120.353 1.8403113e-38
-3630.3401 2982.5701 -126.112 1.8403113e-38
2648.4299 573.45001 -103.103 1.8403113e-38
2653.3799 583.034 -99.198502 1.8403113e-38
-3348.74 2972.1299 -92.032303 1.8403113e-38
2665.29 628.38702 -82.251801 1.8403113e-38
-3327.3999 2977.96 -87.209702 1.8403113e-38
2677.79 633.487 -78.855904 1.8403113e-38
2687.95 679.48901 -61.922901 1.8403113e-38
-3233.77 3000.1201 -67.201103 1.8403113e-38
-3234.8 3010.25 -63.905602 1.8403113e-38
2693.3701 688.69702 -58.081902 1.8403113e-38
2702.5801 734.72302 -41.267502 1.8403113e-38
-3233.24 3051.6399 -49.686501 1.8403113e-38
-3280.6799 3073.04 -48.7789 1.8403113e-38
2706.05 744.93597 -37.347198 1.8403113e-38
-3307.24 3122.51 -35.5765 1.8403113e-38
-3313.6299 3134.46 -32.383598 1.8403113e-38
2728.47 783.52899 -21.2859 1.8403113e-38
2720.21 799.79303 -16.882 1.8403113e-38
-3300.5901 3174.4199 -17.113001 1.8403113e-38
-3305.79 3186.21 -13.8133 1.8403113e-38
-5059.7998 3911.75 -2.4521899 1.8403113e-38
2708.78 855.23499 0.36262801 1.8403113e-38
2681.3799 880.59998 5.2904201 1.8403113e-38
-3302.55 3229.05 1.12088 1.8403113e-38
-3298.8999 3238.4399 4.7881098 1.8403113e-38
-3295.8101 3281.5601 19.8015 1.8403113e-38
2674.8201 931.98999 21.8139 1.8403113e-38
2686.5701 937.737 25.3284 1.8403113e-38
-3405.55 3326.28 20.2843 1.8403113e-38
2687.1201 985.021 41.4114 1.8403113e-38
2697.8201 991.34998 44.984001 1.8403113e-38
-2484.53 3079.8401 59.869301 1.8403113e-38
2794.98 1006.81 63.1959 1.8403113e-38
2748.6399 1015.85 60.066002 1.8403113e-38
2804.3 1050.7 79.302101 1.8403113e-38
-2197.77 3014.0701 75.9039 1.8403113e-38
-2167.3501 3010.3701 78.714699 1.8403113e-38
2809.3201 1059.95 83.102402 1.8403113e-38
-2133.0801 3026.54 88.767403 1.8403113e-38
2816.8601 1104.3 99.126198 1.8403113e-38
-2132.8101 3033.1699 91.048798 1.8403113e-38
2829.1201 1110.64 102.908 1.8403113e-38
-2125.4399 3058.78 100.705 1.8403113e-38
-2117.5801 3062.54 103.027 1.8403113e-38
-2116.26 3090.5601 112.691 1.8403113e-38
