# .PCD v0.7 - Point Cloud Data file format
VERSION 0.7
FIELDS x y z rgb
SIZE 4 4 4 4
TYPE F F F F
COUNT 1 1 1 1
WIDTH 359
HEIGHT 1
VIEWPOINT 0 0 0 1 0 0 0
POINTS 359
DATA ascii
2155.8101 1972.17 -280.28 1.8403113e-38
2299.55 2056.6299 -282.23999 1.8403113e-38
-231.601 494.20499 -270.87201 1.8403113e-38
-179.19501 526.17297 -271.224 1.8403113e-38
-162.49699 537.56799 -270.96399 1.8403113e-38
-129.576 558.82599 -270.82401 1.8403113e-38
-113.106 569.633 -270.70099 1.8403113e-38
-98.566002 575.98297 -271.57401 1.8403113e-38
-82.055 588.97998 -270.785 1.8403113e-38
-67.218498 598.44098 -270.758 1.8403113e-38
-52.9002 603.20898 -272.07501 1.8403113e-38
-37.4562 617.67798 -270.62601 1.8403113e-38
-23.945801 619.85999 -272.58099 1.8403113e-38
-8.9218302 634.59601 -270.96799 1.8403113e-38
5.0132298 640.83301 -271.758 1.8403113e-38
19.428101 654.875 -270.23999 1.8403113e-38
32.062099 654.68701 -272.755 1.8403113e-38
45.562302 665.15399 -272.159 1.8403113e-38
59.094501 672.828 -272.42801 1.8403113e-38
70.963097 673.01398 -274.67899 1.8403113e-38
84.281502 680.91498 -274.83701 1.8403113e-38
97.066803 690.87 -274.26001 1.8403113e-38
109.898 697.08301 -274.84299 1.8403113e-38
122.119 704.37799 -274.974 1.8403113e-38
145.91 706.815 -278.85001 1.8403113e-38
135.08501 715.591 -274.04501 1.8403113e-38
159.11099 725.89398 -275.54599 1.8403113e-38
170.15401 720.18402 -279.45001 1.8403113e-38
194.062 737.77399 -278.686 1.8403113e-38
182.979 741.37799 -275.422 1.8403113e-38
206.35899 759.159 -274.49701 1.8403113e-38
217.43401 760.52399 -276.23001 1.8403113e-38
229.05099 762.00702 -278.03201 1.8403113e-38
240.063 772.159 -277.04999 1.8403113e-38
251.53 776.69702 -277.883 1.8403113e-38
262.35501 782.24402 -278.28101 1.8403113e-38
273.31799 798.41199 -275.43701 1.8403113e-38
284.14099 797.45001 -277.83801 1.8403113e-38
294.93201 809.013 -276.37799 1.8403113e-38
305.54199 811.08197 -277.80399 1.8403113e-38
316.15701 820.90302 -276.84601 1.8403113e-38
326.366 826.93799 -276.974 1.8403113e-38
336.36801 840.70502 -274.68201 1.8403113e-38
346.77301 842.151 -276.26001 1.8403113e-38
357.10699 849.43597 -276.02802 1.8403113e-38
366.70099 857.65997 -275.36301 1.8403113e-38
377.48901 859.43701 -276.914 1.8403113e-38
397.853 867.87201 -278.27802 1.8403113e-38
386.39301 871.57098 -274.91101 1.8403113e-38
406.36499 881.07397 -275.87 1.8403113e-38
417.40201 880.37402 -278.23199 1.8403113e-38
426.39499 889.01599 -277.32101 1.8403113e-38
436.75699 892.229 -278.34698 1.8403113e-38
444.491 906.58698 -275.43301 1.8403113e-38
453.76901 914.59003 -274.77399 1.8403113e-38
463.19699 918.82599 -275.30399 1.8403113e-38
473.06799 923.26099 -275.858 1.8403113e-38
480.10901 937.79602 -272.755 1.8403113e-38
494.5625 943.69 -273.7515 1.8403113e-38
507.31 956.15399 -272.39499 1.8403113e-38
517.263 957.13202 -274.02899 1.8403113e-38
526.20599 963.81097 -273.71301 1.8403113e-38
536.133 964.953 -275.29099 1.8403113e-38
542.81702 979.01398 -272.26401 1.8403113e-38
554.02301 975.78302 -275.43701 1.8403113e-38
562.11401 984.52802 -274.319 1.8403113e-38
572.23199 985.08197 -276.116 1.8403113e-38
580.14801 993.94702 -274.92801 1.8403113e-38
587.784 1001.79 -273.99799 1.8403113e-38
597.03302 1006.31 -274.40701 1.8403113e-38
606.427 1008.95 -275.422 1.8403113e-38
612.94897 1020.67 -273.08401 1.8403113e-38
622.23999 1023.44 -274.03799 1.8403113e-38
630.92603 1029.1 -273.983 1.8403113e-38
642.30103 1026.79 -276.905 1.8403113e-38
650.20599 1034.35 -276.116 1.8403113e-38
656.453 1044.36 -274.25201 1.8403113e-38
667.177 1045.12 -276.104 1.8403113e-38
675.55103 1050.0601 -276.211 1.8403113e-38
679.96698 1064.67 -272.57501 1.8403113e-38
688.15997 1069.7 -272.62 1.8403113e-38
695.50299 1077.55 -271.63199 1.8403113e-38
705.24902 1079.33 -272.98001 1.8403113e-38
713.72803 1084.77 -272.953 1.8403113e-38
723.46503 1086.72 -274.245 1.8403113e-38
728.33301 1098.95 -271.42899 1.8403113e-38
735.75201 1105.17 -270.95801 1.8403113e-38
747.177 1105.1 -273.20001 1.8403113e-38
755.44897 1109.8199 -273.35599 1.8403113e-38
764.57001 1114.04 -273.832 1.8403113e-38
769.41302 1124.5601 -271.53799 1.8403113e-38
777.93298 1129.7 -271.612 1.8403113e-38
788.96997 1129.87 -273.70599 1.8403113e-38
793.43201 1141.53 -270.98401 1.8403113e-38
804.461 1141.88 -273.022 1.8403113e-38
811.80402 1148.89 -272.293 1.8403113e-38
821.29303 1151.78 -273.24701 1.8403113e-38
830.64801 1155.8101 -273.82599 1.8403113e-38
836.35999 1164.28 -272.33099 1.8403113e-38
843.99902 1170.75 -271.82501 1.8403113e-38
856.15997 1170.16 -274.37201 1.8403113e-38
865.41901 1174.52 -274.82901 1.8403113e-38
871.435 1182.4399 -273.564 1.8403113e-38
876.59998 1192.16 -271.57501 1.8403113e-38
888.81201 1192 -274.00101 1.8403113e-38
895.00299 1200.35 -272.63599 1.8403113e-38
906.073 1201.87 -274.319 1.8403113e-38
913.34302 1208.89 -273.573 1.8403113e-38
923.21198 1212.0601 -274.51501 1.8403113e-38
925.46301 1224.91 -271 1.8403113e-38
938.35699 1224.6801 -273.57599 1.8403113e-38
946.034 1231.25 -273.04901 1.8403113e-38
957.73102 1232.6801 -274.88101 1.8403113e-38
964.06097 1240.79 -273.61801 1.8403113e-38
975.12598 1243.14 -275.04599 1.8403113e-38
984.56152 1254.995 -273.23151 1.8403113e-38
995.16302 1265.6 -272.03101 1.8403113e-38
1006.85 1267.6801 -273.664 1.8403113e-38
1017.56 1271.54 -274.556 1.8403113e-38
1027.24 1275.83 -275.11801 1.8403113e-38
1031.02 1286.35 -272.61899 1.8403113e-38
1038.53 1292.6899 -272.12601 1.8403113e-38
1047.74 1298.21 -272.22 1.8403113e-38
1057.29 1302.83 -272.655 1.8403113e-38
1066.45 1308.54 -272.67899 1.8403113e-38
1082.17 1321.6801 -271.69101 1.8403113e-38
1092.36 1326.09 -272.31601 1.8403113e-38
1097.6899 1335.12 -270.57599 1.8403113e-38
1108.5699 1339.12 -271.45801 1.8403113e-38
1118.28 1344.8 -271.59799 1.8403113e-38
1124.61 1352.48 -270.46701 1.8403113e-38
1134.24 1358.34 -270.53601 1.8403113e-38
1145.83 1362.24 -271.58801 1.8403113e-38
1152.34 1370.54 -270.30099 1.8403113e-38
1163.91 1374.6801 -271.27499 1.8403113e-38
1184.2 1385.92 -271.76199 1.8403113e-38
1201.23 1399.7 -270.83401 1.8403113e-38
1210.63 1406.42 -270.591 1.8403113e-38
1222.12 1411.33 -271.31699 1.8403113e-38
1244.55 1422.48 -272.24701 1.8403113e-38
1253.84 1429.6899 -271.836 1.8403113e-38
1265.28 1435.14 -272.383 1.8403113e-38
1272.83 1443.5 -271.27701 1.8403113e-38
1289.24 1446.46 -273.55701 1.8403113e-38
1296.72 1455.0601 -272.36401 1.8403113e-38
1311.46 1459.29 -273.92999 1.8403113e-38
1323.09 1465.92 -274.14899 1.8403113e-38
1327.61 1475.67 -272.02899 1.8403113e-38
1337.4399 1483.38 -271.56699 1.8403113e-38
1353 1487.85 -273.21899 1.8403113e-38
1366.24 1494.23 -273.82901 1.8403113e-38
1374.86 1502.3 -273.022 1.8403113e-38
1383.6801 1510.95 -272.07401 1.8403113e-38
1396.58 1517.3 -272.62799 1.8403113e-38
1407.9399 1525.0699 -272.44699 1.8403113e-38
1430.53 1527.71 -276.02802 1.8403113e-38
1434.76 1538.76 -273.45001 1.8403113e-38
1452.9301 1543.6801 -275.46799 1.8403113e-38
1459.7 1553.87 -273.64999 1.8403113e-38
1474.25 1560.5699 -274.41699 1.8403113e-38
1484.51 1569.65 -273.616 1.8403113e-38
1500.8199 1576.08 -274.81 1.8403113e-38
1513.71 1584.54 -274.71301 1.8403113e-38
1529.99 1591.41 -275.76401 1.8403113e-38
1534.5699 1602.9301 -273.10901 1.8403113e-38
1549.86 1610.46 -273.76501 1.8403113e-38
1563.49 1619.34 -273.685 1.8403113e-38
1581.5 1626.47 -274.991 1.8403113e-38
1594.13 1636.04 -274.50299 1.8403113e-38
1609.3 1644.4301 -274.86899 1.8403113e-38
1619.02 1655.12 -273.47101 1.8403113e-38
1640.65 1662.22 -275.49301 1.8403113e-38
1653.08 1672.5699 -274.72299 1.8403113e-38
1671.84 1680.92 -275.802 1.8403113e-38
1690.76 1690.17 -276.63501 1.8403113e-38
1706.63 1699.71 -276.784 1.8403113e-38
1716.9301 1711.3101 -275.21701 1.8403113e-38
1741.23 1719.54 -277.41 1.8403113e-38
1755.21 1730.8101 -276.66 1.8403113e-38
1760.36 1743.22 -273.841 1.8403113e-38
1779.91 1753.83 -274.38 1.8403113e-38
1803.09 1763.4399 -275.92999 1.8403113e-38
1812.9399 1776.1899 -273.92001 1.8403113e-38
1842.75 1785.41 -276.879 1.8403113e-38
1857.26 1797.9399 -275.84399 1.8403113e-38
1885.0699 1808.24 -278.08301 1.8403113e-38
1900.39 1821.21 -277.07199 1.8403113e-38
1923.25 1832.83 -277.94101 1.8403113e-38
1930.64 1847.14 -274.97299 1.8403113e-38
1961.11 1858.6 -277.37201 1.8403113e-38
1983.86 1871.96 -277.68399 1.8403113e-38
1990.84 1886.17 -274.668 1.8403113e-38
2021.2 1899.58 -276.44501 1.8403113e-38
2045.53 1913.09 -277.01901 1.8403113e-38
2067.9099 1927.86 -276.827 1.8403113e-38
2089.1299 1942.25 -276.521 1.8403113e-38
2112.27 1957.7 -276.26901 1.8403113e-38
2160.1201 1988.89 -275.97299 1.8403113e-38
2182.8601 2004.67 -275.539 1.8403113e-38
2216.3301 2021.62 -276.82999 1.8403113e-38
2243.74 2038.26 -277.04199 1.8403113e-38
2309.02 2073.96 -278.74899 1.8403113e-38
2335.0801 2092.8501 -278.00201 1.8403113e-38
2370.79 2111.7 -279.147 1.8403113e-38
2391.6201 2131.29 -277.16599 1.8403113e-38
2434.8899 2151.6499 -279.31699 1.8403113e-38
2458.3301 2172.3301 -277.51001 1.8403113e-38
2496.3501 2193.5801 -278.36301 1.8403113e-38
2531.21 2216.1599 -278.19299 1.8403113e-38
2571.8101 2238.9199 -279.08499 1.8403113e-38
2610.1899 2263.1299 -279.099 1.8403113e-38
2618.97 2283.79 -274.448 1.8403113e-38
2689.3 2312.8601 -279.17599 1.8403113e-38
2731.98 2338.6399 -279.54199 1.8403113e-38
2748.8601 2362.75 -275.40601 1.8403113e-38
-637.45398 258.10599 -264.60999 1.8403113e-38
-618.09998 260.60699 -267.603 1.8403113e-38
-590.09698 279.84799 -267.12799 1.8403113e-38
-562.40698 301.487 -265.853 1.8403113e-38
-539.25098 312.436 -266.98599 1.8403113e-38
-517.86298 322.121 -268.164 1.8403113e-38
-492.841 338.95401 -267.85001 1.8403113e-38
-469.647 354.51901 -267.57001 1.8403113e-38
-448.28 364.65701 -268.60501 1.8403113e-38
-423.83099 385.241 -267.02499 1.8403113e-38
-405.13699 390.39099 -269.07501 1.8403113e-38
-385.18301 401.42801 -269.55899 1.8403113e-38
-362.36499 418.858 -268.63199 1.8403113e-38
-342.58099 431.23599 -268.67001 1.8403113e-38
-321.70401 445.45599 -268.353 1.8403113e-38
-303.694 454.55301 -269.056 1.8403113e-38
-283.33899 469.19 -268.509 1.8403113e-38
-266.048 477.72601 -269.24399 1.8403113e-38
-247.67599 488.12 -269.61801 1.8403113e-38
-211.95599 510.54401 -269.664 1.8403113e-38
-194.35201 523.49103 -269.10199 1.8403113e-38
-143.91499 554.633 -269.32599 1.8403113e-38
1068.76 1319.46 -269.76599 1.8403113e-38
1169.52 1383.66 -269.603 1.8403113e-38
1188.9301 1395.58 -269.707 1.8403113e-38
1227.4 1420.76 -269.44199 1.8403113e-38
2738.1899 2382.1699 -267.354 1.8403113e-38
2742.8999 2404.8401 -261.29599 1.8403113e-38
2748.5 2426.71 -255.65401 1.8403113e-38
-1804.52 -427.133 -248.548 1.8403113e-38
-1734.24 -382.078 -248.34801 1.8403113e-38
-606.67798 357.02301 -240.158 1.8403113e-38
2730.3301 2445.76 -246.25999 1.8403113e-38
-880.38599 213.265 -231.17599 1.8403113e-38
-855.05798 219.722 -234.11301 1.8403113e-38
2723.8401 2465.5601 -238.90601 1.8403113e-38
2718.98 2486.6599 -231.47099 1.8403113e-38
-1543.6899 -187.481 -225.52 1.8403113e-38
-885.16199 238.46201 -222.494 1.8403113e-38
-582.52698 437.57101 -220.069 1.8403113e-38
2723.8101 2508.55 -225.674 1.8403113e-38
-1446.88 -102.236 -218.114 1.8403113e-38
-997.88898 197.93401 -213.048 1.8403113e-38
-963.85101 216.655 -213.905 1.8403113e-38
-939.14899 220.433 -217.545 1.8403113e-38
-908.96503 234.92 -218.95599 1.8403113e-38
-594.38098 448.323 -214.45599 1.8403113e-38
2719.54 2529.79 -218.30901 1.8403113e-38
2724.9399 2552 -212.52499 1.8403113e-38
-1074.53 186.468 -201.674 1.8403113e-38
-1018.5 201.32001 -207.998 1.8403113e-38
-1030.98 214.98 -201.37 1.8403113e-38
-585.85199 495.26901 -201.67 1.8403113e-38
2728.02 2574.9199 -206.071 1.8403113e-38
2736.8799 2598.21 -200.62601 1.8403113e-38
-1099.84 182.89301 -197.854 1.8403113e-38
-1111.34 200.065 -190.33501 1.8403113e-38
-615.73199 501.96301 -193.80099 1.8403113e-38
-597.57202 505.17801 -196.342 1.8403113e-38
2744.3501 2622.48 -194.612 1.8403113e-38
-1490.62 -14.4717 -182.606 1.8403113e-38
-1118.27 221.53999 -182.379 1.8403113e-38
-646.55402 507.51901 -186.099 1.8403113e-38
-662.53998 510.26599 -182.145 1.8403113e-38
-616.07703 531.797 -184.554 1.8403113e-38
2751.79 2645.8501 -188.866 1.8403113e-38
2776.1101 2674.8601 -184.672 1.8403113e-38
2835.9199 2712.6599 -184.668 1.8403113e-38
-1142.55 221.47701 -177.677 1.8403113e-38
-1158.84 230.55299 -171.718 1.8403113e-38
2842.3 2738.1101 -178.076 1.8403113e-38
2836.24 2759.1101 -170.437 1.8403113e-38
3064.5801 2900.74 -171.254 1.8403113e-38
2828.77 2780.8301 -162.30099 1.8403113e-38
2881.4399 2819.45 -160.658 1.8403113e-38
3064.79 2925.8899 -163.558 1.8403113e-38
3069.1699 2953.79 -155.821 1.8403113e-38
3082.1001 2983.52 -149.19 1.8403113e-38
3100.96 3016.96 -142.56799 1.8403113e-38
-1279.87 263.48199 -138.05499 1.8403113e-38
-1295.24 275.88101 -131.252 1.8403113e-38
-1306.45 291.53101 -124.257 1.8403113e-38
2972.3799 2997.1499 -123.663 1.8403113e-38
-1301.51 326.30899 -114.517 1.8403113e-38
2972.1899 3023.22 -115.603 1.8403113e-38
3118.75 3103.1001 -119.521 1.8403113e-38
-1325.6899 327.328 -109.501 1.8403113e-38
-1343.17 337.24899 -103.05 1.8403113e-38
3062.6699 3109.4199 -106.672 1.8403113e-38
3204.72 3220.46 -100.125 1.8403113e-38
3007.0701 3113.71 -94.5411 1.8403113e-38
3261.0701 3271.5 -95.374702 1.8403113e-38
3259.27 3300.7 -86.040802 1.8403113e-38
-1223.95 489.61899 -79.347397 1.8403113e-38
3256.76 3328.3101 -77.058403 1.8403113e-38
-1193.62 546.74799 -67.665298 1.8403113e-38
-1203.73 560.09003 -61.595901 1.8403113e-38
3261.6899 3360.8101 -68.017998 1.8403113e-38
-1304.42 508.54501 -57.879601 1.8403113e-38
-1327.55 511.564 -52.452499 1.8403113e-38
-1253.77 534.60498 -59.708599 1.8403113e-38
3264.98 3391.3999 -59.2435 1.8403113e-38
3262.8799 3421.26 -49.6465 1.8403113e-38
-1261.25 598.841 -38.488998 1.8403113e-38
-1262.62 621.461 -31.262699 1.8403113e-38
3203.1799 3422.6699 -37.6068 1.8403113e-38
-1260.1801 646.12201 -24.148199 1.8403113e-38
-1260.21 669.24701 -17.028 1.8403113e-38
-1257.14 693.68201 -10.1057 1.8403113e-38
-1256.55 716.60999 -3.1656599 1.8403113e-38
2738.9099 3229.71 -6.7146902 1.8403113e-38
-1215.8 772.755 6.18682 1.8403113e-38
2695.3799 3233.1201 2.79669 1.8403113e-38
-1255.47 760.29401 10.0659 1.8403113e-38
-1248.89 786.185 16.752899 1.8403113e-38
2680.04 3251.22 11.3494 1.8403113e-38
2657.03 3264.05 19.769199 1.8403113e-38
-1249.4301 806.789 23.1966 1.8403113e-38
-1245.3199 829.86603 29.4988 1.8403113e-38
2642.3201 3282.1699 28.2073 1.8403113e-38
-1244.54 850.91498 35.823101 1.8403113e-38
2626.1899 3298.21 36.277802 1.8403113e-38
2610.3101 3315.5 44.685299 1.8403113e-38
2607.9199 3338.9099 52.352501 1.8403113e-38
-669.23999 1318.6 67.874001 1.8403113e-38
2603.02 3362.3301 60.5112 1.8403113e-38
2603.6101 3387.78 68.2267 1.8403113e-38
-496.728 1462.9301 78.742798 1.8403113e-38
2600.78 3412.75 76.459503 1.8403113e-38
-515.60999 1467.79 83.9095 1.8403113e-38
-502.061 1468.16 81.388702 1.8403113e-38
-512.82001 1479.0699 86.839401 1.8403113e-38
2692.6599 3493.25 83.366898 1.8403113e-38
-521.35797 1509.99 98.010902 1.8403113e-38
-502.12601 1505.16 92.787903 1.8403113e-38
-488.15201 1506.29 90.416801 1.8403113e-38
-500.73901 1515.33 95.647598 1.8403113e-38
2854.48 3620.04 90.917503 1.8403113e-38
3156.9099 3836.55 98.738098 1.8403113e-38
-1236.9 1093.15 108.872 1.8403113e-38
-798.82898 1358.4399 105.329 1.8403113e-38
-658.53003 1438.03 102.54 1.8403113e-38
-561.44897 1492.49 100.423 1.8403113e-38
3303.8799 3963.6399 109.266 1.8403113e-38
