# .PCD v0.7 - Point Cloud Data file format
VERSION 0.7
FIELDS x y z rgb
SIZE 4 4 4 4
TYPE F F F F
COUNT 1 1 1 1
WIDTH 357
HEIGHT 1
VIEWPOINT 0 0 0 1 0 0 0
POINTS 357
DATA ascii
193.86099 673.20398 -280.591 1.8403113e-38
217.64301 684.04797 -281.85901 1.8403113e-38
241.093 697.19202 -282.354 1.8403113e-38
252.685 708.20697 -281.207 1.8403113e-38
264.10501 709.75403 -282.944 1.8403113e-38
275.38599 722.85797 -281.09299 1.8403113e-38
286.55499 730.31598 -280.95999 1.8403113e-38
297.57401 738.81403 -280.47699 1.8403113e-38
308.70499 740.72498 -282.04599 1.8403113e-38
351.539 769.229 -281.565 1.8403113e-38
402.659 805.44702 -280.314 1.8403113e-38
432.81 822.427 -280.92599 1.8403113e-38
1848.28 1713.75 -280.63901 1.8403113e-38
1882.28 1736.85 -280.11401 1.8403113e-38
2001.89 1810.39 -280.63501 1.8403113e-38
2023.66 1823.55 -280.79999 1.8403113e-38
2321.23 2008.67 -281.43799 1.8403113e-38
2345.49 2026.6899 -280.58701 1.8403113e-38
2373.54 2045.23 -280.31 1.8403113e-38
2409.3101 2064.55 -281.29199 1.8403113e-38
2442.96 2084.3601 -281.70801 1.8403113e-38
2474.47 2104.6201 -281.57401 1.8403113e-38
2500.9099 2125.0901 -280.39001 1.8403113e-38
2541.9099 2147.0801 -281.56299 1.8403113e-38
2578.8 2169.4299 -281.82501 1.8403113e-38
2613.52 2192.23 -281.53299 1.8403113e-38
2646.0801 2215.4099 -280.70001 1.8403113e-38
2686.29 2239.98 -280.923 1.8403113e-38
2735.1101 2266.25 -282.29001 1.8403113e-38
2769.95 2291.6399 -281.22 1.8403113e-38
-499.94199 268.724 -270.746 1.8403113e-38
-451.457 300.94901 -270.215 1.8403113e-38
-429.19901 313.84299 -270.556 1.8403113e-38
-406.47299 328.78699 -270.35599 1.8403113e-38
-385.12299 341.24701 -270.655 1.8403113e-38
-364.728 352.10699 -271.26199 1.8403113e-38
-343.53 365.92001 -271.11401 1.8403113e-38
-324.28201 375.371 -271.93301 1.8403113e-38
-305.23099 385.017 -272.65302 1.8403113e-38
-284.46799 400.383 -271.94299 1.8403113e-38
-264.935 413.19299 -271.78201 1.8403113e-38
-246.261 424.349 -271.96399 1.8403113e-38
-228.103 434.76401 -272.27399 1.8403113e-38
-212.728 436.98901 -274.569 1.8403113e-38
-193.248 453.33301 -273.30899 1.8403113e-38
-175.966 463.33701 -273.57599 1.8403113e-38
-158.35899 475.379 -273.27802 1.8403113e-38
-142.756 481.03201 -274.56 1.8403113e-38
-123.6 500.91299 -272.147 1.8403113e-38
-108.597 505.93701 -273.50699 1.8403113e-38
-92.329697 516.75 -273.32901 1.8403113e-38
-76.049797 528.659 -272.815 1.8403113e-38
-60.629101 537.88599 -272.95999 1.8403113e-38
-46.602699 541.57898 -274.54099 1.8403113e-38
-30.513399 555.81702 -273.272 1.8403113e-38
-15.2463 567.35901 -272.67499 1.8403113e-38
-0.72700799 576.19098 -272.76801 1.8403113e-38
12.9496 581.34998 -273.82901 1.8403113e-38
27.17 590.43597 -273.78601 1.8403113e-38
40.308102 593.93298 -275.255 1.8403113e-38
53.953701 601.35699 -275.612 1.8403113e-38
67.597702 609.854 -275.63901 1.8403113e-38
82.101402 626.10498 -273.44299 1.8403113e-38
93.827301 622.42297 -276.849 1.8403113e-38
107.045 631.26501 -276.68701 1.8403113e-38
120.61 644.99902 -275.08401 1.8403113e-38
132.817 647.36902 -276.72 1.8403113e-38
145.151 651.75702 -277.759 1.8403113e-38
157.63499 659.11902 -277.91 1.8403113e-38
169.923 665.62701 -278.28601 1.8403113e-38
182.216 674.151 -278.04199 1.8403113e-38
205.983 682.88397 -279.95801 1.8403113e-38
229.847 707.315 -277.056 1.8403113e-38
319.14899 757.01202 -279.052 1.8403113e-38
329.79099 764.80298 -278.71399 1.8403113e-38
340.61499 767.92102 -279.85101 1.8403113e-38
361.27701 784.854 -278.638 1.8403113e-38
371.62299 791.065 -278.73001 1.8403113e-38
381.97101 796.40802 -279.08899 1.8403113e-38
392.241 801.83099 -279.409 1.8403113e-38
411.939 817.62201 -278.36099 1.8403113e-38
422.32001 820.45099 -279.50201 1.8403113e-38
442.112 831.98602 -279.784 1.8403113e-38
451.88501 837.86401 -279.867 1.8403113e-38
461.41299 844.74902 -279.59201 1.8403113e-38
470.15201 855.42798 -277.996 1.8403113e-38
479.44601 862.44 -277.63699 1.8403113e-38
488.828 868.58899 -277.56 1.8403113e-38
497.336 878.508 -276.15302 1.8403113e-38
507.54401 880.16803 -277.62 1.8403113e-38
516.25 888.36298 -276.78299 1.8403113e-38
525.28198 894.77698 -276.55701 1.8403113e-38
534.91998 898.505 -277.276 1.8403113e-38
544.28101 903.22498 -277.63599 1.8403113e-38
551.35797 916.21997 -275.004 1.8403113e-38
563.349 911.06299 -278.91699 1.8403113e-38
570.711 922.34601 -276.867 1.8403113e-38
578.44598 931.854 -275.43701 1.8403113e-38
588.84802 932.39697 -277.28601 1.8403113e-38
597.54102 938.42401 -277.11401 1.8403113e-38
606.45599 943.617 -277.241 1.8403113e-38
615.31201 948.87799 -277.33701 1.8403113e-38
624.73602 952.427 -278.07001 1.8403113e-38
632.52399 960.48297 -277.09698 1.8403113e-38
640.86298 966.82098 -276.76099 1.8403113e-38
650.13702 970.578 -277.401 1.8403113e-38
660.41901 971.78497 -279.021 1.8403113e-38
666.47302 983.55798 -276.56799 1.8403113e-38
675.60901 987.52502 -277.116 1.8403113e-38
685.08197 990.70203 -277.97299 1.8403113e-38
692.27399 999.13202 -276.76999 1.8403113e-38
704.36499 996.44501 -279.94101 1.8403113e-38
709.46802 1009.27 -276.978 1.8403113e-38
726.46301 1019.68 -277.06601 1.8403113e-38
711.56897 1028.05 -271.60001 1.8403113e-38
733.633 1027.5 -276.04401 1.8403113e-38
743.25403 1030.34 -277.034 1.8403113e-38
748.97699 1040.78 -274.927 1.8403113e-38
760.276 1040.4399 -277.224 1.8403113e-38
766.25702 1050.13 -275.396 1.8403113e-38
772.56299 1059.02 -273.879 1.8403113e-38
781.06897 1063.85 -274.04001 1.8403113e-38
788.12299 1071.1899 -273.14499 1.8403113e-38
798.43903 1072.91 -274.61499 1.8403113e-38
807.31702 1077.15 -275.03 1.8403113e-38
814.69 1083.86 -274.39001 1.8403113e-38
825.49402 1085.0601 -276.11499 1.8403113e-38
835.35901 1096.9351 -274.36801 1.8403113e-38
849.72803 1101.84 -275.64099 1.8403113e-38
856.29498 1109.63 -274.513 1.8403113e-38
868.14203 1109.75 -276.77301 1.8403113e-38
875.69098 1116.13 -276.26999 1.8403113e-38
885.935 1118.76 -277.44501 1.8403113e-38
893.39801 1125.28 -276.88199 1.8403113e-38
903.05902 1128.85 -277.655 1.8403113e-38
907.56299 1139.23 -275.33099 1.8403113e-38
916.56799 1143.6801 -275.703 1.8403113e-38
927.30902 1146.02 -277.06601 1.8403113e-38
936.883 1149.9301 -277.71701 1.8403113e-38
941.64697 1159.73 -275.62 1.8403113e-38
956.18451 1165.5 -276.66 1.8403113e-38
970.72302 1171.48 -277.63501 1.8403113e-38
975.17603 1181.45 -275.427 1.8403113e-38
987.73901 1182.36 -277.57999 1.8403113e-38
992.67603 1191.72 -275.65302 1.8403113e-38
1004.61 1193.5601 -277.401 1.8403113e-38
1015.69 1203.6899 -276.42651 1.8403113e-38
1028.65 1211.9301 -276.397 1.8403113e-38
1036.5699 1218.2 -276.00101 1.8403113e-38
1043.08 1225.85 -274.909 1.8403113e-38
1054.3199 1229 -276.116 1.8403113e-38
1060.73 1236.78 -274.96301 1.8403113e-38
1072.65 1239.51 -276.431 1.8403113e-38
1081.78 1244.9 -276.53699 1.8403113e-38
1083.79 1256.63 -273.314 1.8403113e-38
1091.38 1263.39 -272.703 1.8403113e-38
1104.6801 1265.3199 -274.685 1.8403113e-38
1112.9301 1271.66 -274.332 1.8403113e-38
1124.8 1275.08 -275.578 1.8403113e-38
1129.3199 1284.5699 -273.53 1.8403113e-38
1138.1899 1290.5601 -273.40399 1.8403113e-38
1152.27 1292.59 -275.50601 1.8403113e-38
1157.34 1301.67 -273.69199 1.8403113e-38
1169.92 1305.12 -275.065 1.8403113e-38
1177.92 1312.09 -274.47198 1.8403113e-38
1182.8 1321.33 -272.56699 1.8403113e-38
1199.22 1322.4301 -275.41199 1.8403113e-38
1208.6801 1328.6 -275.34399 1.8403113e-38
1212.6 1338.59 -273.026 1.8403113e-38
1221.17 1345.45 -272.57501 1.8403113e-38
1234.47 1349.29 -273.97 1.8403113e-38
1249.4 1352.28 -275.939 1.8403113e-38
1261.13 1357.49 -276.608 1.8403113e-38
1271.23 1363.84 -276.60901 1.8403113e-38
1280.49 1370.8 -276.26001 1.8403113e-38
1290.53 1377.38 -276.17899 1.8403113e-38
1298.0601 1385.5 -275.13699 1.8403113e-38
1306.36 1393.23 -274.366 1.8403113e-38
1322.96 1396.4399 -276.59 1.8403113e-38
1336.24 1401.71 -277.54199 1.8403113e-38
1346.14 1408.9301 -277.23599 1.8403113e-38
1351.76 1418.45 -275.392 1.8403113e-38
1362.42 1425.4399 -275.30399 1.8403113e-38
1373.04 1432.5601 -275.16901 1.8403113e-38
1384.48 1439.39 -275.28201 1.8403113e-38
1389.85 1449.23 -273.29199 1.8403113e-38
1409.9 1452.3101 -276.23001 1.8403113e-38
1414.29 1462.74 -273.86499 1.8403113e-38
1436.12 1465.51 -277.24399 1.8403113e-38
1442.16 1475.39 -275.36899 1.8403113e-38
1454.3 1482.74 -275.457 1.8403113e-38
1468.1899 1489.53 -276.05701 1.8403113e-38
1490.09 1493.33 -279.13199 1.8403113e-38
1495.02 1504.03 -276.789 1.8403113e-38
1506.15 1512.41 -276.366 1.8403113e-38
1519.9399 1519.9301 -276.72 1.8403113e-38
1532.8 1527.98 -276.73401 1.8403113e-38
1545.62 1536.1899 -276.68701 1.8403113e-38
1556.5699 1545.2 -276.035 1.8403113e-38
1561.0699 1556.4399 -273.44299 1.8403113e-38
1583.83 1561.9 -276.17401 1.8403113e-38
1603.86 1568.55 -278.004 1.8403113e-38
1619.26 1576.89 -278.422 1.8403113e-38
1621.64 1589.1801 -275.09601 1.8403113e-38
1641.58 1596.55 -276.69 1.8403113e-38
1661.52 1604.22 -278.189 1.8403113e-38
1674.88 1613.9 -277.798 1.8403113e-38
1691.95 1622.83 -278.35599 1.8403113e-38
1708.98 1632.01 -278.828 1.8403113e-38
1724.08 1641.88 -278.71301 1.8403113e-38
1741.02 1651.55 -279.017 1.8403113e-38
1753.1801 1662.48 -278.00299 1.8403113e-38
1763.36 1673.98 -276.435 1.8403113e-38
1786.79 1683.01 -278.19299 1.8403113e-38
1802.5601 1693.83 -277.91599 1.8403113e-38
1815.39 1705.39 -276.84201 1.8403113e-38
1860.03 1726.01 -279.14001 1.8403113e-38
1893.88 1749.53 -278.453 1.8403113e-38
1916.97 1760.84 -279.44299 1.8403113e-38
1930.33 1773.72 -278.065 1.8403113e-38
1946.5 1786.46 -277.27399 1.8403113e-38
1970.34 1798.62 -278.14899 1.8403113e-38
2035.6 1837.84 -278.71399 1.8403113e-38
2053.29 1851.88 -277.815 1.8403113e-38
2077.71 1865.77 -278.26801 1.8403113e-38
2106.9199 1879.78 -279.612 1.8403113e-38
2128.22 1894.63 -279.16599 1.8403113e-38
2142.5601 1910.0699 -277.18701 1.8403113e-38
2175.3899 1925.2 -278.88901 1.8403113e-38
2200.28 1941.03 -278.83701 1.8403113e-38
2228 1957.22 -279.22 1.8403113e-38
2250.6899 1973.89 -278.483 1.8403113e-38
2275.22 1990.9301 -277.98599 1.8403113e-38
2777.1101 2313.98 -275.72501 1.8403113e-38
-625.35797 195.63901 -268.957 1.8403113e-38
-598.13 212.87199 -268.92499 1.8403113e-38
-573.36298 225.983 -269.685 1.8403113e-38
-546.80298 243.812 -269.34 1.8403113e-38
-522.633 257.479 -269.81299 1.8403113e-38
-473.97601 288.29599 -269.74899 1.8403113e-38
2767.4199 2334.1001 -267.64899 1.8403113e-38
2763.4199 2354.9299 -260.45499 1.8403113e-38
2748.48 2374.01 -251.683 1.8403113e-38
-1789.1899 -472.746 -249.327 1.8403113e-38
-1711.9301 -420.603 -248.23399 1.8403113e-38
-589.29102 304.05099 -242.547 1.8403113e-38
2752.9099 2396.0901 -245.73599 1.8403113e-38
-1576.4 -294.01099 -235.5 1.8403113e-38
-855.42499 175.601 -230.54401 1.8403113e-38
2749.3201 2416.8999 -238.633 1.8403113e-38
2742.6299 2437.1101 -231.10899 1.8403113e-38
-958.328 116.056 -228.946 1.8403113e-38
-865.77197 192.649 -223.286 1.8403113e-38
-579.90302 356.81 -228.112 1.8403113e-38
2741.6001 2458.3501 -224.36501 1.8403113e-38
-980.427 150.017 -214.2 1.8403113e-38
-952.48199 158.51801 -216.99699 1.8403113e-38
-886.57397 193.12399 -219.10899 1.8403113e-38
-569.64301 409.32901 -213.92 1.8403113e-38
2749.1299 2481.3501 -218.739 1.8403113e-38
2743.8101 2501.8301 -211.397 1.8403113e-38
-1053.4399 143.422 -202.08299 1.8403113e-38
-992.26898 165.463 -207.147 1.8403113e-38
-563.66302 452.07199 -201.911 1.8403113e-38
2756.74 2526.28 -206.37 1.8403113e-38
2759.74 2548.76 -200.02699 1.8403113e-38
-1297.4 18.0121 -193.44 1.8403113e-38
-1093.21 153.13901 -191.382 1.8403113e-38
-1069.8199 152.985 -195.96201 1.8403113e-38
-999.35901 187.465 -198.994 1.8403113e-38
-583.60797 446.332 -199.814 1.8403113e-38
-584.383 475.16501 -190.78101 1.8403113e-38
2769.3 2572.8999 -194.44099 1.8403113e-38
-1471.41 -58.045101 -183.14799 1.8403113e-38
-1090.38 188.38699 -181.071 1.8403113e-38
-665.99298 453.01099 -181.78999 1.8403113e-38
-640.06702 467.10699 -182.472 1.8403113e-38
-620.91199 470.44601 -185.155 1.8403113e-38
-598.43402 479.97699 -186.575 1.8403113e-38
2770.8999 2595.3401 -187.839 1.8403113e-38
2789.6399 2622.23 -183.185 1.8403113e-38
2844.6299 2659.0601 -182.49699 1.8403113e-38
2893.4399 2695.27 -180.802 1.8403113e-38
-1130.8101 197.40401 -170.45799 1.8403113e-38
-1101.53 204.593 -173.91701 1.8403113e-38
2868.1001 2711.6299 -170.84801 1.8403113e-38
3099.71 2853.1899 -172.12399 1.8403113e-38
2862.72 2733.4199 -163.092 1.8403113e-38
3085.5701 2874.47 -162.827 1.8403113e-38
2858.0901 2755.4399 -155.41299 1.8403113e-38
3090.1799 2901.72 -155.325 1.8403113e-38
3102.0801 2931.6201 -148.41901 1.8403113e-38
3143.8301 2972.1399 -144.026 1.8403113e-38
-1276.83 230.46899 -131.972 1.8403113e-38
-1251.4 230.334 -136.94099 1.8403113e-38
-1285.1 250.19 -124.293 1.8403113e-38
3010.29 2951.6399 -124.461 1.8403113e-38
-1281.08 283.19299 -114.906 1.8403113e-38
2998.1201 2972.8101 -115.582 1.8403113e-38
3134.3899 3049.1101 -118.484 1.8403113e-38
-1302.26 288.245 -109.243 1.8403113e-38
-1320.72 296.43701 -103.142 1.8403113e-38
3122.3701 3071.5601 -109.237 1.8403113e-38
3046.03 3068.8101 -95.291199 1.8403113e-38
3282.75 3219.0601 -94.876099 1.8403113e-38
-1237.99 410.69 -83.976799 1.8403113e-38
3075.5 3107.1299 -89.196602 1.8403113e-38
3290.48 3251.45 -86.3974 1.8403113e-38
3286.8601 3279.3 -77.114799 1.8403113e-38
-1170.0699 506.358 -67.665298 1.8403113e-38
-1182.55 517.87799 -61.6973 1.8403113e-38
3291.2 3310.77 -68.2584 1.8403113e-38
-1281.96 467.98801 -57.801399 1.8403113e-38
-1304.0699 471.44601 -52.452499 1.8403113e-38
-1213.28 511.22 -57.792301 1.8403113e-38
3288.8201 3339.53 -58.940201 1.8403113e-38
3292.52 3371.23 -49.889301 1.8403113e-38
3288.6299 3399.6699 -40.374599 1.8403113e-38
-1246.5699 550.651 -39.193501 1.8403113e-38
-1239.64 580.53101 -31.3309 1.8403113e-38
-1236.71 606.164 -24.0012 1.8403113e-38
-1236.4 628.992 -17.028 1.8403113e-38
-1235.05 652.39398 -10.0796 1.8403113e-38
-1234.15 675.03497 -3.2785599 1.8403113e-38
2795.1599 3193.79 -8.1679001 1.8403113e-38
-1237.51 693.67902 3.1158099 1.8403113e-38
2743.22 3194.0701 1.98361 1.8403113e-38
-1233.5601 739.18597 16.3701 1.8403113e-38
-1200.1899 746.44098 12.1386 1.8403113e-38
2707.52 3201.5901 11.221 1.8403113e-38
2693.21 3219.48 19.506901 1.8403113e-38
-1229.99 762.72101 22.928801 1.8403113e-38
-1226.89 785.49902 29.3458 1.8403113e-38
2667.22 3231.22 28.157499 1.8403113e-38
-1225.0699 806.914 35.590801 1.8403113e-38
2639.4199 3241.6499 36.760799 1.8403113e-38
-1218.24 831.90399 41.9669 1.8403113e-38
2618.6201 3255.5 45.059799 1.8403113e-38
2638.8701 3291.78 52.310799 1.8403113e-38
2633.3999 3314.25 60.2938 1.8403113e-38
2624.24 3334.72 68.3759 1.8403113e-38
-564.284 1350.1899 74.907402 1.8403113e-38
2626.96 3362.1699 76.305901 1.8403113e-38
-478.35199 1425.3101 81.396698 1.8403113e-38
-497.20099 1430.41 86.620903 1.8403113e-38
-478.92499 1434.33 84.285202 1.8403113e-38
2752.25 3462.8899 83.053596 1.8403113e-38
-473.23901 1456.9301 90.145401 1.8403113e-38
-472.63901 1466.39 92.943604 1.8403113e-38
-476.892 1476.845 96.989655 1.8403113e-38
2887.1299 3572.47 90.6744 1.8403113e-38
3260.29 3832.54 98.4814 1.8403113e-38
-1208.1899 1055.8101 109 1.8403113e-38
-806.46802 1296.22 105.212 1.8403113e-38
-638.31201 1393.46 102.583 1.8403113e-38
-524.31403 1458.5601 100.548 1.8403113e-38
3329.6599 3910.3201 108.999 1.8403113e-38
