# .PCD v0.7 - Point Cloud Data file format
VERSION 0.7
FIELDS x y z rgb
SIZE 4 4 4 4
TYPE F F F F
COUNT 1 1 1 1
WIDTH 349
HEIGHT 1
VIEWPOINT 0 0 0 1 0 0 0
POINTS 349
DATA ascii
32.272598 -57.3955 -293.543 1.8403113e-38
38.473499 -37.371899 -294.10901 1.8403113e-38
40.0285 -30.4636 -294.50201 1.8403113e-38
43.1572 -17.0788 -295.22501 1.8403113e-38
42.990898 -9.7784595 -296.25299 1.8403113e-38
415.89401 901.526 -291.297 1.8403113e-38
425.58401 916.51099 -290.01001 1.8403113e-38
428.491 927.82501 -290.53201 1.8403113e-38
-242.30701 -831.492 -283.465 1.8403113e-38
-239.382 -839.94 -281.349 1.8403113e-38
-237.974 -811.08801 -284.715 1.8403113e-38
-229.94501 -798.39801 -283.685 1.8403113e-38
-228.80701 -779.67902 -285.793 1.8403113e-38
-216.924 -765.88397 -283.604 1.8403113e-38
-212.679 -746.44202 -284.755 1.8403113e-38
-203.26199 -733.96399 -283.22699 1.8403113e-38
-201.362 -715.76898 -285.00699 1.8403113e-38
-195.37 -704.78601 -284.44 1.8403113e-38
-187.623 -685.02698 -284.44699 1.8403113e-38
-184.17599 -675.13501 -284.59601 1.8403113e-38
-178.81799 -656.54498 -285.25699 1.8403113e-38
-172.42101 -645.987 -284.496 1.8403113e-38
-175.03 -630.03802 -287.504 1.8403113e-38
-165.673 -618.883 -285.82001 1.8403113e-38
-159.633 -600.82703 -286.17899 1.8403113e-38
-155.64799 -591.39099 -286.08499 1.8403113e-38
-149.278 -573.612 -286.29501 1.8403113e-38
-143.258 -563.89203 -285.54999 1.8403113e-38
-148.70599 -549.151 -289.35901 1.8403113e-38
-127.563 -536.29498 -283.909 1.8403113e-38
-133.66 -521.875 -287.89499 1.8403113e-38
-126.37 -512.323 -286.69699 1.8403113e-38
-126.578 -496.78201 -288.83801 1.8403113e-38
-120.067 -487.59299 -287.85599 1.8403113e-38
-111.53 -470.72 -287.211 1.8403113e-38
-103.916 -461.60101 -285.84601 1.8403113e-38
-104.514 -446.51999 -288.05701 1.8403113e-38
-96.749397 -437.59399 -286.616 1.8403113e-38
-100.864 -423.10501 -289.939 1.8403113e-38
-93.899498 -414.46899 -288.73001 1.8403113e-38
-86.644196 -394.86499 -288.883 1.8403113e-38
-81.020401 -375.66599 -289.535 1.8403113e-38
-69.040802 -366.996 -286.63101 1.8403113e-38
-61.030998 -351.77899 -285.94501 1.8403113e-38
-50.8092 -343.58701 -283.573 1.8403113e-38
-52.975101 -329.35001 -286.203 1.8403113e-38
-43.573101 -321.44199 -284.07101 1.8403113e-38
-36.967499 -306.90201 -283.76999 1.8403113e-38
-36.921902 -299.58801 -284.728 1.8403113e-38
-36.715099 -285.388 -286.54901 1.8403113e-38
-28.9664 -277.948 -284.91501 1.8403113e-38
-26.631001 -263.827 -286.005 1.8403113e-38
-20.661501 -256.57901 -284.948 1.8403113e-38
-25.6689 -242.47701 -288.522 1.8403113e-38
-11.0681 -235.508 -284.504 1.8403113e-38
-4.4971399 -221.77699 -284.10699 1.8403113e-38
-5.8672099 -214.57201 -285.53101 1.8403113e-38
-4.7411199 -200.711 -286.995 1.8403113e-38
4.39045 -194.058 -284.78799 1.8403113e-38
10.449 -180.63901 -284.52301 1.8403113e-38
10.2566 -173.51801 -285.53601 1.8403113e-38
15.588 -160.16499 -285.508 1.8403113e-38
14.5727 -152.966 -286.811 1.8403113e-38
24.810699 -140.22501 -285.04001 1.8403113e-38
25.785601 -133.256 -285.638 1.8403113e-38
25.918301 -119.508 -287.423 1.8403113e-38
41.0336 -114.385 -282.98599 1.8403113e-38
37.639301 -100.242 -286.01901 1.8403113e-38
38.8377 -93.343399 -286.53201 1.8403113e-38
48.713799 -81.181702 -284.806 1.8403113e-38
46.302101 -73.718597 -286.617 1.8403113e-38
53.1483 -54.112801 -286.90799 1.8403113e-38
75.619797 -3.4414799 -286.04501 1.8403113e-38
82.837303 1.89298 -284.31 1.8403113e-38
85.388397 15.0111 -285.19299 1.8403113e-38
91.771797 20.430201 -283.75201 1.8403113e-38
92.715698 33.971199 -285.23599 1.8403113e-38
93.757103 40.817699 -285.79501 1.8403113e-38
104.067 55.229698 -284.2215 1.8403113e-38
105.767 75.826698 -286.38849 1.8403113e-38
115.834 93.730453 -285.36301 1.8403113e-38
117.035 111.07 -287.26501 1.8403113e-38
123.82 115.9 -285.60999 1.8403113e-38
131.147 127.328 -284.64999 1.8403113e-38
131.86099 134.381 -285.34799 1.8403113e-38
139.369 145.672 -284.30801 1.8403113e-38
139.328 153.06799 -285.30701 1.8403113e-38
140.10001 167.172 -286.923 1.8403113e-38
144.51401 172.75 -286.17099 1.8403113e-38
148.965 185.34399 -286.341 1.8403113e-38
154.32001 190.448 -285.20599 1.8403113e-38
161.68649 205.452 -284.7095 1.8403113e-38
165.2605 226.144 -286.254 1.8403113e-38
175.48199 243.6235 -285.12 1.8403113e-38
176.515 262.11401 -287.23199 1.8403113e-38
183.032 266.42499 -285.599 1.8403113e-38
186.91699 283.55899 -286.56451 1.8403113e-38
194.30299 298.79501 -286.091 1.8403113e-38
197.724 304.814 -285.73401 1.8403113e-38
200.448 318.901 -286.68701 1.8403113e-38
204.78101 324.388 -285.95001 1.8403113e-38
205.22701 344.24951 -288.444 1.8403113e-38
216.998 356.936 -286.146 1.8403113e-38
219.18201 363.88199 -286.332 1.8403113e-38
222.68201 377.957 -287.021 1.8403113e-38
225.77299 384.35901 -286.82599 1.8403113e-38
229.54401 398.436 -287.423 1.8403113e-38
238.09 400.92001 -284.85901 1.8403113e-38
237.55499 418.32101 -287.358 1.8403113e-38
243.147 422.957 -286.08099 1.8403113e-38
245.94299 438.14301 -287.15601 1.8403113e-38
250.882 443.28799 -286.168 1.8403113e-38
252.50101 459.67401 -287.802 1.8403113e-38
256.08899 465.96701 -287.42499 1.8403113e-38
260.94601 479.99301 -287.647 1.8403113e-38
262.496 488.08899 -288.20099 1.8403113e-38
271.21301 499.008 -286.702 1.8403113e-38
270.78299 508.97699 -288.17499 1.8403113e-38
278.32199 521.07397 -287.23199 1.8403113e-38
278.09299 531.09698 -288.64499 1.8403113e-38
281.056 547.67798 -289.849 1.8403113e-38
285.17899 553.86798 -289.27701 1.8403113e-38
295.28799 563.88 -287.186 1.8403113e-38
294.10599 575.32098 -289.10999 1.8403113e-38
302.431 587.24298 -287.87799 1.8403113e-38
310.116 589.94397 -285.634 1.8403113e-38
312.71201 607.88202 -287.14401 1.8403113e-38
316.55099 614.61798 -286.73999 1.8403113e-38
321.48001 630.52899 -287.189 1.8403113e-38
322.26999 640.755 -288.284 1.8403113e-38
332.004 651.72803 -286.448 1.8403113e-38
334.25299 660.54797 -286.85999 1.8403113e-38
341.73401 674.289 -286.15601 1.8403113e-38
342.94 684.56799 -287.116 1.8403113e-38
353.17099 695.33398 -285.08499 1.8403113e-38
352.77499 707.84399 -286.88501 1.8403113e-38
360.29901 722.24402 -286.254 1.8403113e-38
361.952 732.58002 -287.07001 1.8403113e-38
368.07901 749.21997 -287.211 1.8403113e-38
368.82101 761.11499 -288.54401 1.8403113e-38
374.80899 778.55298 -288.83801 1.8403113e-38
381.46701 782.789 -287.146 1.8403113e-38
388.375 799.41199 -287.01999 1.8403113e-38
390.186 810.60498 -287.897 1.8403113e-38
396.97501 828.02002 -287.91699 1.8403113e-38
400.66299 836.87 -287.84601 1.8403113e-38
405.237 858.27502 -289.147 1.8403113e-38
413.34399 860.70099 -286.724 1.8403113e-38
414.78601 887.78802 -289.84299 1.8403113e-38
440.98999 938.58698 -287.73099 1.8403113e-38
443.651 950.71997 -288.44601 1.8403113e-38
454.53799 964.685 -286.61801 1.8403113e-38
457.47299 976.823 -287.23999 1.8403113e-38
465.52899 996.625 -287.14801 1.8403113e-38
468.772 1008.78 -287.66901 1.8403113e-38
480.017 1023.44 -285.811 1.8403113e-38
482.66599 1037.3101 -286.76099 1.8403113e-38
491.328 1057.9301 -286.573 1.8403113e-38
493.487 1073.5699 -287.92401 1.8403113e-38
507.70001 1083.7 -284.45901 1.8403113e-38
508.565 1102.86 -286.71701 1.8403113e-38
519.14697 1121.65 -285.63599 1.8403113e-38
522.44098 1136.46 -286.49301 1.8403113e-38
533.56702 1155.2 -285.21899 1.8403113e-38
536.09698 1172.7 -286.69199 1.8403113e-38
545.22498 1197.66 -286.92401 1.8403113e-38
551.11798 1208.01 -286.306 1.8403113e-38
561.62201 1231.13 -285.827 1.8403113e-38
567.46198 1242.34 -285.34201 1.8403113e-38
580.953 1259.01 -282.99301 1.8403113e-38
587.40002 1269.25 -282.172 1.8403113e-38
598.12097 1294.95 -281.96301 1.8403113e-38
601.71899 1314.34 -283.32599 1.8403113e-38
614.46301 1336.3101 -281.936 1.8403113e-38
621.258 1347.38 -281.10699 1.8403113e-38
632.289 1376.67 -281.272 1.8403113e-38
637.44397 1394.22 -281.862 1.8403113e-38
647.98999 1428.16 -282.81 1.8403113e-38
655.81897 1438.2 -281.495 1.8403113e-38
668.07501 1469.27 -281.48199 1.8403113e-38
673.211 1490.5601 -282.57599 1.8403113e-38
688.14398 1514.95 -280.767 1.8403113e-38
693.60101 1537.17 -281.87701 1.8403113e-38
707.53101 1569.05 -281.40399 1.8403113e-38
713.17102 1593.17 -282.70599 1.8403113e-38
735.67401 1643.3199 -281.76099 1.8403113e-38
758.75 1698.08 -281.23801 1.8403113e-38
783.32599 1753.62 -280.30899 1.8403113e-38
730.87201 1612.52 -279.28699 1.8403113e-38
753.948 1663.4399 -278.25101 1.8403113e-38
777.67902 1718.98 -277.608 1.8403113e-38
801.34003 1784.97 -278.38199 1.8403113e-38
808.82703 1813.77 -279.681 1.8403113e-38
827.93103 1844.9399 -277.35999 1.8403113e-38
836.33197 1872.71 -278.21301 1.8403113e-38
856.51099 1903.65 -275.49799 1.8403113e-38
864.80298 1938.1801 -277.28799 1.8403113e-38
885.34497 1975.74 -275.332 1.8403113e-38
895.11298 2005.3 -275.95999 1.8403113e-38
915.69202 2055.3799 -275.65799 1.8403113e-38
926.185 2086.8101 -276.289 1.8403113e-38
948.65698 2133.7 -274.92099 1.8403113e-38
959.56299 2171.9099 -276.314 1.8403113e-38
983.24103 2225.4299 -275.42099 1.8403113e-38
995.61298 2257.5801 -275.513 1.8403113e-38
1021.1 2309.8101 -273.83301 1.8403113e-38
1033.4399 2366.51 -277.20599 1.8403113e-38
1738.01 4095.0701 -268.737 1.8403113e-38
1778.1899 4201.8799 -269.349 1.8403113e-38
1846.08 4320.21 -262.11099 1.8403113e-38
2203.8701 5227.75 -261.77399 1.8403113e-38
2402.79 5725.2998 -260.651 1.8403113e-38
1878.64 4359.2402 -256.27899 1.8403113e-38
2319.6299 5490.0298 -257.491 1.8403113e-38
2530.1499 5992.3301 -253.069 1.8403113e-38
2632.3 6279.1602 -256.66501 1.8403113e-38
2802.3501 6676.71 -252.006 1.8403113e-38
2948.3899 7104.5298 -259.509 1.8403113e-38
-178.043 -945.00098 -246.58099 1.8403113e-38
-124.706 -835.48798 -243.09801 1.8403113e-38
-109.971 -811.45697 -241.30701 1.8403113e-38
-113.658 -804.19299 -243.52299 1.8403113e-38
3087.9199 7317.0801 -240.55299 1.8403113e-38
-131.95599 -902.62799 -236.61301 1.8403113e-38
-116.134 -885.33398 -233.556 1.8403113e-38
-111.849 -865.35199 -234.76601 1.8403113e-38
-95.678398 -848.51801 -231.53 1.8403113e-38
-114.689 -839.94702 -239.11099 1.8403113e-38
1931.12 4364.0898 -239.14799 1.8403113e-38
1964.09 4399.5498 -232.70399 1.8403113e-38
1071.55 2065.1599 -224.16701 1.8403113e-38
2047.92 4567.1001 -226.621 1.8403113e-38
3127.8601 7297.0898 -224.36301 1.8403113e-38
-446.84698 -1903.01 -210.056 1.8403113e-38
1085.26 2045.35 -216.883 1.8403113e-38
-438.57199 -1913.15 -205.90199 1.8403113e-38
1110.72 2044.03 -208.084 1.8403113e-38
1123.78 2047.73 -204.15401 1.8403113e-38
1149.4 2109.3899 -203.686 1.8403113e-38
1162.95 2121.8 -200.748 1.8403113e-38
-398.68799 -1907.4 -193.158 1.8403113e-38
1188.9 2109.6499 -190.338 1.8403113e-38
3211.5801 7282.0898 -194.007 1.8403113e-38
-372.746 -1934.8199 -180.71899 1.8403113e-38
-393.729 -1920.9 -189.681 1.8403113e-38
31.2213 -844.54199 -189.07401 1.8403113e-38
1202.03 2098 -184.341 1.8403113e-38
-362.92801 -1943.04 -176.299 1.8403113e-38
1228.58 2115.1299 -177.629 1.8403113e-38
1242.96 2136.97 -175.66701 1.8403113e-38
1287.13 2208.9299 -170.286 1.8403113e-38
1273.53 2216.1201 -175.851 1.8403113e-38
3255.4399 7276.7598 -178.438 1.8403113e-38
-328.03201 -1940.8199 -164.774 1.8403113e-38
-318.18201 -1948.75 -160.381 1.8403113e-38
-289.28799 -1952.53 -150.091 1.8403113e-38
147.62 -797.755 -155.877 1.8403113e-38
159.834 -798.62701 -151.62399 1.8403113e-38
1311.88 2174.5 -157.32001 1.8403113e-38
1326.47 2184.9099 -153.76401 1.8403113e-38
1376.53 2285.01 -150.13699 1.8403113e-38
-273.642 -1953.34 -144.683 1.8403113e-38
63.674999 -1061.1 -149.242 1.8403113e-38
83.780502 -1064.73 -141.94901 1.8403113e-38
71.276497 -1045.86 -148.696 1.8403113e-38
155.405 -861.50598 -144.75 1.8403113e-38
169.44099 -837.87701 -143.142 1.8403113e-38
180.718 -823.56702 -141.228 1.8403113e-38
161.12 -812.56598 -149.332 1.8403113e-38
179.263 -809.79199 -143.55499 1.8403113e-38
1357.5 2232.27 -149.55901 1.8403113e-38
1404.01 2279.28 -140.065 1.8403113e-38
3338.6799 7259.23 -147.907 1.8403113e-38
-249.91701 -1962.55 -135.42101 1.8403113e-38
92.776703 -1067.48 -138.535 1.8403113e-38
1413.92 2237.6699 -131.16701 1.8403113e-38
3379.8999 7244.46 -131.976 1.8403113e-38
-230.58299 -1958.36 -129.429 1.8403113e-38
229.048 -845.74799 -121.903 1.8403113e-38
212.593 -834.04303 -129.036 1.8403113e-38
228.44 -838.64099 -123.056 1.8403113e-38
1445.4301 2270.04 -124.804 1.8403113e-38
1462.8101 2293.45 -122.032 1.8403113e-38
-205.048 -1964.61 -119.948 1.8403113e-38
134.342 -1150.21 -113.439 1.8403113e-38
154.795 -1122.08 -110.257 1.8403113e-38
231.343 -912.54199 -112.231 1.8403113e-38
229.479 -905.90302 -113.747 1.8403113e-38
236.478 -877.99597 -115.092 1.8403113e-38
249.448 -876.75897 -110.864 1.8403113e-38
230.162 -867.34003 -118.651 1.8403113e-38
241.66299 -852.12097 -116.781 1.8403113e-38
-148.69501 -1970 -100.14 1.8403113e-38
3464.8701 7232.0698 -101.546 1.8403113e-38
-125.076 -1977.41 -91.153999 1.8403113e-38
269.57599 -946.87201 -94.708397 1.8403113e-38
281.73401 -945.354 -90.792297 1.8403113e-38
-110.342 -1977.5699 -86.141197 1.8403113e-38
297.99799 -956.06598 -83.856697 1.8403113e-38
307.99399 -939.77502 -82.640404 1.8403113e-38
3505.5601 7215.5698 -85.565903 1.8403113e-38
-1.74029 -1757.48 -78.664299 1.8403113e-38
64.385597 -1639.23 -72.011703 1.8403113e-38
304.642 -974.70697 -79.123802 1.8403113e-38
320.371 -953.13098 -76.669098 1.8403113e-38
374.29599 -953.21301 -58.391899 1.8403113e-38
388.98199 -947.79401 -54.139 1.8403113e-38
405.427 -1004.18 -41.059898 1.8403113e-38
420.24399 -957.10999 -42.309101 1.8403113e-38
404.90799 -948.388 -48.665401 1.8403113e-38
413.67099 -948.02502 -45.745201 1.8403113e-38
422.379 -978.77301 -38.701 1.8403113e-38
428.27701 -957.25403 -39.568699 1.8403113e-38
3135.0801 5814.7202 -24.506701 1.8403113e-38
3120.5 5658.6699 -8.6654797 1.8403113e-38
3042.8301 5228.2002 22.351101 1.8403113e-38
637.651 -966.72198 32.613899 1.8403113e-38
3033.21 5103.5601 35.690201 1.8403113e-38
706.89398 -876.76001 44.0886 1.8403113e-38
725.93298 -863.58899 48.783798 1.8403113e-38
733.18701 -860.237 50.7943 1.8403113e-38
755.96198 -861.54797 58.683899 1.8403113e-38
742.94299 -859.84198 54.046799 1.8403113e-38
750.086 -856.31799 55.996799 1.8403113e-38
769.45898 -862.11102 63.330601 1.8403113e-38
773.83301 -862.55603 64.871498 1.8403113e-38
782.008 -867.69653 68.325249 1.8403113e-38
763.02197 -857.87799 60.586498 1.8403113e-38
2970.55 4752.3501 61.234501 1.8403113e-38
798.48297 -890.19598 76.901901 1.8403113e-38
806.22498 -892.21698 79.793701 1.8403113e-38
787.02301 -882.40649 71.982903 1.8403113e-38
795.95599 -886.46198 75.548798 1.8403113e-38
2992.9299 4727.1499 72.171402 1.8403113e-38
373.12201 -2052.29 87.573799 1.8403113e-38
823.71503 -919.34003 89.330101 1.8403113e-38
826.19 -904.94299 88.251198 1.8403113e-38
808.815 -895.901 81.161797 1.8403113e-38
816.59698 -897.77899 84.047501 1.8403113e-38
820.59399 -898.73297 85.528603 1.8403113e-38
402.60101 -2064.73 99.216698 1.8403113e-38
386.61801 -2048.29 91.612801 1.8403113e-38
750.18799 -1132.29 92.782204 1.8403113e-38
824.08502 -947.25702 93.172997 1.8403113e-38
823.65302 -938.20099 91.820801 1.8403113e-38
2715.46 3843.3101 95.884598 1.8403113e-38
416.03799 -2060.49 103.203 1.8403113e-38
2717.6101 3781.3899 104.858 1.8403113e-38
438.84698 -2059.8601 110.845 1.8403113e-38
