# .PCD v0.7 - Point Cloud Data file format
VERSION 0.7
FIELDS x y z rgb
SIZE 4 4 4 4
TYPE F F F F
COUNT 1 1 1 1
WIDTH 153
HEIGHT 1
VIEWPOINT 0 0 0 1 0 0 0
POINTS 153
DATA ascii
400.43399 -78.253998 59.706001 1.8403113e-38
405.32401 -66.442749 57.9263 1.8403113e-38
401.3877 -57.17543 59.35907 1.8403113e-38
405.10602 -5.2101016 58.005543 1.8403113e-38
404.58484 5.4084301 58.195377 1.8403113e-38
403.91022 12.91902 58.440819 1.8403113e-38
404.66522 26.583874 58.165951 1.8403113e-38
403.92151 30.736801 58.436752 1.8403113e-38
412.10199 35.415199 55.459351 1.8403113e-38
403.81125 65.748077 58.476852 1.8403113e-38
407.43423 76.401527 57.158127 1.8403113e-38
405.62177 86.37822 57.817921 1.8403113e-38
410.68549 83.303452 55.9748 1.8403113e-38
404.15738 95.811745 58.350838 1.8403113e-38
399.64301 102.204 59.9939 1.8403113e-38
402.43201 101.4585 58.978951 1.8403113e-38
406.43701 114.84067 57.521229 1.8403113e-38
404.73154 124.77357 58.141846 1.8403113e-38
402.85336 134.45433 58.825428 1.8403113e-38
407.68549 147.931 57.066723 1.8403113e-38
407.61099 155.79849 57.093899 1.8403113e-38
407.87201 164.48349 56.998951 1.8403113e-38
405.93524 174.02875 57.703804 1.8403113e-38
403.38 181.85201 58.633801 1.8403113e-38
406.10178 193.89325 57.643173 1.8403113e-38
412.63599 190.591 55.264801 1.8403113e-38
399.659 208.504 59.988201 1.8403113e-38
402.80151 203.703 58.844398 1.8403113e-38
408.302 234.828 56.8423 1.8403113e-38
410.22198 233.48801 56.143398 1.8403113e-38
414.44901 249.644 54.6049 1.8403113e-38
407.5965 257.61749 57.099052 1.8403113e-38
402.28552 260.87347 59.032097 1.8403113e-38
415.33798 262.77734 54.281433 1.8403113e-38
374.823 -173.269 69.027603 1.8403113e-38
375.48798 -167.92 68.785706 1.8403113e-38
381.82101 -168.006 66.480698 1.8403113e-38
378.59961 -154.7662 67.653099 1.8403113e-38
379.164 -147.38 67.447601 1.8403113e-38
383.15933 -146.40199 65.993469 1.8403113e-38
378.435 -138.867 67.713097 1.8403113e-38
381.953 -138.22501 66.4328 1.8403113e-38
375.71301 -91.191803 68.703598 1.8403113e-38
388.71799 -93.937531 63.970348 1.8403113e-38
391.228 -95.816002 63.056801 1.8403113e-38
388.698 -85.510262 63.9776 1.8403113e-38
394.87601 -86.369125 61.729023 1.8403113e-38
389.043 -79.315804 63.8521 1.8403113e-38
394.35767 -74.736473 61.917633 1.8403113e-38
396.78284 -65.163933 61.035049 1.8403113e-38
394.99298 -55.2607 61.686501 1.8403113e-38
376.26099 -43.094501 68.504402 1.8403113e-38
381.73801 -41.566898 66.510696 1.8403113e-38
379.39401 -39.554199 67.364098 1.8403113e-38
374.7005 -13.296551 69.072296 1.8403113e-38
384.47675 -14.495049 65.514 1.8403113e-38
390.10901 -15.1692 63.463902 1.8403113e-38
376.55099 -8.3010197 68.398804 1.8403113e-38
380.22601 -9.6504698 67.061203 1.8403113e-38
396.9025 -4.8624549 60.991451 1.8403113e-38
395.595 1.819295 61.46735 1.8403113e-38
397.36349 17.919401 60.823776 1.8403113e-38
396.78851 22.212849 61.032898 1.8403113e-38
377.91101 34.4547 67.903702 1.8403113e-38
384.74127 37.085876 65.417778 1.8403113e-38
394.77979 36.057652 61.764 1.8403113e-38
385.00302 42.729267 65.322533 1.8403113e-38
387.849 52.8195 64.286697 1.8403113e-38
395.18451 58.78265 61.616798 1.8403113e-38
397.87851 62.213001 60.63625 1.8403113e-38
398.88 89.026398 60.271702 1.8403113e-38
397.93201 104.69901 60.616798 1.8403113e-38
398.03 191.31799 60.580898 1.8403113e-38
398.5755 206.8575 60.38245 1.8403113e-38
377.32001 259.27148 68.118896 1.8403113e-38
384.04901 259.75101 65.669701 1.8403113e-38
374.311 261.27399 69.213898 1.8403113e-38
385.0705 261.99048 65.297897 1.8403113e-38
395.59799 264.15625 61.466248 1.8403113e-38
349.74399 -261.909 78.1558 1.8403113e-38
348.75201 -251.685 78.516899 1.8403113e-38
347.92001 -242.44099 78.819702 1.8403113e-38
351.883 -240.864 77.377197 1.8403113e-38
349.246 -239.78799 78.3368 1.8403113e-38
354.05002 -234.57466 76.588463 1.8403113e-38
362.08099 -232.041 73.665497 1.8403113e-38
356.81549 -227.3945 75.581802 1.8403113e-38
363.20099 -229.31 73.258003 1.8403113e-38
359.914 -216.608 74.454002 1.8403113e-38
357.26251 -203.5555 75.419205 1.8403113e-38
357.24399 -196.886 75.426102 1.8403113e-38
355.09732 -184.20166 76.207268 1.8403113e-38
360.785 -180.164 74.137299 1.8403113e-38
353.33099 -173.127 76.849998 1.8403113e-38
367.082 -173.84399 71.845268 1.8403113e-38
371.32401 -170.94701 70.301399 1.8403113e-38
351.55899 -166.17799 77.495201 1.8403113e-38
368.38199 -169.411 71.371902 1.8403113e-38
366.32901 -154.00101 72.119202 1.8403113e-38
370.49701 -154.522 70.602402 1.8403113e-38
370.89001 -91.251404 70.459099 1.8403113e-38
364.93451 -82.340698 72.626801 1.8403113e-38
371.29501 -40.056801 70.311699 1.8403113e-38
369.84299 -38.417 70.840401 1.8403113e-38
371.64801 -35.784 70.183403 1.8403113e-38
346.707 256.14099 79.261101 1.8403113e-38
353.383 258.41501 76.8311 1.8403113e-38
366.13501 257.74899 72.189804 1.8403113e-38
354.03052 260.28198 76.595551 1.8403113e-38
361.88098 265.159 73.738251 1.8403113e-38
370.74399 265.10501 70.512299 1.8403113e-38
333.20001 -291.08899 84.177299 1.8403113e-38
329.05499 -283.93201 85.685799 1.8403113e-38
338.077 -280.41599 82.402298 1.8403113e-38
317.457 -274.379 89.907402 1.8403113e-38
323.80402 -276.50452 87.597153 1.8403113e-38
318.142 -266.056 89.657997 1.8403113e-38
328.526 -261.39999 85.878502 1.8403113e-38
333.707 -263.53448 83.992699 1.8403113e-38
336.259 -256.005 83.063904 1.8403113e-38
337.6105 -245.09851 82.571999 1.8403113e-38
335.64301 -238.429 83.288101 1.8403113e-38
340.13901 -238.978 81.651802 1.8403113e-38
324.39798 256.63437 87.381004 1.8403113e-38
331.04501 253.435 84.961502 1.8403113e-38
342.63101 258.09802 80.744598 1.8403113e-38
327.67651 262.6615 86.187805 1.8403113e-38
337.85568 261.75201 82.482666 1.8403113e-38
304.12701 -316.271 94.759003 1.8403113e-38
304.39401 -308.13452 94.661751 1.8403113e-38
310.57001 -306.18301 92.413803 1.8403113e-38
296.27499 -292.10999 97.616898 1.8403113e-38
303.84201 -294.10999 94.862801 1.8403113e-38
313.36432 -291.82166 91.396904 1.8403113e-38
292.39651 -289.53302 99.028549 1.8403113e-38
317.177 -285.65302 90.009102 1.8403113e-38
313.948 248.586 91.184364 1.8403113e-38
294.47 255.55875 98.273849 1.8403113e-38
305.57401 258.073 94.23233 1.8403113e-38
312.05301 257.66949 91.8741 1.8403113e-38
295.34799 263.02499 97.9543 1.8403113e-38
301.80701 262.08899 95.603203 1.8403113e-38
268.59198 -291.9725 107.6925 1.8403113e-38
275.87 -295.24799 105.0435 1.8403113e-38
284.31235 -293.60733 101.97066 1.8403113e-38
265 -288 109 1.8403113e-38
275.64551 -288.27502 105.125 1.8403113e-38
288.83301 -289.89301 100.326 1.8403113e-38
268.06299 248.9765 107.8855 1.8403113e-38
282.3035 247.814 102.702 1.8403113e-38
265 251 109 1.8403113e-38
275.3924 253.5396 105.21741 1.8403113e-38
286.79498 252.43401 101.067 1.8403113e-38
