# .PCD v0.7 - Point Cloud Data file format
VERSION 0.7
FIELDS x y z rgb
SIZE 4 4 4 4
TYPE F F F F
COUNT 1 1 1 1
WIDTH 144
HEIGHT 1
VIEWPOINT 0 0 0 1 0 0 0
POINTS 144
DATA ascii
403.44897 -74.277199 58.6087 1.8403113e-38
402.9035 -58.539398 58.807297 1.8403113e-38
404.39178 -3.8948319 58.265564 1.8403113e-38
404.74817 4.9911151 58.135834 1.8403113e-38
413.42352 3.446455 54.978348 1.8403113e-38
404.90625 15.955576 58.078346 1.8403113e-38
412.65768 12.833534 55.257034 1.8403113e-38
406.77304 23.230185 57.398884 1.8403113e-38
410.98499 28.7932 55.8657 1.8403113e-38
402.30432 32.390102 59.025433 1.8403113e-38
414.47668 33.876633 54.594868 1.8403113e-38
401.733 40.353001 59.233299 1.8403113e-38
400.29501 62.6036 59.7565 1.8403113e-38
405.34174 72.431976 57.919773 1.8403113e-38
408.6987 87.106567 56.698032 1.8403113e-38
412.67502 83.579193 55.250702 1.8403113e-38
409.17999 92.191803 56.5229 1.8403113e-38
413.73767 95.727394 54.863831 1.8403113e-38
408.746 105.79099 56.680737 1.8403113e-38
413.86349 104.85374 54.818123 1.8403113e-38
409.44299 111.679 56.426998 1.8403113e-38
412.08698 117.951 55.464752 1.8403113e-38
414.18359 125.8314 54.701637 1.8403113e-38
411.70999 133.35867 55.602066 1.8403113e-38
412.67575 143.38 55.250401 1.8403113e-38
409.242 156.202 56.500198 1.8403113e-38
414.80466 153.039 54.475601 1.8403113e-38
417.14001 164.7545 53.625648 1.8403113e-38
415.18378 174.43581 54.337624 1.8403113e-38
413.44647 183.323 54.9701 1.8403113e-38
416.21899 195.216 53.960865 1.8403113e-38
406.23676 205.01649 57.593948 1.8403113e-38
417.41949 205.75101 53.523949 1.8403113e-38
407.08051 213.9415 57.28685 1.8403113e-38
411.44501 210.61 55.698399 1.8403113e-38
405.18549 223.239 57.976799 1.8403113e-38
411.40002 242.21899 55.714752 1.8403113e-38
406.30103 257.85602 57.570599 1.8403113e-38
402.7485 261.74399 58.863647 1.8403113e-38
416.22266 262.60464 53.959366 1.8403113e-38
374.70258 -154.92339 69.071457 1.8403113e-38
376.58365 -146.605 68.386971 1.8403113e-38
383.38098 -144.8815 65.912903 1.8403113e-38
375.771 -138 68.682602 1.8403113e-38
381.32401 -137.48199 66.661598 1.8403113e-38
374.69897 -96.809135 69.072838 1.8403113e-38
385.5546 -95.245277 65.121796 1.8403113e-38
390.46899 -93.492897 63.332901 1.8403113e-38
387.54099 -85.099846 64.398697 1.8403113e-38
393.14801 -86.472694 62.357956 1.8403113e-38
394.95343 -76.65873 61.700844 1.8403113e-38
388.48901 -61.279598 64.053596 1.8403113e-38
396.28741 -64.253876 61.215321 1.8403113e-38
394.4458 -54.028004 61.885578 1.8403113e-38
386.71835 -44.609936 64.698174 1.8403113e-38
393.60101 -43.145451 62.193001 1.8403113e-38
374.56699 -32.3358 69.120697 1.8403113e-38
383.82468 -37.844631 65.751434 1.8403113e-38
377.23965 -11.518567 68.14814 1.8403113e-38
385.49332 -13.819366 65.143967 1.8403113e-38
389.67499 -9.2776098 63.622101 1.8403113e-38
397.2825 -7.9936047 60.853203 1.8403113e-38
379.55402 39.022247 67.305847 1.8403113e-38
386.92975 37.199875 64.621201 1.8403113e-38
395.08899 35.811401 61.65155 1.8403113e-38
375.55249 42.2351 68.762253 1.8403113e-38
387.34702 45.6954 64.469398 1.8403113e-38
386.20364 54.351566 64.885468 1.8403113e-38
394.79166 55.848434 61.759796 1.8403113e-38
392.909 60.603699 62.444801 1.8403113e-38
398.71301 70.945396 60.332401 1.8403113e-38
375.5405 255.18951 68.766647 1.8403113e-38
373.99152 263.60852 69.330444 1.8403113e-38
386.46277 262.09625 64.791252 1.8403113e-38
395.88333 261.92868 61.362263 1.8403113e-38
350.04999 -262.854 78.044403 1.8403113e-38
348.1825 -246.59 78.723999 1.8403113e-38
356.60999 -247.491 75.6567 1.8403113e-38
348.17899 -230.59399 78.725403 1.8403113e-38
355.01251 -234.16299 76.238144 1.8403113e-38
356.27051 -223.28 75.78035 1.8403113e-38
357.13464 -216.84999 75.465767 1.8403113e-38
359.34 -201.36 74.663002 1.8403113e-38
361.414 -201.367 73.908096 1.8403113e-38
353.978 -194.13901 76.6147 1.8403113e-38
349.55099 -188.64 78.226097 1.8403113e-38
356.62299 -181.46149 75.652 1.8403113e-38
353.97998 -176.1445 76.613953 1.8403113e-38
367.86133 -172.92033 71.561668 1.8403113e-38
352.897 -163.653 77.008202 1.8403113e-38
364.60699 -164.84351 72.745895 1.8403113e-38
371.02753 -165.73599 70.409103 1.8403113e-38
369.56299 -158.91499 70.942101 1.8403113e-38
370.862 -157.938 70.4692 1.8403113e-38
367.103 -116.53201 71.837502 1.8403113e-38
367.93799 -91.918602 71.5336 1.8403113e-38
365.345 -83.401749 72.477448 1.8403113e-38
365.73001 -13.1619 72.337196 1.8403113e-38
370.54999 -16.28845 70.582947 1.8403113e-38
348.12399 249.8 78.7453 1.8403113e-38
347.60199 255.28999 78.935204 1.8403113e-38
352.41901 255.59599 77.181999 1.8403113e-38
363.564 259.61099 73.125504 1.8403113e-38
358.05701 261.36548 75.129898 1.8403113e-38
364.4595 261.9115 72.799652 1.8403113e-38
370.74399 265.10501 70.512299 1.8403113e-38
320.45401 -290.05801 88.816399 1.8403113e-38
333.427 -292.05899 84.094597 1.8403113e-38
321.46301 -282.685 88.449203 1.8403113e-38
324.75 -275.41501 87.252769 1.8403113e-38
332.996 -279.79501 84.251404 1.8403113e-38
335.22949 -264.89575 83.438507 1.8403113e-38
339.45499 -259.159 81.900803 1.8403113e-38
342.23935 -252.97466 80.887131 1.8403113e-38
342.336 -220.118 80.852203 1.8403113e-38
341.07999 249.177 81.309196 1.8403113e-38
319.74899 252.362 89.073097 1.8403113e-38
325.82751 254.89676 86.86068 1.8403113e-38
335.20926 256.32001 83.445946 1.8403113e-38
342.521 253.92499 80.784653 1.8403113e-38
298.509 -312.97501 96.803802 1.8403113e-38
294.664 -300.34601 98.203201 1.8403113e-38
304.18298 -306.41098 94.738602 1.8403113e-38
310.276 -304.20801 92.520798 1.8403113e-38
291.66 -294.63699 99.2967 1.8403113e-38
313.13647 -298.12848 91.479752 1.8403113e-38
314.319 -283.177 91.0494 1.8403113e-38
315.922 -278.78201 90.466003 1.8403113e-38
314.16266 246.16199 91.106331 1.8403113e-38
289.75299 250.62 99.9907 1.8403113e-38
295.37576 254.19073 97.944145 1.8403113e-38
305.16641 255.4288 94.380638 1.8403113e-38
312.336 259.14999 91.771202 1.8403113e-38
265 -300 109 1.8403113e-38
268.608 -293.47198 107.6865 1.8403113e-38
276.18167 -292.07364 104.93034 1.8403113e-38
287.80402 -291.99051 100.7 1.8403113e-38
274.51099 -289.823 105.538 1.8403113e-38
282.487 -283.888 102.63499 1.8403113e-38
267.99701 243.97699 107.909 1.8403113e-38
275.07199 245.49275 105.334 1.8403113e-38
283.94098 242.65276 102.106 1.8403113e-38
265 251 109 1.8403113e-38
275.28799 250.761 105.255 1.8403113e-38
