# .PCD v0.7 - Point Cloud Data file format
VERSION 0.7
FIELDS x y z rgb
SIZE 4 4 4 4
TYPE F F F F
COUNT 1 1 1 1
WIDTH 148
HEIGHT 1
VIEWPOINT 0 0 0 1 0 0 0
POINTS 148
DATA ascii
403.7023 -77.378899 58.516434 1.8403113e-38
411.21899 -70.912498 55.780499 1.8403113e-38
403.55975 -63.3694 58.568447 1.8403113e-38
400.918 -58.438599 59.529999 1.8403113e-38
401.34299 -48.5476 59.375099 1.8403113e-38
403.29898 -4.4867702 58.663322 1.8403113e-38
406.55032 2.1638501 57.479935 1.8403113e-38
414.30551 5.5572128 54.657204 1.8403113e-38
414.69186 14.616688 54.516636 1.8403113e-38
407.931 24.0909 56.977402 1.8403113e-38
412.48456 24.033239 55.320019 1.8403113e-38
402.341 33.742599 59.011902 1.8403113e-38
414.47733 32.363232 54.594738 1.8403113e-38
420.81265 35.770832 52.288929 1.8403113e-38
400.19901 64.062546 59.791451 1.8403113e-38
406.66998 75.196251 57.436451 1.8403113e-38
415.229 71.178902 54.321098 1.8403113e-38
404.71899 82.417603 58.146599 1.8403113e-38
413.47745 86.155861 54.958626 1.8403113e-38
408.60022 94.587326 56.733799 1.8403113e-38
412.42349 97.091103 55.342148 1.8403113e-38
415.34668 107.92867 54.2784 1.8403113e-38
412.70551 113.67799 55.2397 1.8403113e-38
408.96899 128.55701 56.599499 1.8403113e-38
413.14728 124.26425 55.07885 1.8403113e-38
422.87399 124.318 51.538502 1.8403113e-38
413.23233 135.52266 55.047863 1.8403113e-38
409.10501 140.52299 56.549999 1.8403113e-38
413.66727 143.68124 54.889549 1.8403113e-38
414.68234 156.53233 54.5201 1.8403113e-38
414.50598 163.30951 54.584251 1.8403113e-38
416.953 174.95499 53.693771 1.8403113e-38
415.87549 186.36349 54.085926 1.8403113e-38
414.6123 196.61299 54.545597 1.8403113e-38
408.35248 208.063 56.823849 1.8403113e-38
413.16797 205.46431 55.071369 1.8403113e-38
409.448 219.533 56.425201 1.8403113e-38
410.15201 216.55499 56.169201 1.8403113e-38
406.99652 221.93851 57.317352 1.8403113e-38
409.185 231.82001 56.520901 1.8403113e-38
412.90799 242.37601 55.165798 1.8403113e-38
415.45901 251.33099 54.237301 1.8403113e-38
402.802 264.56451 58.84425 1.8403113e-38
414.54483 264.84 54.570183 1.8403113e-38
406.22699 271.13199 57.597401 1.8403113e-38
374.94977 -165.569 68.981522 1.8403113e-38
375.08398 -153.35925 68.932823 1.8403113e-38
375.27151 -144.28976 68.864349 1.8403113e-38
384.18765 -145.90466 65.619171 1.8403113e-38
376.922 -132.28 68.263603 1.8403113e-38
372.92401 -125.337 69.718903 1.8403113e-38
385.496 -103.838 65.143097 1.8403113e-38
376.776 -94.594147 68.317001 1.8403113e-38
386.05478 -93.595856 64.939674 1.8403113e-38
392.2457 -94.248039 62.686535 1.8403113e-38
394.37042 -85.31205 61.912971 1.8403113e-38
386.785 -79.4198 64.673798 1.8403113e-38
397.19049 -75.6353 60.886623 1.8403113e-38
395.32968 -66.153534 61.563934 1.8403113e-38
396.879 -53.878735 61 1.8403113e-38
387.06824 -43.483078 64.570801 1.8403113e-38
394.07632 -44.150665 62.020031 1.8403113e-38
378.815 -34.730301 67.574898 1.8403113e-38
383.62299 -35.008202 65.824898 1.8403113e-38
377.98599 -15.561049 67.876526 1.8403113e-38
382.71866 -13.114033 66.153862 1.8403113e-38
396.056 -12.2018 61.2994 1.8403113e-38
378.491 -7.3868699 67.692802 1.8403113e-38
387.79999 -9.1380901 64.304497 1.8403113e-38
396.466 -4.2089548 61.150249 1.8403113e-38
379.12601 37.131199 67.461403 1.8403113e-38
386.487 35.2332 64.782394 1.8403113e-38
394.78751 35.065948 61.761299 1.8403113e-38
384.05002 43.6106 65.669395 1.8403113e-38
394.8476 43.822578 61.739342 1.8403113e-38
395.78702 54.822777 61.397461 1.8403113e-38
397.89368 64.9646 60.630665 1.8403113e-38
399.55399 71.391602 60.026299 1.8403113e-38
378.57999 259.20401 67.6604 1.8403113e-38
383.97073 256.71423 65.698196 1.8403113e-38
375.82999 264.92502 68.661201 1.8403113e-38
395.83252 264.60248 61.380852 1.8403113e-38
346.99701 -260.789 79.155701 1.8403113e-38
351.8945 -264.8165 77.372948 1.8403113e-38
351.776 -253.717 77.416 1.8403113e-38
354.87033 -242.83934 76.289803 1.8403113e-38
346.61401 -232.295 79.294998 1.8403113e-38
360.54901 -233.85001 74.223 1.8403113e-38
354.18201 -229.12199 76.540398 1.8403113e-38
361.25201 -224.75999 73.967102 1.8403113e-38
354.91235 -214.97766 76.274666 1.8403113e-38
358.35733 -203.72766 75.020767 1.8403113e-38
361.45633 -197.21333 73.892769 1.8403113e-38
362.03699 -186.29401 73.681503 1.8403113e-38
353.78 -174.006 76.686798 1.8403113e-38
365.63049 -175.63724 72.37355 1.8403113e-38
371.84201 -171.78 70.112602 1.8403113e-38
354.741 -165.411 76.337097 1.8403113e-38
367.6825 -165.10751 71.626755 1.8403113e-38
365.771 -113.981 72.322449 1.8403113e-38
359.185 -101.995 74.719299 1.8403113e-38
369.37799 -93.204201 71.009598 1.8403113e-38
367.95801 -87.152 71.526497 1.8403113e-38
371.63 -88.655197 70.189796 1.8403113e-38
369.66901 -11.7072 70.903603 1.8403113e-38
346.10248 254.2475 79.481003 1.8403113e-38
358.61801 259.535 74.925797 1.8403113e-38
354.99069 263.10632 76.246101 1.8403113e-38
364.86768 262.99765 72.651169 1.8403113e-38
370.74399 265.10501 70.512299 1.8403113e-38
326.01599 -292.88901 86.791901 1.8403113e-38
319.892 -287.11801 89.020897 1.8403113e-38
322.63501 -288.55399 88.022499 1.8403113e-38
332.5455 -283.01147 84.415451 1.8403113e-38
325.854 -274.97449 86.851044 1.8403113e-38
335.04501 -278.18701 83.505798 1.8403113e-38
336.56735 -265.62332 82.95163 1.8403113e-38
340.55301 -262.98401 81.500801 1.8403113e-38
341.909 -255.71899 81.007355 1.8403113e-38
339.034 249.87399 82.053902 1.8403113e-38
323.96997 256.41998 87.536652 1.8403113e-38
332.37274 254.32474 84.478348 1.8403113e-38
342.82199 254.883 80.675003 1.8403113e-38
340.004 261.07101 81.700798 1.8403113e-38
304.61801 -320.237 94.580399 1.8403113e-38
300.845 -310.66699 95.953598 1.8403113e-38
297.55099 -304.03299 97.152298 1.8403113e-38
306.06403 -301.345 94.053848 1.8403113e-38
314.00952 -303.54901 91.161949 1.8403113e-38
292.6825 -292.51752 98.924301 1.8403113e-38
309.10001 -296.306 92.948799 1.8403113e-38
316.54501 -295.95999 90.239197 1.8403113e-38
316.99799 -284.672 90.074402 1.8403113e-38
315.54102 247.72601 90.604599 1.8403113e-38
294.46399 255.26201 98.276077 1.8403113e-38
305.01251 254.43726 94.4366 1.8403113e-38
312.758 255.4915 91.617554 1.8403113e-38
306.10001 261.366 94.040802 1.8403113e-38
269.83801 -294.95499 107.239 1.8403113e-38
275.82123 -293.00974 105.06151 1.8403113e-38
285.48749 -293.427 101.543 1.8403113e-38
266.181 -288.49451 108.57 1.8403113e-38
265 244 109 1.8403113e-38
278.99799 243.545 103.905 1.8403113e-38
283.87433 245.83301 102.13033 1.8403113e-38
268.13251 254.47549 107.86 1.8403113e-38
274.44601 255.53999 105.562 1.8403113e-38
285.63901 251.041 101.488 1.8403113e-38
