# .PCD v0.7 - Point Cloud Data file format
VERSION 0.7
FIELDS x y z rgb
SIZE 4 4 4 4
TYPE F F F F
COUNT 1 1 1 1
WIDTH 134
HEIGHT 1
VIEWPOINT 0 0 0 1 0 0 0
POINTS 134
DATA ascii
399.85599 -68.451202 59.916302 1.8403113e-38
400.80399 -61.344799 59.571499 1.8403113e-38
401.59351 -57.9856 59.28405 1.8403113e-38
407.07648 -3.5968976 57.288376 1.8403113e-38
402.724 4.4997168 58.872631 1.8403113e-38
414.26901 6.9354801 54.670601 1.8403113e-38
404.1022 13.569866 58.370968 1.8403113e-38
402.73535 26.725235 58.86853 1.8403113e-38
405.65125 32.834225 57.807125 1.8403113e-38
412.41299 36.217098 55.3461 1.8403113e-38
401.26401 67.618896 59.4039 1.8403113e-38
404.9155 76.678673 58.074852 1.8403113e-38
410.487 77.1922 56.047199 1.8403113e-38
406.28778 85.508041 57.575474 1.8403113e-38
410.47198 85.811302 56.0527 1.8403113e-38
404.95538 94.871078 58.060463 1.8403113e-38
413.979 93.387001 54.776199 1.8403113e-38
405.49576 103.763 57.863674 1.8403113e-38
406.1832 113.6364 57.613518 1.8403113e-38
404.41385 125.98751 58.25745 1.8403113e-38
410.87601 121.285 55.905399 1.8403113e-38
405.31067 136.02966 57.931103 1.8403113e-38
406.18347 143.83951 57.613449 1.8403113e-38
404.707 156.681 58.151001 1.8403113e-38
410.479 153.4765 56.04985 1.8403113e-38
409.89301 162.48399 56.263401 1.8403113e-38
413.75101 166.811 54.859051 1.8403113e-38
409.87601 177.35699 56.269402 1.8403113e-38
411.41501 174.57901 55.709297 1.8403113e-38
404.41974 181.58224 58.255352 1.8403113e-38
413.909 185.539 54.801701 1.8403113e-38
405.90875 197.20224 57.713451 1.8403113e-38
399.746 204.78799 59.956299 1.8403113e-38
403.08099 204.10501 58.742653 1.8403113e-38
400.647 212.022 59.628448 1.8403113e-38
408.66599 230.98599 56.709702 1.8403113e-38
411.37299 239.86 55.724602 1.8403113e-38
409.905 242.05299 56.258801 1.8403113e-38
405.95401 259.80801 57.696999 1.8403113e-38
417.37601 259.50299 53.5396 1.8403113e-38
402.87833 264.71466 58.816433 1.8403113e-38
413.41833 262.85599 54.980133 1.8403113e-38
372.9375 -175.20151 69.714005 1.8403113e-38
374.18201 -165.9534 69.260963 1.8403113e-38
375.62424 -154.815 68.736 1.8403113e-38
387.68201 -150.187 64.347298 1.8403113e-38
377.54434 -147.05434 68.03717 1.8403113e-38
381.52148 -145.23849 66.589752 1.8403113e-38
376.68201 -139.15401 68.351196 1.8403113e-38
372.521 -127.078 69.865601 1.8403113e-38
385.10535 -94.569702 65.285194 1.8403113e-38
394.298 -95.192101 61.93927 1.8403113e-38
386.49667 -86.673225 64.778801 1.8403113e-38
393.24799 -84.447701 62.321625 1.8403113e-38
389.19299 -77.080444 63.797501 1.8403113e-38
393.65762 -74.326477 62.172539 1.8403113e-38
385.56699 -65.374603 65.117104 1.8403113e-38
396.07932 -64.797264 61.291046 1.8403113e-38
397.6445 -56.3442 60.721397 1.8403113e-38
381.18399 -46.227402 66.712402 1.8403113e-38
388.80801 -8.0584002 63.937599 1.8403113e-38
395.487 -6.0803003 61.50655 1.8403113e-38
394.65799 2.4084301 61.808399 1.8403113e-38
397.29236 18.525566 60.849503 1.8403113e-38
395.79468 22.475267 61.394669 1.8403113e-38
376.03564 31.661367 68.586266 1.8403113e-38
383.931 37.490002 65.712502 1.8403113e-38
386.50699 56.223598 64.774902 1.8403113e-38
390.33401 59.383499 63.382198 1.8403113e-38
389.84201 60.5452 63.5611 1.8403113e-38
390.52701 63.715599 63.312099 1.8403113e-38
375.28101 257.51901 68.861099 1.8403113e-38
383.63699 258.853 65.819603 1.8403113e-38
392.495 255.172 62.5956 1.8403113e-38
375.07599 263.10101 68.935699 1.8403113e-38
384.61652 263.8765 65.463051 1.8403113e-38
392.35999 263.14447 62.644897 1.8403113e-38
386.36499 270.776 64.826897 1.8403113e-38
351.74951 -264.341 77.42585 1.8403113e-38
347.27701 -240.561 79.053703 1.8403113e-38
356.172 -240.14101 75.816101 1.8403113e-38
353.91501 -234.0905 76.637695 1.8403113e-38
356.66733 -224.37166 75.635872 1.8403113e-38
358.914 -219.30099 74.8181 1.8403113e-38
349.55099 -188.64 78.226097 1.8403113e-38
352.84875 -185.51575 77.025543 1.8403113e-38
366.29199 -170.83299 72.132645 1.8403113e-38
360.74301 -166.265 74.152496 1.8403113e-38
369.98901 -7.8127198 70.787102 1.8403113e-38
368.94299 27.5791 71.1679 1.8403113e-38
356.15701 259.45801 75.821503 1.8403113e-38
362.85999 257.75699 73.381798 1.8403113e-38
354.68396 264.00476 76.357605 1.8403113e-38
364.10001 260.98749 72.93055 1.8403113e-38
370.90002 262.31299 70.455551 1.8403113e-38
335.01801 -298.85101 83.515404 1.8403113e-38
332.23199 -271.73599 84.529602 1.8403113e-38
335.0105 -264.19299 83.518295 1.8403113e-38
336.526 -256.96399 82.966698 1.8403113e-38
335.91199 -243.052 83.190155 1.8403113e-38
340.91498 -245.02299 81.369148 1.8403113e-38
343.46399 -217.524 80.441399 1.8403113e-38
330.04099 249.58 85.327103 1.8403113e-38
317.474 251.884 89.9011 1.8403113e-38
326.10098 257.55634 86.761009 1.8403113e-38
335.73798 258.24951 83.253555 1.8403113e-38
342.90903 255.19633 80.643372 1.8403113e-38
325.3045 262.26001 87.050995 1.8403113e-38
339.729 260.11499 81.800797 1.8403113e-38
302.8335 -316.44598 95.229706 1.8403113e-38
306.06 -301.34549 94.055298 1.8403113e-38
296.38101 -293.104 97.578201 1.8403113e-38
312.263 -292.70752 91.7976 1.8403113e-38
292.24902 -288.04102 99.082153 1.8403113e-38
307.77701 -287.41699 93.430397 1.8403113e-38
312.435 -272.362 91.735001 1.8403113e-38
313.05301 -263.07599 91.510101 1.8403113e-38
291.70099 249.38699 99.281799 1.8403113e-38
295.01932 253.97066 98.073936 1.8403113e-38
304.19751 256.11298 94.733299 1.8403113e-38
313.34851 258.66998 91.402481 1.8403113e-38
295.233 262.03201 97.996002 1.8403113e-38
267.39499 -291.98901 108.128 1.8403113e-38
274.73999 -296.819 105.455 1.8403113e-38
287.8895 -292.98651 100.66901 1.8403113e-38
267.37 -287.978 108.1375 1.8403113e-38
276.056 -288.74332 104.97601 1.8403113e-38
282.79449 -288.8775 102.5235 1.8403113e-38
268.026 245.97699 107.899 1.8403113e-38
275.13766 246.75801 105.31 1.8403113e-38
283.29999 247.22501 102.33949 1.8403113e-38
265 250 109 1.8403113e-38
275.56549 256.715 105.1545 1.8403113e-38
285.74899 252.52701 101.448 1.8403113e-38
