# .PCD v0.7 - Point Cloud Data file format
VERSION 0.7
FIELDS x y z rgb
SIZE 4 4 4 4
TYPE F F F F
COUNT 1 1 1 1
WIDTH 159
HEIGHT 1
VIEWPOINT 0 0 0 1 0 0 0
POINTS 159
DATA ascii
400.83499 -82.621155 59.560101 1.8403113e-38
405.03101 -77.5737 58.032902 1.8403113e-38
404.76199 -64.143867 58.130871 1.8403113e-38
420.27802 -63.431099 52.483299 1.8403113e-38
406.70999 -56.3834 57.421902 1.8403113e-38
405.55499 -44.3064 57.842098 1.8403113e-38
403.228 -5.1368084 58.689198 1.8403113e-38
405.73972 4.1263528 57.774929 1.8403113e-38
412.32999 8.2167397 55.3764 1.8403113e-38
408.94849 15.44695 56.607101 1.8403113e-38
414.29437 14.998199 54.661366 1.8403113e-38
406.69864 23.654867 57.425934 1.8403113e-38
412.4855 28.39245 55.319599 1.8403113e-38
404.46497 34.54562 58.238842 1.8403113e-38
417.85699 33.0951 53.364498 1.8403113e-38
403.83148 54.469749 58.469551 1.8403113e-38
407.24976 75.082382 57.225349 1.8403113e-38
407.50101 89.326698 57.133801 1.8403113e-38
412.33701 84.257751 55.37365 1.8403113e-38
406.86301 96.176598 57.366199 1.8403113e-38
414.28442 94.344261 54.664959 1.8403113e-38
420.39499 93.560402 52.441002 1.8403113e-38
404.448 100.095 58.244999 1.8403113e-38
415.68137 106.78699 54.156536 1.8403113e-38
408.8085 114.279 56.657951 1.8403113e-38
413.15466 112.45966 55.076065 1.8403113e-38
414.61551 125.51274 54.544399 1.8403113e-38
408.25699 132.524 56.858601 1.8403113e-38
414.47733 133.49133 54.594738 1.8403113e-38
412.98325 143.03224 55.138496 1.8403113e-38
413.91852 155.082 54.798176 1.8403113e-38
415.45001 164.39999 54.240601 1.8403113e-38
416.62347 177.63699 53.813599 1.8403113e-38
421.664 172.642 51.979099 1.8403113e-38
417.35031 185.43834 53.548931 1.8403113e-38
423.077 183.582 51.464699 1.8403113e-38
408.68649 193.97699 56.7024 1.8403113e-38
414.81369 193.42467 54.472332 1.8403113e-38
409.76801 208.19901 56.308701 1.8403113e-38
412.02948 205.76599 55.485748 1.8403113e-38
407.89001 215.1945 56.992352 1.8403113e-38
412.474 216.007 55.323799 1.8403113e-38
407.04404 224.11401 57.300304 1.8403113e-38
412.67603 244.31799 55.250351 1.8403113e-38
410.677 258.00699 55.977798 1.8403113e-38
403.439 263.052 58.61235 1.8403113e-38
413.08499 265.77335 55.101437 1.8403113e-38
420.36401 264.591 52.452202 1.8403113e-38
375.5 -164.84949 68.781357 1.8403113e-38
380.703 -166.39799 66.887604 1.8403113e-38
376.31125 -152.99374 68.486023 1.8403113e-38
384.54401 -154.325 65.4897 1.8403113e-38
376.76898 -144.28799 68.319397 1.8403113e-38
383.39499 -147.519 65.907898 1.8403113e-38
378.51633 -136.56767 67.683434 1.8403113e-38
389.715 -109.405 63.6073 1.8403113e-38
376.94901 -93.086441 68.253799 1.8403113e-38
384.849 -92.109924 65.378601 1.8403113e-38
394.9234 -93.629044 61.711761 1.8403113e-38
394.61798 -84.550163 61.822899 1.8403113e-38
396.12976 -74.605301 61.272652 1.8403113e-38
394.69717 -65.519318 61.79414 1.8403113e-38
396.53799 -57.487167 61.124165 1.8403113e-38
385.53564 -44.170334 65.1287 1.8403113e-38
392.11234 -45.260635 62.734936 1.8403113e-38
376.379 -32.8703 68.461502 1.8403113e-38
386.62952 -38.340599 64.730347 1.8403113e-38
378.22498 -11.06725 67.789398 1.8403113e-38
384.77399 -16.221649 65.405853 1.8403113e-38
390.229 -14.0068 63.420399 1.8403113e-38
380.22601 -9.6504698 67.061203 1.8403113e-38
394.80435 -6.3952065 61.7551 1.8403113e-38
379.367 32.611198 67.373901 1.8403113e-38
386.31836 35.7766 64.843727 1.8403113e-38
394.17099 39.4161 61.985802 1.8403113e-38
385.37225 44.070549 65.188126 1.8403113e-38
393.22803 44.830097 62.328869 1.8403113e-38
389.591 53.568699 63.6525 1.8403113e-38
393.68576 56.7314 62.162247 1.8403113e-38
397.0563 64.574432 60.935436 1.8403113e-38
397.87201 70.499199 60.6385 1.8403113e-38
372.39999 256.70599 69.9095 1.8403113e-38
384.29349 257.36902 65.580704 1.8403113e-38
396.82501 258.37201 61.019798 1.8403113e-38
373.98868 264.68631 69.331329 1.8403113e-38
385.24899 264.29968 65.233032 1.8403113e-38
395.60849 264.16299 61.462502 1.8403113e-38
350.66199 -264.745 77.821701 1.8403113e-38
347.427 -254.8145 78.9991 1.8403113e-38
353.383 -258.41501 76.8311 1.8403113e-38
356.60999 -247.491 75.6567 1.8403113e-38
357.05899 -236.513 75.493301 1.8403113e-38
362.84302 -231.1265 73.3881 1.8403113e-38
352.57199 -224.951 77.12645 1.8403113e-38
354.55399 -219.177 76.405098 1.8403113e-38
355.60101 -204.39951 76.023949 1.8403113e-38
364.36401 -203.125 72.834602 1.8403113e-38
356.97168 -196.27834 75.525093 1.8403113e-38
357.367 -181.036 75.381203 1.8403113e-38
358.93399 -176.68201 74.810997 1.8403113e-38
369.013 -175.49051 71.142502 1.8403113e-38
371.02802 -177.112 70.408897 1.8403113e-38
349.703 -169.526 78.170799 1.8403113e-38
354.06799 -167.53949 76.581955 1.8403113e-38
362.60001 -166.217 73.476402 1.8403113e-38
371.13535 -167.46632 70.369904 1.8403113e-38
370.862 -157.938 70.4692 1.8403113e-38
366.74902 -117.113 71.966446 1.8403113e-38
362.121 -27.6936 73.650803 1.8403113e-38
364.68701 -13.9663 72.716904 1.8403113e-38
371.13699 -15.3717 70.369156 1.8403113e-38
347.79898 255.91566 78.86364 1.8403113e-38
353.68152 252.42499 76.72245 1.8403113e-38
345.436 263.44299 79.723801 1.8403113e-38
358.13199 265.078 75.102798 1.8403113e-38
364.7373 262.69434 72.698433 1.8403113e-38
318.79099 -294.48801 89.421799 1.8403113e-38
333.427 -292.05899 84.094597 1.8403113e-38
324.44202 -285.5325 87.364998 1.8403113e-38
334.173 -284.63501 83.823303 1.8403113e-38
319.314 -271.92499 89.2314 1.8403113e-38
323.16199 -273.5835 87.830849 1.8403113e-38
336.06833 -272.69998 83.133202 1.8403113e-38
339.46201 -267.51099 81.898201 1.8403113e-38
340.828 -263.94 81.400803 1.8403113e-38
342.92151 -259.04901 80.638901 1.8403113e-38
343.65201 -223.86501 80.373001 1.8403113e-38
344.138 -219.39101 80.196198 1.8403113e-38
324.63 254.53601 87.296425 1.8403113e-38
334.483 255.75325 83.710327 1.8403113e-38
321.44 260.15701 88.457603 1.8403113e-38
333.556 263.07101 84.047501 1.8403113e-38
342.42499 261.31799 80.819801 1.8403113e-38
301.98999 -320.59201 95.536697 1.8403113e-38
303.88199 -314.28799 94.848297 1.8403113e-38
297.23199 -301.052 97.268501 1.8403113e-38
305.14999 -304.01199 94.386803 1.8403113e-38
312.92401 -304.76199 91.556999 1.8403113e-38
292.72751 -293.01501 98.907898 1.8403113e-38
307.819 -296.0105 93.4151 1.8403113e-38
313.30798 -284.38849 91.417343 1.8403113e-38
306.12 248.172 94.033401 1.8403113e-38
316.66 247.979 90.197197 1.8403113e-38
289.94901 252.60899 99.919197 1.8403113e-38
295.58224 255.67476 97.869049 1.8403113e-38
304.17899 252.56026 94.739975 1.8403113e-38
313.52899 253.79231 91.33683 1.8403113e-38
269.83801 -294.95499 107.239 1.8403113e-38
275.8295 -293.25977 105.0585 1.8403113e-38
284.35336 -294.60699 101.95633 1.8403113e-38
266.177 -284.99451 108.5715 1.8403113e-38
288.34201 -283.91501 100.504 1.8403113e-38
286.70599 239.89 101.1 1.8403113e-38
267.03351 245.981 108.25999 1.8403113e-38
278.12201 246.10199 104.224 1.8403113e-38
283.358 248.23199 102.318 1.8403113e-38
267.07501 252.99001 108.245 1.8403113e-38
273.33768 254.17168 105.96533 1.8403113e-38
283.849 255.203 102.1395 1.8403113e-38
