# .PCD v0.7 - Point Cloud Data file format
VERSION 0.7
FIELDS x y z rgb
SIZE 4 4 4 4
TYPE F F F F
COUNT 1 1 1 1
WIDTH 160
HEIGHT 1
VIEWPOINT 0 0 0 1 0 0 0
POINTS 160
DATA ascii
401.23599 -72.283997 59.414101 1.8403113e-38
405.12299 -63.295998 57.999298 1.8403113e-38
404.44849 -58.450653 58.245049 1.8403113e-38
406.10303 -4.876905 57.642853 1.8403113e-38
406.93115 5.5247364 57.341328 1.8403113e-38
403.41583 14.153242 58.620785 1.8403113e-38
402.315 26.430801 59.0215 1.8403113e-38
404.125 32.783901 58.362701 1.8403113e-38
412.40948 36.207199 55.34745 1.8403113e-38
424.31601 39.141499 51.013802 1.8403113e-38
409.35001 57.433998 56.460899 1.8403113e-38
399.77701 63.857601 59.945202 1.8403113e-38
400.103 65.5215 59.826401 1.8403113e-38
406.04901 79.810097 57.662399 1.8403113e-38
413.01001 78.5308 55.129002 1.8403113e-38
399.677 89.556297 59.981602 1.8403113e-38
405.32858 84.505554 57.924541 1.8403113e-38
413.28751 81.262146 55.027851 1.8403113e-38
399.76401 93.133202 59.950001 1.8403113e-38
405.99048 91.0382 57.683647 1.8403113e-38
404.63727 105.0675 58.176151 1.8403113e-38
404.61899 116.76749 58.182903 1.8403113e-38
405.28598 127.505 57.940067 1.8403113e-38
402.99139 134.5752 58.775219 1.8403113e-38
402.38751 143.68701 58.995049 1.8403113e-38
406.6015 154.03 57.4613 1.8403113e-38
406.84424 166.16376 57.373001 1.8403113e-38
404.556 173.86736 58.20583 1.8403113e-38
405.091 187.414 58.011124 1.8403113e-38
403.28299 192.92134 58.669102 1.8403113e-38
399.746 204.78799 59.956299 1.8403113e-38
403.61652 204.9265 58.547653 1.8403113e-38
403.0325 215.73801 58.760452 1.8403113e-38
407.10999 228.485 57.276001 1.8403113e-38
413.93851 246.4265 54.790901 1.8403113e-38
412.78699 256.64499 55.209801 1.8403113e-38
406.8877 261.53467 57.357136 1.8403113e-38
417.44949 264.73248 53.512901 1.8403113e-38
376.58899 -174.409 68.384857 1.8403113e-38
377.24701 -162.89499 68.145554 1.8403113e-38
375.065 -154.021 68.939697 1.8403113e-38
380.707 -157.60201 66.886299 1.8403113e-38
376.75226 -145.59399 68.325478 1.8403113e-38
383.05103 -144.52451 66.032944 1.8403113e-38
379.05099 -139.621 67.488701 1.8403113e-38
373.983 -127.69051 69.333405 1.8403113e-38
382.33499 -104.774 66.293602 1.8403113e-38
376.08099 -91.503052 68.569801 1.8403113e-38
388.53351 -92.066254 64.037552 1.8403113e-38
393.23666 -98.537506 62.325733 1.8403113e-38
388.73633 -86.077698 63.963634 1.8403113e-38
393.53061 -84.506081 62.218739 1.8403113e-38
395.16348 -75.969963 61.624332 1.8403113e-38
394.67041 -64.330299 61.803902 1.8403113e-38
398.76901 -56.074699 60.312099 1.8403113e-38
383.60303 -43.941998 65.83213 1.8403113e-38
397.99799 -43.271 60.5928 1.8403113e-38
379.02164 -36.321568 67.499428 1.8403113e-38
387.53601 -34.940601 64.400597 1.8403113e-38
399.01599 -39.5513 60.222 1.8403113e-38
386.41199 -21.621201 64.809799 1.8403113e-38
375.40021 -14.467679 68.817665 1.8403113e-38
376.5155 -8.8057699 68.411598 1.8403113e-38
395.80533 -5.2975502 61.390865 1.8403113e-38
397.47449 1.819295 60.783298 1.8403113e-38
398.147 19.283449 60.538353 1.8403113e-38
398.44073 23.7722 60.431576 1.8403113e-38
377.23441 36.076061 68.150063 1.8403113e-38
382.90396 36.359203 66.086433 1.8403113e-38
393.267 39.140499 62.314602 1.8403113e-38
380.505 42.323799 66.959801 1.8403113e-38
385.8855 52.643749 65.001198 1.8403113e-38
396.02881 53.545677 61.309399 1.8403113e-38
396.7735 65.39537 61.038399 1.8403113e-38
398.71597 93.602264 60.331333 1.8403113e-38
399.33401 107.725 60.1063 1.8403113e-38
387.86902 259.40698 64.279404 1.8403113e-38
396.36401 257.48801 61.18745 1.8403113e-38
376.0235 265.37653 68.590805 1.8403113e-38
383.39734 264.14868 65.906898 1.8403113e-38
397.0965 264.44702 60.9207 1.8403113e-38
349.43799 -260.96301 78.267097 1.8403113e-38
362.465 -263.30801 73.525703 1.8403113e-38
350.32001 -256.39801 77.946098 1.8403113e-38
348.241 -243.38 78.702698 1.8403113e-38
359.57599 -242.98 74.577103 1.8403113e-38
353.004 -231.79601 76.9692 1.8403113e-38
355.30902 -223.72949 76.130051 1.8403113e-38
362.03101 -226.58 73.683502 1.8403113e-38
355.20099 -215.597 76.169502 1.8403113e-38
356.10623 -196.61826 75.840126 1.8403113e-38
348.742 -186.83501 78.520599 1.8403113e-38
355.879 -181.88699 75.922798 1.8403113e-38
369.09 -180.75999 71.114502 1.8403113e-38
348.616 -174.63699 78.566299 1.8403113e-38
365.41699 -177.83051 72.451149 1.8403113e-38
371.02802 -177.112 70.408897 1.8403113e-38
351.776 -164.9025 77.416252 1.8403113e-38
368.30051 -167.67499 71.401749 1.8403113e-38
344.81201 -156.429 79.950798 1.8403113e-38
369.771 -156.31 70.866501 1.8403113e-38
370.10199 -159.735 70.745903 1.8403113e-38
368.495 -116.06 71.331001 1.8403113e-38
369.41299 -91.5952 70.996803 1.8403113e-38
366.08698 -85.630051 72.207352 1.8403113e-38
370.117 -85.835297 70.7407 1.8403113e-38
368.314 -40.0163 71.396896 1.8403113e-38
367.61603 -37.605801 71.650757 1.8403113e-38
366.75098 -12.3546 71.965805 1.8403113e-38
371.53799 -11.9162 70.223297 1.8403113e-38
347.30701 258.0365 79.042648 1.8403113e-38
356.53497 257.1445 75.684006 1.8403113e-38
372.01801 255.793 70.048599 1.8403113e-38
356.10568 261.59534 75.840302 1.8403113e-38
367.005 262.06732 71.87307 1.8403113e-38
333.65399 -293.02899 84.011803 1.8403113e-38
320.86499 -285.8815 88.666855 1.8403113e-38
324.80167 -275.74435 87.23391 1.8403113e-38
336.82101 -275.59799 82.859299 1.8403113e-38
328.76099 -262.36801 85.7929 1.8403113e-38
334.28351 -265.9585 83.782898 1.8403113e-38
335.992 -255.04601 83.161003 1.8403113e-38
337.172 -247.34799 82.731598 1.8403113e-38
341.064 -245.49699 81.314896 1.8403113e-38
339.703 -212.625 81.810402 1.8403113e-38
341.10699 -210.989 81.2994 1.8403113e-38
318.48001 246.51601 89.534698 1.8403113e-38
317.474 251.884 89.9011 1.8403113e-38
326.32498 255.44633 86.679504 1.8403113e-38
335.29031 255.24933 83.416367 1.8403113e-38
344.27399 259.638 80.146599 1.8403113e-38
326.60699 262.95001 86.576797 1.8403113e-38
336.229 264.34698 83.074699 1.8403113e-38
342.42499 261.31799 80.819801 1.8403113e-38
302.35101 -312.47949 95.40535 1.8403113e-38
308.474 -309.56201 93.176598 1.8403113e-38
310.423 -305.19601 92.4673 1.8403113e-38
294.04636 -294.03897 98.42794 1.8403113e-38
304.496 -299.061 94.624802 1.8403113e-38
312.56949 -294.68048 91.686203 1.8403113e-38
314.319 -283.177 91.0494 1.8403113e-38
314.84601 -272.892 90.857498 1.8403113e-38
297.82599 248.55701 97.052399 1.8403113e-38
312.77301 249.881 91.612099 1.8403113e-38
293.25323 253.96425 98.716675 1.8403113e-38
304.99451 254.44026 94.443245 1.8403113e-38
313.63449 254.27649 91.298553 1.8403113e-38
306.10001 261.366 94.040802 1.8403113e-38
268.64099 -295.47198 107.6745 1.8403113e-38
275.86023 -294.009 105.04726 1.8403113e-38
285.18167 -294.86801 101.65466 1.8403113e-38
265 -282 109 1.8403113e-38
286.16 -286.11499 101.298 1.8403113e-38
270.90399 239.918 106.851 1.8403113e-38
266.97601 240.991 108.281 1.8403113e-38
273.133 247.849 106.04 1.8403113e-38
285.5195 249.5365 101.5315 1.8403113e-38
267.07449 252.9805 108.245 1.8403113e-38
277.49667 253.64532 104.45166 1.8403113e-38
283.82452 254.202 102.1485 1.8403113e-38
