# .PCD v0.7 - Point Cloud Data file format
VERSION 0.7
FIELDS x y z rgb
SIZE 4 4 4 4
TYPE F F F F
COUNT 1 1 1 1
WIDTH 151
HEIGHT 1
VIEWPOINT 0 0 0 1 0 0 0
POINTS 151
DATA ascii
401.918 -61.103752 59.1661 1.8403113e-38
418.52399 -62.714401 53.121899 1.8403113e-38
402.02502 -58.185051 59.127151 1.8403113e-38
402.57953 -4.8027325 58.925201 1.8403113e-38
411.5195 -4.0829802 55.671303 1.8403113e-38
403.56543 5.6751142 58.566284 1.8403113e-38
401.04703 13.177839 59.482994 1.8403113e-38
399.92899 20.180099 59.889702 1.8403113e-38
402.35568 27.105967 59.006634 1.8403113e-38
406.26624 33.341324 57.583275 1.8403113e-38
413.62201 35.063202 54.906101 1.8403113e-38
400.978 55.547001 59.507999 1.8403113e-38
407.6485 76.519897 57.080349 1.8403113e-38
405.66434 84.704803 57.802429 1.8403113e-38
413.50867 84.040962 54.9473 1.8403113e-38
406.35739 94.739441 57.55014 1.8403113e-38
402.25565 105.15665 59.042999 1.8403113e-38
406.172 116.3165 57.61755 1.8403113e-38
405.04938 124.15261 58.026222 1.8403113e-38
412.19299 129.12399 55.425999 1.8403113e-38
402.87573 133.30875 58.817345 1.8403113e-38
405.80765 144.73167 57.750168 1.8403113e-38
407.85999 152.028 57.003399 1.8403113e-38
412.535 159.76801 55.301601 1.8403113e-38
408.5155 165.224 56.764801 1.8403113e-38
411.20251 162.53351 55.786549 1.8403113e-38
406.01324 174.93552 57.67535 1.8403113e-38
411.505 173.153 55.676498 1.8403113e-38
405.40399 186.17902 57.897125 1.8403113e-38
402.39902 194.05566 58.990902 1.8403113e-38
403.0795 202.24651 58.743351 1.8403113e-38
402.68701 213.157 58.886032 1.8403113e-38
408.814 235.666 56.655998 1.8403113e-38
411.26001 235.15601 55.7658 1.8403113e-38
411.42001 244.58299 55.7075 1.8403113e-38
404.43399 262.25931 58.250233 1.8403113e-38
414.70865 265.142 54.510395 1.8403113e-38
420.36401 264.591 52.452202 1.8403113e-38
373.05801 -184.026 69.670197 1.8403113e-38
375.647 -172.9455 68.727844 1.8403113e-38
376.11401 -163.75966 68.5578 1.8403113e-38
375.95499 -153.92235 68.615631 1.8403113e-38
381.55499 -150.467 66.5774 1.8403113e-38
373.8085 -144.28 69.397049 1.8403113e-38
382.18652 -147.29651 66.347595 1.8403113e-38
377.89566 -135.81667 67.909302 1.8403113e-38
373.30701 -123.599 69.579498 1.8403113e-38
373.841 -92.132103 69.385201 1.8403113e-38
387.013 -92.622101 64.590744 1.8403113e-38
393.99298 -95.042603 62.050484 1.8403113e-38
373.06799 -86.661301 69.666496 1.8403113e-38
388.388 -80.464798 64.0905 1.8403113e-38
393.3205 -86.188446 62.295303 1.8403113e-38
386.04401 -72.8787 64.943497 1.8403113e-38
393.85767 -74.9804 62.099651 1.8403113e-38
387.79599 -69.481796 64.306099 1.8403113e-38
397.03244 -65.71418 60.944134 1.8403113e-38
376.60999 -42.0597 68.377296 1.8403113e-38
384.62564 -45.901062 65.459869 1.8403113e-38
390.80899 -40.931999 63.2094 1.8403113e-38
376.11166 -38.428432 68.558739 1.8403113e-38
383.47101 -35.561176 65.880051 1.8403113e-38
374.12134 -14.261233 69.283073 1.8403113e-38
384.79102 -15.529449 65.399551 1.8403113e-38
375.10901 -8.7141895 68.923706 1.8403113e-38
390.68399 -8.1805 63.254799 1.8403113e-38
399.35233 2.4956267 60.099834 1.8403113e-38
395.66333 16.220266 61.442505 1.8403113e-38
397.10068 22.259499 60.919434 1.8403113e-38
375.66251 36.30085 68.722023 1.8403113e-38
386.32001 35.817749 64.843178 1.8403113e-38
392.64899 33.869099 62.539501 1.8403113e-38
383.3356 45.106636 65.929482 1.8403113e-38
385.78735 55.455933 65.036964 1.8403113e-38
394.5 54.807098 61.865932 1.8403113e-38
394.58875 65.086105 61.833679 1.8403113e-38
399.405 84.251297 60.0807 1.8403113e-38
397.79749 92.653595 60.665649 1.8403113e-38
381.10501 259.04199 66.741096 1.8403113e-38
393.819 257.82101 62.113899 1.8403113e-38
376.72949 263.95349 68.333801 1.8403113e-38
385.51132 264.90567 65.137535 1.8403113e-38
395.88501 265.686 61.361835 1.8403113e-38
350.66199 -264.745 77.821701 1.8403113e-38
350.32001 -256.39801 77.946098 1.8403113e-38
361.80399 -254.976 73.766197 1.8403113e-38
348.241 -243.38 78.702698 1.8403113e-38
354.05902 -243.71851 76.585152 1.8403113e-38
347.60101 -235.105 78.935699 1.8403113e-38
358.26099 -233.808 75.055901 1.8403113e-38
355.492 -226.901 76.063599 1.8403113e-38
360.862 -223.85001 74.109001 1.8403113e-38
356.73001 -219.25101 75.613098 1.8403113e-38
361.39301 -210.31799 73.916 1.8403113e-38
351.97198 -198.481 77.344902 1.8403113e-38
349.55099 -188.64 78.226097 1.8403113e-38
354.06149 -184.01651 76.584229 1.8403113e-38
367.99899 -172.052 71.511497 1.8403113e-38
354.83633 -164.54601 76.302238 1.8403113e-38
369.24899 -167.61099 71.056503 1.8403113e-38
346.99249 -157.42999 79.157097 1.8403113e-38
367.20999 -118.702 71.7985 1.8403113e-38
368.65799 -92.561401 71.271599 1.8403113e-38
366.521 -88.249695 72.0494 1.8403113e-38
370.89001 -88.039597 70.459297 1.8403113e-38
358.93399 -76.703903 74.810799 1.8403113e-38
366.84366 -14.259732 71.931938 1.8403113e-38
371.63199 -10.9264 70.189201 1.8403113e-38
346.39999 258.892 79.372803 1.8403113e-38
350.94699 258.284 77.717796 1.8403113e-38
370.29099 257.694 70.677101 1.8403113e-38
349.13199 260.01801 78.378502 1.8403113e-38
357.14502 262.26035 75.462067 1.8403113e-38
365.69424 261.91376 72.350281 1.8403113e-38
335.01801 -298.85101 83.515404 1.8403113e-38
325.879 -280.61899 86.841904 1.8403113e-38
320.81848 -273.62402 88.683701 1.8403113e-38
335.81699 -271.74399 83.224899 1.8403113e-38
329.702 -266.241 85.450302 1.8403113e-38
330.66699 -260.79999 85.099197 1.8403113e-38
322.255 -253.789 88.160896 1.8403113e-38
334.54852 -253.931 83.686401 1.8403113e-38
342.241 -252.981 80.886398 1.8403113e-38
336.8895 -246.394 82.83445 1.8403113e-38
341.629 -243.71899 81.1092 1.8403113e-38
324.92841 255.74821 87.187904 1.8403113e-38
334.29999 252.946 83.776855 1.8403113e-38
337.3035 264.01349 82.683601 1.8403113e-38
343.495 260.95349 80.430351 1.8403113e-38
304.53101 -312.496 94.6119 1.8403113e-38
305.93399 -309.95401 94.101196 1.8403113e-38
294.04398 -294.03897 98.428894 1.8403113e-38
308.953 -295.319 93.002296 1.8403113e-38
314.44199 -298.397 91.004402 1.8403113e-38
310.28799 -287.995 92.516701 1.8403113e-38
315.19833 -274.84964 90.729431 1.8403113e-38
294.76349 248.972 98.167099 1.8403113e-38
316.86401 248.955 90.123199 1.8403113e-38
293.75198 255.49266 98.535194 1.8403113e-38
305.29678 256.2164 94.333122 1.8403113e-38
314.46851 253.08051 90.994995 1.8403113e-38
312.87399 262.09399 91.575401 1.8403113e-38
267.422 -294.64798 108.11834 1.8403113e-38
275.84998 -293.75897 105.05125 1.8403113e-38
285.64926 -295.92102 101.48425 1.8403113e-38
268.05051 246.9765 107.89 1.8403113e-38
275.11765 246.74001 105.31767 1.8403113e-38
285.24902 246.55051 101.63 1.8403113e-38
265 256 109 1.8403113e-38
275.33698 252.2505 105.2375 1.8403113e-38
283.70203 252.70801 102.1935 1.8403113e-38
