# .PCD v0.7 - Point Cloud Data file format
VERSION 0.7
FIELDS x y z rgb
SIZE 4 4 4 4
TYPE F F F F
COUNT 1 1 1 1
WIDTH 153
HEIGHT 1
VIEWPOINT 0 0 0 1 0 0 0
POINTS 153
DATA ascii
400.638 -73.546402 59.631802 1.8403113e-38
401.22601 -65.30365 59.417751 1.8403113e-38
404.2135 -59.093201 58.330498 1.8403113e-38
402.10123 -5.093194 59.099281 1.8403113e-38
404.3075 4.5264664 58.296307 1.8403113e-38
402.70258 14.487059 58.880402 1.8403113e-38
402.88501 25.864298 58.813965 1.8403113e-38
404.71201 31.6026 58.148998 1.8403113e-38
412.099 35.428001 55.46035 1.8403113e-38
399.64099 50.738602 59.9949 1.8403113e-38
401.68652 67.8237 59.250198 1.8403113e-38
403.33798 76.639297 58.649097 1.8403113e-38
403.89075 84.475906 58.447922 1.8403113e-38
413.28751 81.262146 55.027851 1.8403113e-38
404.15643 94.343979 58.351204 1.8403113e-38
404.55127 103.0195 58.207451 1.8403113e-38
405.65186 115.91183 57.80698 1.8403113e-38
404.40298 124.48767 58.261398 1.8403113e-38
404.65665 133.82933 58.16917 1.8403113e-38
399.71799 140.883 59.9669 1.8403113e-38
406.09335 142.48567 57.646133 1.8403113e-38
407.60547 155.79274 57.095879 1.8403113e-38
406.56766 164.40834 57.473705 1.8403113e-38
404.13 173.355 58.360798 1.8403113e-38
411.10901 178.866 55.820702 1.8403113e-38
405.35602 185.27051 57.91465 1.8403113e-38
402.03702 193.53435 59.122669 1.8403113e-38
400.82401 206.42599 59.563999 1.8403113e-38
400.647 212.022 59.628448 1.8403113e-38
408.814 235.666 56.655998 1.8403113e-38
412.297 236.82401 55.388302 1.8403113e-38
409.39999 241.21001 56.442501 1.8403113e-38
408.556 259.35001 56.749901 1.8403113e-38
412.46503 258.60699 55.327049 1.8403113e-38
405.04599 263.42267 58.02737 1.8403113e-38
419.866 263.74301 52.6334 1.8403113e-38
400.87701 271.948 59.5448 1.8403113e-38
376.23999 -172.242 68.512001 1.8403113e-38
375.46133 -165.85167 68.795364 1.8403113e-38
375.90448 -155.207 68.634003 1.8403113e-38
384.616 -151.62 65.463303 1.8403113e-38
390.77701 -151.289 63.220901 1.8403113e-38
375.95435 -144.13266 68.615967 1.8403113e-38
382.17401 -145.998 66.352097 1.8403113e-38
380.69501 -136.739 66.890503 1.8403113e-38
373.35901 -119.41 69.560501 1.8403113e-38
382.15201 -101.8715 66.360199 1.8403113e-38
385.87125 -92.599174 65.0065 1.8403113e-38
391.20499 -90.589203 63.0653 1.8403113e-38
373.06799 -86.661301 69.666496 1.8403113e-38
386.40475 -84.691795 64.812256 1.8403113e-38
394.55835 -85.0411 61.844769 1.8403113e-38
394.496 -76.897934 61.867367 1.8403113e-38
388.625 -69.951202 64.004097 1.8403113e-38
395.98639 -65.876099 61.324879 1.8403113e-38
396.38269 -56.990665 61.180634 1.8403113e-38
384.65726 -44.802929 65.448318 1.8403113e-38
391.90601 -43.880402 62.8102 1.8403113e-38
378.81799 -38.189602 67.573799 1.8403113e-38
382.52768 -36.635036 66.223366 1.8403113e-38
394.17099 -39.4161 61.985802 1.8403113e-38
376.57333 -14.587667 68.390564 1.8403113e-38
391.55399 -18.9275 62.938 1.8403113e-38
383.11301 -8.7893105 66.010498 1.8403113e-38
396.89899 -4.9671001 60.992699 1.8403113e-38
396.90149 4.3649702 60.991798 1.8403113e-38
396.64499 15.9616 61.085201 1.8403113e-38
396.7088 23.73798 61.061878 1.8403113e-38
376.56702 37.4072 68.392799 1.8403113e-38
386.17416 36.321018 64.896278 1.8403113e-38
394.33148 34.900002 61.927151 1.8403113e-38
378.40451 46.937752 67.724251 1.8403113e-38
384.32901 44.99855 65.567879 1.8403113e-38
384.142 51.870399 65.635902 1.8403113e-38
392.14252 57.451351 62.7239 1.8403113e-38
395.36633 65.244064 61.550598 1.8403113e-38
397.09799 84.466202 60.920399 1.8403113e-38
399.56 104.038 60.024101 1.8403113e-38
399.03799 123.995 60.214199 1.8403113e-38
397.85699 196.4015 60.644001 1.8403113e-38
389.14401 259.28299 63.8153 1.8403113e-38
377.60864 262.97568 68.013901 1.8403113e-38
385.15701 262.13531 65.266502 1.8403113e-38
396.6705 263.556 61.076 1.8403113e-38
352.04352 -265.2905 77.318695 1.8403113e-38
354.888 -242.839 76.283401 1.8403113e-38
347.75848 -235.56599 78.878349 1.8403113e-38
355.26099 -231.894 76.147697 1.8403113e-38
354.58899 -226.39702 76.392365 1.8403113e-38
363.20099 -229.31 73.258003 1.8403113e-38
355.58301 -216.50999 76.030403 1.8403113e-38
363.952 -211.20399 72.984299 1.8403113e-38
360.15701 -207.621 74.3657 1.8403113e-38
350.97101 -194.00851 77.709152 1.8403113e-38
364.37451 -196.83701 72.830597 1.8403113e-38
355.73666 -181.584 75.974541 1.8403113e-38
366.64502 -176.44701 72.004333 1.8403113e-38
370.94101 -173.605 70.440498 1.8403113e-38
352.47 -167.927 77.163597 1.8403113e-38
365.24152 -167.364 72.515152 1.8403113e-38
371.50452 -157.446 70.235504 1.8403113e-38
371.401 -147.564 70.273201 1.8403113e-38
369.75 -121.651 70.874199 1.8403113e-38
366.49799 -90.633003 72.057602 1.8403113e-38
369.42801 -88.397102 70.991203 1.8403113e-38
371.246 -87.549652 70.329544 1.8403113e-38
368.314 -40.0163 71.396896 1.8403113e-38
365.409 -11.69565 72.454254 1.8403113e-38
371.487 -12.4107 70.241852 1.8403113e-38
371.79501 -8.9443302 70.129898 1.8403113e-38
346.10199 257.944 79.4813 1.8403113e-38
354.82751 255.6725 76.30555 1.8403113e-38
370.66599 258.61099 70.540802 1.8403113e-38
349.43799 260.96301 78.267097 1.8403113e-38
356.81601 261.32401 75.581825 1.8403113e-38
366.04999 262.85101 72.220749 1.8403113e-38
371.84601 267.867 70.111298 1.8403113e-38
333.65399 -293.02899 84.011803 1.8403113e-38
324.26199 -273.14035 87.430336 1.8403113e-38
336.06799 -272.707 83.133499 1.8403113e-38
318.728 -268.991 89.444702 1.8403113e-38
329.702 -266.241 85.450302 1.8403113e-38
333.67551 -263.54401 84.004196 1.8403113e-38
336.73749 -245.91025 82.889732 1.8403113e-38
340.13901 -238.978 81.651802 1.8403113e-38
344.31 -225.73801 80.133499 1.8403113e-38
323.84448 255.93826 87.582367 1.8403113e-38
335.60101 253.5945 83.303406 1.8403113e-38
342.35651 257.14151 80.844597 1.8403113e-38
334.29199 262.83566 83.779732 1.8403113e-38
306.509 -314.39999 93.891998 1.8403113e-38
303.03 -307.33499 95.158356 1.8403113e-38
294.00867 -293.70767 98.441795 1.8403113e-38
308.51199 -292.35599 93.162804 1.8403113e-38
313.29999 -291.50299 91.420197 1.8403113e-38
313.702 -284.29733 91.273865 1.8403113e-38
315.771 -265.56 90.521103 1.8403113e-38
297.02469 247.65132 97.344063 1.8403113e-38
315.63849 248.2155 90.569046 1.8403113e-38
294.2175 253.08749 98.365601 1.8403113e-38
306.73703 256.16269 93.809059 1.8403113e-38
312.758 255.4915 91.617554 1.8403113e-38
305.94501 260.379 94.097298 1.8403113e-38
267.42749 -294.97748 108.1165 1.8403113e-38
275.84601 -293.75928 105.05249 1.8403113e-38
285.54898 -294.42499 101.521 1.8403113e-38
267.354 -286.98901 108.143 1.8403113e-38
267.00101 243.991 108.272 1.8403113e-38
274.2225 249.78549 105.6435 1.8403113e-38
287.25348 245.85251 100.9005 1.8403113e-38
267.07449 253.9805 108.245 1.8403113e-38
276.18335 255.37433 104.92966 1.8403113e-38
284.31668 251.81401 101.96933 1.8403113e-38
