# .PCD v0.7 - Point Cloud Data file format
VERSION 0.7
FIELDS x y z rgb
SIZE 4 4 4 4
TYPE F F F F
COUNT 1 1 1 1
WIDTH 151
HEIGHT 1
VIEWPOINT 0 0 0 1 0 0 0
POINTS 151
DATA ascii
405.13 -63.279953 57.996948 1.8403113e-38
405.57001 -58.156502 57.83675 1.8403113e-38
399.759 -21.4324 59.951801 1.8403113e-38
402.71399 -5.0915198 58.876232 1.8403113e-38
403.19962 3.8848026 58.699486 1.8403113e-38
410.38101 9.4625196 56.0858 1.8403113e-38
404.69162 14.57522 58.156525 1.8403113e-38
399.67401 27.858101 59.982498 1.8403113e-38
402.14304 24.422768 59.084167 1.8403113e-38
404.71033 31.593231 58.1497 1.8403113e-38
415.00751 37.580002 54.401749 1.8403113e-38
404.52826 75.281273 58.215851 1.8403113e-38
411.11401 75.838203 55.818802 1.8403113e-38
403.8168 85.305588 58.474842 1.8403113e-38
410.34399 83.979897 56.099098 1.8403113e-38
399.77399 96.740303 59.946301 1.8403113e-38
404.94717 94.884239 58.063377 1.8403113e-38
404.65149 105.04625 58.170975 1.8403113e-38
405.28497 114.5724 57.940479 1.8403113e-38
404.37726 125.0035 58.270851 1.8403113e-38
410.409 129.843 56.0755 1.8403113e-38
404.20599 133.97 58.333149 1.8403113e-38
407.61234 146.58199 57.093403 1.8403113e-38
408.60464 158.25067 56.732166 1.8403113e-38
411.18201 155.563 55.794201 1.8403113e-38
407.2023 165.146 57.242664 1.8403113e-38
405.16699 173.095 57.983452 1.8403113e-38
413.19299 178.25101 55.062199 1.8403113e-38
408.29651 183.3765 56.844299 1.8403113e-38
404.46259 193.39841 58.239758 1.8403113e-38
411.06799 191.955 55.835701 1.8403113e-38
403.052 205.963 58.753052 1.8403113e-38
401.17651 212.8485 59.436001 1.8403113e-38
406.073 226.817 57.653599 1.8403113e-38
409.83801 237.34399 56.283501 1.8403113e-38
412.935 247.114 55.1562 1.8403113e-38
414.82901 257.65201 54.466599 1.8403113e-38
405.36166 263.99832 57.912537 1.8403113e-38
414.66302 267.70151 54.52705 1.8403113e-38
373.048 -180.48599 69.673798 1.8403113e-38
373.45251 -176.03751 69.526443 1.8403113e-38
373.70151 -166.795 69.435852 1.8403113e-38
376.47751 -156.009 68.425476 1.8403113e-38
374.78601 -144.29367 69.041199 1.8403113e-38
382.7735 -146.75851 66.133896 1.8403113e-38
376.89432 -135.41533 68.273865 1.8403113e-38
390.32901 -100.503 63.384102 1.8403113e-38
374.16998 -94.083199 69.265396 1.8403113e-38
387.09799 -92.657486 64.559921 1.8403113e-38
390.42599 -90.029999 63.3489 1.8403113e-38
389.59201 -87.758003 63.652302 1.8403113e-38
392.16299 -83.760597 62.716518 1.8403113e-38
387.73267 -72.391296 64.328972 1.8403113e-38
395.65558 -73.270821 61.44532 1.8403113e-38
395.2858 -64.671539 61.579857 1.8403113e-38
395.2135 -57.416451 61.6063 1.8403113e-38
374.495 -42.4105 69.147202 1.8403113e-38
385.35699 -44.115826 65.193672 1.8403113e-38
394.46738 -42.980164 61.877735 1.8403113e-38
385.436 -35.516102 65.165001 1.8403113e-38
390.867 -37.146099 63.188301 1.8403113e-38
384.728 -20.18 65.4226 1.8403113e-38
373.75098 -13.2122 69.417847 1.8403113e-38
381.91949 -16.367451 66.444748 1.8403113e-38
377.41599 -9.4150896 68.084099 1.8403113e-38
398.35501 -4.95573 60.4627 1.8403113e-38
395.814 14.622601 61.387562 1.8403113e-38
396.78635 22.239 61.033703 1.8403113e-38
374.30548 34.997047 69.216095 1.8403113e-38
386.16974 37.276573 64.897827 1.8403113e-38
392.36401 35.0434 62.643402 1.8403113e-38
377.34552 47.0895 68.10955 1.8403113e-38
385.41333 44.531696 65.173065 1.8403113e-38
389.26633 56.136265 63.770798 1.8403113e-38
394.383 52.88575 61.908348 1.8403113e-38
395.24429 63.193798 61.594971 1.8403113e-38
398.96399 72.638496 60.241299 1.8403113e-38
398.147 198.644 60.538601 1.8403113e-38
381.10501 259.04199 66.741096 1.8403113e-38
377.61099 262.97464 68.01297 1.8403113e-38
386.1525 261.435 64.904053 1.8403113e-38
394.40649 261.71576 61.899872 1.8403113e-38
349.43799 -260.96301 78.267097 1.8403113e-38
352.51599 -262.99701 77.146896 1.8403113e-38
345.82449 -233.13751 79.582397 1.8403113e-38
355.36099 -235.08099 76.111282 1.8403113e-38
359.02301 -224.73199 74.778397 1.8403113e-38
360.862 -223.85001 74.109001 1.8403113e-38
354.17899 -218.25999 76.541496 1.8403113e-38
354.35501 -203.91901 76.4776 1.8403113e-38
354.25967 -194.72868 76.512001 1.8403113e-38
356.86151 -189.802 75.565048 1.8403113e-38
354.25873 -173.14725 76.51255 1.8403113e-38
364.35001 -174.828 72.839561 1.8403113e-38
370.64099 -160.554 70.549797 1.8403113e-38
367.724 -159.056 71.611603 1.8403113e-38
371.60101 -156.14 70.200401 1.8403113e-38
367.10532 -116.53 71.836769 1.8403113e-38
370.84851 -92.877304 70.474251 1.8403113e-38
371.63 -88.655197 70.189796 1.8403113e-38
359.67999 -77.312698 74.539497 1.8403113e-38
370.15399 -37.441898 70.727203 1.8403113e-38
365.88098 -11.7749 72.282402 1.8403113e-38
368.909 -9.6742802 71.180199 1.8403113e-38
371.86401 -7.95224 70.104698 1.8403113e-38
365.98001 38.054001 72.246101 1.8403113e-38
370.14001 34.2075 70.732201 1.8403113e-38
346.10199 257.944 79.4813 1.8403113e-38
352.741 256.53601 77.065002 1.8403113e-38
370.29099 257.694 70.677101 1.8403113e-38
349.43799 260.96301 78.267097 1.8403113e-38
356.32999 262.21768 75.758598 1.8403113e-38
366.40198 263.76651 72.092674 1.8403113e-38
334.564 -296.91 83.680901 1.8403113e-38
326.862 -274.20801 86.4842 1.8403113e-38
336.82101 -275.59799 82.859299 1.8403113e-38
322.70801 -266.00299 87.995903 1.8403113e-38
330.40799 -269.14499 85.193398 1.8403113e-38
318.28699 -255.78999 89.605003 1.8403113e-38
332.82834 -254.61732 84.312561 1.8403113e-38
338.08432 -246.69035 82.3993 1.8403113e-38
342.52399 -246.564 80.7836 1.8403113e-38
344.138 -219.39101 80.196198 1.8403113e-38
324.37573 255.78925 87.388954 1.8403113e-38
335.99564 255.03766 83.159767 1.8403113e-38
342.35651 257.14151 80.844597 1.8403113e-38
328.76099 262.36801 85.7929 1.8403113e-38
333.556 263.07101 84.047501 1.8403113e-38
303.88199 -314.28799 94.848297 1.8403113e-38
304.18549 -306.651 94.737549 1.8403113e-38
294.04636 -294.03897 98.42794 1.8403113e-38
306.11151 -292.73749 94.036606 1.8403113e-38
313.46301 -292.48801 91.360802 1.8403113e-38
312.46649 -286.5715 91.723648 1.8403113e-38
316.13501 -273.63901 90.388298 1.8403113e-38
316.383 -257.25299 90.297997 1.8403113e-38
293.51599 247.144 98.621201 1.8403113e-38
317.06699 249.93201 90.049103 1.8403113e-38
295.625 253.22966 97.853432 1.8403113e-38
305.20059 255.625 94.368179 1.8403113e-38
314.09134 256.73203 91.132263 1.8403113e-38
265 -293 109 1.8403113e-38
275.87274 -294.25848 105.043 1.8403113e-38
286.03201 -295.46902 101.345 1.8403113e-38
268.53851 -287.4725 107.712 1.8403113e-38
283.87799 -287.298 102.129 1.8403113e-38
274.42435 246.769 105.57001 1.8403113e-38
286.396 247.4335 101.2125 1.8403113e-38
267.069 254.317 108.247 1.8403113e-38
276.45151 253.70499 104.832 1.8403113e-38
285.19736 254.07733 101.64901 1.8403113e-38
