# .PCD v0.7 - Point Cloud Data file format
VERSION 0.7
FIELDS x y z rgb
SIZE 4 4 4 4
TYPE F F F F
COUNT 1 1 1 1
WIDTH 165
HEIGHT 1
VIEWPOINT 0 0 0 1 0 0 0
POINTS 165
DATA ascii
399.948 -81.249901 59.8829 1.8403113e-38
402.617 -73.811493 58.911449 1.8403113e-38
399.939 -60.953999 59.886299 1.8403113e-38
405.798 -64.131668 57.753704 1.8403113e-38
400.74799 -56.177353 59.59185 1.8403113e-38
403.55374 -3.516185 58.570595 1.8403113e-38
406.92599 4.728013 57.343197 1.8403113e-38
414.35999 4.1621299 54.637501 1.8403113e-38
407.233 13.9081 57.231552 1.8403113e-38
413.29083 15.505521 55.0266 1.8403113e-38
406.866 24.609301 57.364899 1.8403113e-38
411.48038 24.41888 55.685497 1.8403113e-38
406.18253 32.615425 57.613773 1.8403113e-38
418.31451 35.446548 53.197998 1.8403113e-38
403.021 65.913567 58.764568 1.8403113e-38
404.70126 74.951424 58.152878 1.8403113e-38
407.60327 84.542999 57.096699 1.8403113e-38
413.85199 89.621101 54.822399 1.8403113e-38
406.85699 98.035004 57.368401 1.8403113e-38
414.00562 96.407478 54.766399 1.8403113e-38
404.39099 101.9495 58.265747 1.8403113e-38
412.233 105.6835 55.411552 1.8403113e-38
408.698 115.2605 56.698349 1.8403113e-38
414.479 114.5045 54.594151 1.8403113e-38
417.75549 128.151 53.40155 1.8403113e-38
420.34799 124.576 52.458099 1.8403113e-38
412.6004 134.18298 55.277863 1.8403113e-38
422.01001 135.304 51.8531 1.8403113e-38
412.11099 143.438 55.455933 1.8403113e-38
413.23901 153.68649 55.045425 1.8403113e-38
414.44601 166.13875 54.606026 1.8403113e-38
412.54932 174.38701 55.296402 1.8403113e-38
409.64801 186.733 56.352501 1.8403113e-38
413.69131 185.29033 54.880863 1.8403113e-38
414.98352 198.8685 54.4105 1.8403113e-38
407.51752 206.85449 57.127747 1.8403113e-38
412.38803 204.42101 55.355267 1.8403113e-38
405.78601 210.04201 57.758099 1.8403113e-38
408.26733 226.04999 56.854832 1.8403113e-38
411.065 221.99001 55.836601 1.8403113e-38
410.349 238.18201 56.097198 1.8403113e-38
411.92499 245.427 55.523701 1.8403113e-38
405.26151 258.48749 57.948952 1.8403113e-38
410.677 258.00699 55.977798 1.8403113e-38
404.98001 263.26599 58.051353 1.8403113e-38
418.77802 264.45947 53.029301 1.8403113e-38
375.28735 -172.91968 68.858635 1.8403113e-38
375.1745 -151.392 68.899849 1.8403113e-38
382.06049 -153.86249 66.393555 1.8403113e-38
377.92249 -143.2395 67.899551 1.8403113e-38
384.96402 -145.17401 65.3368 1.8403113e-38
374.035 -94.519066 69.314499 1.8403113e-38
388.423 -93.679634 64.077698 1.8403113e-38
390.79901 -94.664902 63.213051 1.8403113e-38
372.31799 -86.059502 69.939598 1.8403113e-38
386.73035 -86.300743 64.693665 1.8403113e-38
396.16962 -84.513863 61.258278 1.8403113e-38
387.58701 -79.942299 64.382103 1.8403113e-38
394.11377 -73.857346 62.006477 1.8403113e-38
397.57449 -66.553352 60.746876 1.8403113e-38
391.75201 -55.871799 62.8661 1.8403113e-38
376.26099 -43.094501 68.504402 1.8403113e-38
383.91763 -43.9622 65.717468 1.8403113e-38
393.61697 -45.796467 62.187298 1.8403113e-38
372.836 -35.084599 69.750999 1.8403113e-38
388.54199 -37.2962 64.034332 1.8403113e-38
391.772 -37.413399 62.8587 1.8403113e-38
393.25299 -20.397699 62.319698 1.8403113e-38
376.96201 -14.115225 68.249153 1.8403113e-38
381.586 -15.2337 66.5662 1.8403113e-38
384.67233 -8.8995438 65.442772 1.8403113e-38
398.7735 -6.2111654 60.310299 1.8403113e-38
376.40149 34.556725 68.453178 1.8403113e-38
383.62149 36.800652 65.825447 1.8403113e-38
392.961 34.594749 62.426102 1.8403113e-38
379.065 40.615002 67.483803 1.8403113e-38
384.77298 46.336166 65.406029 1.8403113e-38
394.51898 48.146698 61.858948 1.8403113e-38
385.96097 53.319199 64.973831 1.8403113e-38
394.83701 53.038399 61.743099 1.8403113e-38
394.867 64.458694 61.732452 1.8403113e-38
372.78299 257.62 69.770401 1.8403113e-38
383.80502 257.26166 65.758537 1.8403113e-38
393.41699 259.74051 62.260048 1.8403113e-38
377.91199 260.633 67.90345 1.8403113e-38
387.013 260.42599 64.590897 1.8403113e-38
398.17001 261.009 60.530201 1.8403113e-38
346.888 -268.198 79.195396 1.8403113e-38
347.00098 -257.091 79.154007 1.8403113e-38
350.634 -257.341 77.831902 1.8403113e-38
347.92001 -242.44099 78.819702 1.8403113e-38
361.93201 -243.013 73.719597 1.8403113e-38
350.53601 -237.129 77.867401 1.8403113e-38
348 -224.231 78.790398 1.8403113e-38
352.62769 -223.29633 77.106232 1.8403113e-38
355.8735 -214.72601 75.924805 1.8403113e-38
354.35501 -203.91901 76.4776 1.8403113e-38
354.27066 -186.51166 76.508141 1.8403113e-38
360.05701 -186.30901 74.402 1.8403113e-38
346.34302 -177.5105 79.3936 1.8403113e-38
355.46997 -174.88567 76.071739 1.8403113e-38
366.98901 -170.36501 71.878998 1.8403113e-38
370.42899 -172.76601 70.626801 1.8403113e-38
357.306 -160.29601 75.403397 1.8403113e-38
361.10699 -163.673 74.020103 1.8403113e-38
371.45001 -164.825 70.255501 1.8403113e-38
347.36499 -154.923 79.0214 1.8403113e-38
367.73499 -150.47701 71.607597 1.8403113e-38
371.3045 -155.74249 70.30835 1.8403113e-38
371.401 -147.564 70.273201 1.8403113e-38
371.992 -138.121 70.058296 1.8403113e-38
365.5885 -114.842 72.388748 1.8403113e-38
356.36099 -80.145798 75.7472 1.8403113e-38
361.263 -80.036003 73.962997 1.8403113e-38
361.91599 -79.139 73.725403 1.8403113e-38
368.63501 -12.5656 71.2798 1.8403113e-38
370.78101 -9.8486004 70.498802 1.8403113e-38
371.84601 41.384399 70.111397 1.8403113e-38
353.38751 254.93851 76.829552 1.8403113e-38
364.25101 254.991 72.875603 1.8403113e-38
371.04099 259.52802 70.404404 1.8403113e-38
346.9935 260.77948 79.156853 1.8403113e-38
365.33865 262.06467 72.479668 1.8403113e-38
322.14001 -298.87701 88.202698 1.8403113e-38
322.44 -287.57501 88.093597 1.8403113e-38
333.46399 -281.72 84.081146 1.8403113e-38
321.33801 -270.43399 88.494598 1.8403113e-38
334.0455 -274.319 83.869499 1.8403113e-38
323.672 -265.2475 87.645096 1.8403113e-38
338.10852 -266.88849 82.3908 1.8403113e-38
341.909 -263.58301 81.007446 1.8403113e-38
343.65201 -223.86501 80.373001 1.8403113e-38
335.883 246.72701 83.200699 1.8403113e-38
343.41901 249.409 80.458 1.8403113e-38
317.26999 250.908 89.975098 1.8403113e-38
323.7995 255.69249 87.598694 1.8403113e-38
334.41901 253.4505 83.733551 1.8403113e-38
340.164 253.689 81.642601 1.8403113e-38
332.85352 264.83002 84.303452 1.8403113e-38
301.07401 -312.65201 95.870201 1.8403113e-38
297.76401 -306.01999 97.074898 1.8403113e-38
302.655 -304.37399 95.294701 1.8403113e-38
292.91251 -295.00549 98.840805 1.8403113e-38
305.7215 -298.87201 94.178749 1.8403113e-38
311.21799 -293.91299 92.178001 1.8403113e-38
307.336 -284.45401 93.590897 1.8403113e-38
313.74402 -286.84448 91.258606 1.8403113e-38
316.10101 -279.76401 90.400703 1.8403113e-38
292.55099 247.769 98.972351 1.8403113e-38
300.00201 249.23199 96.260399 1.8403113e-38
298.06949 258.6145 96.963799 1.8403113e-38
306.61734 255.508 93.8526 1.8403113e-38
313.91202 255.75032 91.197502 1.8403113e-38
306.565 264.32501 93.871498 1.8403113e-38
269.85501 -295.95499 107.233 1.8403113e-38
274.67966 -295.14633 105.477 1.8403113e-38
284.46799 -296.27701 101.914 1.8403113e-38
266.185 -286.99451 108.5685 1.8403113e-38
279.06601 -285.608 103.881 1.8403113e-38
285.43668 -287.16034 101.56167 1.8403113e-38
276.55435 248.34801 104.79467 1.8403113e-38
287.37134 247.183 100.85767 1.8403113e-38
267.08267 253.98366 108.242 1.8403113e-38
273.272 251.8365 105.9895 1.8403113e-38
282.61853 252.302 102.58749 1.8403113e-38
