# .PCD v0.7 - Point Cloud Data file format
VERSION 0.7
FIELDS x y z rgb
SIZE 4 4 4 4
TYPE F F F F
COUNT 1 1 1 1
WIDTH 158
HEIGHT 1
VIEWPOINT 0 0 0 1 0 0 0
POINTS 158
DATA ascii
404.77029 -57.114803 58.127766 1.8403113e-38
401.43399 -22.995899 59.341999 1.8403113e-38
403.60434 -6.4517035 58.552265 1.8403113e-38
410.60199 -4.0574298 56.0051 1.8403113e-38
404.31851 8.4253302 58.292351 1.8403113e-38
402.98578 13.790751 58.777275 1.8403113e-38
404.51801 27.517599 58.219799 1.8403113e-38
404.71051 31.584301 58.1497 1.8403113e-38
415.16 36.891998 54.346298 1.8403113e-38
401.15701 63.0023 59.442799 1.8403113e-38
399.80099 73.0924 59.936501 1.8403113e-38
405.9855 74.44075 57.685474 1.8403113e-38
405.20117 83.839485 57.970989 1.8403113e-38
405.02036 96.751961 58.036835 1.8403113e-38
403.07025 104.81024 58.746525 1.8403113e-38
405.08578 116.47981 58.01302 1.8403113e-38
406.64526 127.5985 57.445423 1.8403113e-38
403.41901 133.78825 58.619648 1.8403113e-38
406.02933 144.96733 57.669567 1.8403113e-38
404.44843 156.3786 58.244942 1.8403113e-38
410.517 154.856 56.035999 1.8403113e-38
405.7215 169.252 57.781502 1.8403113e-38
406.49548 173.185 57.499901 1.8403113e-38
404.66833 185.20866 58.164902 1.8403113e-38
399.707 193.729 59.9706 1.8403113e-38
401.29099 192.47099 59.394299 1.8403113e-38
399.659 208.504 59.988201 1.8403113e-38
402.44101 208.884 58.975399 1.8403113e-38
401.62201 215.55 59.273602 1.8403113e-38
407.10999 228.485 57.276001 1.8403113e-38
409.32599 236.505 56.4697 1.8403113e-38
412.42999 246.27 55.339901 1.8403113e-38
413.76535 258.34366 54.853733 1.8403113e-38
407.51163 262.69067 57.129971 1.8403113e-38
372.36099 -172.614 69.923897 1.8403113e-38
373.0455 -164.24651 69.674599 1.8403113e-38
377.1655 -154.168 68.175049 1.8403113e-38
377.73267 -145.58733 67.968636 1.8403113e-38
380.284 -141.131 67.039902 1.8403113e-38
376.00549 -137.116 68.597351 1.8403113e-38
374.31601 -122.588 69.212097 1.8403113e-38
374.8205 -97.18705 69.028648 1.8403113e-38
385.4166 -93.419662 65.171883 1.8403113e-38
392.00601 -92.890602 62.773701 1.8403113e-38
376.07001 -89.068604 68.573898 1.8403113e-38
387.16165 -85.000031 64.536659 1.8403113e-38
394.41519 -84.08812 61.896801 1.8403113e-38
386.785 -79.4198 64.673798 1.8403113e-38
395.87201 -75.625473 61.36655 1.8403113e-38
386.966 -69.012299 64.608101 1.8403113e-38
393.31735 -63.828232 62.296387 1.8403113e-38
397.19702 -57.55405 60.8843 1.8403113e-38
377.496 -42.393501 68.054901 1.8403113e-38
385.01926 -42.072651 65.316521 1.8403113e-38
399.24799 -42.318298 60.1376 1.8403113e-38
376.10501 -33.9034 68.561203 1.8403113e-38
380.28699 -39.863201 67.038803 1.8403113e-38
378.6937 -15.561866 67.618996 1.8403113e-38
386.65536 -11.7149 64.721001 1.8403113e-38
394.34601 -19.3451 61.921902 1.8403113e-38
379.36301 -8.5102901 67.375198 1.8403113e-38
396.48569 -4.1121635 61.143036 1.8403113e-38
397.41016 4.0749254 60.806702 1.8403113e-38
388.763 18.51 63.953999 1.8403113e-38
396.858 16.818933 61.007568 1.8403113e-38
396.5506 23.693941 61.119556 1.8403113e-38
376.42999 36.254101 68.442703 1.8403113e-38
385.19574 35.4725 65.252319 1.8403113e-38
395.04449 33.832527 61.667675 1.8403113e-38
376.60999 42.0597 68.377296 1.8403113e-38
386.89502 45.071564 64.633797 1.8403113e-38
392.0835 43.290298 62.745598 1.8403113e-38
385.95102 50.676395 64.977531 1.8403113e-38
394.50732 55.6763 61.863171 1.8403113e-38
395.83167 63.430531 61.381336 1.8403113e-38
397.15698 85.630859 60.898731 1.8403113e-38
397.789 98.030998 60.668751 1.8403113e-38
397.311 195.58749 60.842598 1.8403113e-38
384.18951 257.15674 65.618568 1.8403113e-38
395.54651 258.51001 61.484951 1.8403113e-38
375.965 262.1265 68.612 1.8403113e-38
380.168 262.82901 67.082199 1.8403113e-38
398.4205 264.271 60.43895 1.8403113e-38
346.073 -250.562 79.491997 1.8403113e-38
350.00601 -255.45599 78.060303 1.8403113e-38
349.52701 -247.13901 78.234802 1.8403113e-38
349.2175 -236.59149 78.347244 1.8403113e-38
355.37952 -235.08301 76.104553 1.8403113e-38
363.98001 -231.13 72.974297 1.8403113e-38
349.03299 -227.022 78.414398 1.8403113e-38
354.21552 -220.96451 76.528252 1.8403113e-38
356.34799 -218.33701 75.752197 1.8403113e-38
360.70901 -218.42 74.164902 1.8403113e-38
358.92798 -202.69101 74.812897 1.8403113e-38
354.57401 -193.2505 76.397751 1.8403113e-38
361.32599 -196.916 73.940102 1.8403113e-38
355.43799 -181.004 76.083397 1.8403113e-38
360.95401 -188.067 74.0756 1.8403113e-38
358.48849 -174.073 74.9729 1.8403113e-38
366.98901 -170.36501 71.878998 1.8403113e-38
370.49847 -176.276 70.601654 1.8403113e-38
351.103 -165.30299 77.661003 1.8403113e-38
363.5965 -163.1225 73.113846 1.8403113e-38
369.56299 -158.91499 70.942101 1.8403113e-38
371.19049 -152.73199 70.350006 1.8403113e-38
371.892 -126.335 70.094498 1.8403113e-38
366.56467 -115.23533 72.03347 1.8403113e-38
371.63501 -90.264603 70.188202 1.8403113e-38
368.70001 -89.363503 71.2565 1.8403113e-38
371.63 -88.655197 70.189796 1.8403113e-38
369.84299 -38.417 70.840401 1.8403113e-38
370.04001 -30.999599 70.7686 1.8403113e-38
368.414 -14.4884 71.360603 1.8403113e-38
370.69601 -10.8306 70.529701 1.8403113e-38
346.10199 257.944 79.4813 1.8403113e-38
354.95703 255.99133 76.2584 1.8403113e-38
370.66599 258.61099 70.540802 1.8403113e-38
349.74399 261.909 78.1558 1.8403113e-38
357.47748 263.19202 75.340851 1.8403113e-38
367.23734 262.68668 71.788567 1.8403113e-38
317.715 -288.59799 89.8134 1.8403113e-38
331.15399 -282.35599 84.921997 1.8403113e-38
318.6745 -274.62 89.464203 1.8403113e-38
324.04001 -272.16833 87.5112 1.8403113e-38
332.61798 -268.51501 84.389099 1.8403113e-38
328.72101 -253.073 85.807404 1.8403113e-38
334.54852 -253.931 83.686401 1.8403113e-38
337.61133 -245.10167 82.571663 1.8403113e-38
340.13901 -238.978 81.651802 1.8403113e-38
319.74899 252.362 89.073097 1.8403113e-38
326.00372 255.62274 86.796448 1.8403113e-38
334.49899 253.67599 83.704468 1.8403113e-38
340.164 253.689 81.642601 1.8403113e-38
344.565 260.58899 80.040901 1.8403113e-38
302.52301 -313.96802 95.34285 1.8403113e-38
295.134 -292.74597 98.032249 1.8403113e-38
306.58551 -296.20099 93.864105 1.8403113e-38
314.18399 -296.91052 91.098602 1.8403113e-38
290.57901 -282.69299 99.690102 1.8403113e-38
305.55801 -288.793 94.238197 1.8403113e-38
312.974 -289.53299 91.539001 1.8403113e-38
294.651 247.9985 98.207947 1.8403113e-38
300.00201 249.23199 96.260399 1.8403113e-38
314.23248 246.48399 91.080902 1.8403113e-38
295.10651 251.94949 98.042053 1.8403113e-38
306.2265 255.24475 93.994751 1.8403113e-38
313.71552 254.76849 91.268906 1.8403113e-38
265 -291 109 1.8403113e-38
274.58801 -292.31097 105.5105 1.8403113e-38
285.50101 -293.66553 101.53799 1.8403113e-38
268.53 -286.4725 107.715 1.8403113e-38
276.73901 -285.716 104.7275 1.8403113e-38
284.9165 -285.21051 101.751 1.8403113e-38
275.80637 246.38399 105.06699 1.8403113e-38
285.60098 244.24774 101.502 1.8403113e-38
267.06934 253.31734 108.247 1.8403113e-38
274.27148 251.285 105.6255 1.8403113e-38
283.50601 250.226 102.264 1.8403113e-38
