# .PCD v0.7 - Point Cloud Data file format
VERSION 0.7
FIELDS x y z rgb
SIZE 4 4 4 4
TYPE F F F F
COUNT 1 1 1 1
WIDTH 152
HEIGHT 1
VIEWPOINT 0 0 0 1 0 0 0
POINTS 152
DATA ascii
402.66901 -66.765602 58.892799 1.8403113e-38
416.392 -60.2356 53.897999 1.8403113e-38
404.21249 -59.078804 58.330776 1.8403113e-38
402.74203 -4.4784803 58.86607 1.8403113e-38
403.9566 5.4450278 58.424019 1.8403113e-38
399.80099 12.5504 59.936501 1.8403113e-38
403.43399 14.1852 58.614101 1.8403113e-38
401.89319 25.965219 59.175037 1.8403113e-38
405.63101 31.810499 57.814499 1.8403113e-38
412.10999 37.584702 55.4562 1.8403113e-38
404.38348 67.568604 58.268551 1.8403113e-38
406.14676 75.759674 57.626801 1.8403113e-38
410.36401 70.497803 56.091702 1.8403113e-38
405.82343 84.793404 57.744457 1.8403113e-38
410.03201 80.3442 56.2127 1.8403113e-38
399.77399 96.740303 59.946301 1.8403113e-38
405.45923 94.314575 57.877075 1.8403113e-38
404.43799 105.35575 58.248703 1.8403113e-38
404.19623 115.74241 58.336739 1.8403113e-38
403.94574 125.188 58.427925 1.8403113e-38
405.35632 134.49634 57.914398 1.8403113e-38
406.17825 143.83426 57.615402 1.8403113e-38
407.06168 154.724 57.2939 1.8403113e-38
406.19427 165.44124 57.60955 1.8403113e-38
412.52499 162.571 55.305302 1.8403113e-38
405.57901 175.12933 57.83337 1.8403113e-38
406.80951 184.681 57.385498 1.8403113e-38
403.68716 194.06017 58.522034 1.8403113e-38
401.12549 204.97501 59.45425 1.8403113e-38
400.57101 213.892 59.656101 1.8403113e-38
407.10999 228.485 57.276001 1.8403113e-38
409.83801 237.34399 56.283501 1.8403113e-38
412.42999 246.27 55.339901 1.8403113e-38
416.38 257.80701 53.9021 1.8403113e-38
405.82166 264.87033 57.744934 1.8403113e-38
413.72202 263.43967 54.869537 1.8403113e-38
373.5885 -172.944 69.477005 1.8403113e-38
375.21835 -164.452 68.883842 1.8403113e-38
377.71964 -155.41365 67.973572 1.8403113e-38
376.33026 -145.62875 68.479004 1.8403113e-38
382.42853 -143.7755 66.259552 1.8403113e-38
377.98651 -135.9505 67.876152 1.8403113e-38
372.92401 -125.337 69.718903 1.8403113e-38
376.34149 -95.096001 68.474998 1.8403113e-38
387.12064 -94.401772 64.55172 1.8403113e-38
374.59 -89.4879 69.112602 1.8403113e-38
389.647 -89.470802 63.632401 1.8403113e-38
393.25217 -85.073929 62.320072 1.8403113e-38
389.69901 -72.050903 63.613499 1.8403113e-38
393.13321 -75.314178 62.36338 1.8403113e-38
395.01758 -65.564415 61.677456 1.8403113e-38
395.61401 -59.000401 61.460499 1.8403113e-38
385.27551 -45.968552 65.223404 1.8403113e-38
392.4335 -43.70285 62.61805 1.8403113e-38
376.42798 -36.198448 68.443604 1.8403113e-38
385.871 -37.519001 65.0065 1.8403113e-38
393.08099 -21.5879 62.382301 1.8403113e-38
375.03699 -14.383733 68.949768 1.8403113e-38
381.29565 -14.847034 66.671829 1.8403113e-38
385.418 -9.5076151 65.171303 1.8403113e-38
396.31201 -8.5467901 61.206501 1.8403113e-38
398.55252 4.6618404 60.390873 1.8403113e-38
395.97513 16.085466 61.328953 1.8403113e-38
396.02948 23.993149 61.309151 1.8403113e-38
375.99667 35.377167 68.600464 1.8403113e-38
383.47699 35.55835 65.877945 1.8403113e-38
395.202 33.226727 61.610325 1.8403113e-38
383.9213 46.940735 65.716164 1.8403113e-38
393.36423 45.419098 62.279224 1.8403113e-38
386.978 52.444901 64.603798 1.8403113e-38
394.78549 57.171272 61.762001 1.8403113e-38
398.44501 69.262604 60.429901 1.8403113e-38
399.51401 86.011299 60.040901 1.8403113e-38
398.995 94.381203 60.229801 1.8403113e-38
398.79999 103.45 60.3008 1.8403113e-38
398.59399 206.856 60.375702 1.8403113e-38
388.71701 258.392 63.9706 1.8403113e-38
376.91449 264.40125 68.266426 1.8403113e-38
386.14899 261.43701 64.905396 1.8403113e-38
396.74399 263.70667 61.049068 1.8403113e-38
386.76901 271.67801 64.679703 1.8403113e-38
351.12201 -262.45599 77.654198 1.8403113e-38
349.905 -241.661 78.097298 1.8403113e-38
357.93201 -244.776 75.175499 1.8403113e-38
346.95599 -239.62199 79.170601 1.8403113e-38
351.10001 -232.604 77.6623 1.8403113e-38
354.09964 -223.369 76.570404 1.8403113e-38
363.20099 -229.31 73.258003 1.8403113e-38
357.7485 -216.55899 75.242203 1.8403113e-38
360.17899 -203.14999 74.357803 1.8403113e-38
354.41248 -197.24699 76.45665 1.8403113e-38
361.7565 -197.7955 73.783554 1.8403113e-38
357.85501 -189.82001 75.203499 1.8403113e-38
356.52698 -177.5345 75.686798 1.8403113e-38
367.11798 -175.5905 71.832199 1.8403113e-38
370.9845 -175.35849 70.424698 1.8403113e-38
353.11401 -164.097 76.929153 1.8403113e-38
371.98199 -165.649 70.061798 1.8403113e-38
368.965 -149.517 71.159897 1.8403113e-38
369.37799 -93.204201 71.009598 1.8403113e-38
371.242 -92.374054 70.331146 1.8403113e-38
370.14899 -87.423897 70.728798 1.8403113e-38
371.20801 -14.88 70.3433 1.8403113e-38
367.97299 -9.5871296 71.521004 1.8403113e-38
369.263 37.124599 71.051598 1.8403113e-38
353.33432 255.93298 76.848999 1.8403113e-38
362.51199 256.81653 73.508499 1.8403113e-38
348.66049 262.29999 78.550049 1.8403113e-38
357.80301 264.142 75.222603 1.8403113e-38
366.948 261.90802 71.893997 1.8403113e-38
334.336 -295.94 83.763603 1.8403113e-38
318.39301 -279.27899 89.566399 1.8403113e-38
323.47852 -275.02301 87.715546 1.8403113e-38
336.06799 -272.707 83.133499 1.8403113e-38
324.61099 -264.45648 87.303406 1.8403113e-38
333.57751 -263.05402 84.039848 1.8403113e-38
321.228 -259.18201 88.5345 1.8403113e-38
336.491 -252.7975 82.979446 1.8403113e-38
341.629 -243.71899 81.1092 1.8403113e-38
336.1795 -236.67151 83.092751 1.8403113e-38
344.474 -220.325 80.0737 1.8403113e-38
339.918 245.373 81.731903 1.8403113e-38
319.95999 253.336 88.996101 1.8403113e-38
325.77451 254.65298 86.879898 1.8403113e-38
336.26236 255.99701 83.062637 1.8403113e-38
317.94601 265.078 89.729202 1.8403113e-38
332.80301 260.17999 84.321701 1.8403113e-38
343.55499 265.133 80.408401 1.8403113e-38
301.30301 -314.63699 95.786797 1.8403113e-38
305.30667 -305.32733 94.329567 1.8403113e-38
295.289 -294.23651 97.975647 1.8403113e-38
312.14899 -299.83099 91.839302 1.8403113e-38
290.57901 -282.69299 99.690102 1.8403113e-38
308.07101 -289.39301 93.323402 1.8403113e-38
314.77399 -285.79199 90.883698 1.8403113e-38
294.7695 248.99049 98.164749 1.8403113e-38
306.12 248.172 94.033401 1.8403113e-38
316.86401 248.955 90.123199 1.8403113e-38
294.94702 250.459 98.100151 1.8403113e-38
303.31198 257.45166 95.055664 1.8403113e-38
312.02499 257.509 91.884277 1.8403113e-38
277.01001 -292.72101 104.629 1.8403113e-38
286.60199 -292.09698 101.137 1.8403113e-38
267.35101 -285.98166 108.14433 1.8403113e-38
275.10532 -284.11301 105.32166 1.8403113e-38
284.61331 -286.55734 101.86166 1.8403113e-38
267.009 244.991 108.269 1.8403113e-38
275.13174 246.991 105.31276 1.8403113e-38
285.23801 245.69934 101.63367 1.8403113e-38
267.08301 254.9805 108.242 1.8403113e-38
275.37 252.759 105.226 1.8403113e-38
285.77301 252.52451 101.4395 1.8403113e-38
