# .PCD v0.7 - Point Cloud Data file format
VERSION 0.7
FIELDS x y z rgb
SIZE 4 4 4 4
TYPE F F F F
COUNT 1 1 1 1
WIDTH 163
HEIGHT 1
VIEWPOINT 0 0 0 1 0 0 0
POINTS 163
DATA ascii
399.76401 -93.133202 59.950001 1.8403113e-38
399.939 -60.953999 59.886299 1.8403113e-38
405.26199 -64.140602 57.948799 1.8403113e-38
405.12952 -57.9814 57.996948 1.8403113e-38
405.50034 -6.1263633 57.86203 1.8403113e-38
403.96997 4.6886535 58.419098 1.8403113e-38
399.89899 11.2981 59.900902 1.8403113e-38
403.577 14.780424 58.562229 1.8403113e-38
399.82849 24.0194 59.926498 1.8403113e-38
406.0025 27.140499 57.67915 1.8403113e-38
407.20001 33.5481 57.2435 1.8403113e-38
412.71948 37.013401 55.234497 1.8403113e-38
401.26401 67.618896 59.4039 1.8403113e-38
404.06299 76.270149 58.38525 1.8403113e-38
411.52301 79.448303 55.670101 1.8403113e-38
407.51599 85.251595 57.128433 1.8403113e-38
412.53299 81.7295 55.302502 1.8403113e-38
401.56967 92.602074 59.292667 1.8403113e-38
403.465 104.7322 58.602795 1.8403113e-38
402.99963 114.774 58.772381 1.8403113e-38
399.74701 124.651 59.9561 1.8403113e-38
404.88297 124.91634 58.086731 1.8403113e-38
403.056 133.46976 58.751747 1.8403113e-38
404.40198 145.7742 58.261883 1.8403113e-38
405.3605 156.026 57.912949 1.8403113e-38
407.14648 166.547 57.263 1.8403113e-38
405.67502 176.34566 57.798534 1.8403113e-38
404.62363 186.14279 58.181175 1.8403113e-38
400.29449 196.371 59.756901 1.8403113e-38
400.285 205.60699 59.760101 1.8403113e-38
400.91351 212.43399 59.531601 1.8403113e-38
407.10999 228.485 57.276001 1.8403113e-38
410.349 238.18201 56.097198 1.8403113e-38
412.42999 246.27 55.339901 1.8403113e-38
413.76901 258.35001 54.852402 1.8403113e-38
406.86499 264.13525 57.365353 1.8403113e-38
412.129 260.57901 55.449402 1.8403113e-38
421.35999 266.28699 52.089699 1.8403113e-38
375.513 -172.75 68.776596 1.8403113e-38
377.513 -163.30701 68.048645 1.8403113e-38
377.539 -158.92799 68.039299 1.8403113e-38
381.285 -158.39 66.675697 1.8403113e-38
374.18033 -140.94667 69.261566 1.8403113e-38
383.686 -146.59151 65.801895 1.8403113e-38
379.569 -137.808 67.300201 1.8403113e-38
373.948 -124.33 69.346298 1.8403113e-38
375.23599 -94.221603 68.877449 1.8403113e-38
385.08301 -93.169861 65.293419 1.8403113e-38
391.96133 -96.393829 62.790035 1.8403113e-38
384.78998 -82.774651 65.399994 1.8403113e-38
391.58969 -82.552635 62.925201 1.8403113e-38
388.79102 -73.775452 63.943802 1.8403113e-38
395.13519 -76.419357 61.634682 1.8403113e-38
389.40201 -63.869751 63.721451 1.8403113e-38
393.25623 -65.086876 62.318501 1.8403113e-38
395.06369 -56.821697 61.660767 1.8403113e-38
386.698 -44.627975 64.705574 1.8403113e-38
392.01804 -43.482037 62.769165 1.8403113e-38
386.03149 -36.950798 64.948051 1.8403113e-38
394.797 -37.011101 61.757702 1.8403113e-38
376.10501 -13.4712 68.561203 1.8403113e-38
382.0563 -16.405767 66.394997 1.8403113e-38
390.44 -11.6789 63.3437 1.8403113e-38
374.60501 -9.1797104 69.107002 1.8403113e-38
380.30099 -8.58004 67.033997 1.8403113e-38
396.71399 -4.2792149 61.060051 1.8403113e-38
398.3855 3.716985 60.451653 1.8403113e-38
394.73022 16.003925 61.782051 1.8403113e-38
395.64999 26.13245 61.447304 1.8403113e-38
374.93399 36.29195 68.987251 1.8403113e-38
382.92773 34.803078 66.077827 1.8403113e-38
392.96252 36.487949 62.425499 1.8403113e-38
379.92401 46.946201 67.171303 1.8403113e-38
385.27023 44.397724 65.225227 1.8403113e-38
390.97302 46.819752 63.149498 1.8403113e-38
387.81998 54.6077 64.297272 1.8403113e-38
395.4545 56.804848 61.518547 1.8403113e-38
395.27625 64.68605 61.583351 1.8403113e-38
398.16699 83.500877 60.531174 1.8403113e-38
398.211 95.618301 60.515198 1.8403113e-38
399.02899 189.27699 60.217602 1.8403113e-38
397.05499 197.01601 60.935902 1.8403113e-38
374.681 256.14951 69.079453 1.8403113e-38
384.052 259.73801 65.668701 1.8403113e-38
391.26599 258.12 63.043098 1.8403113e-38
378.78799 265.70901 67.584602 1.8403113e-38
387.435 261.30701 64.437248 1.8403113e-38
396.88 261.17798 60.999599 1.8403113e-38
349.13199 -260.01801 78.378502 1.8403113e-38
349.379 -253.571 78.288597 1.8403113e-38
357.98801 -251.213 75.155296 1.8403113e-38
348.884 -245.25999 78.468803 1.8403113e-38
354.0275 -240.5025 76.596649 1.8403113e-38
348.91699 -238.851 78.456596 1.8403113e-38
356.22052 -226.01349 75.7985 1.8403113e-38
361.25201 -224.75999 73.967102 1.8403113e-38
352.54401 -216.83099 77.136505 1.8403113e-38
353.56 -202.10699 76.766701 1.8403113e-38
355.065 -194.39601 76.219101 1.8403113e-38
357.97 -188.061 75.161751 1.8403113e-38
355.69501 -170.59 75.989899 1.8403113e-38
368.07568 -175.54134 71.483635 1.8403113e-38
370.94101 -173.605 70.440498 1.8403113e-38
352.004 -168.7695 77.333199 1.8403113e-38
367.46701 -161.662 71.7052 1.8403113e-38
370.91699 -164.00101 70.449203 1.8403113e-38
368.67999 -154.68201 71.263702 1.8403113e-38
369.685 -145.18401 70.897797 1.8403113e-38
372.04999 -143.217 70.037003 1.8403113e-38
371.1445 -124.3555 70.3666 1.8403113e-38
368.60901 -94.169899 71.289299 1.8403113e-38
370.89001 -91.251404 70.459099 1.8403113e-38
366.1095 -86.390396 72.19915 1.8403113e-38
367.97501 -31.4226 71.520103 1.8403113e-38
364.27701 -13.43355 72.86615 1.8403113e-38
370.69601 -10.8306 70.529701 1.8403113e-38
345.93848 253.77899 79.540894 1.8403113e-38
352.85068 256.84067 77.024963 1.8403113e-38
362.271 256.20532 73.59623 1.8403113e-38
344.85501 261.54099 79.935204 1.8403113e-38
359.965 263.26999 74.435501 1.8403113e-38
368.90799 260.50299 71.180397 1.8403113e-38
371.79001 261.362 70.131599 1.8403113e-38
318.25299 -291.543 89.617599 1.8403113e-38
333.65399 -293.02899 84.011803 1.8403113e-38
319.14301 -283.198 89.293701 1.8403113e-38
323.57599 -281.173 87.680298 1.8403113e-38
335.81699 -271.74399 83.224899 1.8403113e-38
318.33701 -267.034 89.586899 1.8403113e-38
324.44351 -268.64999 87.364197 1.8403113e-38
330.78052 -265.93848 85.0578 1.8403113e-38
335.19101 -252.17 83.4524 1.8403113e-38
335.74301 -244.39624 83.251678 1.8403113e-38
340.43701 -239.92599 81.543297 1.8403113e-38
317.84601 243.592 89.765503 1.8403113e-38
318.694 257.742 89.456902 1.8403113e-38
325.76251 254.65625 86.884254 1.8403113e-38
334.95227 255.35799 83.539505 1.8403113e-38
340.729 255.59599 81.436897 1.8403113e-38
301.30301 -314.63699 95.786797 1.8403113e-38
306.42902 -304.29651 93.920998 1.8403113e-38
294.04449 -293.86749 98.428604 1.8403113e-38
305.58252 -297.883 94.229301 1.8403113e-38
312.89951 -296.64951 91.565903 1.8403113e-38
293.09201 -284.43301 98.7752 1.8403113e-38
315.34601 -289.077 90.675499 1.8403113e-38
295.664 247.86099 97.839302 1.8403113e-38
306.12 248.172 94.033401 1.8403113e-38
313.422 247.69449 91.375854 1.8403113e-38
294.879 252.99467 98.124969 1.8403113e-38
304.59326 255.02126 94.589294 1.8403113e-38
311.439 254.241 92.097504 1.8403113e-38
265 -291 109 1.8403113e-38
277.02036 -292.71335 104.62466 1.8403113e-38
285.52023 -293.92599 101.531 1.8403113e-38
268.53851 -287.9725 107.71201 1.8403113e-38
271.98599 -283.90302 106.457 1.8403113e-38
268.03851 247.47699 107.8945 1.8403113e-38
274.427 245.76833 105.569 1.8403113e-38
287.24832 245.85632 100.902 1.8403113e-38
265 256 109 1.8403113e-38
276.47998 254.20401 104.822 1.8403113e-38
282.74548 254.29752 102.5415 1.8403113e-38
