# .PCD v0.7 - Point Cloud Data file format
VERSION 0.7
FIELDS x y z rgb
SIZE 4 4 4 4
TYPE F F F F
COUNT 1 1 1 1
WIDTH 138
HEIGHT 1
VIEWPOINT 0 0 0 1 0 0 0
POINTS 138
DATA ascii
401.29901 -99.6875 59.3913 1.8403113e-38
400.09 -83 59.8311 1.8403113e-38
402.41599 -75.291397 58.984726 1.8403113e-38
403.46802 -65.619133 58.601803 1.8403113e-38
416.392 -60.2356 53.897999 1.8403113e-38
402.69351 -57.733902 58.883652 1.8403113e-38
401.71149 -12.102 59.241199 1.8403113e-38
406.59726 -3.9327102 57.462948 1.8403113e-38
413.42099 -4.1359601 54.979401 1.8403113e-38
408.638 4.7007351 56.7201 1.8403113e-38
413.69901 4.8143687 54.877949 1.8403113e-38
406.83383 16.270584 57.376736 1.8403113e-38
415.82001 12.61405 54.106152 1.8403113e-38
408.02698 23.42675 56.942451 1.8403113e-38
414.64798 25.720766 54.532562 1.8403113e-38
407.21265 34.927532 57.238865 1.8403113e-38
413.58026 33.987602 54.921272 1.8403113e-38
420.22501 30.615601 52.5028 1.8403113e-38
403.65549 42.28775 58.53355 1.8403113e-38
399.85599 68.451202 59.916302 1.8403113e-38
405.45599 64.989563 57.878197 1.8403113e-38
405.26999 73.338806 57.946003 1.8403113e-38
414.492 77.591698 54.589199 1.8403113e-38
409.04199 88.5 56.572899 1.8403113e-38
414.285 86.286781 54.664742 1.8403113e-38
411.923 95.835251 55.524403 1.8403113e-38
415.79575 107.209 54.114899 1.8403113e-38
407.59 114.345 57.101601 1.8403113e-38
415.21802 115.098 54.3251 1.8403113e-38
420.57501 119.1855 52.375351 1.8403113e-38
415.81766 125.375 54.106998 1.8403113e-38
405.05399 131.86099 58.024601 1.8403113e-38
416.44418 135.23239 53.878796 1.8403113e-38
415.33701 146.59935 54.281872 1.8403113e-38
414.77475 155.93799 54.486473 1.8403113e-38
416.88232 166.41367 53.719364 1.8403113e-38
417.44849 175.50101 53.513451 1.8403113e-38
417.25034 184.20233 53.585567 1.8403113e-38
417.3255 194.895 53.558098 1.8403113e-38
420.35699 190.187 52.454899 1.8403113e-38
415.86499 206.2504 54.08968 1.8403113e-38
409.71201 211.96201 56.328999 1.8403113e-38
413.31601 215.3255 55.017399 1.8403113e-38
408.84601 224.83249 56.644249 1.8403113e-38
411.604 222.80901 55.640499 1.8403113e-38
409.185 231.82001 56.520901 1.8403113e-38
412.397 241.537 55.3521 1.8403113e-38
405.95401 259.80801 57.696999 1.8403113e-38
414.95401 250.487 54.421101 1.8403113e-38
402.26367 263.55234 59.040134 1.8403113e-38
415.14423 263.29675 54.351952 1.8403113e-38
372.47699 -176.121 69.881699 1.8403113e-38
373.40601 -161.73334 69.543396 1.8403113e-38
381.12601 -161.05099 66.733597 1.8403113e-38
376.07632 -155.91133 68.571465 1.8403113e-38
380.82501 -154.95599 66.8433 1.8403113e-38
397.043 -156.06 60.940201 1.8403113e-38
376.76901 -146.881 68.319603 1.8403113e-38
382.34766 -145.386 66.288933 1.8403113e-38
375.82001 -139.2565 68.664703 1.8403113e-38
385.09943 -94.218445 65.287376 1.8403113e-38
396.35464 -94.931526 61.1908 1.8403113e-38
393.92941 -86.100563 62.07362 1.8403113e-38
389.689 -78.160896 63.6171 1.8403113e-38
398.3497 -78.122032 60.464672 1.8403113e-38
395.41699 -65.492249 61.532101 1.8403113e-38
397.23248 -53.334599 60.8713 1.8403113e-38
393.19452 -47.633652 62.341049 1.8403113e-38
373.40701 -12.1253 69.542999 1.8403113e-38
389.98001 -16.3305 63.510899 1.8403113e-38
397.22067 -13.1306 60.875599 1.8403113e-38
396.81351 -7.9630804 61.023903 1.8403113e-38
395.85199 36.674999 61.373699 1.8403113e-38
394.08777 42.302299 62.015949 1.8403113e-38
379.487 255.43201 67.330101 1.8403113e-38
385.112 259.19348 65.282898 1.8403113e-38
374.94299 262.79102 68.984001 1.8403113e-38
382.55099 268.267 66.214996 1.8403113e-38
394.88071 265.50366 61.727398 1.8403113e-38
352.80301 -271.36401 77.042297 1.8403113e-38
360.97501 -266.07001 74.067802 1.8403113e-38
347.28552 -254.33749 79.050552 1.8403113e-38
349.52701 -247.13901 78.234802 1.8403113e-38
359.34 -248.485 74.663002 1.8403113e-38
355.65198 -238.73599 76.005402 1.8403113e-38
356.25751 -226.017 75.785004 1.8403113e-38
361.78601 -223.39751 73.77285 1.8403113e-38
356.34799 -218.33701 75.752197 1.8403113e-38
361.80499 -211.217 73.765999 1.8403113e-38
358.086 -203.1235 75.119354 1.8403113e-38
363.496 -201.351 73.150497 1.8403113e-38
359.70801 -197.80299 74.529198 1.8403113e-38
365.1293 -196.26801 72.556038 1.8403113e-38
366.086 -172.15401 72.207603 1.8403113e-38
366.74277 -167.52951 71.968697 1.8403113e-38
370.91699 -164.00101 70.449203 1.8403113e-38
353.70499 259.35501 76.714104 1.8403113e-38
346.5105 263.06549 79.332657 1.8403113e-38
354.74475 262.38275 76.335602 1.8403113e-38
364.26566 261.45932 72.870201 1.8403113e-38
371.84601 267.867 70.111298 1.8403113e-38
320.04599 -301.35999 88.964996 1.8403113e-38
324.198 -296.379 87.453598 1.8403113e-38
334.09235 -284.30533 83.85247 1.8403113e-38
318.39301 -279.27899 89.566399 1.8403113e-38
338.30099 -272.03699 82.320602 1.8403113e-38
343.1275 -276.25751 80.563797 1.8403113e-38
335.06299 -268.853 83.4991 1.8403113e-38
342.34851 -257.1445 80.84745 1.8403113e-38
325.702 249.782 86.906097 1.8403113e-38
319.10101 259.69501 89.308899 1.8403113e-38
325.98651 255.35901 86.802795 1.8403113e-38
337.19449 259.34998 82.72345 1.8403113e-38
341.29401 257.504 81.231201 1.8403113e-38
324.00751 261.55798 87.523003 1.8403113e-38
336.2265 264.33649 83.075745 1.8403113e-38
298.93399 -316.94901 96.649002 1.8403113e-38
302.58398 -314.4635 95.320496 1.8403113e-38
307.50201 -302.63901 93.530502 1.8403113e-38
314.88702 -308.96948 90.842651 1.8403113e-38
306.94501 -298.67151 93.733299 1.8403113e-38
316.37399 -294.97601 90.301498 1.8403113e-38
292.34698 -289.03552 99.046402 1.8403113e-38
294.37061 254.6698 98.309959 1.8403113e-38
300.418 252.19901 96.108704 1.8403113e-38
306.16135 261.68567 94.018463 1.8403113e-38
313.94977 261.85626 91.1838 1.8403113e-38
267.38599 -290.98901 108.131 1.8403113e-38
284.14035 -291.28134 102.03333 1.8403113e-38
267.37799 -289.478 108.1345 1.8403113e-38
275.69025 -289.513 105.10925 1.8403113e-38
288.83301 -289.89301 100.326 1.8403113e-38
268.05847 248.97601 107.88699 1.8403113e-38
273.17401 248.8385 106.02499 1.8403113e-38
285.44598 248.53949 101.5585 1.8403113e-38
265 253 109 1.8403113e-38
276.79236 254.34233 104.708 1.8403113e-38
283.62 251.7115 102.223 1.8403113e-38
