# .PCD v0.7 - Point Cloud Data file format
VERSION 0.7
FIELDS x y z rgb
SIZE 4 4 4 4
TYPE F F F F
COUNT 1 1 1 1
WIDTH 146
HEIGHT 1
VIEWPOINT 0 0 0 1 0 0 0
POINTS 146
DATA ascii
400.474 -90.086197 59.691601 1.8403113e-38
407.867 -82.548401 57.0009 1.8403113e-38
404.50024 -74.820404 58.226051 1.8403113e-38
403.7905 -66.504227 58.484398 1.8403113e-38
411.49799 -67.7873 55.679001 1.8403113e-38
405.20102 -57.764267 57.971035 1.8403113e-38
410.69901 -56.4333 55.970001 1.8403113e-38
399.80099 -12.5504 59.936501 1.8403113e-38
402.98602 -13.5476 58.777351 1.8403113e-38
410.49899 -19.0116 56.042599 1.8403113e-38
403.03275 -4.7541175 58.760223 1.8403113e-38
417.13699 -5.6537199 53.626499 1.8403113e-38
405.94049 1.96342 57.701851 1.8403113e-38
414.06958 6.9314561 54.743141 1.8403113e-38
420.04901 0 52.5667 1.8403113e-38
409.16199 13.422 56.529301 1.8403113e-38
413.15851 15.92015 55.074799 1.8403113e-38
421.72549 15.318649 51.95665 1.8403113e-38
407.63251 28.819851 57.085899 1.8403113e-38
412.96335 24.250015 55.145748 1.8403113e-38
408.84 32.549698 56.64645 1.8403113e-38
412.69501 34.86245 55.243401 1.8403113e-38
405.52802 44.215897 57.851952 1.8403113e-38
412.38101 40.561501 55.357601 1.8403113e-38
426.73001 41.319801 50.135101 1.8403113e-38
405.85175 64.009026 57.734173 1.8403113e-38
410.85101 64.290802 55.914501 1.8403113e-38
405.06168 73.806831 58.021702 1.8403113e-38
414.64001 72.571297 54.535599 1.8403113e-38
405.38901 81.116997 57.902599 1.8403113e-38
414.10535 84.961769 54.730099 1.8403113e-38
407.64499 98.579597 57.0816 1.8403113e-38
413.30801 92.994896 55.020378 1.8403113e-38
408.17401 106.685 56.889 1.8403113e-38
415.50702 104.02375 54.219978 1.8403113e-38
418.336 112.148 53.190201 1.8403113e-38
420.086 119.908 52.5532 1.8403113e-38
415.44781 125.1036 54.241566 1.8403113e-38
423.12149 122.2545 51.448601 1.8403113e-38
414.61523 135.36475 54.544521 1.8403113e-38
414.86581 145.6382 54.453419 1.8403113e-38
420.47 159.771 52.413399 1.8403113e-38
409.836 165.286 56.283901 1.8403113e-38
417.31128 163.51775 53.563251 1.8403113e-38
417.36301 176.94701 53.5443 1.8403113e-38
422.82901 176.991 51.554798 1.8403113e-38
418.92102 183.534 52.977501 1.8403113e-38
416.41376 193.73875 53.889977 1.8403113e-38
420.35699 190.187 52.454899 1.8403113e-38
409.20801 203.65199 56.5126 1.8403113e-38
414.64771 203.82332 54.532734 1.8403113e-38
409.16 211.153 56.529999 1.8403113e-38
415.91699 217.041 54.070801 1.8403113e-38
408.5835 224.418 56.739899 1.8403113e-38
412.242 221.71701 55.408302 1.8403113e-38
409.185 231.82001 56.520901 1.8403113e-38
411.14752 241.7975 55.806648 1.8403113e-38
402.26367 263.55234 59.040131 1.8403113e-38
414.15063 264.15878 54.713661 1.8403113e-38
376.92499 -176.58501 68.262604 1.8403113e-38
375.944 -165.52034 68.619637 1.8403113e-38
375.2233 -156.59599 68.882027 1.8403113e-38
375.38834 -145.06166 68.822075 1.8403113e-38
383.35901 -146.22198 65.920776 1.8403113e-38
380.06601 -135.995 67.119301 1.8403113e-38
392.48199 -104.098 62.600399 1.8403113e-38
379.07199 -91.475899 67.4813 1.8403113e-38
380.573 -91.007896 66.934898 1.8403113e-38
396.78879 -96.407944 61.032818 1.8403113e-38
380.55499 -89.3433 66.941597 1.8403113e-38
395.96216 -85.120918 61.333729 1.8403113e-38
398.3497 -78.122032 60.464672 1.8403113e-38
397.00601 -65.505798 60.9538 1.8403113e-38
395.6825 -56.196949 61.4356 1.8403113e-38
389.39001 -45.579498 63.725899 1.8403113e-38
394.32599 -48.735802 61.929298 1.8403113e-38
388.414 -13.2247 64.080948 1.8403113e-38
376.479 -9.3366299 68.425102 1.8403113e-38
394.565 -5.4566302 61.842201 1.8403113e-38
394.47751 36.29665 61.874001 1.8403113e-38
395.47153 41.773899 61.512222 1.8403113e-38
398.99951 68.026001 60.228203 1.8403113e-38
378.57999 259.20401 67.6604 1.8403113e-38
374.49451 261.7225 69.147247 1.8403113e-38
386.53003 265.13101 64.766769 1.8403113e-38
394.15735 264.02536 61.99057 1.8403113e-38
378.134 270.409 67.8228 1.8403113e-38
351.57901 -267.582 77.487701 1.8403113e-38
351.69452 -256.93549 77.445702 1.8403113e-38
359.34 -248.485 74.663002 1.8403113e-38
349.526 -234.32899 78.2351 1.8403113e-38
355.47198 -238.27399 76.070847 1.8403113e-38
355.80533 -222.22667 75.949501 1.8403113e-38
361.38501 -222.49249 73.918747 1.8403113e-38
363.452 -214.812 73.166298 1.8403113e-38
358.69299 -204.47751 74.898499 1.8403113e-38
363.496 -201.351 73.150497 1.8403113e-38
362.23633 -196.01733 73.608894 1.8403113e-38
368.03149 -173.8035 71.499603 1.8403113e-38
370.42899 -172.76601 70.626801 1.8403113e-38
361.23401 -167.117 73.973801 1.8403113e-38
370.28601 -169.27901 70.679001 1.8403113e-38
369.56299 -158.91499 70.942101 1.8403113e-38
369.71399 -142.63 70.8871 1.8403113e-38
346.85599 256.61548 79.206848 1.8403113e-38
353.97552 256.56201 76.615601 1.8403113e-38
368.54099 259.582 71.314102 1.8403113e-38
346.30701 266.29599 79.406799 1.8403113e-38
355.4205 260.81299 76.0895 1.8403113e-38
364.151 261.14902 72.911995 1.8403113e-38
324.98001 -300.29099 87.169197 1.8403113e-38
321.39099 -294.957 88.475403 1.8403113e-38
333.427 -292.05899 84.094597 1.8403113e-38
317.35599 -286.63501 89.943901 1.8403113e-38
335.77399 -281.08401 83.240303 1.8403113e-38
336.29831 -276.771 83.0495 1.8403113e-38
344.39999 -276.37201 80.1008 1.8403113e-38
339.995 -269.42801 81.703903 1.8403113e-38
343.83701 -266.08701 80.305496 1.8403113e-38
343.27698 -252.61749 80.509399 1.8403113e-38
327.74799 249.209 86.161499 1.8403113e-38
324.31598 253.2415 87.410904 1.8403113e-38
335.63361 253.67819 83.291504 1.8403113e-38
319.30399 260.67099 89.234802 1.8403113e-38
324.24249 262.52551 87.437347 1.8403113e-38
298.509 -312.97501 96.803802 1.8403113e-38
302.58398 -314.4635 95.320496 1.8403113e-38
307.45203 -302.302 93.548729 1.8403113e-38
313.87347 -294.9375 91.211502 1.8403113e-38
292.34698 -289.03552 99.046402 1.8403113e-38
311.995 -283.625 91.895302 1.8403113e-38
294.2626 253.47481 98.349342 1.8403113e-38
303.49466 253.69867 94.989037 1.8403113e-38
315.40601 252.362 90.653603 1.8403113e-38
305.94501 260.379 94.097298 1.8403113e-38
313.23898 264.04932 91.442436 1.8403113e-38
267.39499 -291.98901 108.128 1.8403113e-38
285.33301 -291.172 101.5995 1.8403113e-38
267.37799 -288.978 108.1345 1.8403113e-38
275.67377 -289.01324 105.115 1.8403113e-38
285.1955 -289.20001 101.64951 1.8403113e-38
269.10001 249.96201 107.508 1.8403113e-38
277.19699 247.66 104.561 1.8403113e-38
284.37726 248.13251 101.94725 1.8403113e-38
266.03751 251.495 108.6225 1.8403113e-38
274.83252 252.01175 105.421 1.8403113e-38
