# .PCD v0.7 - Point Cloud Data file format
VERSION 0.7
FIELDS x y z rgb
SIZE 4 4 4 4
TYPE F F F F
COUNT 1 1 1 1
WIDTH 149
HEIGHT 1
VIEWPOINT 0 0 0 1 0 0 0
POINTS 149
DATA ascii
399.64301 -102.204 59.9939 1.8403113e-38
404.92599 -85.079453 58.07095 1.8403113e-38
402.54721 -75.225754 58.937 1.8403113e-38
399.85599 -68.451202 59.916302 1.8403113e-38
403.05597 -64.8172 58.75172 1.8403113e-38
403.73532 -57.177868 58.504597 1.8403113e-38
401.34299 -48.5476 59.375099 1.8403113e-38
402.60901 -12.8119 58.914398 1.8403113e-38
405.86679 -4.6918297 57.72876 1.8403113e-38
417.17801 -4.2406602 53.611698 1.8403113e-38
406.39551 2.3166151 57.53635 1.8403113e-38
413.30225 7.2552576 55.022301 1.8403113e-38
406.99228 16.219625 57.319 1.8403113e-38
417.465 15.6229 53.507401 1.8403113e-38
422.37601 13.180651 51.719948 1.8403113e-38
407.51401 26.7418 57.129101 1.8403113e-38
414.55542 25.488338 54.566277 1.8403113e-38
424.48999 20.839701 50.9505 1.8403113e-38
404.345 37.673798 58.28265 1.8403113e-38
413.1293 34.257351 55.085354 1.8403113e-38
400.93848 41.486 59.522301 1.8403113e-38
404.3045 65.229401 58.297199 1.8403113e-38
410.63699 67.388603 55.992699 1.8403113e-38
407.33032 77.181602 57.196064 1.8403113e-38
410.26999 75.399803 56.126202 1.8403113e-38
409.04199 88.5 56.572899 1.8403113e-38
415.57034 86.999763 54.196899 1.8403113e-38
412.9725 93.2043 55.142525 1.8403113e-38
408.60852 106.01849 56.730801 1.8403113e-38
415.3566 103.9094 54.274658 1.8403113e-38
414.28 116.4975 54.666603 1.8403113e-38
421.064 118.463 52.197498 1.8403113e-38
415.79425 125.92799 54.115425 1.8403113e-38
423.048 129.05701 51.4753 1.8403113e-38
415.2735 133.002 54.305 1.8403113e-38
415.3757 142.79916 54.267715 1.8403113e-38
421.1225 159.04651 52.176048 1.8403113e-38
418.39999 169.045 53.167 1.8403113e-38
422.492 166.149 51.67775 1.8403113e-38
416.80151 174.76324 53.748848 1.8403113e-38
422.41501 170.467 51.7057 1.8403113e-38
416.34448 188.5735 53.915253 1.8403113e-38
421.91 188.737 51.8894 1.8403113e-38
418.129 196.55168 53.265732 1.8403113e-38
414.85199 205.98199 54.458401 1.8403113e-38
409.71201 211.96201 56.328999 1.8403113e-38
412.69235 213.75366 55.2444 1.8403113e-38
422.94299 211.304 51.513599 1.8403113e-38
404.517 224.315 58.219898 1.8403113e-38
412.82001 226.77951 55.197899 1.8403113e-38
412.65701 232.96001 55.257301 1.8403113e-38
409.905 242.05299 56.258801 1.8403113e-38
412.397 241.537 55.3521 1.8403113e-38
405.48401 258.94199 57.868 1.8403113e-38
403.48831 265.879 58.594467 1.8403113e-38
415.26352 263.51251 54.308552 1.8403113e-38
372.879 -173.448 69.7351 1.8403113e-38
374.66449 -163.64099 69.08535 1.8403113e-38
381.2005 -164.121 66.706497 1.8403113e-38
377.56433 -154.27667 68.02993 1.8403113e-38
383.34799 -152.782 65.924797 1.8403113e-38
377.96451 -145.8315 67.8843 1.8403113e-38
381.517 -142.64 66.591202 1.8403113e-38
375.647 -135.4735 68.727753 1.8403113e-38
382.58099 -138.968 66.203903 1.8403113e-38
391.07901 -101.105 63.110901 1.8403113e-38
388.39633 -94.852837 64.087334 1.8403113e-38
397.409 -93.295601 60.806999 1.8403113e-38
373.84399 -88.879097 69.384003 1.8403113e-38
383.487 -86.660103 65.874199 1.8403113e-38
395.38199 -86.130745 61.544983 1.8403113e-38
397.43799 -75.738098 60.7967 1.8403113e-38
397.70999 -61.407299 60.697399 1.8403113e-38
395.272 -54.6087 61.584999 1.8403113e-38
388.62299 -47.882801 64.004898 1.8403113e-38
394.9715 -48.284801 61.694298 1.8403113e-38
383.10101 -14.332701 66.014748 1.8403113e-38
395.31467 -13.347333 61.569336 1.8403113e-38
387.87 -7.9973602 64.2789 1.8403113e-38
395.29901 -9.6961498 61.575001 1.8403113e-38
386.944 37.210999 64.615898 1.8403113e-38
390.259 35.716999 63.4095 1.8403113e-38
387.9465 40.625801 64.251297 1.8403113e-38
394.74899 58.6096 61.775299 1.8403113e-38
396.49667 64.274231 61.139164 1.8403113e-38
385.336 256.84601 65.201302 1.8403113e-38
374.68799 262.18201 69.076729 1.8403113e-38
384.20898 265.9523 65.611565 1.8403113e-38
394.16 264.02402 61.989697 1.8403113e-38
344.685 -268.948 79.997002 1.8403113e-38
347.16602 -257.55951 79.094055 1.8403113e-38
354.858 -255.66049 76.294403 1.8403113e-38
348.56201 -244.32001 78.5858 1.8403113e-38
348.51599 -231.528 78.602898 1.8403113e-38
355.9115 -236.4725 75.91095 1.8403113e-38
367.095 -235.658 71.8405 1.8403113e-38
354.94598 -222.80701 76.262299 1.8403113e-38
356.73001 -219.25101 75.613098 1.8403113e-38
357.05652 -203.10651 75.494148 1.8403113e-38
364.496 -205.57375 72.786469 1.8403113e-38
364.09299 -194.21899 72.933197 1.8403113e-38
367.85202 -172.92668 71.565033 1.8403113e-38
370.07001 -178.938 70.757698 1.8403113e-38
371.29352 -166.14801 70.312202 1.8403113e-38
370.862 -157.938 70.4692 1.8403113e-38
347.29434 254.338 79.047371 1.8403113e-38
355.72098 258.20065 75.980133 1.8403113e-38
346.01599 265.345 79.512398 1.8403113e-38
364.38565 261.767 72.826569 1.8403113e-38
371.479 266.94601 70.245003 1.8403113e-38
321.37399 -301.5885 88.481552 1.8403113e-38
324.39401 -297.35699 87.3825 1.8403113e-38
334.10901 -294.97 83.846298 1.8403113e-38
335.53101 -280.11801 83.328796 1.8403113e-38
335.53101 -275.43149 83.32885 1.8403113e-38
342.13 -277.099 80.926804 1.8403113e-38
334.81201 -267.88901 83.5905 1.8403113e-38
342.47699 -269.67801 80.800797 1.8403113e-38
344.27399 -259.638 80.146599 1.8403113e-38
322.474 254.761 88.0811 1.8403113e-38
335.56067 258.98502 83.3181 1.8403113e-38
341.85901 259.41101 81.025497 1.8403113e-38
319.711 262.62399 89.0868 1.8403113e-38
325.60266 261.82498 86.942436 1.8403113e-38
334.13 260.7995 83.838699 1.8403113e-38
298.40201 -311.98199 96.842598 1.8403113e-38
302.58002 -314.46448 95.321999 1.8403113e-38
292.38 -302.60001 99.0345 1.8403113e-38
308.19699 -307.58401 93.277702 1.8403113e-38
315.58499 -305.29001 90.588699 1.8403113e-38
294.36899 -297.362 98.310501 1.8403113e-38
306.7485 -297.186 93.804703 1.8403113e-38
313.95898 -295.4295 91.180344 1.8403113e-38
294.5864 256.45459 98.2314 1.8403113e-38
303.69067 255.01567 94.917694 1.8403113e-38
316.77399 259.20901 90.1558 1.8403113e-38
305.94501 260.379 94.097298 1.8403113e-38
312.69568 261.10568 91.640137 1.8403113e-38
269.789 -291.95599 107.257 1.8403113e-38
278.28799 -294.65802 104.1635 1.8403113e-38
284.24966 -293.27798 101.99368 1.8403113e-38
266.189 -289.49451 108.567 1.8403113e-38
273.306 -289.36249 105.97701 1.8403113e-38
288.66901 -287.89999 100.385 1.8403113e-38
273.035 244.851 106.076 1.8403113e-38
285.31049 247.04651 101.6075 1.8403113e-38
267.121 256.31699 108.228 1.8403113e-38
275.88751 252.46326 105.03725 1.8403113e-38
283.6445 252.211 102.214 1.8403113e-38
