# .PCD v0.7 - Point Cloud Data file format
VERSION 0.7
FIELDS x y z rgb
SIZE 4 4 4 4
TYPE F F F F
COUNT 1 1 1 1
WIDTH 140
HEIGHT 1
VIEWPOINT 0 0 0 1 0 0 0
POINTS 140
DATA ascii
402.11099 -98.4179 59.0956 1.8403113e-38
399.948 -81.249901 59.8829 1.8403113e-38
402.61902 -86.266235 58.91087 1.8403113e-38
402.88699 -75.970375 58.813274 1.8403113e-38
399.85599 -68.451202 59.916302 1.8403113e-38
404.07281 -64.362778 58.381676 1.8403113e-38
412.24399 -63.308498 55.407501 1.8403113e-38
404.05499 -55.355148 58.3881 1.8403113e-38
399.80099 -12.5504 59.936501 1.8403113e-38
406.44235 -6.5631003 57.519199 1.8403113e-38
413.90448 -3.4423599 54.80315 1.8403113e-38
405.85498 4.5796852 57.733101 1.8403113e-38
412.79257 5.7419176 55.207985 1.8403113e-38
408.92001 16.097401 56.6175 1.8403113e-38
416.30075 15.13975 53.931099 1.8403113e-38
421.651 16.042999 51.983803 1.8403113e-38
407.91635 24.088465 56.982666 1.8403113e-38
416.069 26.9028 54.015301 1.8403113e-38
420.39551 23.241051 52.440651 1.8403113e-38
406.66724 35.880123 57.437447 1.8403113e-38
413.797 34.127399 54.842403 1.8403113e-38
420.28149 32.87635 52.48225 1.8403113e-38
400.827 40.085701 59.562901 1.8403113e-38
404.63925 63.861797 58.175476 1.8403113e-38
405.9642 71.518677 57.693245 1.8403113e-38
411.52301 79.448303 55.670101 1.8403113e-38
409.28 86.001404 56.486298 1.8403113e-38
414.93497 85.431236 54.428101 1.8403113e-38
414.31195 95.098885 54.654896 1.8403113e-38
413.638 105.21301 54.9002 1.8403113e-38
408.522 113.016 56.762299 1.8403113e-38
413.85965 116.51 54.819565 1.8403113e-38
421.18951 112.1175 52.151749 1.8403113e-38
417.078 124.1825 53.648148 1.8403113e-38
416.70728 134.28275 53.783073 1.8403113e-38
420.90701 131.97301 52.254398 1.8403113e-38
417.12949 144.495 53.629349 1.8403113e-38
421.73199 144.989 51.954201 1.8403113e-38
417.10852 157.687 53.6371 1.8403113e-38
422.33249 154.759 51.735649 1.8403113e-38
418.39999 169.045 53.167 1.8403113e-38
422.50452 163.28149 51.672951 1.8403113e-38
414.73352 175.436 54.501499 1.8403113e-38
421.77634 174.81732 51.938129 1.8403113e-38
415.50964 185.37468 54.219067 1.8403113e-38
415.625 194.44901 54.176998 1.8403113e-38
424.284 198.466 51.0256 1.8403113e-38
416.78922 206.7636 53.753345 1.8403113e-38
409.71201 211.96201 56.328999 1.8403113e-38
412.56299 212.218 55.2915 1.8403113e-38
408.707 222.51401 56.695 1.8403113e-38
412.242 221.71701 55.408302 1.8403113e-38
412.65701 232.96001 55.257301 1.8403113e-38
413.90967 244.05968 54.8013 1.8403113e-38
407.83151 258.05051 57.01355 1.8403113e-38
403.65198 266.16333 58.534866 1.8403113e-38
415.34033 262.77567 54.280598 1.8403113e-38
375.06201 -175.89233 68.940765 1.8403113e-38
377.33725 -165.2805 68.112579 1.8403113e-38
377.43466 -156.90599 68.077126 1.8403113e-38
384.33401 -159.65199 65.565804 1.8403113e-38
395.78601 -154.57401 61.3979 1.8403113e-38
377.35599 -144.19966 68.105934 1.8403113e-38
381.91269 -144.02466 66.447166 1.8403113e-38
392.48199 -104.098 62.600399 1.8403113e-38
384.09201 -93.785973 65.654167 1.8403113e-38
395.08826 -95.595245 61.651699 1.8403113e-38
395.10678 -85.192223 61.645073 1.8403113e-38
399.41101 -76.054398 60.0783 1.8403113e-38
397.73602 -67.360596 60.688 1.8403113e-38
397.59732 -52.7701 60.738636 1.8403113e-38
398.27499 -48.835201 60.4921 1.8403113e-38
388.50848 -12.0772 64.0466 1.8403113e-38
395.43497 -15.408032 61.525562 1.8403113e-38
389.67499 -9.2776098 63.622101 1.8403113e-38
397.84149 -4.8973398 60.64975 1.8403113e-38
399.37601 0 60.091099 1.8403113e-38
384.51801 38.885399 65.499001 1.8403113e-38
395.396 38.45565 61.539749 1.8403113e-38
391.17404 41.902668 63.076336 1.8403113e-38
384.48999 257.8475 65.509148 1.8403113e-38
375.06567 263.09802 68.93943 1.8403113e-38
383.0455 266.36047 66.03495 1.8403113e-38
394.73331 265.20935 61.780933 1.8403113e-38
346.43701 -266.76501 79.359299 1.8403113e-38
350.96552 -261.9845 77.71125 1.8403113e-38
351.45499 -252.77699 77.532997 1.8403113e-38
361.452 -254.048 73.894302 1.8403113e-38
354.24649 -244.17749 76.516953 1.8403113e-38
358.138 -239.285 75.100601 1.8403113e-38
356.05032 -222.83968 75.860405 1.8403113e-38
363.16449 -226.575 73.270996 1.8403113e-38
361.80499 -211.217 73.765999 1.8403113e-38
356.832 -204.88699 75.575699 1.8403113e-38
363.121 -204.931 73.287003 1.8403113e-38
357.24399 -196.886 75.426102 1.8403113e-38
362.496 -195.131 73.514297 1.8403113e-38
357.61102 -185.42801 75.292351 1.8403113e-38
367.33099 -174.265 71.7547 1.8403113e-38
370.07001 -178.938 70.757698 1.8403113e-38
371.67001 -168.295 70.175201 1.8403113e-38
347.017 257.08551 79.148346 1.8403113e-38
355.83066 258.51266 75.940239 1.8403113e-38
352.82901 263.94 77.0327 1.8403113e-38
364.27332 261.45602 72.867432 1.8403113e-38
371.11099 266.026 70.378601 1.8403113e-38
323.19766 -304.423 87.817772 1.8403113e-38
334.10901 -294.97 83.846298 1.8403113e-38
335.53101 -280.11801 83.328796 1.8403113e-38
335.81998 -274.83731 83.22364 1.8403113e-38
342.397 -278.05801 80.829697 1.8403113e-38
342.47699 -269.67801 80.800797 1.8403113e-38
343.40302 -256.785 80.463699 1.8403113e-38
325.94525 257.69125 86.81765 1.8403113e-38
332.707 255.534 84.356705 1.8403113e-38
343.69299 257.73599 80.358002 1.8403113e-38
322.17352 263.55798 88.190552 1.8403113e-38
338.92801 261.41602 82.092346 1.8403113e-38
344.12 267.04099 80.202698 1.8403113e-38
298.93399 -316.94901 96.649002 1.8403113e-38
303.63599 -312.30499 94.9375 1.8403113e-38
305.9595 -305.37924 94.09201 1.8403113e-38
313.46948 -292.47552 91.358505 1.8403113e-38
292.302 -288.53802 99.062805 1.8403113e-38
312.974 -289.53299 91.539001 1.8403113e-38
294.32501 254.27242 98.32666 1.8403113e-38
305.582 258.07166 94.22937 1.8403113e-38
311.97699 257.186 91.901703 1.8403113e-38
302.08499 264.06699 95.502098 1.8403113e-38
314.24567 261.45035 91.076027 1.8403113e-38
266.19299 -290.49451 108.5655 1.8403113e-38
277.05048 -294.2095 104.614 1.8403113e-38
281.694 -290.457 102.924 1.8403113e-38
269.75601 -289.95599 107.269 1.8403113e-38
274.48999 -289.31299 105.54601 1.8403113e-38
286.38065 -289.09866 101.21801 1.8403113e-38
269.05099 246.96201 107.526 1.8403113e-38
266.05402 253.495 108.6165 1.8403113e-38
275.41202 254.13901 105.21019 1.8403113e-38
284.76001 253.11601 101.80775 1.8403113e-38
