# .PCD v0.7 - Point Cloud Data file format
VERSION 0.7
FIELDS x y z rgb
SIZE 4 4 4 4
TYPE F F F F
COUNT 1 1 1 1
WIDTH 343
HEIGHT 1
VIEWPOINT 0 0 0 1 0 0 0
POINTS 343
DATA ascii
209.133 3033.6799 -300.25 1.8403113e-38
54.469002 3046.76 -300.66901 1.8403113e-38
96.769897 3042.6101 -300.34601 1.8403113e-38
-72.599197 3057.1399 -300.88199 1.8403113e-38
-29.3927 3053.48 -300.763 1.8403113e-38
8.3720398 3053.75 -301.91501 1.8403113e-38
-211.351 3066.8 -300.50601 1.8403113e-38
-166.106 3065.3799 -301.25299 1.8403113e-38
-120.783 3061.95 -301.28 1.8403113e-38
-726.37799 3105.49 -300.133 1.8403113e-38
-665.68201 3102.71 -300.823 1.8403113e-38
-951.51703 3124.95 -300.897 1.8403113e-38
1788.74 2889.8201 -292.23999 1.8403113e-38
1799.38 2888.55 -292.07901 1.8403113e-38
1811.25 2882.6201 -290.258 1.8403113e-38
1831.9301 2885.29 -291.80399 1.8403113e-38
1643.77 2897.9399 -291.13 1.8403113e-38
1690.01 2892.8899 -290.59399 1.8403113e-38
1733.33 2895.4199 -292.72101 1.8403113e-38
1743.62 2899.3201 -294.42599 1.8403113e-38
1756.21 2890.1201 -291.44101 1.8403113e-38
1767.24 2890.1399 -291.75601 1.8403113e-38
1777.39 2891.8401 -292.65601 1.8403113e-38
1819.73 2894.21 -294.70099 1.8403113e-38
1510.72 2909.46 -291.59 1.8403113e-38
1523.22 2907.9399 -291.38699 1.8403113e-38
1562.03 2901.23 -290.03699 1.8403113e-38
1572.9301 2902.78 -290.90701 1.8403113e-38
1584.99 2902.6201 -291.186 1.8403113e-38
1596.5 2902.2 -291.353 1.8403113e-38
1417.87 2919.3201 -292.569 1.8403113e-38
1432.98 2915.46 -291.591 1.8403113e-38
1446.65 2912.95 -291.06299 1.8403113e-38
1534.73 2910 -292.457 1.8403113e-38
1278.5 2925.6599 -290.97 1.8403113e-38
1292.9399 2925.8 -291.42499 1.8403113e-38
1304.38 2929.6399 -293.14001 1.8403113e-38
1319.72 2927.8501 -292.92001 1.8403113e-38
1334.47 2925.6499 -292.53201 1.8403113e-38
1349.17 2924.3701 -292.48099 1.8403113e-38
1363.29 2922.7 -292.26901 1.8403113e-38
1389.59 2923.3999 -293.258 1.8403113e-38
1404.03 2921.54 -292.98901 1.8403113e-38
1165.27 2939.74 -292.91299 1.8403113e-38
1197.84 2937.1001 -292.866 1.8403113e-38
1229.02 2935.3601 -293.10599 1.8403113e-38
1244.24 2934.0901 -293.073 1.8403113e-38
1259.38 2933.77 -293.37799 1.8403113e-38
1112.0699 2946.8201 -293.992 1.8403113e-38
1130.08 2944.77 -293.754 1.8403113e-38
1145.78 2944.54 -294.108 1.8403113e-38
1175.84 2946.25 -295.57199 1.8403113e-38
1208.9301 2942.55 -295.155 1.8403113e-38
928.60101 2958.29 -293.02301 1.8403113e-38
946.90601 2959.1101 -293.82999 1.8403113e-38
968.42297 2954.9099 -292.91 1.8403113e-38
985.922 2956.01 -293.79999 1.8403113e-38
1007.8 2950.5901 -292.44501 1.8403113e-38
1024.51 2952.01 -293.427 1.8403113e-38
1040.65 2952.8799 -294.19299 1.8403113e-38
1060.26 2950.1399 -293.74899 1.8403113e-38
1074.48 2952.9199 -295.155 1.8403113e-38
1091.55 2952.8401 -295.603 1.8403113e-38
847.04901 2962.8899 -292.41 1.8403113e-38
864.34998 2966.03 -294.035 1.8403113e-38
887.039 2962.1499 -293.259 1.8403113e-38
905.52502 2963.4199 -294.23901 1.8403113e-38
752.77399 2974.3999 -293.94699 1.8403113e-38
772.48798 2976.48 -295.254 1.8403113e-38
794.35901 2975.1001 -295.36499 1.8403113e-38
818.008 2972.52 -295.09201 1.8403113e-38
694.51099 2988.03 -297.26501 1.8403113e-38
724.37097 2981.3201 -295.664 1.8403113e-38
567.33801 2996.76 -296.87399 1.8403113e-38
591.63898 2996.47 -297.45001 1.8403113e-38
615.64301 2997.0701 -298.33899 1.8403113e-38
641.90399 2994.22 -298.039 1.8403113e-38
669.987 2990.23 -297.37701 1.8403113e-38
503.59601 3007.73 -299.07401 1.8403113e-38
534.927 3002.49 -298.048 1.8403113e-38
381.48199 3018.48 -299.55701 1.8403113e-38
415.05801 3013.6699 -298.75101 1.8403113e-38
442.86499 3013.9199 -299.61899 1.8403113e-38
473.80099 3010.1101 -299.103 1.8403113e-38
250.55499 3027.26 -299.07901 1.8403113e-38
290.37701 3020.1599 -297.61801 1.8403113e-38
316.345 3023.75 -299.64801 1.8403113e-38
349.504 3020.4199 -299.367 1.8403113e-38
137.474 3037.6799 -299.69901 1.8403113e-38
176.895 3034.03 -299.47699 1.8403113e-38
-592.30798 3093.75 -299.625 1.8403113e-38
-794.14099 3109.3101 -299.625 1.8403113e-38
-862.48999 3113.6399 -299.28299 1.8403113e-38
-1015.94 3125.05 -299.13199 1.8403113e-38
-1265.5699 3139.95 -297.55499 1.8403113e-38
-1177.89 3134.97 -298.19901 1.8403113e-38
-1100.24 3131.4199 -299.08401 1.8403113e-38
-1468.98 3158.27 -298.51001 1.8403113e-38
-1368.61 3151.3101 -298.79099 1.8403113e-38
-1571.89 3166.1399 -298.48499 1.8403113e-38
-1686.01 3174.9299 -298.48199 1.8403113e-38
-1807.4 3186.1699 -299.16599 1.8403113e-38
-2327.6499 3219.1201 -296.56699 1.8403113e-38
-2982.05 3257.78 -292.28601 1.8403113e-38
-2816.3601 3250.52 -294.28799 1.8403113e-38
3019.24 2768.5 -282.64401 1.8403113e-38
3048.3501 2761.3201 -280.85101 1.8403113e-38
2993.5701 2778.47 -285.54199 1.8403113e-38
3003.8999 2770.6299 -282.98801 1.8403113e-38
3041.3201 2771.8 -284.45901 1.8403113e-38
2807.3899 2787.4399 -283.59 1.8403113e-38
2714.3201 2796.6299 -284.32001 1.8403113e-38
2728.1001 2796.97 -284.82901 1.8403113e-38
2752.8899 2792.3 -283.828 1.8403113e-38
2768.98 2794.2 -284.96899 1.8403113e-38
2782.97 2793.96 -285.26999 1.8403113e-38
2799.8301 2796.25 -286.57599 1.8403113e-38
2827.98 2793.8799 -286.50201 1.8403113e-38
2615.8301 2808.5 -285.87 1.8403113e-38
2628.25 2808.28 -286.13901 1.8403113e-38
2641.1799 2807.6799 -286.28299 1.8403113e-38
2652.6599 2805.6001 -285.85001 1.8403113e-38
2663.5801 2801.55 -284.685 1.8403113e-38
2675.5901 2800.05 -284.478 1.8403113e-38
2691.28 2802.9099 -285.95401 1.8403113e-38
2705 2803.5 -286.55399 1.8403113e-38
2745.2 2800.73 -286.673 1.8403113e-38
2450.4099 2814.96 -283.58701 1.8403113e-38
2463.3701 2818.97 -285.40399 1.8403113e-38
2474.95 2818.3401 -285.50299 1.8403113e-38
2484.8899 2815.24 -284.65302 1.8403113e-38
2498.1299 2817.8301 -285.96301 1.8403113e-38
2515.1602 2816.5498 -285.97751 1.8403113e-38
2534.4199 2819.27 -287.504 1.8403113e-38
2544 2813.77 -285.77499 1.8403113e-38
2557.0801 2815.9399 -286.92999 1.8403113e-38
2570.25 2816.9199 -287.65201 1.8403113e-38
2580.24 2813.02 -286.51599 1.8403113e-38
2594.9099 2816.22 -288.08801 1.8403113e-38
2604.9099 2812.1101 -286.87799 1.8403113e-38
2280.4299 2828.4399 -283.72198 1.8403113e-38
2311.3 2826.27 -283.79999 1.8403113e-38
2376.9399 2828.27 -286.36401 1.8403113e-38
2387.3601 2825.8201 -285.76501 1.8403113e-38
2398.3 2826.0901 -286.168 1.8403113e-38
2410.1001 2826.96 -286.81601 1.8403113e-38
2420.4099 2825.27 -286.48999 1.8403113e-38
2431.5601 2824.1899 -286.409 1.8403113e-38
2441.1399 2820.5701 -285.36401 1.8403113e-38
2108.04 2839.24 -282.82101 1.8403113e-38
2138.45 2838.6001 -283.43799 1.8403113e-38
2148.1499 2837.3301 -283.24799 1.8403113e-38
2208.0801 2830.5801 -282.474 1.8403113e-38
2229.8201 2835.9299 -285.02701 1.8403113e-38
2240.3899 2835.6599 -285.22501 1.8403113e-38
2250.95 2837.24 -286.091 1.8403113e-38
2261.5701 2836.78 -286.224 1.8403113e-38
2271.97 2837.26 -286.68701 1.8403113e-38
2292.8301 2836.01 -286.81699 1.8403113e-38
2302.2 2830.6599 -285.138 1.8403113e-38
2323.5901 2830.6899 -285.74701 1.8403113e-38
2335.24 2834.22 -287.354 1.8403113e-38
2345.6799 2832.1299 -286.88699 1.8403113e-38
2355.6299 2830.0901 -286.42599 1.8403113e-38
2367.3 2831.3799 -287.22101 1.8403113e-38
2038.65 2849.02 -284.42801 1.8403113e-38
2048.45 2848.55 -284.53 1.8403113e-38
2068.1201 2841.71 -282.59799 1.8403113e-38
2088.8501 2849.53 -286.01801 1.8403113e-38
2118.6499 2841.8999 -284.08099 1.8403113e-38
2128.8401 2844.51 -285.315 1.8403113e-38
2159.45 2843.3401 -285.74701 1.8403113e-38
2169.3501 2842.8301 -285.83801 1.8403113e-38
2179.5701 2841.23 -285.54501 1.8403113e-38
2189.47 2840.5601 -285.57599 1.8403113e-38
2200.02 2840.6399 -285.901 1.8403113e-38
2221.28 2843.3799 -287.492 1.8403113e-38
1927.55 2856.4399 -284.01001 1.8403113e-38
1967.9 2859.52 -286.25699 1.8403113e-38
1988.16 2859.6201 -286.86099 1.8403113e-38
1998.53 2859.54 -287.12399 1.8403113e-38
2008.38 2856.5701 -286.32001 1.8403113e-38
2018.64 2852.5701 -285.155 1.8403113e-38
2028.58 2856.01 -286.68201 1.8403113e-38
2059.1001 2854.53 -287 1.8403113e-38
2079.05 2850.3301 -286.03299 1.8403113e-38
2099.3101 2850.48 -286.655 1.8403113e-38
1844.34 2869.6599 -286.48199 1.8403113e-38
1865.45 2866.1799 -285.80801 1.8403113e-38
1875.67 2869 -287.12 1.8403113e-38
1896.52 2865.9299 -286.58801 1.8403113e-38
1906.38 2867.53 -287.44501 1.8403113e-38
1917.09 2864.3899 -286.603 1.8403113e-38
1937.39 2866.26 -287.85101 1.8403113e-38
1947.29 2867.54 -288.591 1.8403113e-38
1957.89 2863.1101 -287.27899 1.8403113e-38
1978.26 2860.55 -286.922 1.8403113e-38
1715.96 2877.3799 -285.69 1.8403113e-38
1854.8 2870.79 -287.185 1.8403113e-38
1885.36 2872.6399 -288.711 1.8403113e-38
1635.6 2888.8601 -287.60599 1.8403113e-38
1669.23 2887.8999 -288.20001 1.8403113e-38
1680.11 2889.5901 -289.117 1.8403113e-38
1704.03 2882.51 -287.21799 1.8403113e-38
1724.9301 2886.02 -289.07599 1.8403113e-38
1550.97 2898.52 -288.746 1.8403113e-38
1612.16 2891.04 -287.745 1.8403113e-38
1622.91 2892.1799 -288.45901 1.8403113e-38
1656.67 2893.5 -289.88 1.8403113e-38
1461.54 2908.78 -289.96701 1.8403113e-38
1474.62 2906.8601 -289.63501 1.8403113e-38
1489.3 2902.3899 -288.42599 1.8403113e-38
1501.83 2901.0801 -288.29901 1.8403113e-38
1381.91 2913.54 -289.466 1.8403113e-38
-1821.33 3154.6201 -287.327 1.8403113e-38
-2364.5701 3190.5801 -285.17899 1.8403113e-38
3071.0701 2730.0801 -270.151 1.8403113e-38
3064.6499 2741.77 -274.21201 1.8403113e-38
2957.47 2758.8701 -277.422 1.8403113e-38
3059.25 2753.6599 -278.37701 1.8403113e-38
2818.99 2764.9199 -275.742 1.8403113e-38
-324.17801 3005.8401 -275.22501 1.8403113e-38
-294.82599 3014.3501 -279.134 1.8403113e-38
-3030.0601 3226.02 -279.41901 1.8403113e-38
-5007.3999 3370.2 -276.414 1.8403113e-38
-5385.5698 3391.4399 -273.54199 1.8403113e-38
3070.3799 2713.04 -263.95001 1.8403113e-38
2839.9399 2735.9299 -265.80801 1.8403113e-38
2886.77 2736.6699 -267.38599 1.8403113e-38
2814.9099 2741.74 -267.215 1.8403113e-38
2828.1399 2740.1599 -267.01199 1.8403113e-38
2860.22 2741.98 -268.57001 1.8403113e-38
2906.54 2740.29 -269.25201 1.8403113e-38
2922.6899 2740.54 -269.79501 1.8403113e-38
-73.147903 2962.73 -266.60599 1.8403113e-38
-331.26099 2984.1101 -267.142 1.8403113e-38
-2274.3601 3123.1699 -263.23801 1.8403113e-38
-3041.71 3185.5601 -264.41 1.8403113e-38
3067.99 2678.1799 -251.23 1.8403113e-38
3068.4099 2694.3999 -257.13 1.8403113e-38
-36.936199 2918.6299 -251.614 1.8403113e-38
-5525.4702 3359.05 -257.87399 1.8403113e-38
3065.51 2659.75 -244.472 1.8403113e-38
-17.7299 2886.0801 -240.341 1.8403113e-38
-1634.95 3019.3201 -243.442 1.8403113e-38
-1521.88 3013.78 -244.595 1.8403113e-38
-3067.0601 3146.71 -249.601 1.8403113e-38
3062.4099 2626.0901 -232.172 1.8403113e-38
3062.3799 2641.8501 -237.89101 1.8403113e-38
-3079.9199 3106.47 -234.63901 1.8403113e-38
-3579.0701 3140.3401 -232.963 1.8403113e-38
-5502.4399 3288.3899 -232.87399 1.8403113e-38
3066.4199 2614.4299 -228.05299 1.8403113e-38
2781.8401 2637.6699 -228.52299 1.8403113e-38
-3198.3899 3090.98 -225.703 1.8403113e-38
3052.25 2588.0601 -218.08701 1.8403113e-38
3065.1399 2583.6201 -216.83701 1.8403113e-38
-3604.03 3096.55 -216.37601 1.8403113e-38
3059.1201 2550.24 -204.556 1.8403113e-38
3058.9199 2564.04 -209.558 1.8403113e-38
-5341.73 3194.6399 -203.35201 1.8403113e-38
3061.76 2510.02 -190.034 1.8403113e-38
3062.53 2524.6499 -195.36301 1.8403113e-38
3057.9199 2534.9399 -198.96899 1.8403113e-38
3065.8201 2485.77 -181.345 1.8403113e-38
3058.8701 2494.79 -184.42599 1.8403113e-38
3065.21 2458.96 -171.601 1.8403113e-38
3070.74 2476.03 -177.951 1.8403113e-38
-5218.79 3107.8799 -175.306 1.8403113e-38
3068.0801 2434.99 -162.98199 1.8403113e-38
3069.8601 2449.27 -168.21201 1.8403113e-38
3066.1899 2408.6299 -153.364 1.8403113e-38
3061.6399 2418.6799 -156.882 1.8403113e-38
-5199.5698 3044.74 -152.92999 1.8403113e-38
3064.5 2383.04 -144.03 1.8403113e-38
3066.1299 2396.51 -148.964 1.8403113e-38
3065.8601 2348.1599 -131.409 1.8403113e-38
3068.21 2361.03 -136.145 1.8403113e-38
3062.4399 2370.0701 -139.265 1.8403113e-38
-5202.9199 2983.01 -130.435 1.8403113e-38
3060.96 2322.25 -121.87 1.8403113e-38
3064.48 2335.4099 -126.745 1.8403113e-38
3058.9399 2298.45 -113.175 1.8403113e-38
3067.1499 2313.6699 -118.931 1.8403113e-38
3059.4399 2265.0701 -101.078 1.8403113e-38
3058.1399 2275.73 -104.91 1.8403113e-38
3062.26 2288.5801 -109.687 1.8403113e-38
-5199.2598 2923.1799 -108.827 1.8403113e-38
3060.5801 2243.8301 -93.402901 1.8403113e-38
3054.1399 2251.99 -96.181503 1.8403113e-38
3058.1399 2211.0901 -81.452003 1.8403113e-38
3061.26 2222.72 -85.759003 1.8403113e-38
3056.8101 2231.7 -88.892097 1.8403113e-38
-5212.2998 2863.23 -86.705902 1.8403113e-38
3056.145 2194.4951 -75.372803 1.8403113e-38
3057.79 2159.1599 -62.598598 1.8403113e-38
3057.5701 2179.46 -69.957603 1.8403113e-38
3061.3401 2170.8999 -66.957802 1.8403113e-38
-5203.5601 2802.98 -65.086601 1.8403113e-38
3056.6599 2138.6699 -55.128601 1.8403113e-38
3060.0601 2130.1201 -52.122898 1.8403113e-38
3061.3799 2150.6101 -59.593899 1.8403113e-38
-5220.4199 2743.6101 -43.069099 1.8403113e-38
2885.8301 2062.4199 -22.677601 1.8403113e-38
-5214.52 2684.0901 -21.633699 1.8403113e-38
-5214.3701 2622.6001 0.67395699 1.8403113e-38
2651.8 1979.17 14.0793 1.8403113e-38
2562.0701 1945 28.9902 1.8403113e-38
2538.8101 1918.0601 39.418499 1.8403113e-38
2549.73 1926.16 36.171101 1.8403113e-38
2555.4951 1935.3601 32.673203 1.8403113e-38
2530.8101 1894.5649 48.167351 1.8403113e-38
2535.51 1905.1899 44.179451 1.8403113e-38
2539.24 1913.4301 41.0858 1.8403113e-38
2517.8201 1866.5601 58.6945 1.8403113e-38
2523.6399 1863.24 59.734798 1.8403113e-38
2522.665 1874.33 55.738899 1.8403113e-38
2529.21 1887.14 50.9077 1.8403113e-38
2534.2 1883.6801 52.022499 1.8403113e-38
2514.9399 1839.5699 68.5672 1.8403113e-38
2515.2998 1846.24 66.138504 1.8403113e-38
2512.6201 1852.46 63.955898 1.8403113e-38
2523.5801 1858.62 61.412498 1.8403113e-38
-1899.6801 2198.21 61.941502 1.8403113e-38
-4692.1401 2395.6399 68.425598 1.8403113e-38
2509.9399 1808.96 79.815498 1.8403113e-38
2507.7749 1815.105 77.647102 1.8403113e-38
2505.25 1823.345 74.727646 1.8403113e-38
2511.4849 1832.66 71.173004 1.8403113e-38
-1926.16 2167.8301 73.706398 1.8403113e-38
2506.665 1785.455 88.438644 1.8403113e-38
2512.165 1794.1599 85.124451 1.8403113e-38
2516.5049 1802.965 81.808701 1.8403113e-38
-4525.8901 2324.8501 89.464203 1.8403113e-38
2508.1599 1758.2 98.288597 1.8403113e-38
2513.0901 1753.75 99.764603 1.8403113e-38
2515.6851 1764.39 95.830948 1.8403113e-38
2503.99 1777.015 91.576553 1.8403113e-38
2513.1399 1770.74 93.595596 1.8403113e-38
2519.8101 1727.6801 109.037 1.8403113e-38
2516.2649 1734.4351 106.68449 1.8403113e-38
2516.1465 1745.1832 102.78766 1.8403113e-38
-4678.7202 2284.1101 108.521 1.8403113e-38
