# .PCD v0.7 - Point Cloud Data file format
VERSION 0.7
FIELDS x y z rgb
SIZE 4 4 4 4
TYPE F F F F
COUNT 1 1 1 1
WIDTH 346
HEIGHT 1
VIEWPOINT 0 0 0 1 0 0 0
POINTS 346
DATA ascii
-2250.3999 2585.4399 -300.34399 1.8403113e-38
-2135.1499 2599.0901 -301.63 1.8403113e-38
-2013.49 2608.1599 -301.05301 1.8403113e-38
-1689.59 2635.77 -300.76401 1.8403113e-38
-1592.79 2643.28 -300.409 1.8403113e-38
-1510.26 2654.01 -301.67899 1.8403113e-38
-1427.21 2662.0701 -301.95901 1.8403113e-38
-1344.89 2670.2 -302.29001 1.8403113e-38
-1267.83 2677.26 -302.40201 1.8403113e-38
-1191.51 2684.47 -302.58701 1.8403113e-38
-1111.86 2688.3301 -301.457 1.8403113e-38
-1041.53 2694.8301 -301.577 1.8403113e-38
-972.62097 2699.55 -301.09601 1.8403113e-38
-915.77301 2708.0801 -302.38199 1.8403113e-38
-849.95398 2711.71 -301.608 1.8403113e-38
-783.93402 2715.26 -300.79599 1.8403113e-38
-727.77899 2720.1399 -300.77899 1.8403113e-38
-673.24902 2725.71 -301.065 1.8403113e-38
-623.83502 2731.29 -301.517 1.8403113e-38
-572.30499 2736.28 -301.69 1.8403113e-38
-520.33398 2739.3201 -301.13699 1.8403113e-38
-476.39801 2745.6499 -302.035 1.8403113e-38
-429.25101 2749.05 -301.76901 1.8403113e-38
-384.59201 2753.6599 -302.02301 1.8403113e-38
-341.315 2757.23 -301.94199 1.8403113e-38
-298.68301 2761.3101 -302.06601 1.8403113e-38
-257.43201 2764.4299 -301.884 1.8403113e-38
400.27802 2820.3799 -301.26199 1.8403113e-38
427.18701 2820.0701 -300.293 1.8403113e-38
-3935.51 2409.25 -290.03601 1.8403113e-38
-3741.73 2437.28 -294.039 1.8403113e-38
-3519.49 2456.8701 -294.07599 1.8403113e-38
-3339.6201 2480.1001 -296.78 1.8403113e-38
-3148.21 2497.0601 -296.84299 1.8403113e-38
-2971.4299 2514.76 -297.64099 1.8403113e-38
-2803.9199 2529.3201 -297.59601 1.8403113e-38
-2650.01 2544.99 -298.384 1.8403113e-38
-2502.4099 2557.6499 -298.28299 1.8403113e-38
-2376.21 2573.27 -299.93301 1.8403113e-38
-1888.75 2616.01 -299.931 1.8403113e-38
-1780.05 2624.01 -299.37799 1.8403113e-38
-206.959 2763.5901 -299.97501 1.8403113e-38
-166.869 2765.8501 -299.51999 1.8403113e-38
-126.527 2768.22 -299.09601 1.8403113e-38
-92.875298 2772.3201 -299.51501 1.8403113e-38
-52.766998 2773.5601 -298.689 1.8403113e-38
-19.307699 2776.6699 -298.75101 1.8403113e-38
14.4357 2779.9399 -298.86499 1.8403113e-38
46.837898 2782.5601 -298.78601 1.8403113e-38
80.385399 2784.8799 -298.56 1.8403113e-38
113.445 2786.1101 -297.95599 1.8403113e-38
145.05901 2788.4399 -297.79401 1.8403113e-38
169.39301 2793.6201 -298.89999 1.8403113e-38
202.521 2794.1299 -298.02899 1.8403113e-38
225.89101 2799.1001 -299.08899 1.8403113e-38
256.29199 2800.26 -298.54401 1.8403113e-38
281.20999 2803.54 -298.94 1.8403113e-38
312.229 2803.3701 -297.89499 1.8403113e-38
336.98099 2805.9399 -298.039 1.8403113e-38
475.83499 2804.72 -293.181 1.8403113e-38
499.19901 2805.78 -292.823 1.8403113e-38
356.33499 2812.45 -299.78201 1.8403113e-38
382.59399 2813.3201 -299.26401 1.8403113e-38
517.36902 2811.02 -294.146 1.8403113e-38
539.81201 2812.1001 -293.823 1.8403113e-38
564.104 2812.1599 -293.073 1.8403113e-38
587.13202 2812.05 -292.29999 1.8403113e-38
604.34399 2816.8701 -293.50201 1.8403113e-38
645.84003 2819.3501 -293.08099 1.8403113e-38
667.76703 2818.75 -292.16599 1.8403113e-38
689.97601 2818.27 -291.28799 1.8403113e-38
621.15198 2821.0601 -294.487 1.8403113e-38
706.55298 2821.53 -291.94 1.8403113e-38
724.94501 2823.71 -292.146 1.8403113e-38
747.21899 2821.4099 -290.60599 1.8403113e-38
763.31403 2825.0601 -291.41599 1.8403113e-38
778.992 2828.1399 -292.034 1.8403113e-38
815.534 2829.46 -291.353 1.8403113e-38
795.73798 2830.75 -292.44901 1.8403113e-38
831.47198 2832.3201 -291.884 1.8403113e-38
847.66699 2833.97 -291.966 1.8403113e-38
880.97198 2836.3601 -291.77301 1.8403113e-38
900.72498 2834.3 -290.39899 1.8403113e-38
932.95099 2836.1699 -290.05399 1.8403113e-38
912.06097 2840.0701 -292.13 1.8403113e-38
941.034 2845.21 -293.073 1.8403113e-38
958.54999 2844.47 -292.24899 1.8403113e-38
973.68201 2845.3799 -292.09799 1.8403113e-38
989.784 2845.7 -291.70099 1.8403113e-38
1002.33 2849.2 -292.57001 1.8403113e-38
1033.85 2848.6699 -291.37799 1.8403113e-38
1047.3101 2851.28 -291.89401 1.8403113e-38
1062.71 2850.4399 -291.103 1.8403113e-38
1076.6801 2851.99 -291.21799 1.8403113e-38
1116.4301 2856.74 -291.67599 1.8403113e-38
1132.47 2854.5901 -290.388 1.8403113e-38
1171.7 2857.6299 -290.242 1.8403113e-38
1247.01 2864.3899 -290.302 1.8403113e-38
1270.89 2867.29 -290.59399 1.8403113e-38
-4711.9199 2325.46 -284.33499 1.8403113e-38
-4439.9399 2355.72 -286.66 1.8403113e-38
-4176.6699 2384.54 -288.741 1.8403113e-38
870.30701 2829.6201 -289.67001 1.8403113e-38
1023.21 2843.27 -289.75699 1.8403113e-38
1093.09 2849.3 -289.72198 1.8403113e-38
1106.95 2850.52 -289.724 1.8403113e-38
1146.37 2854.3501 -289.85999 1.8403113e-38
1161.14 2853.4299 -289.05499 1.8403113e-38
1185.85 2857.2 -289.63901 1.8403113e-38
1198.49 2857.99 -289.52301 1.8403113e-38
1213.53 2855.6699 -288.203 1.8403113e-38
1237.47 2859.23 -288.73199 1.8403113e-38
1223.04 2861.03 -289.84299 1.8403113e-38
1260.85 2863.1399 -289.40701 1.8403113e-38
1285.09 2864.95 -289.29199 1.8403113e-38
1298.34 2863.0801 -288.194 1.8403113e-38
1311.46 2862.1101 -287.423 1.8403113e-38
1321.46 2865.8401 -288.45901 1.8403113e-38
1336.23 2861.25 -286.32501 1.8403113e-38
1345.35 2866.47 -287.927 1.8403113e-38
1359.11 2863.3 -286.34 1.8403113e-38
1405.73 2863.52 -284.93799 1.8403113e-38
1414.54 2869.0601 -286.66901 1.8403113e-38
1427.14 2866.8799 -285.47501 1.8403113e-38
1437.09 2869.6399 -286.16199 1.8403113e-38
1367.45 2870.05 -288.522 1.8403113e-38
1378.6801 2871.77 -288.79001 1.8403113e-38
1389.11 2874.0801 -289.297 1.8403113e-38
1447.8199 2871.6001 -286.53201 1.8403113e-38
1458.83 2871.5601 -286.168 1.8403113e-38
1467.85 2877.74 -288.11899 1.8403113e-38
1479.5 2875.75 -287.02701 1.8403113e-38
1492.14 2872 -285.26801 1.8403113e-38
1502.08 2874.23 -285.76099 1.8403113e-38
1513.04 2874.72 -285.58899 1.8403113e-38
1533.64 2877.98 -286.11401 1.8403113e-38
1544.15 2878.0601 -285.811 1.8403113e-38
1555.86 2875.46 -284.49701 1.8403113e-38
1566.29 2875.3601 -284.12601 1.8403113e-38
1576.85 2876.1699 -284.086 1.8403113e-38
1586.51 2878.6101 -284.66299 1.8403113e-38
1628.05 2879.52 -283.67099 1.8403113e-38
1521.8 2880.3601 -287.354 1.8403113e-38
1595.88 2883.8 -286.24799 1.8403113e-38
1605.6 2886.0901 -286.76801 1.8403113e-38
1616.85 2883.8201 -285.586 1.8403113e-38
1637.9301 2882.55 -284.45499 1.8403113e-38
1647.83 2883.5701 -284.513 1.8403113e-38
1657.77 2886.4399 -285.237 1.8403113e-38
1667.5 2888.23 -285.57599 1.8403113e-38
1718.71 2888.73 -284.129 1.8403113e-38
1749.05 2886.8401 -282.479 1.8403113e-38
1759.58 2884.2 -281.18701 1.8403113e-38
1768.92 2888.9099 -282.59799 1.8403113e-38
1788.9 2889.72 -282.25601 1.8403113e-38
1799.26 2887.6699 -281.18399 1.8403113e-38
1828.91 2888.47 -280.53201 1.8403113e-38
1677.5 2890.9399 -286.23999 1.8403113e-38
1687.4301 2891.6399 -286.17899 1.8403113e-38
1698.08 2890.47 -285.41699 1.8403113e-38
1707.5601 2893.8 -286.32001 1.8403113e-38
1728.08 2892.8201 -285.315 1.8403113e-38
1738.75 2890.3701 -284.086 1.8403113e-38
1778.59 2895.46 -284.66501 1.8403113e-38
1808.54 2895.8301 -283.84601 1.8403113e-38
1819.04 2890.79 -281.68799 1.8403113e-38
1838.96 2891.72 -281.38901 1.8403113e-38
1848.58 2898.6299 -283.58899 1.8403113e-38
1858.89 2893.25 -281.31299 1.8403113e-38
1868.65 2896.25 -282.08801 1.8403113e-38
1878.84 2893.52 -280.776 1.8403113e-38
1908.79 2899.8899 -282.13501 1.8403113e-38
1888.71 2900.1201 -282.853 1.8403113e-38
1898.98 2900.98 -282.841 1.8403113e-38
1919.3101 2906.23 -284.09799 1.8403113e-38
1929.24 2906.8601 -284.01001 1.8403113e-38
1939.54 2906.45 -283.534 1.8403113e-38
1959.72 2905.3899 -282.51001 1.8403113e-38
1969.92 2908.51 -283.314 1.8403113e-38
1980.05 2905.8799 -282.04001 1.8403113e-38
1990.4301 2909.76 -283.117 1.8403113e-38
2000.09 2903.23 -280.44 1.8403113e-38
2010.88 2909.74 -282.45999 1.8403113e-38
2020.95 2906.78 -281.06601 1.8403113e-38
1949.89 2912.55 -285.41501 1.8403113e-38
2032.58 2917.78 -284.68301 1.8403113e-38
2042.11 2910.9099 -281.89099 1.8403113e-38
2053.3999 2917.99 -284.09799 1.8403113e-38
2084.29 2914.3701 -281.80399 1.8403113e-38
2116.71 2919.28 -282.55499 1.8403113e-38
2064.6001 2921.1899 -284.901 1.8403113e-38
2075.1001 2922.49 -285.04001 1.8403113e-38
2095.9099 2921.0601 -283.85999 1.8403113e-38
2106.52 2920.1799 -283.203 1.8403113e-38
2128.1699 2921.9099 -283.142 1.8403113e-38
2138.8301 2922.6699 -283.08099 1.8403113e-38
2149.25 2920.51 -281.96399 1.8403113e-38
2161.3799 2926.5901 -283.78299 1.8403113e-38
2173.0701 2928.8 -284.21301 1.8403113e-38
2194.6399 2927.55 -283.07501 1.8403113e-38
2227.4199 2926.8401 -281.776 1.8403113e-38
2250.6201 2929.1499 -281.87399 1.8403113e-38
2185.6799 2935.5701 -286.26501 1.8403113e-38
2206.8601 2932.29 -284.40302 1.8403113e-38
2218.2 2932.27 -284.035 1.8403113e-38
2240.55 2932.04 -283.24301 1.8403113e-38
2263.9199 2934.1101 -283.25 1.8403113e-38
2274.6499 2932.8101 -282.439 1.8403113e-38
2288.1299 2937.53 -283.71899 1.8403113e-38
2311.54 2937.8301 -283.086 1.8403113e-38
2323.4299 2938.78 -283.052 1.8403113e-38
2335.8 2939.47 -282.90799 1.8403113e-38
2304 2949.3501 -287.50101 1.8403113e-38
2351.1201 2948.0801 -285.54401 1.8403113e-38
2360.24 2940.6499 -282.55801 1.8403113e-38
2373.0901 2942.8799 -282.961 1.8403113e-38
2387.6299 2947.4299 -284.14801 1.8403113e-38
2399.8401 2947.6799 -283.849 1.8403113e-38
2411.7 2945.9099 -282.83099 1.8403113e-38
2422.3 2942.5 -281.25699 1.8403113e-38
2438.8501 2949.9199 -283.422 1.8403113e-38
2449.9399 2947.1399 -282.06 1.8403113e-38
2489.47 2947.8799 -281.073 1.8403113e-38
2464.98 2950.8401 -282.92401 1.8403113e-38
2478.8 2952.8899 -283.229 1.8403113e-38
2504.3101 2951.3501 -281.85901 1.8403113e-38
2519.23 2953.6201 -282.207 1.8403113e-38
2532.8301 2954.29 -282.017 1.8403113e-38
2547.8999 2956.25 -282.24799 1.8403113e-38
2605.05 2958.0801 -281.09601 1.8403113e-38
2567.1001 2965.6599 -285.05099 1.8403113e-38
2578.8799 2961.54 -283.18301 1.8403113e-38
2593.79 2963.25 -283.327 1.8403113e-38
2623.22 2964.3201 -282.78299 1.8403113e-38
-4977.0698 2288.0601 -279.20499 1.8403113e-38
2620.6201 2938.1001 -273.35699 1.8403113e-38
2830.29 2948.1499 -270.33401 1.8403113e-38
2856.0601 2957.8 -273.01599 1.8403113e-38
2609.5901 2901.1101 -260.298 1.8403113e-38
2865.8799 2929.3999 -262.40601 1.8403113e-38
2862.45 2945.5901 -268.384 1.8403113e-38
2619.98 2875.6799 -250.745 1.8403113e-38
2617 2891.05 -256.41101 1.8403113e-38
2777.95 2905.1001 -256.39001 1.8403113e-38
2866.71 2911.4199 -255.862 1.8403113e-38
2706.3301 2855.5 -240.68201 1.8403113e-38
2732.79 2869.8301 -245.03799 1.8403113e-38
2862.02 2868.96 -240.61501 1.8403113e-38
2863.0801 2888.1899 -247.552 1.8403113e-38
2611.3101 2843.6599 -239.412 1.8403113e-38
2625.6699 2844.79 -239.36301 1.8403113e-38
2666.98 2842.8601 -237.351 1.8403113e-38
2686.97 2850.1899 -239.375 1.8403113e-38
2863.76 2852.3101 -234.521 1.8403113e-38
2870.28 2823.6399 -223.91901 1.8403113e-38
2860.1299 2831.1599 -226.96899 1.8403113e-38
-5381.2998 2076.5701 -215.37399 1.8403113e-38
2581.5701 2766.6299 -212.42799 1.8403113e-38
2866.96 2786.22 -210.45799 1.8403113e-38
2866.1399 2802.6499 -216.44 1.8403113e-38
2588.9299 2759.45 -209.591 1.8403113e-38
2870.7 2773.5701 -205.75 1.8403113e-38
2849.0601 2736.51 -193.004 1.8403113e-38
2873.76 2743.96 -194.92 1.8403113e-38
2867.29 2706.73 -181.62601 1.8403113e-38
2866.49 2721.1799 -186.88901 1.8403113e-38
2872.3301 2680.8501 -172.082 1.8403113e-38
2872.6299 2695.8701 -177.51801 1.8403113e-38
-4681.9302 1998.85 -164.961 1.8403113e-38
2875.22 2653.8201 -162.187 1.8403113e-38
2873.6499 2666.8301 -166.95599 1.8403113e-38
2876.6499 2626.3301 -152.175 1.8403113e-38
2874.6599 2638.6399 -156.701 1.8403113e-38
2876.5901 2598.4399 -142.064 1.8403113e-38
2875.71 2611.27 -146.746 1.8403113e-38
-4521.1699 1940.78 -138.795 1.8403113e-38
2878.1599 2572.55 -132.63 1.8403113e-38
2876.8201 2584.71 -137.08 1.8403113e-38
2879.0801 2546.8501 -123.282 1.8403113e-38
2878.05 2558.9299 -127.693 1.8403113e-38
-4509.6499 1889.22 -119.734 1.8403113e-38
2885.01 2525.29 -115.275 1.8403113e-38
2878.6399 2533.3301 -118.394 1.8403113e-38
-4646.6201 1836.11 -104.833 1.8403113e-38
-2079.22 2057.23 -103.385 1.8403113e-38
2882 2485.47 -100.935 1.8403113e-38
2876.95 2506.8201 -108.836 1.8403113e-38
2885.53 2500.4399 -106.25 1.8403113e-38
-2058.77 2022.89 -90.283699 1.8403113e-38
2879.0701 2459.3899 -91.570503 1.8403113e-38
2882.97 2474.1799 -96.8078 1.8403113e-38
-4652.1401 1783.67 -85.995796 1.8403113e-38
2878.8501 2435.6699 -82.975098 1.8403113e-38
2880.5901 2448.72 -87.653503 1.8403113e-38
-2076.8201 1991.96 -79.643402 1.8403113e-38
2880.77 2402.6001 -70.925697 1.8403113e-38
2883.1699 2415.1499 -75.400101 1.8403113e-38
2884.3401 2427.6101 -79.881203 1.8403113e-38
-4698.1699 1728.38 -67.411697 1.8403113e-38
2885.23 2382.7 -63.569401 1.8403113e-38
2886.1699 2394.1899 -67.704201 1.8403113e-38
2885.51 2349.74 -51.609501 1.8403113e-38
2882.4551 2364.5249 -57.067848 1.8403113e-38
-4745.7002 1674.53 -49.397301 1.8403113e-38
2887.1299 2318.8 -40.340401 1.8403113e-38
2887.0601 2329.1201 -44.084 1.8403113e-38
2884.04 2338.46 -47.564602 1.8403113e-38
2888.8999 2298.78 -33.022598 1.8403113e-38
2888.1599 2308.6101 -36.610901 1.8403113e-38
2881.76 2264.71 -20.898001 1.8403113e-38
2887.53 2277.6101 -25.391001 1.8403113e-38
2889.72 2288.6201 -29.3155 1.8403113e-38
2841.02 2237.28 -12.2472 1.8403113e-38
-3758.3799 1648.74 -8.6588202 1.8403113e-38
-4823.1699 1506.72 8.9837799 1.8403113e-38
-3435.4399 1615.75 13.5691 1.8403113e-38
2479.6699 2074.7 35.213001 1.8403113e-38
2403.0801 2031.99 48.261902 1.8403113e-38
2419.45 2044 44.427799 1.8403113e-38
2384.8999 2005.2433 57.383533 1.8403113e-38
2385.51 2015.09 53.834202 1.8403113e-38
2398.48 2025.1899 50.5826 1.8403113e-38
-5335.8701 1306.13 65.414101 1.8403113e-38
2378.2349 1977.17 67.350647 1.8403113e-38
2378.6099 1986.5149 63.973602 1.8403113e-38
2381.02 1994.29 61.230598 1.8403113e-38
-1268.25 1646.6801 71.2537 1.8403113e-38
2356.27 1942.1899 79.334702 1.8403113e-38
2366.7 1949.3 77.087898 1.8403113e-38
2364.905 1955.3049 74.854149 1.8403113e-38
2369.74 1963.26 72.125198 1.8403113e-38
2375.0801 1969.41 70.061897 1.8403113e-38
-5330.4302 1245.88 87.431602 1.8403113e-38
-1272.8 1620.01 80.779404 1.8403113e-38
2355.325 1914.855 89.215897 1.8403113e-38
2362.8198 1924.76 85.8638 1.8403113e-38
2359.28 1938.79 80.662201 1.8403113e-38
2367.1899 1932.16 83.318604 1.8403113e-38
2373.95 1937.98 81.4235 1.8403113e-38
2364.8833 1893.8568 97.134064 1.8403113e-38
2361.4333 1905.6768 92.737396 1.8403113e-38
-1055.95 1561.6899 108.818 1.8403113e-38
2358.6133 1864.5333 107.56634 1.8403113e-38
2356.05 1874.33 103.933 1.8403113e-38
2359.21 1884.79 100.241 1.8403113e-38
2365.7 1881.65 101.585 1.8403113e-38
