# .PCD v0.7 - Point Cloud Data file format
VERSION 0.7
FIELDS x y z rgb
SIZE 4 4 4 4
TYPE F F F F
COUNT 1 1 1 1
WIDTH 357
HEIGHT 1
VIEWPOINT 0 0 0 1 0 0 0
POINTS 357
DATA ascii
-1990.75 2103.1599 -280.39099 1.8403113e-38
-1911.09 2136.51 -280.38699 1.8403113e-38
-1832.55 2177.02 -282.94 1.8403113e-38
-1750.33 2208.0701 -281.79999 1.8403113e-38
-1672.0601 2245.6599 -283.414 1.8403113e-38
-1604.1899 2273.3201 -283.15302 1.8403113e-38
-1536.2 2307.6799 -285.12701 1.8403113e-38
-1468.88 2333.1899 -284.22601 1.8403113e-38
-1406.27 2364.95 -286.082 1.8403113e-38
-1335.59 2388.5 -284.04901 1.8403113e-38
-1280.42 2417.8301 -286.13699 1.8403113e-38
-1225.25 2439.1899 -285.548 1.8403113e-38
-1157.75 2466.5701 -285.246 1.8403113e-38
-1106.25 2486.1799 -284.58801 1.8403113e-38
-1043.33 2511.4099 -284.20999 1.8403113e-38
-995.52698 2529.47 -283.55099 1.8403113e-38
-953.03699 2553.3401 -285.59 1.8403113e-38
-900.06598 2569.79 -283.66199 1.8403113e-38
-852.33197 2591.8401 -284.35001 1.8403113e-38
-811.01202 2607.3999 -283.76501 1.8403113e-38
-765.96802 2628.05 -284.362 1.8403113e-38
-724.47498 2642.3501 -283.328 1.8403113e-38
-686.078 2662.0601 -284.54401 1.8403113e-38
-649.34698 2675.5901 -283.92099 1.8403113e-38
-602.88702 2693.2 -283.298 1.8403113e-38
-582.67401 2707.3899 -285.21899 1.8403113e-38
-534.08002 2723.4099 -283.76501 1.8403113e-38
-505.89899 2735.8301 -283.97198 1.8403113e-38
-473.74899 2752.6399 -285.09201 1.8403113e-38
-435.71399 2762.8101 -283.159 1.8403113e-38
-405.35599 2778.78 -284.25 1.8403113e-38
-375.991 2789.29 -283.64899 1.8403113e-38
-345.48401 2804.25 -284.38199 1.8403113e-38
-315.077 2813.73 -283.28799 1.8403113e-38
-286.37701 2828.04 -284.05701 1.8403113e-38
-256.88101 2836.8401 -282.862 1.8403113e-38
-228.073 2850.2 -283.29599 1.8403113e-38
-206.202 2859.79 -283.43799 1.8403113e-38
-167.744 2870.1201 -281.50101 1.8403113e-38
-145.826 2878.98 -281.39099 1.8403113e-38
-124.466 2892.3301 -282.86899 1.8403113e-38
-102.484 2900.5801 -282.54599 1.8403113e-38
-72.501099 2911.03 -281.83899 1.8403113e-38
-58.974602 2920.8799 -283.245 1.8403113e-38
-35.517601 2932.3501 -283.79599 1.8403113e-38
-14.3957 2939.6399 -283.272 1.8403113e-38
9.1277304 2950.3799 -283.57101 1.8403113e-38
36.789799 2955.0701 -281.25601 1.8403113e-38
60.336399 2965.03 -281.289 1.8403113e-38
81.465797 2971.0801 -280.345 1.8403113e-38
95.822098 2983.4099 -282.46799 1.8403113e-38
109.616 2991.46 -283.228 1.8403113e-38
133.265 3000.1399 -282.81799 1.8403113e-38
155.321 3004.78 -281.272 1.8403113e-38
178.049 3013.0701 -280.862 1.8403113e-38
191.91 3020.23 -281.314 1.8403113e-38
214.65401 3027.8999 -280.69199 1.8403113e-38
227.64799 3035.01 -281.25 1.8403113e-38
245.033 3044.3 -281.92499 1.8403113e-38
266.09299 3047.6499 -280.08899 1.8403113e-38
279.06799 3058.3301 -281.85001 1.8403113e-38
284.19101 3068.25 -284.45901 1.8403113e-38
299.07401 3077.8601 -285.591 1.8403113e-38
316.59399 3081.9199 -284.492 1.8403113e-38
341.97501 3086.0901 -282.32199 1.8403113e-38
349.89301 3094.3 -283.96399 1.8403113e-38
358.83301 3106.04 -286.64801 1.8403113e-38
370.30801 3112.3401 -287.14801 1.8403113e-38
398.181 3114.04 -283.802 1.8403113e-38
408.79401 3120.4099 -284.44699 1.8403113e-38
436.51801 3121.3999 -280.88199 1.8403113e-38
442.078 3130.22 -283.05801 1.8403113e-38
476.117 3138.6399 -281.10001 1.8403113e-38
520.16699 3155.73 -280.642 1.8403113e-38
545.91199 3167.1399 -280.85101 1.8403113e-38
671.04199 3217.6699 -280.21899 1.8403113e-38
693.841 3227.78 -280.40601 1.8403113e-38
704.55701 3231.1599 -280.035 1.8403113e-38
783.89001 3264.3701 -280.02499 1.8403113e-38
855.90601 3294.8799 -280.14001 1.8403113e-38
896.63397 3311.95 -280.14499 1.8403113e-38
908.31702 3316.54 -280.043 1.8403113e-38
947.46399 3333.72 -280.30301 1.8403113e-38
973.93201 3347.1899 -281.10501 1.8403113e-38
1023.73 3367.3999 -280.88501 1.8403113e-38
1031 3372.0901 -281.436 1.8403113e-38
1042.85 3375.1299 -280.79199 1.8403113e-38
1087.24 3396.24 -281.63599 1.8403113e-38
1108.02 3400.3601 -280.09601 1.8403113e-38
1117.6 3406.6399 -280.85901 1.8403113e-38
1125.59 3409.8401 -280.81 1.8403113e-38
1181.64 3431.48 -280.19 1.8403113e-38
-2473.23 1877.29 -272.41599 1.8403113e-38
-2390.5 1928 -277.80399 1.8403113e-38
-2288.5701 1969.84 -277.51599 1.8403113e-38
468.832 3131.02 -279.56601 1.8403113e-38
497.772 3141.74 -279.09299 1.8403113e-38
509.21899 3146.6499 -279.13199 1.8403113e-38
538.953 3155.8 -278.02399 1.8403113e-38
560.60797 3169.4199 -279.55099 1.8403113e-38
575.66803 3175.26 -279.392 1.8403113e-38
587.92902 3178.79 -278.85501 1.8403113e-38
602.19397 3184.79 -278.86301 1.8403113e-38
614.43597 3188.03 -278.229 1.8403113e-38
628.698 3193.6699 -278.117 1.8403113e-38
641.68402 3196.05 -277.09 1.8403113e-38
651.34601 3204.76 -278.65399 1.8403113e-38
662.034 3208.6001 -278.439 1.8403113e-38
690.73102 3214.21 -276.28699 1.8403113e-38
721.78497 3233.1001 -278.26199 1.8403113e-38
732.46198 3236.21 -277.80399 1.8403113e-38
743.125 3243.3401 -278.69699 1.8403113e-38
755.229 3244.96 -277.54099 1.8403113e-38
764.52399 3253.1101 -278.96899 1.8403113e-38
772.39502 3258.3301 -279.616 1.8403113e-38
793.88202 3267.47 -279.66199 1.8403113e-38
805.41302 3273.25 -279.98199 1.8403113e-38
817.43103 3274.1499 -278.59399 1.8403113e-38
829.638 3279 -278.50201 1.8403113e-38
844.72949 3284.98 -278.38849 1.8403113e-38
872.03601 3295.0801 -277.93799 1.8403113e-38
877.52002 3302.22 -279.56601 1.8403113e-38
890.42401 3305.6201 -278.89301 1.8403113e-38
917.05902 3319.8701 -279.93201 1.8403113e-38
929.96503 3322.77 -279.09 1.8403113e-38
936.91803 3328.1201 -279.905 1.8403113e-38
957.40802 3335.22 -279.41101 1.8403113e-38
973.159 3333.8799 -276.74301 1.8403113e-38
994.58997 3346.1401 -277.84601 1.8403113e-38
1006.87 3356.25 -279.51199 1.8403113e-38
1017.3 3356.4199 -278.103 1.8403113e-38
1052.72 3375.73 -279.604 1.8403113e-38
1064.54 3378.53 -278.88199 1.8403113e-38
1071.88 3382.9199 -279.32599 1.8403113e-38
1083.7 3385.51 -278.53201 1.8403113e-38
1100.55 3396.21 -279.754 1.8403113e-38
1137.92 3411 -279.46201 1.8403113e-38
1146.79 3412.3799 -278.67801 1.8403113e-38
1159.0699 3413.29 -277.25699 1.8403113e-38
1167.48 3415.3301 -276.76199 1.8403113e-38
1179.29 3416.8501 -275.612 1.8403113e-38
1193.15 3433.6899 -279.315 1.8403113e-38
1201.27 3436.3301 -279.06 1.8403113e-38
1214.66 3434.04 -276.40601 1.8403113e-38
1224.6 3432.2 -274.39001 1.8403113e-38
1232.38 3442.6299 -276.798 1.8403113e-38
1240.52 3444.98 -276.44199 1.8403113e-38
1252 3446.5701 -275.36301 1.8403113e-38
1256.75 3457.54 -278.37601 1.8403113e-38
1269.62 3455.4399 -275.86301 1.8403113e-38
1277.16 3459.28 -276.09 1.8403113e-38
1298.72 3457.0901 -272.32401 1.8403113e-38
1288.36 3461.3799 -275.21899 1.8403113e-38
1308.66 3462.54 -272.754 1.8403113e-38
1312.51 3477.73 -277.314 1.8403113e-38
1323.26 3481.27 -276.991 1.8403113e-38
1331.58 3482.95 -276.384 1.8403113e-38
1342.11 3487.21 -276.33401 1.8403113e-38
1352.25 3482.4199 -273.29901 1.8403113e-38
1363.27 3484.6699 -272.50601 1.8403113e-38
1369.41 3494.24 -274.854 1.8403113e-38
1379.85 3499.0701 -275.008 1.8403113e-38
1386.6801 3506.73 -276.62 1.8403113e-38
1397.26 3511.4099 -276.70099 1.8403113e-38
1404.9 3516.22 -277.242 1.8403113e-38
1416.99 3514.29 -274.89301 1.8403113e-38
1424.13 3521.74 -276.392 1.8403113e-38
1434.38 3528.8501 -277.33701 1.8403113e-38
1443.28 3527.8701 -275.75699 1.8403113e-38
1454.3199 3531.1101 -275.29001 1.8403113e-38
1462.5601 3533.6899 -275 1.8403113e-38
1473.67 3536.75 -274.46301 1.8403113e-38
1481.13 3544.8 -276.116 1.8403113e-38
1492.49 3546.75 -275.173 1.8403113e-38
1500.15 3554.6899 -276.76199 1.8403113e-38
1511.61 3556.46 -275.746 1.8403113e-38
1532.03 3555.54 -272.564 1.8403113e-38
1519.45 3564.28 -277.26901 1.8403113e-38
1539.46 3568.8799 -275.996 1.8403113e-38
1555.38 3570.77 -274.39252 1.8403113e-38
1571.0699 3576.24 -274.02301 1.8403113e-38
1579.16 3588.4099 -276.97101 1.8403113e-38
1595.145 3594.5149 -276.77249 1.8403113e-38
1611.5 3590.97 -273.28201 1.8403113e-38
1620.13 3600.99 -275.43301 1.8403113e-38
1632.01 3602.5801 -274.297 1.8403113e-38
1640.89 3603.9399 -273.50201 1.8403113e-38
1652.89 3612.9199 -274.83099 1.8403113e-38
1661.88 3615.0801 -274.29001 1.8403113e-38
1674.05 3621.02 -274.573 1.8403113e-38
1683.34 3628.72 -275.85199 1.8403113e-38
1695.53 3629.72 -274.474 1.8403113e-38
1705.0699 3638.22 -275.98499 1.8403113e-38
1717.86 3646.6001 -277.00201 1.8403113e-38
1748.72 3647.5901 -272.995 1.8403113e-38
1727.6801 3654.95 -278.42099 1.8403113e-38
1740.15 3655.53 -276.86301 1.8403113e-38
1762.5699 3662.1899 -275.94601 1.8403113e-38
1772.8101 3670.2 -277.19699 1.8403113e-38
1786.36 3677.9299 -277.88501 1.8403113e-38
1795.78 3677.25 -276.33499 1.8403113e-38
1808.5 3677.1899 -274.52399 1.8403113e-38
1820.11 3691.47 -277.685 1.8403113e-38
1833.14 3692.1201 -276.07199 1.8403113e-38
1843.74 3697.72 -276.45999 1.8403113e-38
1856.52 3696.26 -274.173 1.8403113e-38
1867.6 3703.5601 -275.064 1.8403113e-38
1880.62 3702.8101 -272.983 1.8403113e-38
1891.9 3709.9199 -273.78201 1.8403113e-38
1906.78 3717.3701 -274.19299 1.8403113e-38
1918.73 3726.1499 -275.457 1.8403113e-38
1933.0601 3729.5901 -274.59601 1.8403113e-38
1944.84 3736.28 -275.186 1.8403113e-38
1960.0699 3742.25 -275.048 1.8403113e-38
1971.85 3747.79 -275.25299 1.8403113e-38
1987.34 3753.47 -274.983 1.8403113e-38
1999.33 3758.8 -275.08401 1.8403113e-38
2015.6 3766.04 -275.228 1.8403113e-38
2027.54 3770.21 -274.95001 1.8403113e-38
2043.53 3775.3101 -274.41101 1.8403113e-38
2056.52 3782.01 -274.836 1.8403113e-38
2075.1599 3794.1299 -276.28 1.8403113e-38
2085.6899 3792.3401 -274.19901 1.8403113e-38
2101.8701 3795.8999 -273.11801 1.8403113e-38
2115.3201 3802.1001 -273.30899 1.8403113e-38
2135.3799 3815.3201 -274.927 1.8403113e-38
2148.79 3820.3401 -274.72501 1.8403113e-38
2165.8401 3824.1299 -273.599 1.8403113e-38
2180.1699 3830.6799 -273.784 1.8403113e-38
2198.1899 3835.9199 -273.01001 1.8403113e-38
2215.01 3847.5601 -274.55099 1.8403113e-38
2232.98 3851.52 -273.353 1.8403113e-38
2249.3999 3861.04 -274.23901 1.8403113e-38
2267.26 3863.73 -272.63199 1.8403113e-38
2281.1799 3866.74 -271.68301 1.8403113e-38
2303.76 3878.75 -272.54001 1.8403113e-38
2338.8 3888.6201 -270.927 1.8403113e-38
2322.1101 3890.22 -273.811 1.8403113e-38
2358.8 3902.3401 -272.72 1.8403113e-38
2377.8999 3904.6899 -270.82501 1.8403113e-38
2396.0801 3913.6799 -271.284 1.8403113e-38
2435.3201 3926.79 -270.16599 1.8403113e-38
2478.5801 3944.99 -270.19199 1.8403113e-38
2414.51 3913.8899 -268.76401 1.8403113e-38
2457.3201 3932.54 -269.005 1.8403113e-38
2500.48 3949.3799 -268.58701 1.8403113e-38
2521.1799 3959.6799 -269.133 1.8403113e-38
2561.4399 3968.3999 -266.39999 1.8403113e-38
2547.46 3970.26 -268.98999 1.8403113e-38
-1817.33 2087.23 -250.658 1.8403113e-38
2567.3501 3945.24 -257.79501 1.8403113e-38
-2792.5 1649.1899 -240.739 1.8403113e-38
-1851.02 2058.5 -245.74899 1.8403113e-38
2566.49 3920.0601 -249.464 1.8403113e-38
-2176.3601 1892.09 -235.638 1.8403113e-38
2565.73 3865.4099 -231.22301 1.8403113e-38
2564.6899 3886.3101 -238.38499 1.8403113e-38
2565.1001 3835.1499 -221.15401 1.8403113e-38
-2690.76 1625.55 -218.495 1.8403113e-38
-2306.47 1767.33 -212.049 1.8403113e-38
-2033.16 1877.98 -210.76199 1.8403113e-38
2565.49 3814.3899 -214.129 1.8403113e-38
-2620.01 1608.04 -202.668 1.8403113e-38
-2030.6801 1851.75 -201.608 1.8403113e-38
2567.3201 3789.1799 -205.407 1.8403113e-38
2575.6399 3753.8201 -192.368 1.8403113e-38
2569.3601 3771.74 -199.267 1.8403113e-38
-2752.3 1505.88 -186.97501 1.8403113e-38
-2566.8601 1577.35 -184.89 1.8403113e-38
2566.71 3722.1899 -183.006 1.8403113e-38
2579.3899 3713.8201 -178.41299 1.8403113e-38
-2815.27 1414.99 -165.32001 1.8403113e-38
-2652.54 1485.16 -165.993 1.8403113e-38
2555.3899 3663.6799 -164.955 1.8403113e-38
-2817.6899 1370 -150.556 1.8403113e-38
2637.98 3660.3601 -152.22501 1.8403113e-38
2545.0601 3586.9299 -140.64 1.8403113e-38
2531.25 3591.9399 -144.265 1.8403113e-38
2563.48 3593.01 -140.091 1.8403113e-38
2528.1699 3604.8999 -149.049 1.8403113e-38
2660.1699 3645.9099 -144.256 1.8403113e-38
2649.5 3656.6001 -149.342 1.8403113e-38
2637.1499 3602.5801 -132.94501 1.8403113e-38
-2573.3301 1398.5 -125.76 1.8403113e-38
-2429.6001 1393.99 -104.034 1.8403113e-38
2450.51 3371.6499 -81.668198 1.8403113e-38
2686.8701 3474.6499 -83.009102 1.8403113e-38
2475.03 3355.2 -72.698502 1.8403113e-38
2458.6299 3367.6001 -79.166496 1.8403113e-38
2471.01 3363.76 -76.134697 1.8403113e-38
2638.23 3441.55 -78.735397 1.8403113e-38
2700.5 3468.45 -79.007301 1.8403113e-38
2712.3101 3465.23 -76.2686 1.8403113e-38
2734.6699 3466.77 -73.637703 1.8403113e-38
2499.26 3334.01 -62.1772 1.8403113e-38
2509.9399 3332.3301 -60.111599 1.8403113e-38
2483.24 3346.8501 -68.739799 1.8403113e-38
2491.8899 3343.22 -66.306198 1.8403113e-38
2725.9299 3426.04 -61.194801 1.8403113e-38
2731.79 3449.9299 -68.391296 1.8403113e-38
2765.97 3447.3201 -62.709801 1.8403113e-38
2837.55 3475.3 -62.034901 1.8403113e-38
-2149.5801 1371.9399 -57.253201 1.8403113e-38
2834.0801 3438.9199 -50.310902 1.8403113e-38
2787 3446.6399 -59.5214 1.8403113e-38
2842.1499 3459.8 -56.182999 1.8403113e-38
-2060.1899 1359.92 -40.644798 1.8403113e-38
2836.6799 3422.28 -44.3591 1.8403113e-38
-1323.3 1662.62 -38.638 1.8403113e-38
2839.6699 3392.52 -33.946098 1.8403113e-38
2837.48 3409.0901 -39.817101 1.8403113e-38
-1877.8199 1387.38 -24.2173 1.8403113e-38
-1322.83 1632.75 -28.5443 1.8403113e-38
2841.1399 3362.3 -23.5966 1.8403113e-38
2839.3501 3378.79 -29.381201 1.8403113e-38
2841.0601 3331.6899 -13.332 1.8403113e-38
2832.47 3342.76 -18.253799 1.8403113e-38
-1718.35 1401.5601 -6.5542402 1.8403113e-38
2833.6899 3296.75 -2.6381099 1.8403113e-38
2840.8999 3318.75 -9.0081701 1.8403113e-38
-1596.97 1414.91 6.0341902 1.8403113e-38
2841.1599 3272.8601 6.4325299 1.8403113e-38
2833.1899 3283.95 1.58705 1.8403113e-38
2840.5701 3244.04 16.0245 1.8403113e-38
2839.55 3259.5601 10.6729 1.8403113e-38
-1440.8 1409.34 29.865499 1.8403113e-38
-1495.33 1415.2 20.2306 1.8403113e-38
2837.0901 3202.3799 29.5187 1.8403113e-38
2837.6101 3214.3899 25.5634 1.8403113e-38
2837.8201 3230.3201 20.2444 1.8403113e-38
2841.72 3178.24 38.275002 1.8403113e-38
2835.6599 3186.0601 34.798199 1.8403113e-38
-1431.9301 1355.73 49.110699 1.8403113e-38
-1440.42 1377.03 40.764099 1.8403113e-38
2840.6299 3151.1599 47.214401 1.8403113e-38
2840.8101 3162.5 43.430599 1.8403113e-38
2836.29 3122.8401 56.111301 1.8403113e-38
2838.49 3135.0601 52.318298 1.8403113e-38
-1211.6 1404.86 63.601799 1.8403113e-38
2839.0701 3084.6001 69.338699 1.8403113e-38
2839.25 3099.04 64.515701 1.8403113e-38
2834.6599 3107.3899 61.069 1.8403113e-38
-966.73999 1474.95 74.504799 1.8403113e-38
2843.01 3061.8301 77.537201 1.8403113e-38
2843.48 3076.22 72.773102 1.8403113e-38
-973.26599 1444.3 83.877197 1.8403113e-38
2837.8501 3024.7 89.277199 1.8403113e-38
2843.77 3037.79 85.714302 1.8403113e-38
2836.46 3048.1499 81.208702 1.8403113e-38
-965.16998 1426.34 91.044502 1.8403113e-38
2838.75 3001.3401 97.2444 1.8403113e-38
2843.1101 3013.46 93.790802 1.8403113e-38
-935.85101 1388.73 107.793 1.8403113e-38
-956.27698 1401.53 100.625 1.8403113e-38
2834.72 2962.97 109.559 1.8403113e-38
2839.1699 2978.0901 105.108 1.8403113e-38
2843.77 2990.0801 101.73 1.8403113e-38
