# .PCD v0.7 - Point Cloud Data file format
VERSION 0.7
FIELDS x y z rgb
SIZE 4 4 4 4
TYPE F F F F
COUNT 1 1 1 1
WIDTH 359
HEIGHT 1
VIEWPOINT 0 0 0 1 0 0 0
POINTS 359
DATA ascii
-1521.9301 1615.4 -284.57001 1.8403113e-38
-1470.16 1657.9399 -285.85501 1.8403113e-38
-1416.01 1700.1 -286.51599 1.8403113e-38
-1361.4 1741.3 -286.798 1.8403113e-38
-1315.9399 1779.04 -288.039 1.8403113e-38
-1263.35 1817.6801 -288.00299 1.8403113e-38
-1208.42 1855.86 -287.33099 1.8403113e-38
-1171.4 1888.79 -288.98499 1.8403113e-38
-1112.8 1925.86 -287.19501 1.8403113e-38
-1077.02 1956.88 -288.55801 1.8403113e-38
-1032.21 1989.09 -288.319 1.8403113e-38
-998.71198 2018.2 -289.61401 1.8403113e-38
-950.37097 2049.49 -288.34601 1.8403113e-38
-911.43402 2078.1899 -288.345 1.8403113e-38
-869.30103 2106.71 -287.60501 1.8403113e-38
-833.70801 2133.3799 -287.73401 1.8403113e-38
-785.19598 2161.4099 -285.47299 1.8403113e-38
-760.79901 2185.02 -287.121 1.8403113e-38
-718.61798 2210.6399 -285.51999 1.8403113e-38
-693.78101 2233.25 -286.78201 1.8403113e-38
-667.76398 2255.55 -287.698 1.8403113e-38
-625.90601 2279.1699 -285.58099 1.8403113e-38
-598.51202 2300.55 -285.92899 1.8403113e-38
-573.86902 2321.1699 -286.651 1.8403113e-38
-547.09003 2341.55 -286.84 1.8403113e-38
-512.30701 2362.0901 -285.34799 1.8403113e-38
-486.168 2381.4299 -285.36801 1.8403113e-38
-458.89001 2400.3799 -285.03101 1.8403113e-38
-434.396 2418.71 -285.11499 1.8403113e-38
-407.79599 2436.73 -284.64899 1.8403113e-38
-382.034 2454.26 -284.22299 1.8403113e-38
-371.79501 2470.9299 -286.897 1.8403113e-38
-336.957 2487.8999 -284.34698 1.8403113e-38
-319.604 2504.1001 -285.34698 1.8403113e-38
-300.17001 2520.02 -285.81601 1.8403113e-38
-281.59201 2535.6399 -286.379 1.8403113e-38
-262.896 2550.9399 -286.827 1.8403113e-38
-236.28 2565.76 -285.42099 1.8403113e-38
-208.592 2580.1001 -283.646 1.8403113e-38
-196.39999 2594.6399 -285.271 1.8403113e-38
-171.44299 2608.3501 -283.89899 1.8403113e-38
-158.07001 2622.3301 -285.10901 1.8403113e-38
-138.76401 2635.71 -284.86099 1.8403113e-38
-128.101 2649.45 -286.58401 1.8403113e-38
-109.581 2662.3701 -286.371 1.8403113e-38
-88.074402 2674.73 -285.34698 1.8403113e-38
-69.396004 2687.03 -284.91901 1.8403113e-38
-47.747799 2698.72 -283.67001 1.8403113e-38
-27.000799 2710.1799 -282.547 1.8403113e-38
-15.8116 2722.54 -283.75299 1.8403113e-38
5.06885 2733.4199 -282.43201 1.8403113e-38
16.416901 2745.3701 -283.483 1.8403113e-38
36.459599 2755.8101 -282.215 1.8403113e-38
48.911701 2767.2 -282.862 1.8403113e-38
61.438999 2778.3999 -283.439 1.8403113e-38
77.842796 2788.72 -282.922 1.8403113e-38
82.913902 2800.97 -285.41599 1.8403113e-38
102.288 2810.3201 -283.97198 1.8403113e-38
115.085 2820.75 -284.26599 1.8403113e-38
133.59801 2829.76 -282.90799 1.8403113e-38
139.92599 2841.28 -284.91501 1.8403113e-38
151.96899 2851.3799 -285.27499 1.8403113e-38
172.487 2859.23 -283.14499 1.8403113e-38
184.627 2868.9199 -283.362 1.8403113e-38
200.541 2877.4399 -282.423 1.8403113e-38
213.70599 2886.49 -282.233 1.8403113e-38
227.84 2895.0901 -281.70001 1.8403113e-38
241.09 2903.76 -281.37799 1.8403113e-38
246.11501 2914.75 -283.513 1.8403113e-38
256.72501 2923.97 -283.92401 1.8403113e-38
271.95099 2931.5701 -282.86301 1.8403113e-38
284.47101 2939.8501 -282.58701 1.8403113e-38
302.465 2946.1001 -280.53201 1.8403113e-38
306.914 2956.8601 -282.724 1.8403113e-38
317.75299 2965.3 -282.85699 1.8403113e-38
334.01199 2971.5901 -281.18799 1.8403113e-38
343.133 2980.3799 -281.79401 1.8403113e-38
350.53201 2989.75 -282.944 1.8403113e-38
369.508 2994.3899 -280.20401 1.8403113e-38
376.11401 3003.8701 -281.55499 1.8403113e-38
386.30399 3011.78 -281.67401 1.8403113e-38
399.15799 3018.4199 -280.84299 1.8403113e-38
406.80801 3027.22 -281.76999 1.8403113e-38
416.25299 3035.1399 -282.05099 1.8403113e-38
428.32999 3041.73 -281.375 1.8403113e-38
429.26999 3053.52 -284.62601 1.8403113e-38
442.29099 3059.47 -283.55701 1.8403113e-38
449.37201 3068.23 -284.595 1.8403113e-38
467.509 3071.27 -281.569 1.8403113e-38
459.52301 3087.75 -288.12299 1.8403113e-38
478.534 3090.04 -284.68799 1.8403113e-38
476.677 3103.47 -289.026 1.8403113e-38
492.36401 3107.24 -286.74301 1.8403113e-38
496.496 3117.3999 -288.82599 1.8403113e-38
521.18701 3115.5601 -282.95499 1.8403113e-38
533.534 3120.6299 -281.776 1.8403113e-38
542.64398 3127.52 -281.827 1.8403113e-38
555.81201 3131.8 -280.23801 1.8403113e-38
562.57397 3139.97 -281.172 1.8403113e-38
581.02301 3152.99 -281.004 1.8403113e-38
591.86401 3158.29 -280.215 1.8403113e-38
599.59998 3165.6001 -280.686 1.8403113e-38
609.70697 3171.2 -280.14499 1.8403113e-38
625.39502 3185.3899 -280.91501 1.8403113e-38
644.28302 3196.99 -280.23499 1.8403113e-38
651.52399 3204.3601 -280.832 1.8403113e-38
671.38702 3227.8799 -283.43301 1.8403113e-38
685.383 3229.5701 -280.90701 1.8403113e-38
703.95697 3240.4299 -280.077 1.8403113e-38
710.80402 3247.8799 -280.784 1.8403113e-38
719.81598 3253.3999 -280.45401 1.8403113e-38
723.29498 3263.9099 -282.78101 1.8403113e-38
735.16101 3266.72 -281.04199 1.8403113e-38
743.59003 3272.6201 -280.953 1.8403113e-38
759.88397 3284.8501 -281.01801 1.8403113e-38
767.09497 3291.8501 -281.51099 1.8403113e-38
777.65302 3295.4299 -280.28 1.8403113e-38
785.59998 3301.6001 -280.37299 1.8403113e-38
789.72101 3311.8101 -282.474 1.8403113e-38
800.987 3314.4299 -280.80801 1.8403113e-38
810.33502 3319 -280.129 1.8403113e-38
815.94598 3327.6899 -281.46301 1.8403113e-38
825.98297 3331.3999 -280.383 1.8403113e-38
834.04504 3344.99 -282.62402 1.8403113e-38
848.90802 3350.5701 -281.052 1.8403113e-38
854.28699 3359.76 -282.582 1.8403113e-38
868.25403 3374.3701 -283.84601 1.8403113e-38
882.48798 3372.27 -280.16 1.8403113e-38
885.89398 3384.27 -282.94 1.8403113e-38
897.82202 3384.95 -280.561 1.8403113e-38
903.646 3393.8601 -281.914 1.8403113e-38
913.92102 3396.6101 -280.50101 1.8403113e-38
918.82397 3406.97 -282.479 1.8403113e-38
927.034 3412.6599 -282.37399 1.8403113e-38
934.76898 3419.0701 -282.582 1.8403113e-38
942.56299 3425.4199 -282.759 1.8403113e-38
959.33002 3436.3501 -282.341 1.8403113e-38
977.72699 3444.5901 -280.78201 1.8403113e-38
1010.2 3468.28 -280.71201 1.8403113e-38
1025.01 3483.0801 -281.85001 1.8403113e-38
1033.84 3487.8999 -281.35599 1.8403113e-38
1043.13 3491.8 -280.49399 1.8403113e-38
1051.1899 3498.1599 -280.61499 1.8403113e-38
1058.1 3507 -281.716 1.8403113e-38
1064.71 3516.6599 -283.117 1.8403113e-38
1075.78 3516.8701 -280.79001 1.8403113e-38
1084.11 3522.99 -280.784 1.8403113e-38
1093.26 3527.3201 -280.077 1.8403113e-38
1109.49 3540.98 -280.57401 1.8403113e-38
1116.3101 3551.22 -282.10199 1.8403113e-38
1125.35 3556.1699 -281.60001 1.8403113e-38
1135.45 3558.3999 -280.073 1.8403113e-38
1151.13 3575.01 -281.55301 1.8403113e-38
1196.2 3603.04 -280.035 1.8403113e-38
1287.3 3670.5 -280.13101 1.8403113e-38
1315.28 3695.03 -281.276 1.8403113e-38
1325.67 3698.3999 -280.01901 1.8403113e-38
1640.2 3930.5701 -280.13101 1.8403113e-38
574.95801 3144.47 -279.81699 1.8403113e-38
619.83197 3176.6799 -279.56601 1.8403113e-38
642.40503 3185.6101 -277.306 1.8403113e-38
662.526 3208.75 -279.742 1.8403113e-38
670.58502 3215.3701 -279.94101 1.8403113e-38
696.45502 3233.52 -279.67401 1.8403113e-38
755.43799 3275.1799 -279.14301 1.8403113e-38
866.79401 3360.1001 -279.98199 1.8403113e-38
955.48999 3423.8 -279.49301 1.8403113e-38
971.71997 3435.3101 -279.35999 1.8403113e-38
989.58301 3444.1201 -278.086 1.8403113e-38
995.263 3454.1101 -279.78699 1.8403113e-38
1004.31 3458.3601 -279.07599 1.8403113e-38
1020.25 3470.74 -279.263 1.8403113e-38
1102.08 3532.45 -279.67401 1.8403113e-38
1144.89 3562.3101 -279.17999 1.8403113e-38
1162.28 3574.3401 -278.94901 1.8403113e-38
1174.8401 3585.2002 -279.42102 1.8403113e-38
1187.58 3595.95 -279.819 1.8403113e-38
1206.55 3604.6399 -278.26901 1.8403113e-38
1216.36 3607.96 -277.12299 1.8403113e-38
1226.1899 3611.1899 -275.948 1.8403113e-38
1233.8101 3622.5701 -277.63699 1.8403113e-38
1242.08 3632.0801 -278.63599 1.8403113e-38
1250.26 3642.46 -279.91101 1.8403113e-38
1260.16 3646.3401 -278.91199 1.8403113e-38
1270.3101 3649.22 -277.564 1.8403113e-38
1278.83 3659.4199 -278.71399 1.8403113e-38
1297.46 3674.0901 -278.98901 1.8403113e-38
1307.47 3678.53 -278.12701 1.8403113e-38
1335.9399 3702.6201 -279.039 1.8403113e-38
1345.51 3711.46 -279.561 1.8403113e-38
1356.0601 3714.5801 -278.198 1.8403113e-38
1366.76 3716.6699 -276.49899 1.8403113e-38
1375.39 3734.73 -279.927 1.8403113e-38
1386.15 3737.6101 -278.448 1.8403113e-38
1396.2 3747.03 -279.04001 1.8403113e-38
1406.39 3756.3899 -279.57999 1.8403113e-38
1417.27 3759.97 -278.28101 1.8403113e-38
1428.42 3760.6001 -276.05701 1.8403113e-38
1438.85 3770.6699 -276.755 1.8403113e-38
1449.0601 3786.3799 -279.155 1.8403113e-38
1460.1899 3790.5701 -277.98001 1.8403113e-38
1471.47 3792.76 -276.186 1.8403113e-38
1482.51 3801.55 -276.37799 1.8403113e-38
1493.42 3818.8799 -279.09698 1.8403113e-38
1504.8101 3827.5 -279.16501 1.8403113e-38
1516.33 3837 -279.45999 1.8403113e-38
1528.02 3844.49 -279.13199 1.8403113e-38
1539.8 3849 -277.91 1.8403113e-38
1551.77 3861.1001 -278.87201 1.8403113e-38
1563.89 3871.1899 -279.20999 1.8403113e-38
1575.87 3871.5701 -276.73401 1.8403113e-38
1588.4 3885.3101 -278.05301 1.8403113e-38
1600.88 3893.1799 -277.66299 1.8403113e-38
1613.72 3904.79 -278.29401 1.8403113e-38
1626.17 3907.6399 -276.44199 1.8403113e-38
1652.92 3933.21 -278.15799 1.8403113e-38
1666.04 3939.5801 -277.19199 1.8403113e-38
1679.37 3946.8 -276.42999 1.8403113e-38
1693.14 3956.79 -276.38199 1.8403113e-38
1707.79 3972.4199 -277.798 1.8403113e-38
1721.84 3981.21 -277.33899 1.8403113e-38
1736.4399 3992.74 -277.56699 1.8403113e-38
1750.4 3998.4099 -276.21201 1.8403113e-38
1764.61 4004.9099 -275.047 1.8403113e-38
1779.41 4014.1499 -274.55899 1.8403113e-38
1795.88 4031.8501 -276.19101 1.8403113e-38
1810.5699 4037.96 -274.80801 1.8403113e-38
1827.2 4053.46 -275.759 1.8403113e-38
1842.97 4063.1001 -275.17801 1.8403113e-38
1858.71 4071.6399 -274.28201 1.8403113e-38
1877.11 4091.4299 -276.108 1.8403113e-38
1891.96 4093.97 -273.64401 1.8403113e-38
1909.8 4108.6899 -274.10501 1.8403113e-38
1930.01 4131.75 -276.49701 1.8403113e-38
1945.8101 4135.7202 -274.25 1.8403113e-38
1965.4399 4153.6802 -275.27499 1.8403113e-38
1984.1 4166.7402 -275.07199 1.8403113e-38
2003.29 4180.5601 -274.979 1.8403113e-38
2023.8199 4197.9399 -275.634 1.8403113e-38
2044.97 4216.04 -276.37201 1.8403113e-38
2062.96 4222.7202 -274.44501 1.8403113e-38
2082.5901 4233.8799 -273.479 1.8403113e-38
2103.6599 4248.5698 -273.23199 1.8403113e-38
2125.3301 4263.96 -273.06299 1.8403113e-38
2144.0601 4269.8799 -270.754 1.8403113e-38
-1573.2 1515.17 -266.27301 1.8403113e-38
-1478.16 1573.61 -262.87299 1.8403113e-38
2159.6001 4266.3999 -266.37701 1.8403113e-38
-1521.41 1503.86 -251.77699 1.8403113e-38
-1358.6801 1637.66 -255.84399 1.8403113e-38
-1520.97 1447.36 -235.127 1.8403113e-38
-1469.61 1493.38 -237.519 1.8403113e-38
-1534.37 1413.97 -228.237 1.8403113e-38
-1472.79 1408 -213.19099 1.8403113e-38
2102.4199 4065.9299 -219.985 1.8403113e-38
-1466.17 1382.11 -204.17599 1.8403113e-38
-1470.4301 1351.95 -196.258 1.8403113e-38
2078.29 3962.7 -194.95 1.8403113e-38
-1476.24 1320.91 -188.41901 1.8403113e-38
2090.9099 3923.6001 -180.767 1.8403113e-38
2087.96 3951.3999 -189.549 1.8403113e-38
2547.45 4284.3599 -187.89301 1.8403113e-38
-1471.28 1264.92 -170.94099 1.8403113e-38
-1467.9 1295.38 -179.13699 1.8403113e-38
2110.6299 3904.3799 -170.87801 1.8403113e-38
2101.21 3914.9299 -176.005 1.8403113e-38
2519.45 4203.1001 -170.12801 1.8403113e-38
-1469.76 1236.3 -162.229 1.8403113e-38
2129.8 3884.8701 -161.02299 1.8403113e-38
2121.0601 3896.47 -166.308 1.8403113e-38
2536.3999 4199.6802 -165.468 1.8403113e-38
2566.76 4218.0898 -164.306 1.8403113e-38
2590.6899 4225.1802 -161.216 1.8403113e-38
2667.04 4281.8701 -161.34 1.8403113e-38
2154.5601 3878.51 -153.813 1.8403113e-38
2145.21 3888.48 -158.75301 1.8403113e-38
2614.8 4232 -158.006 1.8403113e-38
2735.0801 4320.8799 -158.078 1.8403113e-38
-1334.67 1266.09 -141.787 1.8403113e-38
2187.4099 3859.72 -141.214 1.8403113e-38
2164.6101 3870.26 -149.22501 1.8403113e-38
2178.8101 3870.8201 -146.323 1.8403113e-38
2751.52 4281.4302 -142.97 1.8403113e-38
2737.5701 4292.5498 -149.242 1.8403113e-38
2212.23 3853.1799 -133.94099 1.8403113e-38
2227.8 3855.8701 -131.36501 1.8403113e-38
2201.5901 3860.04 -138.245 1.8403113e-38
2608.54 4161.04 -138.56799 1.8403113e-38
2752.75 4252.3398 -134.179 1.8403113e-38
-1409.36 1145.58 -122.606 1.8403113e-38
2242.0601 3855.78 -128.259 1.8403113e-38
2254.95 3852.9399 -124.644 1.8403113e-38
2278.8401 3869.8601 -124.444 1.8403113e-38
2300.6299 3882.1899 -123.35 1.8403113e-38
2751.8101 4220.8999 -125.171 1.8403113e-38
-1452.5 1095.27 -117.18 1.8403113e-38
-1120.15 1333.95 -115.351 1.8403113e-38
2755.1101 4196 -117.165 1.8403113e-38
-1452.88 1064.75 -108.318 1.8403113e-38
-1118.09 1308.52 -107.454 1.8403113e-38
2757.03 4141.6001 -100.809 1.8403113e-38
2759.23 4172.75 -109.462 1.8403113e-38
-1449.37 1035.92 -99.114403 1.8403113e-38
2768.3301 4128.7202 -94.594101 1.8403113e-38
-1442.89 1008.44 -89.664001 1.8403113e-38
2758.01 4088.3201 -84.986801 1.8403113e-38
-1439.72 947.94397 -71.254601 1.8403113e-38
-1426.4 986.04602 -79.542198 1.8403113e-38
2755.76 4059.0901 -76.9076 1.8403113e-38
-1438.55 917.13599 -61.973499 1.8403113e-38
2754.4199 4006.3999 -61.7579 1.8403113e-38
2757.47 4035.3999 -69.597603 1.8403113e-38
-1428.3 891.08197 -52.126499 1.8403113e-38
-1427.38 859.72498 -42.7407 1.8403113e-38
-1426.99 827.79602 -33.302101 1.8403113e-38
-1427.99 794.77301 -23.841299 1.8403113e-38
2532.78 3717.0901 -24.8477 1.8403113e-38
-1891.48 409.41501 -11.0118 1.8403113e-38
-1417.46 768.28003 -13.8047 1.8403113e-38
2539.6201 3705.29 -19.9125 1.8403113e-38
2558.0701 3707.01 -16.433599 1.8403113e-38
2575.95 3707.76 -12.7927 1.8403113e-38
-1417.78 735.13098 -4.1612 1.8403113e-38
2591.8999 3706.0601 -8.8507299 1.8403113e-38
2608.5601 3704.9099 -4.9184198 1.8403113e-38
-4177.6899 -1334.0699 6.1790299 1.8403113e-38
2556.1299 3628.8899 6.03614 1.8403113e-38
-2133.99 133.091 17.587299 1.8403113e-38
-1345.39 713.74902 17.735001 1.8403113e-38
2553.21 3589.95 16.816401 1.8403113e-38
2547.6299 3601.74 12.1532 1.8403113e-38
-1330.66 690.05402 27.858 1.8403113e-38
2571.8899 3591.72 20.3288 1.8403113e-38
2598.3701 3601.0701 23.309299 1.8403113e-38
2673.3999 3639.6101 28.2148 1.8403113e-38
2656.9299 3641.74 24.035801 1.8403113e-38
2654.6399 3603.3401 34.791401 1.8403113e-38
-1537.14 486.077 43.037998 1.8403113e-38
2621.3601 3537.3701 46.9356 1.8403113e-38
2625.1799 3557.8301 41.768002 1.8403113e-38
2482.4399 3393.5 59.092602 1.8403113e-38
-1722.76 285.12 61.838799 1.8403113e-38
2473.3201 3371.05 63.703499 1.8403113e-38
2488.5701 3370.6799 67.1054 1.8403113e-38
-1757.65 221.164 73.0438 1.8403113e-38
2503.29 3355.6699 74.678299 1.8403113e-38
2513.21 3350.3201 78.389801 1.8403113e-38
2494.8301 3362.23 70.933701 1.8403113e-38
-1422.66 419.23099 87.343498 1.8403113e-38
2526 3333.5901 86.052002 1.8403113e-38
2520.03 3342.3101 82.210999 1.8403113e-38
2592.72 3373.6399 88.725197 1.8403113e-38
-1390.77 405.59601 98.224701 1.8403113e-38
2693.8999 3439.26 91.345901 1.8403113e-38
2702.2 3430.3501 95.749199 1.8403113e-38
-1426.45 342.52899 108.999 1.8403113e-38
2719.1699 3428.03 100.094 1.8403113e-38
2759.3701 3442.8701 104.424 1.8403113e-38
2794.25 3452.96 109 1.8403113e-38
