# .PCD v0.7 - Point Cloud Data file format
VERSION 0.7
FIELDS x y z rgb
SIZE 4 4 4 4
TYPE F F F F
COUNT 1 1 1 1
WIDTH 358
HEIGHT 1
VIEWPOINT 0 0 0 1 0 0 0
POINTS 358
DATA ascii
1510.27 374.69601 -301.76099 1.8403113e-38
1558.22 371.89001 -300.69299 1.8403113e-38
1582.97 370.82101 -300.005 1.8403113e-38
1528.52 379.19101 -299.34399 1.8403113e-38
1474.11 389.63901 -297.93201 1.8403113e-38
1385.3199 395.263 -299.755 1.8403113e-38
1407.9399 392.36801 -299.819 1.8403113e-38
1429.16 392.26999 -298.93301 1.8403113e-38
1451.33 390.61401 -298.56799 1.8403113e-38
1338.09 403.673 -298.767 1.8403113e-38
1355.87 405.284 -297.41299 1.8403113e-38
1213.0601 419.80099 -298.36801 1.8403113e-38
1269.8 416.40799 -297.13101 1.8403113e-38
1292.14 412.496 -297.57401 1.8403113e-38
1309.08 414.36801 -296.16199 1.8403113e-38
1189.45 427 -296.79199 1.8403113e-38
1228.47 422.366 -296.772 1.8403113e-38
1246.23 423.181 -295.70599 1.8403113e-38
1096.1801 439.85901 -296.19501 1.8403113e-38
1112.26 439.72101 -295.547 1.8403113e-38
1134.62 432.27499 -297.26599 1.8403113e-38
1149.16 434.849 -295.70499 1.8403113e-38
1168.29 432.50101 -295.72299 1.8403113e-38
1042.53 447.936 -295.60599 1.8403113e-38
1058.27 448.319 -294.784 1.8403113e-38
1075.27 446.21301 -294.80701 1.8403113e-38
1010.1 450.35901 -296.13901 1.8403113e-38
1024.12 452.814 -294.64301 1.8403113e-38
911.005 468.37799 -293.92999 1.8403113e-38
926.10199 467.39499 -293.63 1.8403113e-38
939.82599 467.98401 -292.82101 1.8403113e-38
958.04602 462.38 -294.05499 1.8403113e-38
973.42401 460.82199 -293.95001 1.8403113e-38
985.72998 465.36801 -291.77301 1.8403113e-38
877.32098 478.59399 -291.70099 1.8403113e-38
892.67499 476.43201 -291.81601 1.8403113e-38
818.15601 488.38199 -290.733 1.8403113e-38
833.586 484.74399 -291.37799 1.8403113e-38
847.784 482.759 -291.479 1.8403113e-38
860.237 485.34698 -290.00299 1.8403113e-38
750.71997 494.70001 -291.37799 1.8403113e-38
764.06299 492.75601 -291.50201 1.8403113e-38
777.51599 491.98801 -291.19501 1.8403113e-38
789.74402 492.888 -290.33899 1.8403113e-38
600.70697 506.21799 -293.73001 1.8403113e-38
612.07898 506.44 -293.15701 1.8403113e-38
696.83502 504.32001 -290.242 1.8403113e-38
735.47101 500.10001 -290.08899 1.8403113e-38
573.44098 519.57001 -290.08899 1.8403113e-38
586.35303 514.12701 -291.496 1.8403113e-38
-61.142601 587.31299 -293.16501 1.8403113e-38
-48.978802 594.034 -290.20901 1.8403113e-38
-38.7892 591.64301 -290.63 1.8403113e-38
1543.86 429.10199 -280.642 1.8403113e-38
802.86401 493.23199 -289.64499 1.8403113e-38
683.43103 506.755 -289.944 1.8403113e-38
708.03802 506.258 -289.05499 1.8403113e-38
721.17999 504.94601 -288.95901 1.8403113e-38
619.57703 519.46802 -288.12299 1.8403113e-38
645.23999 513.33197 -289.22601 1.8403113e-38
656.30402 514.83301 -288.203 1.8403113e-38
669.86401 511.24399 -288.91101 1.8403113e-38
549.10797 525.24597 -289.095 1.8403113e-38
628.96899 525.23297 -285.63199 1.8403113e-38
480.48199 533.83197 -288.97198 1.8403113e-38
490.71899 535.79199 -287.82001 1.8403113e-38
501.142 538.841 -286.26501 1.8403113e-38
512.96802 534.54401 -287.30399 1.8403113e-38
524.83801 532.28198 -287.60699 1.8403113e-38
534.58002 536.42499 -285.686 1.8403113e-38
558.073 532.30499 -286.155 1.8403113e-38
435.34299 543.40198 -287.474 1.8403113e-38
445.68301 544.07202 -286.78299 1.8403113e-38
455.87799 547.67603 -285.03799 1.8403113e-38
467.59299 542.04498 -286.564 1.8403113e-38
328.32001 559.00897 -286.48199 1.8403113e-38
348.90701 559.664 -285.35101 1.8403113e-38
359.5 555.88702 -286.25601 1.8403113e-38
391.74301 550.79602 -286.69501 1.8403113e-38
401.09799 556.703 -284.155 1.8403113e-38
412.82199 550.63599 -285.83801 1.8403113e-38
423.08301 551.12299 -285.21701 1.8403113e-38
317.22198 565.836 -284.49701 1.8403113e-38
338.25699 560.68402 -285.44501 1.8403113e-38
369.48999 560.659 -284.09799 1.8403113e-38
378.71301 567.33197 -281.28601 1.8403113e-38
215.263 579.80402 -283.87701 1.8403113e-38
225.54601 575.86603 -284.853 1.8403113e-38
235.442 575.77698 -284.45499 1.8403113e-38
245.71899 577.651 -283.332 1.8403113e-38
255.70399 573.96399 -284.23099 1.8403113e-38
265.95999 576.00702 -283.047 1.8403113e-38
275.98199 573.42297 -283.54599 1.8403113e-38
286.36401 572.81598 -283.314 1.8403113e-38
296.40201 571.33801 -283.41199 1.8403113e-38
306.677 572.78003 -282.44501 1.8403113e-38
135.174 588.84802 -284.086 1.8403113e-38
155.06 585.39301 -284.47101 1.8403113e-38
165.55299 589.40601 -282.565 1.8403113e-38
174.994 581.32397 -285.07599 1.8403113e-38
195.175 582.27802 -283.85501 1.8403113e-38
205.43401 581.93402 -283.534 1.8403113e-38
-68.881401 598.96503 -289.29099 1.8403113e-38
105.837 595.54401 -282.94 1.8403113e-38
116.049 599.16901 -281.18701 1.8403113e-38
125.559 591.61298 -283.504 1.8403113e-38
145.58701 590.81299 -282.92401 1.8403113e-38
185.638 591.14398 -281.065 1.8403113e-38
-77.048897 606.92798 -286.76801 1.8403113e-38
66.576401 603.43103 -281.79501 1.8403113e-38
76.896599 606.71997 -280.15799 1.8403113e-38
86.823799 604.45398 -280.54599 1.8403113e-38
96.483398 603.25201 -280.561 1.8403113e-38
47.4814 610.16699 -280.19 1.8403113e-38
-82.305397 625.88702 -280.14499 1.8403113e-38
57.242401 609.57703 -279.979 1.8403113e-38
-1.58919 619.15601 -279.07199 1.8403113e-38
18.6366 619.02301 -278.242 1.8403113e-38
27.8881 613.50598 -279.83401 1.8403113e-38
37.639099 612.75598 -279.68201 1.8403113e-38
-21.2365 622.383 -278.76001 1.8403113e-38
-10.6996 622.979 -278.086 1.8403113e-38
9.3028803 621.76898 -277.655 1.8403113e-38
-111.043 634.14301 -278.409 1.8403113e-38
-94.880051 635.78149 -277.11548 1.8403113e-38
-171.27699 644.96698 -277.11401 1.8403113e-38
-161.27699 643.45599 -277.22501 1.8403113e-38
-144.44051 645.216 -275.85852 1.8403113e-38
-129.901 640.96802 -276.76199 1.8403113e-38
-119.039 642.49103 -275.73999 1.8403113e-38
-220.94901 657.73798 -274.65601 1.8403113e-38
-212.07899 652.177 -276.28 1.8403113e-38
-195.23901 653.27295 -275.1525 1.8403113e-38
-179.92599 651.08801 -275.27701 1.8403113e-38
-274.082 663.99701 -274.70099 1.8403113e-38
-264.491 660.74701 -275.45901 1.8403113e-38
-251.65199 663.38702 -273.94699 1.8403113e-38
-240.48399 663.75403 -273.32999 1.8403113e-38
-227.80499 666.64899 -271.733 1.8403113e-38
-384.547 679.29303 -273.97 1.8403113e-38
-349.242 677.46899 -273.09601 1.8403113e-38
-338.38599 675.04199 -273.50201 1.8403113e-38
-329.29901 670.42499 -274.776 1.8403113e-38
-316.61499 671.51599 -273.83099 1.8403113e-38
-302.603 676.26801 -271.505 1.8403113e-38
-293.14801 671.758 -272.724 1.8403113e-38
-282.32001 670.87799 -272.57199 1.8403113e-38
-454.25299 689.52197 -273.30099 1.8403113e-38
-430.58499 686.17603 -273.48199 1.8403113e-38
-416.37 688.76898 -271.92801 1.8403113e-38
-407.52802 682.50702 -273.80701 1.8403113e-38
-395.45801 682.15698 -273.409 1.8403113e-38
-371.069 681.61499 -272.54599 1.8403113e-38
-358.26801 682.245 -271.76199 1.8403113e-38
-515.12097 698.60602 -272.66101 1.8403113e-38
-500.69101 699.18298 -271.82599 1.8403113e-38
-478.00699 693.34802 -272.95001 1.8403113e-38
-463.004 696.15698 -271.28299 1.8403113e-38
-439.38 692.62201 -271.535 1.8403113e-38
-551.47803 705.51001 -271.745 1.8403113e-38
-537.28998 705.91602 -270.983 1.8403113e-38
-524.55603 703.96002 -271.13599 1.8403113e-38
-486.70901 700.172 -270.862 1.8403113e-38
-659.53601 719.11401 -271.521 1.8403113e-38
-648.203 714.74402 -272.608 1.8403113e-38
-633.28003 713.74902 -272.32001 1.8403113e-38
-603.34198 713.28998 -271.186 1.8403113e-38
-575.51099 711.32001 -270.689 1.8403113e-38
-561.85303 710.70398 -270.319 1.8403113e-38
-715.65802 728.17102 -270.685 1.8403113e-38
-701.59601 726 -270.85901 1.8403113e-38
-671.88397 723.21002 -270.578 1.8403113e-38
-746.31702 731.31799 -270.88 1.8403113e-38
-823.539 742.86499 -270.06 1.8403113e-38
-584.617 718.19098 -268.60199 1.8403113e-38
-612.43201 720.39301 -269.01401 1.8403113e-38
-772.21802 739.77899 -268.94699 1.8403113e-38
-759.44897 735.64801 -269.88501 1.8403113e-38
-728.05402 732.849 -269.534 1.8403113e-38
-680.52301 730.57397 -268.29099 1.8403113e-38
-856.22198 747.32098 -269.86899 1.8403113e-38
-835.664 748.28601 -268.62799 1.8403113e-38
-805.29102 742.36499 -269.44901 1.8403113e-38
-786.76898 743.09601 -268.38 1.8403113e-38
-881.59302 758.70502 -266.85699 1.8403113e-38
-871.33502 750.58698 -269.345 1.8403113e-38
-951.336 768.422 -266.37399 1.8403113e-38
-935.75897 763.83197 -267.35699 1.8403113e-38
-919.78802 760.42499 -267.89401 1.8403113e-38
-897.46301 761.67902 -266.47198 1.8403113e-38
-982.94702 777.17798 -264.58301 1.8403113e-38
-966.57202 772.79102 -265.457 1.8403113e-38
-1121.87 795.396 -264.03201 1.8403113e-38
-1092.61 798.409 -261.673 1.8403113e-38
-1075.29 793.25098 -262.784 1.8403113e-38
-1154.71 807.56897 -261.05899 1.8403113e-38
-1140.11 800.57098 -262.95401 1.8403113e-38
-1177.95 810.133 -261.142 1.8403113e-38
-1034.25 805.22101 -256.67599 1.8403113e-38
-962.01501 808.08398 -252.505 1.8403113e-38
-1217.54 819.685 -259.409 1.8403113e-38
-1195.05 816.039 -259.75 1.8403113e-38
-977.37097 813.12 -251.35201 1.8403113e-38
-1241.4399 822.16302 -259.552 1.8403113e-38
-1257.23 830.27698 -257.30499 1.8403113e-38
2484.1299 409.34 -246.953 1.8403113e-38
1443.11 543.42102 -243.70599 1.8403113e-38
-974.05798 830.70697 -244.853 1.8403113e-38
-1245.26 853.21997 -248.494 1.8403113e-38
2487.3501 431.67999 -238.74001 1.8403113e-38
2498.6399 450.543 -231.433 1.8403113e-38
1448.03 557.72498 -238.323 1.8403113e-38
1479.13 568.03802 -233.246 1.8403113e-38
1446.6 578.29797 -230.951 1.8403113e-38
2511.0601 467.81201 -224.653 1.8403113e-38
1488.5601 579.09802 -228.839 1.8403113e-38
1494.48 592.33698 -223.798 1.8403113e-38
-1165.3101 913.21997 -223.34 1.8403113e-38
2511.4099 492.31299 -215.784 1.8403113e-38
1481.02 622.31897 -213.548 1.8403113e-38
2513.72 514.62201 -207.62199 1.8403113e-38
1455.3199 660.89099 -200.72501 1.8403113e-38
-1129.03 947.47601 -209.386 1.8403113e-38
2517.0901 537.22198 -199.30901 1.8403113e-38
2526.0701 555.99902 -192.133 1.8403113e-38
1450.83 682.18103 -193.22701 1.8403113e-38
-1093.36 981.08197 -195.692 1.8403113e-38
-1090.96 996.24298 -190.11 1.8403113e-38
2536.1799 575.198 -184.756 1.8403113e-38
1861.17 644.867 -188.892 1.8403113e-38
1856.6801 666.20599 -181.375 1.8403113e-38
1789.97 670.53601 -182.70799 1.8403113e-38
1552.98 689.50098 -186.146 1.8403113e-38
1586.75 682.68597 -187.142 1.8403113e-38
1631.9301 685.81702 -184.049 1.8403113e-38
1655.25 687.03198 -182.597 1.8403113e-38
1679.01 689.03998 -180.84 1.8403113e-38
1711.53 684.89502 -180.925 1.8403113e-38
1453.39 696.828 -187.823 1.8403113e-38
1598.67 691.28003 -183.519 1.8403113e-38
1458.46 710.05402 -182.823 1.8403113e-38
1476.33 712.74902 -181.073 1.8403113e-38
-1099.1801 1006.51 -186.755 1.8403113e-38
-1096.46 1021.57 -181.196 1.8403113e-38
-1449.36 1067.05 -180.086 1.8403113e-38
-4402.1201 1421.2 -180.328 1.8403113e-38
2536.6899 597.86798 -176.54201 1.8403113e-38
1737.97 686.00702 -179.375 1.8403113e-38
1842.12 694.06403 -171.94099 1.8403113e-38
1498.53 713.14398 -179.966 1.8403113e-38
-1468.9301 1075.74 -177.79601 1.8403113e-38
-1494.3199 1083.38 -176.13699 1.8403113e-38
-2583.97 1212.7 -176.72301 1.8403113e-38
-2638.51 1227.6899 -173.675 1.8403113e-38
-2696.1299 1244.08 -170.25101 1.8403113e-38
-4576.3901 1452.41 -176.617 1.8403113e-38
-4728.4199 1485.62 -171.217 1.8403113e-38
2547.3101 616.75098 -169.257 1.8403113e-38
2549.1799 638.56201 -161.29401 1.8403113e-38
1934.12 695.99103 -167.25 1.8403113e-38
1860.0601 701.46503 -168.487 1.8403113e-38
1892.9 701.21997 -167.14999 1.8403113e-38
-1060.16 1053.04 -168.246 1.8403113e-38
-1070.76 1074.8101 -160.841 1.8403113e-38
-1326.73 1095.84 -164.35699 1.8403113e-38
-1488.5 1101.02 -169.511 1.8403113e-38
-1497.77 1114.27 -165.12399 1.8403113e-38
-1501.04 1128.8 -160.01401 1.8403113e-38
-4906.2598 1522.27 -165.69701 1.8403113e-38
-5095.75 1559.83 -160.351 1.8403113e-38
2559.4199 657.56897 -153.981 1.8403113e-38
-1041.8101 1074.7 -159.625 1.8403113e-38
-1137.83 1085.33 -159.951 1.8403113e-38
-1110.71 1083.75 -159.34399 1.8403113e-38
-1081.63 1082.92 -158.381 1.8403113e-38
-1146.1801 1095.72 -156.56 1.8403113e-38
-1259.47 1106.61 -157.543 1.8403113e-38
-1220.83 1106.92 -155.754 1.8403113e-38
-1185.29 1107.22 -154.10201 1.8403113e-38
-1159.6899 1103.5 -154.334 1.8403113e-38
-1522.39 1138.5 -157.436 1.8403113e-38
-1542.53 1148.1899 -154.81 1.8403113e-38
-2574.9099 1284.71 -150.30499 1.8403113e-38
-5248.0601 1602.72 -151.466 1.8403113e-38
2568.1899 676.26599 -146.84399 1.8403113e-38
-1544.73 1163.9 -149.22701 1.8403113e-38
-1540.85 1180.58 -143.03101 1.8403113e-38
-1859.2 1222.26 -141.793 1.8403113e-38
-2563.95 1310.14 -140.63901 1.8403113e-38
-3677.04 1427.99 -146.38901 1.8403113e-38
-5399.9702 1646.23 -142.339 1.8403113e-38
2570.71 698.48499 -138.705 1.8403113e-38
2572.6499 719.88098 -130.88901 1.8403113e-38
-1545.61 1195.47 -137.858 1.8403113e-38
-1541.39 1212.01 -131.698 1.8403113e-38
-1884.83 1234.72 -138.40401 1.8403113e-38
-2634.7 1324.6 -138.48599 1.8403113e-38
-2706.54 1341.0601 -135.657 1.8403113e-38
-2774.2 1358.08 -132.446 1.8403113e-38
2587.6899 736.935 -124.073 1.8403113e-38
-1545.85 1226.89 -126.513 1.8403113e-38
-1672.4301 1245.17 -125.406 1.8403113e-38
-1550 1241.21 -121.52 1.8403113e-38
-2857.8 1375.71 -129.70599 1.8403113e-38
-2931.25 1394.49 -126.109 1.8403113e-38
-3022.6201 1414.13 -122.977 1.8403113e-38
2597.6001 755.15302 -117.059 1.8403113e-38
-1548.37 1257.5 -115.564 1.8403113e-38
-3105.8101 1434.7 -119.157 1.8403113e-38
2600.21 777.065 -109.027 1.8403113e-38
2606.02 796.78497 -101.649 1.8403113e-38
2625.1101 812.67102 -95.079102 1.8403113e-38
-4605.3701 1689.51 -92.194298 1.8403113e-38
2625.8701 834.19397 -87.268097 1.8403113e-38
2607.8201 862.85303 -77.695702 1.8403113e-38
-1412.1801 1345.77 -77.749001 1.8403113e-38
-4554.6299 1727.71 -76.187897 1.8403113e-38
-4847.23 1774.01 -72.1605 1.8403113e-38
2597.6599 887.55298 -69.210899 1.8403113e-38
-1360.51 1369.23 -67.027 1.8403113e-38
-1361.51 1382.92 -62.122898 1.8403113e-38
-5089.4702 1821.9301 -65.363998 1.8403113e-38
2573.25 917.37903 -59.4925 1.8403113e-38
2571.0901 938.86902 -51.8209 1.8403113e-38
-1372.0601 1394.4 -58.435799 1.8403113e-38
2566.1001 961.92798 -43.704498 1.8403113e-38
2567.3201 982.10498 -36.360401 1.8403113e-38
2571.46 1002.23 -28.9067 1.8403113e-38
2566.51 1023.96 -21.269699 1.8403113e-38
2577.98 1042.01 -14.2505 1.8403113e-38
2624.8701 1050.22 -9.2476397 1.8403113e-38
2679.74 1058.05 -4.03543 1.8403113e-38
2684.8601 1077.75 3.3062401 1.8403113e-38
2687.0801 1099 11.0823 1.8403113e-38
2692.8 1118.55 18.394699 1.8403113e-38
-4795.2998 2020.64 19.218901 1.8403113e-38
2697.5601 1139.1899 26.0632 1.8403113e-38
-5463.3701 2113.8 23.872801 1.8403113e-38
2703.8999 1158.65 33.367401 1.8403113e-38
-2174.8401 1756.47 37.546001 1.8403113e-38
2710.24 1179.01 41.000702 1.8403113e-38
2715.24 1198.78 48.363098 1.8403113e-38
-2154.26 1774.84 45.079601 1.8403113e-38
-5467.6201 2162.1101 41.147301 1.8403113e-38
2719.23 1219.62 56.069199 1.8403113e-38
-2151.46 1794.66 52.3638 1.8403113e-38
-2152.49 1813.88 59.263802 1.8403113e-38
-5472.5898 2208.6799 57.7607 1.8403113e-38
2778.0701 1230.24 62.461102 1.8403113e-38
2820.25 1245.38 69.763298 1.8403113e-38
2814.75 1267.6 77.552696 1.8403113e-38
-5466.98 2256.26 75.196999 1.8403113e-38
2803.23 1291.4399 85.6679 1.8403113e-38
2401.01 1367.67 95.749901 1.8403113e-38
-5462.1299 2301.95 91.920799 1.8403113e-38
2359.8201 1391.5 102.574 1.8403113e-38
2355.01 1409.5 108.867 1.8403113e-38
-5466.5601 2350.73 109.353 1.8403113e-38
