# .PCD v0.7 - Point Cloud Data file format
VERSION 0.7
FIELDS x y z rgb
SIZE 4 4 4 4
TYPE F F F F
COUNT 1 1 1 1
WIDTH 352
HEIGHT 1
VIEWPOINT 0 0 0 1 0 0 0
POINTS 352
DATA ascii
2184.8101 -850.40399 -291.39499 1.8403113e-38
2258.29 -849.77502 -292.14999 1.8403113e-38
2333.1799 -847.49597 -292.32401 1.8403113e-38
2378.49 -840.13599 -290.25299 1.8403113e-38
2744.02 -829.54102 -291.293 1.8403113e-38
718.33197 -873.11603 -280.02701 1.8403113e-38
1079.0699 -867.13702 -282.681 1.8403113e-38
1103.52 -862.07098 -281.16501 1.8403113e-38
1122.52 -860.10699 -280.70499 1.8403113e-38
1133.14 -863.448 -282.06299 1.8403113e-38
1151.71 -860.28699 -281.16101 1.8403113e-38
1466.04 -862.31201 -286.10501 1.8403113e-38
1183.875 -857.89551 -280.72198 1.8403113e-38
1213.835 -857.08099 -280.827 1.8403113e-38
1248 -854.99298 -280.52499 1.8403113e-38
1271.34 -855.21899 -280.92001 1.8403113e-38
1283.84 -858.85999 -282.41101 1.8403113e-38
1301.59 -852.09698 -280.189 1.8403113e-38
1314.88 -856.19 -281.85501 1.8403113e-38
1339.96 -856.71002 -282.38 1.8403113e-38
1351.42 -858.39899 -283.14801 1.8403113e-38
1371.35 -852.78101 -281.371 1.8403113e-38
1388.35 -859.72101 -284.12299 1.8403113e-38
1408.41 -853.56702 -282.15302 1.8403113e-38
1421.47 -856.08899 -283.245 1.8403113e-38
1447.9 -855.45001 -283.367 1.8403113e-38
1486.36 -855.03497 -283.73099 1.8403113e-38
1498.99 -856.28802 -284.35501 1.8403113e-38
1525.86 -854.31403 -283.99701 1.8403113e-38
1567.88 -854.50299 -284.629 1.8403113e-38
1580.75 -855.138 -285.03101 1.8403113e-38
1619.49 -850.85797 -283.99301 1.8403113e-38
1532.05 -849.49799 -282.328 1.8403113e-38
1601.29 -846.18799 -282.05099 1.8403113e-38
2045.5 -849.00098 -289.01999 1.8403113e-38
2081.97 -842.54999 -287.16199 1.8403113e-38
2111.0601 -848.448 -289.69699 1.8403113e-38
2147.78 -840.849 -287.42499 1.8403113e-38
2221.79 -841.55701 -288.672 1.8403113e-38
2297.24 -840.59698 -289.33401 1.8403113e-38
2011.67 -839.32001 -285.04599 1.8403113e-38
-127.09 -880.19299 -271.284 1.8403113e-38
-112.535 -884.88202 -273.18399 1.8403113e-38
-90.100304 -886.21698 -273.97 1.8403113e-38
-63.5569 -884.58099 -273.7305 1.8403113e-38
-43.1726 -881.453 -272.866 1.8403113e-38
7.2312598 -880.14398 -273.064 1.8403113e-38
21.683599 -883.22101 -274.37701 1.8403113e-38
64.943298 -880.672 -274.02899 1.8403113e-38
106.747 -880.27502 -274.444 1.8403113e-38
111.694 -884.15997 -275.923 1.8403113e-38
127.312 -880.45801 -274.78601 1.8403113e-38
132.117 -885.18103 -276.56799 1.8403113e-38
147.08 -883.99103 -276.33499 1.8403113e-38
167.077 -886.271 -277.43201 1.8403113e-38
173.65601 -881.54901 -275.80301 1.8403113e-38
208.314 -881.448 -276.23001 1.8403113e-38
227.64101 -887.38898 -278.64999 1.8403113e-38
248.203 -882.724 -277.228 1.8403113e-38
268.241 -881.46198 -277.03699 1.8403113e-38
288.14001 -880.80603 -277.065 1.8403113e-38
313.535 -880.95599 -277.45999 1.8403113e-38
347.48599 -880.63702 -277.798 1.8403113e-38
406.953 -884.12299 -279.862 1.8403113e-38
466.52301 -881.854 -279.83401 1.8403113e-38
506.41199 -880.26099 -279.789 1.8403113e-38
-156.814 -879.258 -270.54599 1.8403113e-38
-133.058 -878.81702 -270.70401 1.8403113e-38
-80.865799 -879.48297 -271.64401 1.8403113e-38
-34.619598 -875.27802 -270.73401 1.8403113e-38
-15.8342 -875.25 -270.97501 1.8403113e-38
1.35708 -879.42603 -272.724 1.8403113e-38
31.4753 -871.19 -270.13199 1.8403113e-38
44.721001 -877.60498 -272.64301 1.8403113e-38
50.8153 -877.20502 -272.57901 1.8403113e-38
72.495598 -874.698 -271.957 1.8403113e-38
87.057297 -876.08099 -272.655 1.8403113e-38
92.6185 -877.29999 -273.173 1.8403113e-38
154.104 -877.52698 -274.078 1.8403113e-38
188.87601 -877.06 -274.37399 1.8403113e-38
194.73 -875.94501 -274.047 1.8403113e-38
234.675 -875.80499 -274.53 1.8403113e-38
254.166 -879.45001 -276.117 1.8403113e-38
274.49701 -873.40198 -274.19 1.8403113e-38
293.897 -878.276 -276.22198 1.8403113e-38
308.38599 -871.37097 -273.90399 1.8403113e-38
327.89301 -874.755 -275.396 1.8403113e-38
333.44901 -874.85602 -275.508 1.8403113e-38
367.19101 -874.92102 -275.983 1.8403113e-38
372.72198 -872.961 -275.34399 1.8403113e-38
386.83899 -874.52002 -276.10001 1.8403113e-38
411.93399 -871.65698 -275.39499 1.8403113e-38
426.34399 -876.50403 -277.35001 1.8403113e-38
431.517 -870.52399 -275.24399 1.8403113e-38
446.173 -877.00598 -277.798 1.8403113e-38
451.577 -874.68597 -277.02701 1.8403113e-38
485.728 -875.15601 -277.655 1.8403113e-38
491.759 -878.25702 -278.86301 1.8403113e-38
511.73001 -877.67297 -278.91901 1.8403113e-38
526.00201 -876.64697 -278.73599 1.8403113e-38
532.17999 -879.54199 -279.87201 1.8403113e-38
545.341 -871.789 -277.228 1.8403113e-38
551.90198 -876.43402 -279.00601 1.8403113e-38
565.28101 -870.31299 -276.95801 1.8403113e-38
571.19 -871.15802 -277.345 1.8403113e-38
592.99597 -877.52301 -279.952 1.8403113e-38
613.117 -875.24902 -279.39401 1.8403113e-38
627.90698 -874.84003 -279.44299 1.8403113e-38
633.229 -872.638 -278.71399 1.8403113e-38
215.668 -869.04498 -271.81699 1.8403113e-38
353.13101 -867.49103 -273.09201 1.8403113e-38
392.14899 -866.83502 -273.37601 1.8403113e-38
470.81299 -869.16302 -275.27499 1.8403113e-38
585.42603 -869.42499 -276.905 1.8403113e-38
605.82001 -869.112 -277.064 1.8403113e-38
647.034 -868.34601 -277.33701 1.8403113e-38
652.815 -867.875 -277.24301 1.8403113e-38
668.40802 -869.68799 -278.11099 1.8403113e-38
673.66998 -867.30701 -277.31601 1.8403113e-38
689.638 -869.74799 -278.41699 1.8403113e-38
694.30701 -865.47498 -276.92599 1.8403113e-38
710.36798 -867.64001 -277.92801 1.8403113e-38
735.47498 -868.73297 -278.66199 1.8403113e-38
752.23102 -863.22601 -276.883 1.8403113e-38
760.099 -867.53998 -278.55801 1.8403113e-38
774.08301 -862.66498 -276.97101 1.8403113e-38
780.28998 -862.45099 -276.97699 1.8403113e-38
796.76898 -863.44897 -277.56 1.8403113e-38
803.38397 -863.98901 -277.845 1.8403113e-38
842.21002 -862.86798 -277.957 1.8403113e-38
865.328 -862.35999 -278.082 1.8403113e-38
873.75702 -865.92999 -279.49301 1.8403113e-38
888.578 -861.40997 -278.048 1.8403113e-38
895.80902 -862.289 -278.46399 1.8403113e-38
962.83502 -862.45697 -279.422 1.8403113e-38
987.62201 -861.26501 -279.32101 1.8403113e-38
1039.7 -860.58099 -279.76901 1.8403113e-38
816.55499 -856.87201 -275.43301 1.8403113e-38
823.95697 -859.03101 -276.31699 1.8403113e-38
846.90302 -858.867 -276.565 1.8403113e-38
914.01953 -857.45349 -276.94897 1.8403113e-38
935.43402 -858.16699 -277.495 1.8403113e-38
942.77301 -858.76898 -277.81201 1.8403113e-38
964.966 -853.86102 -276.32401 1.8403113e-38
991.625 -855.86499 -277.41 1.8403113e-38
1010.52 -856.34497 -277.83801 1.8403113e-38
1020.08 -859.72198 -279.194 1.8403113e-38
1044.66 -856.58398 -278.38101 1.8403113e-38
1063.86 -856.26703 -278.52301 1.8403113e-38
1087.53 -850.69501 -276.81299 1.8403113e-38
1156.61 -855.80701 -279.59698 1.8403113e-38
1236.29 -851.80499 -279.20801 1.8403113e-38
1615.75 -821.90698 -273.41299 1.8403113e-38
1931.7 -816.74103 -275.763 1.8403113e-38
2327.51 -802.51099 -275.88599 1.8403113e-38
-171.746 -874.88599 -268.75601 1.8403113e-38
-147.134 -873.02197 -268.40701 1.8403113e-38
-100.497 -872.211 -268.737 1.8403113e-38
-172.97701 -863.94098 -264.759 1.8403113e-38
1616.47 -812.41302 -269.97 1.8403113e-38
1635.1 -801.63397 -266.298 1.8403113e-38
1637.96 -793.89899 -263.52301 1.8403113e-38
1668.16 -791.50897 -263.05801 1.8403113e-38
1680.36 -790.599 -262.89099 1.8403113e-38
1834.36 -790.77197 -265.01501 1.8403113e-38
1704.4 -782.87402 -260.40302 1.8403113e-38
1719.84 -783.94 -260.99701 1.8403113e-38
1757.6 -785.01599 -261.89401 1.8403113e-38
1776.41 -787.87201 -263.18399 1.8403113e-38
1812.92 -786.78302 -263.27701 1.8403113e-38
1866.25 -785.43701 -263.50101 1.8403113e-38
2637.21 -771.466 -268.73901 1.8403113e-38
-1541.51 -875.62201 -250.688 1.8403113e-38
-170.495 -826.41699 -251.14301 1.8403113e-38
2287.3899 -753.38202 -257.479 1.8403113e-38
2289.6599 -743.117 -253.776 1.8403113e-38
2457.05 -737.76099 -254.069 1.8403113e-38
-171.315 -815.54797 -247.179 1.8403113e-38
2322.53 -729.828 -249.383 1.8403113e-38
2338.1101 -725.61902 -248.06 1.8403113e-38
2363.71 -708.21503 -242.073 1.8403113e-38
-1519.77 -833.97699 -235.832 1.8403113e-38
-1413.96 -815.61499 -230.57001 1.8403113e-38
-169.899 -782.50201 -235.17799 1.8403113e-38
-170.795 -772.54498 -231.545 1.8403113e-38
2733.53 -687.02399 -239.315 1.8403113e-38
2704.5701 -663.85999 -230.502 1.8403113e-38
-1483.26 -802.89801 -225.01601 1.8403113e-38
-1309.38 -783.41803 -220.259 1.8403113e-38
-172.571 -747.21802 -222.30901 1.8403113e-38
2438.0801 -658.802 -225.09599 1.8403113e-38
2730.79 -641.34497 -222.664 1.8403113e-38
2749.21 -635.12097 -220.647 1.8403113e-38
-1270.3101 -771.185 -216.332 1.8403113e-38
-171.71001 -734.83398 -217.81599 1.8403113e-38
2425.0701 -642.151 -218.86501 1.8403113e-38
2827.9199 -629.19397 -219.545 1.8403113e-38
2839.76 -620.14899 -216.41299 1.8403113e-38
-173.12 -710.49902 -208.946 1.8403113e-38
-166.464 -689.18799 -201.284 1.8403113e-38
2413.8501 -609.177 -206.72099 1.8403113e-38
2433.77 -605.58801 -205.68201 1.8403113e-38
2839.98 -587.60498 -204.57899 1.8403113e-38
-1370.8 -716.01501 -194.92101 1.8403113e-38
-1370.1899 -705.29303 -191.02901 1.8403113e-38
-174.989 -678.11798 -197.14301 1.8403113e-38
-170.86301 -661.85602 -191.284 1.8403113e-38
2838.3601 -574.32001 -199.726 1.8403113e-38
-172.192 -640.31 -183.429 1.8403113e-38
-1018.86 -646.35999 -174.29601 1.8403113e-38
-169.70399 -627.41602 -178.77299 1.8403113e-38
-169.75999 -605.25 -170.71001 1.8403113e-38
-171.19501 -598.83698 -168.358 1.8403113e-38
-172.22099 -579.19598 -161.2 1.8403113e-38
-171.23801 -569.672 -157.74899 1.8403113e-38
-173.87801 -553.302 -151.75999 1.8403113e-38
-171.496 -542.29901 -147.789 1.8403113e-38
-177.62399 -531.43799 -143.757 1.8403113e-38
-176.711 -522.82202 -140.63499 1.8403113e-38
2512.75 -446.901 -149.021 1.8403113e-38
-177.76601 -505.87201 -134.45599 1.8403113e-38
-176.011 -496.57501 -131.09801 1.8403113e-38
2446.3601 -416.85199 -137.203 1.8403113e-38
-180.151 -484.27499 -126.569 1.8403113e-38
-191.802 -474.66299 -122.917 1.8403113e-38
-181.811 -479.54199 -124.825 1.8403113e-38
-190.879 -466.95401 -120.125 1.8403113e-38
2445.6799 -389.83301 -127.367 1.8403113e-38
2440.0701 -377.798 -122.914 1.8403113e-38
-707.604 -465.76801 -112.777 1.8403113e-38
-678.09003 -465.16199 -112.952 1.8403113e-38
-661.39398 -461.53201 -111.855 1.8403113e-38
-624.763 -455.22299 -110.051 1.8403113e-38
-201.552 -456.453 -116.163 1.8403113e-38
-192.505 -452.45001 -114.828 1.8403113e-38
-221.617 -440.50201 -110.092 1.8403113e-38
-202.88901 -441.93799 -110.866 1.8403113e-38
2456.1699 -355.452 -115.002 1.8403113e-38
2456.1299 -344.96799 -111.188 1.8403113e-38
-911.953 -450.474 -104.479 1.8403113e-38
-609.91901 -452.20901 -109.153 1.8403113e-38
-581.08099 -449.78101 -108.656 1.8403113e-38
-571.27502 -449.69299 -108.755 1.8403113e-38
-542.72699 -446.48099 -107.969 1.8403113e-38
-533.021 -446.10999 -107.964 1.8403113e-38
-505.578 -442.69699 -107.09 1.8403113e-38
-495.97501 -442.04999 -106.983 1.8403113e-38
-467.92999 -443.48099 -107.879 1.8403113e-38
-264.19501 -441.15799 -109.761 1.8403113e-38
-242.474 -440.73499 -109.898 1.8403113e-38
-902.81799 -438.46399 -100.233 1.8403113e-38
-468.06201 -437.30399 -105.631 1.8403113e-38
-441.81601 -439.29001 -106.704 1.8403113e-38
-429.33099 -435.72501 -105.575 1.8403113e-38
-403.48749 -433.78052 -105.213 1.8403113e-38
-373.17899 -433.384 -105.475 1.8403113e-38
-353.89001 -432.33099 -105.35 1.8403113e-38
-345.526 -431.12299 -105.022 1.8403113e-38
-332.97699 -435.414 -106.751 1.8403113e-38
-322.513 -432.06601 -105.674 1.8403113e-38
-303.0675 -432.57751 -106.12 1.8403113e-38
-283.54199 -435.51599 -107.45 1.8403113e-38
-263.32199 -434.172 -107.232 1.8403113e-38
-246.40601 -438.65201 -109.088 1.8403113e-38
-226.862 -439.939 -109.818 1.8403113e-38
-205.504 -438.62601 -109.626 1.8403113e-38
-375.64301 -429.37299 -103.983 1.8403113e-38
2467.96 -321.37 -102.763 1.8403113e-38
2549.1299 -329.944 -106.968 1.8403113e-38
2636.6201 -321.983 -105.244 1.8403113e-38
2640.27 -311.603 -101.517 1.8403113e-38
-902.89099 -419.77899 -93.435898 1.8403113e-38
2646.8101 -284.686 -91.8144 1.8403113e-38
-889.90399 -406.32501 -88.715897 1.8403113e-38
-914.10101 -391.94 -83.159798 1.8403113e-38
-901.18701 -393.285 -83.821999 1.8403113e-38
2648.3101 -273.853 -87.8946 1.8403113e-38
-927.21503 -372.216 -75.810402 1.8403113e-38
-917.95502 -375.37601 -77.083603 1.8403113e-38
-952.82098 -357.53101 -70.126404 1.8403113e-38
-939.013 -359.00201 -70.8461 1.8403113e-38
2654.3501 -246.84599 -78.152298 1.8403113e-38
2666.4399 -237.965 -75.083603 1.8403113e-38
-931.26099 -330.70801 -60.658699 1.8403113e-38
2671.02 -210.582 -65.185204 1.8403113e-38
2674.0901 -199.998 -61.376598 1.8403113e-38
-913.58899 -316.73999 -55.814602 1.8403113e-38
-874.57098 -284.504 -44.612202 1.8403113e-38
-862.09698 -273.22101 -40.675301 1.8403113e-38
-879.65601 -256.508 -34.361099 1.8403113e-38
-856.78998 -254.81599 -34.0518 1.8403113e-38
2405 -130.67 -32.5583 1.8403113e-38
-891.93103 -244.19501 -29.718399 1.8403113e-38
-845.11298 -221.89301 -22.2335 1.8403113e-38
2393.8401 -119.254 -28.256701 1.8403113e-38
-828.56897 -200.689 -14.7423 1.8403113e-38
-843.82098 -199.416 -14.0752 1.8403113e-38
2383.98 -93.371803 -18.7108 1.8403113e-38
2377.53 -82.917801 -14.8222 1.8403113e-38
-844.94397 -184.11 -8.4930601 1.8403113e-38
-850.646 -179.679 -6.8051 1.8403113e-38
2373.1001 -58.172199 -5.7623501 1.8403113e-38
2376.3799 -49.0411 -2.4849501 1.8403113e-38
-837.12402 -160.229 0.0885766 1.8403113e-38
-842.72101 -155.771 1.78482 1.8403113e-38
-1027.2 -141.608 9.4056997 1.8403113e-38
-958.94598 -142.071 8.3234997 1.8403113e-38
-872.828 -142.42999 7.0402999 1.8403113e-38
-855.73297 -143.97701 6.2486901 1.8403113e-38
-910.83899 -136.47501 9.71521 1.8403113e-38
2390.3501 -26.3902 5.5666199 1.8403113e-38
2388.49 -16.6584 9.1311903 1.8403113e-38
2690.6899 -18.6616 4.35741 1.8403113e-38
2703.73 -8.8079596 7.7669702 1.8403113e-38
-1048.3 -139.64999 10.4002 1.8403113e-38
2704.24 18.9545 17.858 1.8403113e-38
-1035.42 -112.625 20.0574 1.8403113e-38
-1421.47 -103.719 28.4645 1.8403113e-38
-1405.2 -109.51 26.140301 1.8403113e-38
-1073.4399 -103.084 24.0368 1.8403113e-38
-988.04797 -109.124 20.6968 1.8403113e-38
-1185.9399 -91.845398 29.630301 1.8403113e-38
-1140.3101 -90.9105 29.359501 1.8403113e-38
-1091.55 -99.697502 25.510799 1.8403113e-38
2706.1299 29.782499 21.771099 1.8403113e-38
-1436.91 -84.552101 35.642502 1.8403113e-38
-1440.23 -76.513603 38.610802 1.8403113e-38
2717.1001 56.9478 31.5049 1.8403113e-38
2716.79 67.947998 35.510101 1.8403113e-38
-1445.4301 -55.619999 46.2798 1.8403113e-38
-1427.78 -44.850399 49.9608 1.8403113e-38
2729.26 95.307098 45.2943 1.8403113e-38
2730.75 106.281 49.265999 1.8403113e-38
-1441.5 -25.106001 57.325901 1.8403113e-38
2731.72 134.20599 59.41 1.8403113e-38
-1427.63 -15.1048 60.777901 1.8403113e-38
-1430.03 5.90165 68.4506 1.8403113e-38
2741 145.07899 63.240501 1.8403113e-38
-1418.95 15.3233 71.729202 1.8403113e-38
-1416.96 36.556301 79.425499 1.8403113e-38
2751.46 173.078 73.284203 1.8403113e-38
2761.54 184.189 77.190598 1.8403113e-38
-1425.65 44.1675 82.310097 1.8403113e-38
2760.47 212.453 87.485397 1.8403113e-38
-1423.26 65.4132 90.005798 1.8403113e-38
-1413.84 74.289101 93.108002 1.8403113e-38
2771.3401 223.786 91.4617 1.8403113e-38
-1378.1 96.966797 100.878 1.8403113e-38
-1383.48 104.795 103.797 1.8403113e-38
2769.75 252.144 101.798 1.8403113e-38
2779.4099 263.66501 105.859 1.8403113e-38
-1941.98 106.744 111.982 1.8403113e-38
