# .PCD v0.7 - Point Cloud Data file format
VERSION 0.7
FIELDS x y z rgb
SIZE 4 4 4 4
TYPE F F F F
COUNT 1 1 1 1
WIDTH 343
HEIGHT 1
VIEWPOINT 0 0 0 1 0 0 0
POINTS 343
DATA ascii
2400.4099 1149.35 -304.021 1.8403113e-38
2388.6101 1075.58 -290.896 1.8403113e-38
2398.8301 1119.48 -299.79999 1.8403113e-38
2383.6201 1146.27 -297.89001 1.8403113e-38
2359.74 1157.5 -291.095 1.8403113e-38
2376.8999 1161.75 -297.496 1.8403113e-38
2380.03 1011.84 -280.10599 1.8403113e-38
2386.51 1046.9301 -286.64899 1.8403113e-38
2342.28 1152.17 -284.45901 1.8403113e-38
1768.83 2719.77 -281.08899 1.8403113e-38
1746.53 2790.9399 -282.21701 1.8403113e-38
1722.86 2850.0701 -281.39099 1.8403113e-38
1698.27 2913.99 -280.841 1.8403113e-38
1672.66 2991.6299 -281.62799 1.8403113e-38
1645.72 3075.03 -282.67401 1.8403113e-38
1617.48 3154.26 -282.759 1.8403113e-38
1587.8 3239.23 -283.056 1.8403113e-38
1556.6899 3324.95 -282.95499 1.8403113e-38
1523.0699 3437.24 -285.26999 1.8403113e-38
1488.53 3530.3701 -284.90701 1.8403113e-38
1451.03 3648.03 -286.552 1.8403113e-38
1411.58 3765.3501 -287.48901 1.8403113e-38
1369.3101 3894.23 -288.88199 1.8403113e-38
1326.54 4002.8701 -287.60901 1.8403113e-38
2897.48 -485.75 -272.91699 1.8403113e-38
2893.1299 -472.992 -272.995 1.8403113e-38
2886.79 -459.88699 -272.439 1.8403113e-38
2884.0601 -447.76099 -272.99799 1.8403113e-38
2884.03 -436.30899 -274.397 1.8403113e-38
2875.49 -423.11499 -273.09601 1.8403113e-38
2868.6899 -410.461 -272.327 1.8403113e-38
2864.6001 -398.478 -272.39999 1.8403113e-38
2858.52 -386.23999 -271.82599 1.8403113e-38
2751.3999 -98.327202 -270.591 1.8403113e-38
2751.3201 -88.318703 -271.79501 1.8403113e-38
2748.3301 -78.541801 -271.97601 1.8403113e-38
2749.02 -68.4487 -273.45499 1.8403113e-38
2745.8701 -58.721199 -273.57599 1.8403113e-38
2744.52 -48.823399 -274.332 1.8403113e-38
2747.77 -38.3582 -276.73199 1.8403113e-38
2745.3101 -28.560699 -277.09698 1.8403113e-38
2745.5801 -18.3937 -278.44 1.8403113e-38
2736.0249 -4.6399493 -276.86401 1.8403113e-38
2727.28 9.0751896 -275.556 1.8403113e-38
2669.96 136.774 -271.64801 1.8403113e-38
2667.01 146.036 -271.77802 1.8403113e-38
2662.2 154.688 -271.19601 1.8403113e-38
2666.22 166.297 -274.004 1.8403113e-38
2659.48 174.295 -272.67999 1.8403113e-38
2653.5701 182.519 -271.668 1.8403113e-38
2650.24 191.646 -271.65399 1.8403113e-38
2650.3601 202.082 -272.978 1.8403113e-38
2639.8301 218.856 -271.436 1.8403113e-38
2646.8701 211.185 -272.905 1.8403113e-38
2639.6799 229.30299 -272.673 1.8403113e-38
2644.6299 241.98399 -275.92801 1.8403113e-38
2639.0901 250.297 -275.05499 1.8403113e-38
2629.54 267.51099 -273.90399 1.8403113e-38
2636.9199 260.077 -275.51801 1.8403113e-38
2631.48 279.23499 -276.01199 1.8403113e-38
2628.2 288.595 -276.04401 1.8403113e-38
2621.48 296.27802 -274.685 1.8403113e-38
2619.74 306.41299 -275.33801 1.8403113e-38
2614.5601 314.83701 -274.60199 1.8403113e-38
2607.6499 322.33301 -273.159 1.8403113e-38
2612.3 335.98499 -276.431 1.8403113e-38
2606.0601 343.87399 -275.267 1.8403113e-38
2593.4299 359.44 -272.85699 1.8403113e-38
2603.05 353.53699 -275.427 1.8403113e-38
2600.8401 375.21701 -277.33701 1.8403113e-38
2595.1201 383.435 -276.392 1.8403113e-38
2590.95 392.57999 -276.08899 1.8403113e-38
2591.5 404.69101 -277.76801 1.8403113e-38
2587.1399 413.82401 -277.401 1.8403113e-38
2583.5 423.44101 -277.33701 1.8403113e-38
2575.1201 435.991 -276.013 1.8403113e-38
2565.8301 447.90601 -274.29901 1.8403113e-38
2560.3301 456.31 -273.45001 1.8403113e-38
2558.6001 467.42001 -274.22501 1.8403113e-38
2552.1799 475.20599 -272.98401 1.8403113e-38
2553.27 488.578 -275.004 1.8403113e-38
2548.9399 498.02399 -274.685 1.8403113e-38
2546.02 508.60501 -274.987 1.8403113e-38
2541.5 518.01898 -274.60001 1.8403113e-38
2535.4299 526.22198 -273.53 1.8403113e-38
2534.4099 538.57202 -274.70099 1.8403113e-38
2527.6201 559.716 -274.98099 1.8403113e-38
2535.4199 552.78601 -276.79999 1.8403113e-38
2516.8601 577.71899 -273.51099 1.8403113e-38
2524.0701 570.28699 -275.065 1.8403113e-38
2508.5601 598.13702 -273.18399 1.8403113e-38
2515.9299 590.78699 -274.802 1.8403113e-38
2503.22 607.35699 -272.48999 1.8403113e-38
2501.23 619.81403 -273.34201 1.8403113e-38
2502.51 635.60303 -275.724 1.8403113e-38
2492.0901 640.151 -272.716 1.8403113e-38
2492.3899 655.34399 -274.69 1.8403113e-38
2491.1699 669.255 -275.98499 1.8403113e-38
2486.49 679.78699 -275.67999 1.8403113e-38
2479.0901 687.53497 -274.10001 1.8403113e-38
2479.3899 703.59802 -276.17899 1.8403113e-38
2476.28 716.21899 -276.668 1.8403113e-38
2473.02 728.85901 -277.108 1.8403113e-38
2465.8501 737.216 -275.67999 1.8403113e-38
2468.55 757.07599 -279.052 1.8403113e-38
2457.4299 761.04199 -275.73401 1.8403113e-38
2451.8101 771.48602 -275.09299 1.8403113e-38
2449.0901 785.60602 -275.89899 1.8403113e-38
2438.99 808.677 -275.28201 1.8403113e-38
2450.96 805.724 -279.01901 1.8403113e-38
2436.96 824.35901 -276.51599 1.8403113e-38
2429.53 833.22302 -275.064 1.8403113e-38
2427.72 849.71698 -276.47601 1.8403113e-38
2426.26 867.03802 -278.10901 1.8403113e-38
2411.0901 885.39001 -275.172 1.8403113e-38
2424.01 883.64203 -279.384 1.8403113e-38
2406.8999 899.61902 -275.48999 1.8403113e-38
2397.46 927.31403 -275.66901 1.8403113e-38
2406.8301 920.22101 -278.004 1.8403113e-38
2393.27 942.37598 -276.08801 1.8403113e-38
2393.02 963.93701 -278.65701 1.8403113e-38
2386.8601 976.62402 -278.10901 1.8403113e-38
2384.5701 995.85498 -279.69199 1.8403113e-38
2323.6799 1144.02 -277.08499 1.8403113e-38
2317.5601 1160.86 -277.06299 1.8403113e-38
2311.6299 1178.58 -277.21301 1.8403113e-38
2307.0901 1199.8101 -278.27301 1.8403113e-38
2299.4399 1214.9 -277.51099 1.8403113e-38
2291.99 1230.85 -276.923 1.8403113e-38
2286.26 1251.23 -277.46799 1.8403113e-38
2278.3401 1267.15 -276.71799 1.8403113e-38
2273.1799 1290.23 -277.79199 1.8403113e-38
2265.8701 1308.83 -277.578 1.8403113e-38
2260.78 1333.76 -278.90701 1.8403113e-38
2250.8101 1346.91 -277.10999 1.8403113e-38
2244.75 1370.95 -277.996 1.8403113e-38
2235.6799 1387.6801 -276.95001 1.8403113e-38
2226.3899 1404.37 -275.82101 1.8403113e-38
2222.25 1436.7 -278.38501 1.8403113e-38
2213.29 1456.14 -277.70999 1.8403113e-38
2206.1599 1482.05 -278.45901 1.8403113e-38
2196.8899 1502.38 -277.78699 1.8403113e-38
2186.1799 1518.9399 -276.159 1.8403113e-38
2174.97 1534.5 -274.23499 1.8403113e-38
2169.75 1571.62 -277.01901 1.8403113e-38
2159.5 1592.77 -276.11301 1.8403113e-38
2150.22 1618.61 -276.11499 1.8403113e-38
2140.54 1644.4301 -275.98099 1.8403113e-38
2130.96 1672.12 -276.10901 1.8403113e-38
2122.1101 1704.5601 -277.07199 1.8403113e-38
2111.2 1730.3101 -276.508 1.8403113e-38
2099.27 1753.14 -275.23199 1.8403113e-38
2089.26 1786.48 -275.909 1.8403113e-38
2079.53 1823.65 -277.15302 1.8403113e-38
2067.51 1852.13 -276.54401 1.8403113e-38
2056.1399 1886.37 -276.867 1.8403113e-38
2044.42 1921.53 -277.18201 1.8403113e-38
2031.8101 1954.73 -276.952 1.8403113e-38
2019.48 1992.73 -277.40799 1.8403113e-38
2007.15 2034.58 -278.33801 1.8403113e-38
1993.3101 2070.55 -278.026 1.8403113e-38
1979.96 2114.27 -278.841 1.8403113e-38
1965.6801 2155.99 -279.08499 1.8403113e-38
1950.96 2199.6101 -279.41599 1.8403113e-38
1935.01 2238.25 -278.71201 1.8403113e-38
1919.55 2287.6201 -279.495 1.8403113e-38
1903.02 2333.97 -279.54199 1.8403113e-38
1886 2383.1799 -279.77301 1.8403113e-38
1867.67 2425.3999 -278.69199 1.8403113e-38
1849.53 2480.3401 -279.245 1.8403113e-38
1830.5 2535.1799 -279.48199 1.8403113e-38
1810.59 2589.8999 -279.401 1.8403113e-38
1789.84 2645.49 -279.138 1.8403113e-38
2757.0901 -197.87 -260.28101 1.8403113e-38
2756.8899 -187.91299 -261.44 1.8403113e-38
2756.6101 -177.95399 -262.57101 1.8403113e-38
2747.74 -168.02 -260.754 1.8403113e-38
2755.8 -158.035 -264.74701 1.8403113e-38
2746.77 -148.259 -262.85699 1.8403113e-38
2745.22 -138.409 -263.539 1.8403113e-38
2746.4199 -128.467 -265.17401 1.8403113e-38
2753.2 -118.216 -268.758 1.8403113e-38
2752.3401 -108.269 -269.68799 1.8403113e-38
1305.74 3848.28 -261.448 1.8403113e-38
2815.6899 -367.841 -259.423 1.8403113e-38
2757.1799 -227.728 -256.63599 1.8403113e-38
2758.1799 -217.819 -258.19901 1.8403113e-38
2756.26 -207.79401 -258.77399 1.8403113e-38
2638.6001 117.295 -258.509 1.8403113e-38
2725.8101 -235.76801 -244.901 1.8403113e-38
1137.95 4118.02 -237.2 1.8403113e-38
2662.1899 -240.97501 -222.46899 1.8403113e-38
2549.73 73.133499 -222.634 1.8403113e-38
1302.78 3538.8999 -222.336 1.8403113e-38
2638.8999 -274.89401 -210.317 1.8403113e-38
2636.97 -256.93301 -211.867 1.8403113e-38
2650.5601 -249.145 -217.48 1.8403113e-38
2558.8101 -2.6547799 -216.409 1.8403113e-38
2570.6799 -9.0338497 -219.688 1.8403113e-38
2557.0601 5.54636 -216.821 1.8403113e-38
2545.5698 15.93795 -214.166 1.8403113e-38
2539.5 27.344801 -213.491 1.8403113e-38
2537.51 35.378201 -213.799 1.8403113e-38
2540.9299 44.753601 -216.125 1.8403113e-38
2545.1699 54.448601 -218.771 1.8403113e-38
2539.3301 61.569901 -217.645 1.8403113e-38
2531.1001 76.596703 -216.679 1.8403113e-38
3073.46 -1534.75 -204.01199 1.8403113e-38
3070.71 -1509.35 -206.19701 1.8403113e-38
2669.3301 -436.888 -200.78999 1.8403113e-38
2647.585 -325.40948 -207.0705 1.8403113e-38
2638.0901 -310.48401 -205.65601 1.8403113e-38
2643.5901 -302.285 -208.55 1.8403113e-38
2636.76 -292.45401 -207.42 1.8403113e-38
2638.3401 -283.737 -209.035 1.8403113e-38
2618.5901 -264.01199 -204.701 1.8403113e-38
3060.5901 -1568.4301 -195.45399 1.8403113e-38
3063.25 -1547.78 -198.908 1.8403113e-38
2722.3501 -618.20599 -196.621 1.8403113e-38
2714.96 -604.263 -195.80701 1.8403113e-38
2716.3701 -594.09399 -197.543 1.8403113e-38
2715.8999 -583.21802 -198.72 1.8403113e-38
2705.4199 -568.58002 -196.935 1.8403113e-38
2698.3999 -555.50201 -196.14101 1.8403113e-38
2690.3501 -542.24701 -195.013 1.8403113e-38
2684.8701 -530.12097 -194.633 1.8403113e-38
2687.47 -520.927 -196.65401 1.8403113e-38
2685.2749 -505.13501 -197.8465 1.8403113e-38
2663.6399 -483.409 -193.112 1.8403113e-38
2665.8501 -474.396 -194.981 1.8403113e-38
2659.71 -462.92001 -194.28999 1.8403113e-38
2664.53 -454.724 -196.948 1.8403113e-38
2662.8101 -444.67599 -197.59599 1.8403113e-38
1294.64 3325.6699 -193.29201 1.8403113e-38
1146.91 3778.4099 -198.444 1.8403113e-38
2773.3701 -860.35498 -184.27499 1.8403113e-38
2769.53 -844.85199 -184.87 1.8403113e-38
2762.1799 -827.45599 -184.496 1.8403113e-38
2760.51 -813.69202 -185.618 1.8403113e-38
2770.5 -806.81201 -189.886 1.8403113e-38
2732.1799 -772.48999 -180.987 1.8403113e-38
1265.1 3328.26 -183.494 1.8403113e-38
1121.17 3725.46 -183.11 1.8403113e-38
2742.25 -880.05298 -171.19299 1.8403113e-38
2755.6201 -862.34698 -177.951 1.8403113e-38
2663.99 -603.78601 -178.409 1.8403113e-38
1085.5601 3744.3301 -173.23599 1.8403113e-38
2728.0701 -857.69098 -169.09 1.8403113e-38
2678.9399 -730.88202 -167.87601 1.8403113e-38
2614.1799 -601.97998 -161.57201 1.8403113e-38
2628.8899 -598.57001 -167.02901 1.8403113e-38
1054.4301 3732.3 -161.093 1.8403113e-38
2674.5601 -860.40198 -150.42799 1.8403113e-38
2692.0801 -859.59198 -156.52699 1.8403113e-38
2589.1599 -610.16901 -151.993 1.8403113e-38
2599.48 -605.151 -156.146 1.8403113e-38
1017.92 3753.46 -151.194 1.8403113e-38
945.19 3979.76 -154.14999 1.8403113e-38
2648.27 -854.78302 -142.116 1.8403113e-38
2556.3201 -613.66901 -140.313 1.8403113e-38
2573.6001 -612.47803 -146.37801 1.8403113e-38
2624.73 -862.95203 -133.045 1.8403113e-38
2643.6799 -864.05603 -139.40199 1.8403113e-38
2560.21 -655.026 -136.55499 1.8403113e-38
2562.1799 -646.09998 -138.328 1.8403113e-38
2558.04 -634.03101 -138.396 1.8403113e-38
2552.9099 -621.625 -138.16499 1.8403113e-38
924.745 3898.79 -137.177 1.8403113e-38
2600.3201 -882.29999 -122.305 1.8403113e-38
2603.53 -872.224 -124.644 1.8403113e-38
2613.74 -867.36902 -128.739 1.8403113e-38
2580.1599 -904.44098 -112.67 1.8403113e-38
2585.9099 -896.32098 -115.641 1.8403113e-38
2591.5901 -888.14697 -118.594 1.8403113e-38
924.94299 3716.71 -114.823 1.8403113e-38
2549.72 -917.64502 -100.621 1.8403113e-38
2560.8899 -914.21503 -104.867 1.8403113e-38
2568.25 -907.521 -108.213 1.8403113e-38
891.492 3717.9399 -103.517 1.8403113e-38
2532.1299 -954.37799 -90.071098 1.8403113e-38
2531.7 -940.81 -91.594902 1.8403113e-38
2538.51 -933.79602 -94.792801 1.8403113e-38
2546.02 -927.35303 -98.156403 1.8403113e-38
860.841 3705.1699 -91.446404 1.8403113e-38
2523.8701 -973.57703 -84.879204 1.8403113e-38
2526.6001 -962.651 -87.158798 1.8403113e-38
821.03802 3735.0701 -81.495796 1.8403113e-38
791.04498 3718.76 -69.213799 1.8403113e-38
729.12402 3839.3401 -62.854599 1.8403113e-38
721.828 3726.1201 -46.413799 1.8403113e-38
707.56299 3647.8899 -31.894699 1.8403113e-38
672.35797 3654.76 -20.683001 1.8403113e-38
2238.8101 -762.70001 -13.2121 1.8403113e-38
2237.29 -751.30701 -14.094 1.8403113e-38
2193.52 -734.23901 -1.20464 1.8403113e-38
2195.28 -726.73602 -2.7325399 1.8403113e-38
637.77002 3658.3899 -9.2828598 1.8403113e-38
2168.02 -744.09802 8.7416801 1.8403113e-38
2179.8301 -747.86798 5.16327 1.8403113e-38
2185.75 -744.841 2.7597499 1.8403113e-38
2192.3401 -742.47699 0.214256 1.8403113e-38
604.40997 3656.8601 2.33182 1.8403113e-38
2153.73 -737.146 12.7796 1.8403113e-38
570.74402 3655.97 13.9724 1.8403113e-38
2118.51 -704.93298 20.8783 1.8403113e-38
536.46698 3656.6699 25.626101 1.8403113e-38
2057.8899 -640.79602 33.7425 1.8403113e-38
2045.035 -636.94946 37.672401 1.8403113e-38
502.41101 3656.0701 37.363701 1.8403113e-38
2023.6799 -654.05103 47.09095 1.8403113e-38
2033.24 -650.20599 43.342602 1.8403113e-38
2020.17 -649.25299 47.7029 1.8403113e-38
2034.66 -643.875 42.078098 1.8403113e-38
2035.38 -636.76898 40.955399 1.8403113e-38
468.30301 3655.1399 49.160301 1.8403113e-38
1992.9 -665.78949 59.078949 1.8403113e-38
2002.54 -662.59601 55.383102 1.8403113e-38
2008.48 -658.23499 52.812901 1.8403113e-38
2013.55 -656.901 50.910801 1.8403113e-38
1974.8135 -678.24432 66.807129 1.8403113e-38
1985.38 -672.13904 62.43605 1.8403113e-38
433.83701 3654.8301 61.0033 1.8403113e-38
1949.96 -704.20801 78.515999 1.8403113e-38
1957.1599 -701.89551 75.767197 1.8403113e-38
1963.37 -697.73798 73.127602 1.8403113e-38
1964.78 -685.27301 71.109001 1.8403113e-38
396.789 3661.77 72.837898 1.8403113e-38
1934.715 -735.70148 87.616402 1.8403113e-38
1939.86 -728.711 84.994904 1.8403113e-38
1942.17 -721.92798 83.365601 1.8403113e-38
1947.0549 -714.85754 80.822754 1.8403113e-38
2026.5601 -1070.96 97.445503 1.8403113e-38
2037.67 -1077.22 94.409302 1.8403113e-38
2045.0699 -1074.13 91.493698 1.8403113e-38
1932.59 -789.48602 94.968597 1.8403113e-38
1917.78 -735.35852 93.376099 1.8403113e-38
1925.71 -734.466 90.548103 1.8403113e-38
752.46899 2516.52 92.047302 1.8403113e-38
645.81 2750.55 99.758904 1.8403113e-38
2005.9551 -1072.515 104.6935 1.8403113e-38
2019.54 -1074.8199 100.324 1.8403113e-38
1991.8101 -1068.14 109 1.8403113e-38
712.89203 2488.9399 108.999 1.8403113e-38
