# .PCD v0.7 - Point Cloud Data file format
VERSION 0.7
FIELDS x y z rgb
SIZE 4 4 4 4
TYPE F F F F
COUNT 1 1 1 1
WIDTH 344
HEIGHT 1
VIEWPOINT 0 0 0 1 0 0 0
POINTS 344
DATA ascii
2313.5 1207.42 -291.98901 1.8403113e-38
359.32401 2356.73 -291.46799 1.8403113e-38
303.953 2396.5 -293.711 1.8403113e-38
-279.24399 2738.03 -293.095 1.8403113e-38
-354.108 2782.73 -293.28699 1.8403113e-38
-436.396 2833.8899 -294.13 1.8403113e-38
-518.37299 2882.3999 -294.202 1.8403113e-38
-611.96997 2941.5801 -295.47198 1.8403113e-38
-694.62201 2986.23 -294.20801 1.8403113e-38
-798.53601 3051.55 -295.49899 1.8403113e-38
-896.18597 3107.4299 -294.98801 1.8403113e-38
-1010.84 3178.4099 -296.07001 1.8403113e-38
-1113.62 3234.21 -294.58499 1.8403113e-38
-1212.6 3283.6101 -291.79401 1.8403113e-38
-1497.95 3460.0701 -294.427 1.8403113e-38
2313.6399 1182.53 -284.20901 1.8403113e-38
2257.49 1204.83 -280.832 1.8403113e-38
2269.8999 1208.9 -284.39999 1.8403113e-38
2277.8401 1201.49 -283.543 1.8403113e-38
2295.75 1205.025 -287.96002 1.8403113e-38
1725.62 1515.9301 -280.151 1.8403113e-38
1712.63 1524.8199 -280.543 1.8403113e-38
1631.26 1576.75 -281.79501 1.8403113e-38
1588.9399 1598.6899 -280.85999 1.8403113e-38
1603.12 1591.8199 -281.32501 1.8403113e-38
1572.85 1613.9399 -282.672 1.8403113e-38
1543.26 1628.9 -281.897 1.8403113e-38
1528.7 1634.29 -280.89801 1.8403113e-38
1513.79 1640.49 -280.08899 1.8403113e-38
1481.14 1661.84 -280.754 1.8403113e-38
1431.73 1688.95 -280.12799 1.8403113e-38
1447.41 1683.49 -281.314 1.8403113e-38
1413.13 1703.55 -281.272 1.8403113e-38
1394.83 1716.11 -281.83099 1.8403113e-38
1377.77 1723.86 -281.10901 1.8403113e-38
1342.24 1741.61 -280.11401 1.8403113e-38
1320.1801 1761.71 -282.34399 1.8403113e-38
1300.39 1774.24 -282.616 1.8403113e-38
1282.7 1780.16 -281.20599 1.8403113e-38
1262.46 1792.29 -281.272 1.8403113e-38
1220.54 1817.73 -281.505 1.8403113e-38
1199.5601 1829.21 -281.23099 1.8403113e-38
1179.11 1838.66 -280.41699 1.8403113e-38
1132.48 1868.5699 -281.18301 1.8403113e-38
1110.52 1879.12 -280.436 1.8403113e-38
1085.47 1895.66 -280.99701 1.8403113e-38
1036.09 1924.36 -280.87601 1.8403113e-38
982.896 1957.2 -281.35101 1.8403113e-38
956.245 1972.29 -281.16101 1.8403113e-38
927.91602 1989.6899 -281.384 1.8403113e-38
899.23102 2006.76 -281.43799 1.8403113e-38
862.66803 2037.3 -284.26199 1.8403113e-38
838.42297 2044.1801 -281.94101 1.8403113e-38
799.43597 2076.47 -284.866 1.8403113e-38
766.23602 2097.1799 -285.23099 1.8403113e-38
727.11102 2126.8301 -287.302 1.8403113e-38
699.08398 2136.5701 -285.17801 1.8403113e-38
279.09201 2392.21 -287.77301 1.8403113e-38
-1304.8 3323.8999 -287.39899 1.8403113e-38
2670.3601 938.73901 -273.64301 1.8403113e-38
2636.6399 947.98999 -270.31699 1.8403113e-38
2661.8401 944.55603 -273.89401 1.8403113e-38
2632.75 958.17102 -272.79001 1.8403113e-38
2653.29 950.29199 -274.11301 1.8403113e-38
2614.8201 968.32501 -272.66199 1.8403113e-38
2624.1299 963.63 -272.909 1.8403113e-38
2607.4299 974.98499 -273.38599 1.8403113e-38
2589.95 985.33398 -273.40302 1.8403113e-38
2600.6201 982.27802 -274.41599 1.8403113e-38
2569.8799 992.513 -271.948 1.8403113e-38
2582.4199 991.79102 -274.03799 1.8403113e-38
2555.27 1005.75 -273.39999 1.8403113e-38
2566.5901 1003.81 -274.88101 1.8403113e-38
2538.6399 1016.57 -273.72101 1.8403113e-38
2551.76 1017 -276.28201 1.8403113e-38
2499.3 1029.8 -270.603 1.8403113e-38
2529.1001 1020.4 -273.159 1.8403113e-38
2515.1299 1034.49 -274.99799 1.8403113e-38
2524.1799 1030.0601 -275.28101 1.8403113e-38
2474.96 1045.96 -271.177 1.8403113e-38
2483.48 1041.15 -271.242 1.8403113e-38
2494.76 1040.05 -272.98001 1.8403113e-38
2459.4099 1057.6899 -271.98199 1.8403113e-38
2466.9399 1051.47 -271.423 1.8403113e-38
2443.1399 1068.39 -272.33099 1.8403113e-38
2451.8201 1063.85 -272.513 1.8403113e-38
2433.9199 1072.05 -271.77802 1.8403113e-38
2418.8899 1084.73 -272.978 1.8403113e-38
2430.6799 1085.1801 -275.29901 1.8403113e-38
2405.04 1099.62 -275.08801 1.8403113e-38
2413.95 1095.42 -275.41599 1.8403113e-38
2384.8401 1103.7 -272.63599 1.8403113e-38
2394.7 1101.3 -273.70599 1.8403113e-38
2371.3899 1119.78 -275.19601 1.8403113e-38
2363.2 1125.27 -275.40601 1.8403113e-38
2383.1599 1120.8101 -277.69199 1.8403113e-38
2354.95 1130.71 -275.58701 1.8403113e-38
2339.97 1144.75 -277.224 1.8403113e-38
2348.78 1140.27 -277.44501 1.8403113e-38
2313.75 1158.6 -276.72501 1.8403113e-38
2322.26 1153.49 -276.69299 1.8403113e-38
2331.54 1150 -277.314 1.8403113e-38
2215.73 1206.8199 -273.73901 1.8403113e-38
2235.27 1202.48 -275.98999 1.8403113e-38
2246.52 1204.15 -278.59201 1.8403113e-38
2227.53 1210.47 -277.064 1.8403113e-38
2200.77 1225.17 -276.73199 1.8403113e-38
2211.71 1226.3 -279.108 1.8403113e-38
2173.54 1239.24 -276.116 1.8403113e-38
2183.1201 1236.13 -276.90799 1.8403113e-38
2192.6799 1232.9301 -277.67099 1.8403113e-38
2154.3101 1245.24 -274.444 1.8403113e-38
2164.4399 1244.1 -275.95801 1.8403113e-38
2146.3301 1254.51 -275.87601 1.8403113e-38
2118.1499 1267.3 -274.685 1.8403113e-38
2127.96 1264.64 -275.66199 1.8403113e-38
2138.4299 1264.65 -277.59799 1.8403113e-38
2109.3401 1274.5 -275.314 1.8403113e-38
2090.8601 1285.92 -275.48099 1.8403113e-38
2101.02 1284.4 -276.883 1.8403113e-38
2072.5801 1299.85 -276.47601 1.8403113e-38
2062.6499 1302.99 -275.62601 1.8403113e-38
2083.74 1303.13 -279.56601 1.8403113e-38
2043.55 1314.65 -275.75299 1.8403113e-38
2053.45 1310.72 -276.35101 1.8403113e-38
2014.0601 1329.7 -275.02701 1.8403113e-38
2034.4301 1324.11 -277.03799 1.8403113e-38
2025.28 1334.46 -278.59399 1.8403113e-38
2004.84 1340.84 -276.81799 1.8403113e-38
1974.79 1359.72 -277.189 1.8403113e-38
1984.71 1351.62 -276.479 1.8403113e-38
1995.22 1350.04 -277.927 1.8403113e-38
1964.89 1369.65 -278.47501 1.8403113e-38
1932.96 1375.26 -274.33499 1.8403113e-38
1943.61 1373.16 -275.64301 1.8403113e-38
1954.29 1371.9301 -277.229 1.8403113e-38
1912.16 1394.41 -276.49899 1.8403113e-38
1922.98 1392.48 -277.892 1.8403113e-38
1890.5699 1404.6801 -275.73001 1.8403113e-38
1901.52 1403.87 -277.5 1.8403113e-38
1868.67 1416.5 -275.392 1.8403113e-38
1857.54 1425.62 -276.19699 1.8403113e-38
1879.76 1421.6 -279.04001 1.8403113e-38
1846.3 1432.74 -276.354 1.8403113e-38
1823.35 1449.58 -277.396 1.8403113e-38
1834.85 1442.64 -277.34399 1.8403113e-38
1788.1899 1468.88 -276.95499 1.8403113e-38
1799.72 1467.96 -278.79599 1.8403113e-38
1811.55 1460.25 -278.56299 1.8403113e-38
1752.24 1485.39 -275.48999 1.8403113e-38
1763.77 1486.67 -278.02399 1.8403113e-38
1775.61 1484.04 -279.384 1.8403113e-38
1739.11 1500.24 -277.72198 1.8403113e-38
1700.6899 1524.08 -278.103 1.8403113e-38
1687.48 1532.76 -278.384 1.8403113e-38
1673.41 1546.08 -279.965 1.8403113e-38
1659.99 1553.5699 -279.83401 1.8403113e-38
1646.42 1560.95 -279.64099 1.8403113e-38
1618.55 1577.23 -279.599 1.8403113e-38
1560.1899 1612.05 -279.73801 1.8403113e-38
1498.76 1646.55 -279.21399 1.8403113e-38
1465.79 1667.61 -279.72501 1.8403113e-38
1361.77 1727.74 -279.37299 1.8403113e-38
1245.16 1796.03 -279.24899 1.8403113e-38
1158.0601 1848.8 -279.70999 1.8403113e-38
1063.85 1903.9399 -279.60001 1.8403113e-38
1013.55 1933.01 -279.42599 1.8403113e-38
692.45801 2110.6799 -275.83701 1.8403113e-38
2682.6499 896.07001 -262.53101 1.8403113e-38
2677.29 904.526 -264.19299 1.8403113e-38
2670.49 925.17999 -269.41501 1.8403113e-38
2680.27 920.539 -269.76599 1.8403113e-38
669.22803 2076.4399 -260.80701 1.8403113e-38
684.64697 2087.3201 -267.06799 1.8403113e-38
332.19199 2281.5801 -262.88699 1.8403113e-38
2687.97 862.13098 -252.869 1.8403113e-38
2683.6699 871.185 -254.916 1.8403113e-38
2683.6001 883.90601 -258.892 1.8403113e-38
661.98401 2053.01 -252.119 1.8403113e-38
319.48401 2262.3201 -254.5 1.8403113e-38
2702.6599 812.72101 -240.089 1.8403113e-38
2693.53 829.67102 -243.717 1.8403113e-38
2701.1599 823.50299 -243.19099 1.8403113e-38
2693.29 841.63599 -247.42599 1.8403113e-38
2688.48 850.09399 -249.189 1.8403113e-38
646.91498 2041.9301 -245.86301 1.8403113e-38
618.73798 2050.4099 -243.317 1.8403113e-38
559.63501 2103.4099 -249.02 1.8403113e-38
305.81699 2244.5701 -246.407 1.8403113e-38
-1204.96 3126.6499 -243.979 1.8403113e-38
2705.6399 780.034 -230.388 1.8403113e-38
2703.5249 795.77148 -234.9325 1.8403113e-38
302.07401 2214.1799 -236.187 1.8403113e-38
-1226.2 3098.45 -231.21201 1.8403113e-38
2711.3999 750.35303 -222.14301 1.8403113e-38
2713.79 763.07001 -226.57201 1.8403113e-38
2711.3201 772.64001 -229.118 1.8403113e-38
287.71799 2197.8799 -228.423 1.8403113e-38
161.52 2249.97 -221.446 1.8403113e-38
2728.02 706.91101 -211.589 1.8403113e-38
2722.9299 714.41699 -213.002 1.8403113e-38
2715.3501 720.367 -213.468 1.8403113e-38
2715.75 731.35797 -216.99001 1.8403113e-38
2714.4299 741.36798 -219.884 1.8403113e-38
279.13199 2174.51 -219.508 1.8403113e-38
245.14999 2182.6499 -215.784 1.8403113e-38
-1259.59 3081.5901 -219.756 1.8403113e-38
2734.085 674.03552 -202.3985 1.8403113e-38
2733.8799 689.39801 -207.179 1.8403113e-38
2727.3 695.97803 -208.02699 1.8403113e-38
2735.53 639.65698 -191.883 1.8403113e-38
2732.3501 657.88599 -197.01401 1.8403113e-38
2740.3201 652.11902 -196.67599 1.8403113e-38
-1209.49 2988.5701 -199.84 1.8403113e-38
2750.03 598.23199 -181.571 1.8403113e-38
2743.3101 604.646 -182.341 1.8403113e-38
2745.1599 615.16199 -185.98 1.8403113e-38
2740.8799 622.77301 -187.578 1.8403113e-38
2738.25 631.21698 -189.739 1.8403113e-38
-1235.34 2965.6799 -187.88499 1.8403113e-38
-1326.9301 3000.51 -181.89 1.8403113e-38
2759.8701 555.54199 -170.00101 1.8403113e-38
2757.01 563.62402 -172.007 1.8403113e-38
2747.5601 578.19897 -174.83099 1.8403113e-38
2753.2 571.31299 -173.713 1.8403113e-38
2752.3401 589.76501 -179.343 1.8403113e-38
-1373.25 2994.21 -171.36 1.8403113e-38
2768.76 522.42902 -161.257 1.8403113e-38
2764.4451 534.42151 -164.22101 1.8403113e-38
2759.98 546.37701 -167.147 1.8403113e-38
2772.72 488.078 -151.216 1.8403113e-38
2768.6599 495.55801 -152.813 1.8403113e-38
2765.45 503.31601 -154.653 1.8403113e-38
2763.0801 511.37601 -156.742 1.8403113e-38
-1393.8 2965.3501 -158.513 1.8403113e-38
-3153.9099 3986.6101 -153.67999 1.8403113e-38
2781.8301 447.229 -140.08701 1.8403113e-38
2780.8999 455.61801 -142.547 1.8403113e-38
2777.1201 463.185 -144.22099 1.8403113e-38
2774.0801 475.33951 -147.472 1.8403113e-38
-1378.83 2906.8701 -142.938 1.8403113e-38
2779.6899 429.505 -134.134 1.8403113e-38
2781.3 421.42599 -131.89799 1.8403113e-38
2782.6699 438.85199 -137.616 1.8403113e-38
-2391.6599 3465.9099 -131.17799 1.8403113e-38
2791.1001 381.61301 -121.222 1.8403113e-38
2789.48 398.03601 -126.073 1.8403113e-38
2791.75 390.12799 -124.013 1.8403113e-38
2787.1399 405.92899 -128.116 1.8403113e-38
2783.78 413.57501 -129.894 1.8403113e-38
2799.1799 349.87701 -112.762 1.8403113e-38
2804.8701 342.53699 -111.51 1.8403113e-38
2800.1399 358.349 -115.596 1.8403113e-38
2797.1899 366.134 -117.493 1.8403113e-38
2796.0901 374.267 -119.839 1.8403113e-38
-1377.59 2816.27 -114.753 1.8403113e-38
2801.8799 309.19901 -100.502 1.8403113e-38
2812.0801 302.26801 -100.214 1.8403113e-38
2809.03 318.34299 -104.691 1.8403113e-38
2807.3899 326.366 -106.905 1.8403113e-38
2805.6899 334.379 -109.103 1.8403113e-38
2814.3999 269.77399 -90.452103 1.8403113e-38
2816.1299 278.09201 -93.378799 1.8403113e-38
2806.1001 285.271 -93.777603 1.8403113e-38
2804.76 293.255 -96.034798 1.8403113e-38
-1486.63 2814.3601 -94.014702 1.8403113e-38
-2303.1799 3290.1899 -92.410698 1.8403113e-38
-3158.28 3798.8301 -93.982101 1.8403113e-38
2821.4199 237.675 -81.681801 1.8403113e-38
2820.51 245.76801 -84.051003 1.8403113e-38
2819.52 253.85699 -86.405502 1.8403113e-38
2819.4399 262.01501 -88.948502 1.8403113e-38
2830.8101 197.21001 -70.724403 1.8403113e-38
2833.2 205.411 -73.738297 1.8403113e-38
2824.71 213.39999 -74.676697 1.8403113e-38
2823.145 225.54901 -78.195999 1.8403113e-38
-2312.01 3243.78 -76.225899 1.8403113e-38
2834.9351 184.955 -67.643951 1.8403113e-38
2677.51 175.56799 -35.622002 1.8403113e-38
-2159.8401 3032.4199 -38.048698 1.8403113e-38
-2198.1499 3009.74 -23.8589 1.8403113e-38
2886.5601 -27.5518 -10.5347 1.8403113e-38
2879.25 -17.222401 -12.423 1.8403113e-38
2864.04 -5.4897199 -13.2934 1.8403113e-38
2567.6899 159.856 -10.409 1.8403113e-38
2570.5601 165.659 -12.7592 1.8403113e-38
2577.3201 171.409 -15.8101 1.8403113e-38
2894.51 -65.105904 -0.224099 1.8403113e-38
2896.28 -56.525299 -3.2429299 1.8403113e-38
2892.1699 -46.5798 -5.6020699 1.8403113e-38
2891.8401 -37.578499 -8.3639202 1.8403113e-38
2559.6201 136.86301 -1.7071 1.8403113e-38
2557.8149 145.73599 -4.1564851 1.8403113e-38
2558.8601 154.412 -7.0703001 1.8403113e-38
-2209.8899 2968.6001 -8.7883797 1.8403113e-38
2897.3501 -93.110199 8.0329304 1.8403113e-38
2899.3799 -84.517799 4.9640398 1.8403113e-38
2901.3201 -75.904404 1.90308 1.8403113e-38
2555.79 102.243 9.8583698 1.8403113e-38
2564.0901 107.082 6.8073702 1.8403113e-38
2557.77 116.6075 4.9872799 1.8403113e-38
2559.21 125.218 2.0213001 1.8403113e-38
2559.4399 131.039 0.152953 1.8403113e-38
-2222.02 2927.99 6.1868601 1.8403113e-38
2904.6399 -132.299 18.9764 1.8403113e-38
2905.1101 -123.085 16.0002 1.8403113e-38
2901.6699 -112.756 13.3968 1.8403113e-38
2904.8201 -104.408 10.1955 1.8403113e-38
2591.23 54.456699 18.2988 1.8403113e-38
2579.3899 62.798401 17.8699 1.8403113e-38
2563.9102 74.522446 17.05195 1.8403113e-38
2564.74 86.270096 13.214399 1.8403113e-38
2565.1101 95.124901 10.3694 1.8403113e-38
3039.0801 -227.83701 24.106001 1.8403113e-38
2970.6599 -193.16901 25.872299 1.8403113e-38
2912.1599 -163.18401 27.274401 1.8403113e-38
2909.1201 -152.62199 24.5222 1.8403113e-38
2911.6799 -143.95599 21.332199 1.8403113e-38
-2245.4199 2895.04 20.8419 1.8403113e-38
-2235.74 2840.72 36.0914 1.8403113e-38
2773.52 -141.311 46.023499 1.8403113e-38
-2314.9299 2843.48 49.854599 1.8403113e-38
2656.5 -113.175 58.814301 1.8403113e-38
2671.9099 -111.554 55.4599 1.8403113e-38
2647.865 -135.88501 67.531403 1.8403113e-38
2654.74 -123.682 62.43465 1.8403113e-38
-2458.0701 2884.73 63.356499 1.8403113e-38
2638.4399 -165.892 78.683098 1.8403113e-38
2641.25 -159.526 76.167198 1.8403113e-38
2636.2051 -145.91299 72.829956 1.8403113e-38
-2686.5901 2975.4299 77.124199 1.8403113e-38
2624.8101 -190.17599 88.815903 1.8403113e-38
2627.8501 -183.937 86.297798 1.8403113e-38
2634.1001 -175.38449 82.461601 1.8403113e-38
2619.98 -219.14799 98.794296 1.8403113e-38
2621.52 -212.019 96.2742 1.8403113e-38
2622.99 -204.88901 93.766998 1.8403113e-38
2627.9399 -199.586 91.1894 1.8403113e-38
-3553.0801 3444.3201 90.123901 1.8403113e-38
2737 -311.07501 106.009 1.8403113e-38
2658.76 -274.53 109 1.8403113e-38
2676.7 -267.43399 103.461 1.8403113e-38
2627.1101 -231.13499 101.238 1.8403113e-38
-3612.3501 3419.04 108.999 1.8403113e-38
