# .PCD v0.7 - Point Cloud Data file format
VERSION 0.7
FIELDS x y z rgb
SIZE 4 4 4 4
TYPE F F F F
COUNT 1 1 1 1
WIDTH 349
HEIGHT 1
VIEWPOINT 0 0 0 1 0 0 0
POINTS 349
DATA ascii
415.297 2283.8401 -291.151 1.8403113e-38
371.616 2307.6499 -290.83499 1.8403113e-38
310.98099 2355.54 -295.091 1.8403113e-38
-251.28999 2670.6299 -293.73801 1.8403113e-38
-320.66299 2708 -293.095 1.8403113e-38
-391.082 2746.75 -292.70001 1.8403113e-38
-473.32001 2794.73 -293.10199 1.8403113e-38
-561.48199 2849.0601 -294.448 1.8403113e-38
-651.13 2900.47 -294.603 1.8403113e-38
-733.17297 2943.6299 -293.517 1.8403113e-38
-831.71698 2999.6899 -293.54501 1.8403113e-38
-936.48499 3061.79 -294.366 1.8403113e-38
-1046.46 3124.1201 -294.32101 1.8403113e-38
-1155.75 3185.28 -294.03299 1.8403113e-38
-1276.05 3252.02 -293.53 1.8403113e-38
-1379.86 3302.3999 -290.811 1.8403113e-38
2313.79 1182.47 -283.85599 1.8403113e-38
2281.29 1209.26 -286.49399 1.8403113e-38
2301.04 1203.76 -288.29999 1.8403113e-38
2311.24 1202.26 -289.66199 1.8403113e-38
2271.01 1211.54 -285.366 1.8403113e-38
2292.9399 1211.42 -289.271 1.8403113e-38
1623.24 1563.28 -280.24399 1.8403113e-38
1594.15 1583.86 -281.526 1.8403113e-38
1565.3101 1599.1801 -281.19101 1.8403113e-38
1550.58 1605.65 -280.591 1.8403113e-38
1536.34 1612.08 -280.06699 1.8403113e-38
1489.17 1639.74 -280.341 1.8403113e-38
1455.91 1661.5 -281.25 1.8403113e-38
1422.37 1680.75 -281.314 1.8403113e-38
1371.73 1706.17 -280.25299 1.8403113e-38
1352.1 1720.02 -281.10901 1.8403113e-38
1315.97 1738.13 -280.345 1.8403113e-38
1332.86 1733.85 -282.02701 1.8403113e-38
1297.61 1747.9301 -280.146 1.8403113e-38
1276.34 1762.8 -281.02899 1.8403113e-38
1256.84 1774.02 -281.07599 1.8403113e-38
1215.41 1798.34 -281.32501 1.8403113e-38
1129.61 1844.3 -280.44601 1.8403113e-38
1083.63 1869.4301 -280.133 1.8403113e-38
1034.88 1897.05 -280.11401 1.8403113e-38
926.17102 1963.7 -281.66501 1.8403113e-38
897.65002 1979.61 -281.573 1.8403113e-38
866.216 2001.5601 -282.86899 1.8403113e-38
839.87402 2011.63 -281.32199 1.8403113e-38
803.25598 2040.53 -283.88599 1.8403113e-38
771.284 2058.3999 -283.79401 1.8403113e-38
734.15503 2085.5801 -285.72198 1.8403113e-38
682.51501 2097.97 -280.36099 1.8403113e-38
702.88702 2100.1101 -284.698 1.8403113e-38
286.55499 2350.1699 -288.99899 1.8403113e-38
2669.8401 939.862 -271.077 1.8403113e-38
2662.2 946.151 -271.694 1.8403113e-38
2645.75 958.20099 -272.55099 1.8403113e-38
2654.8401 953.36603 -272.655 1.8403113e-38
2629.1499 969.94702 -273.28299 1.8403113e-38
2636.96 963.94501 -272.78799 1.8403113e-38
2621.5901 976.88702 -274.121 1.8403113e-38
2600.8799 984.03998 -272.66199 1.8403113e-38
2611.0901 980.01599 -273.224 1.8403113e-38
2585.21 996.36401 -273.746 1.8403113e-38
2594.2 991.12299 -273.70401 1.8403113e-38
2566.27 1004.85 -273.02899 1.8403113e-38
2575.9299 1000.5 -273.388 1.8403113e-38
2548.49 1014.41 -272.85699 1.8403113e-38
2560.01 1012.4 -274.29099 1.8403113e-38
2530.02 1022.9 -272.22299 1.8403113e-38
2545.1001 1025.49 -275.75201 1.8403113e-38
2506.0701 1039.7 -273.23401 1.8403113e-38
2517.22 1038.48 -274.854 1.8403113e-38
2527.04 1034.64 -275.40302 1.8403113e-38
2476.4299 1049.27 -270.93701 1.8403113e-38
2484.6001 1043.55 -270.595 1.8403113e-38
2496.25 1043.33 -272.62 1.8403113e-38
2451.9099 1064.72 -271.418 1.8403113e-38
2460.3501 1060.24 -271.51801 1.8403113e-38
2472.9199 1060.8199 -273.961 1.8403113e-38
2426.6399 1079.8 -271.64801 1.8403113e-38
2436.0901 1076.08 -272.16699 1.8403113e-38
2444.0901 1070.95 -271.98199 1.8403113e-38
2419.5601 1086.38 -272.45901 1.8403113e-38
2401.9099 1094.8 -271.95099 1.8403113e-38
2410.55 1090.75 -272.22198 1.8403113e-38
2394.73 1102.27 -273.022 1.8403113e-38
2380.52 1116.8199 -275.07401 1.8403113e-38
2390.1899 1113.53 -275.77301 1.8403113e-38
2363.76 1127.05 -275.29901 1.8403113e-38
2372.1499 1121.4399 -275.03101 1.8403113e-38
2348.1001 1139.53 -276.431 1.8403113e-38
2356.6101 1134.04 -276.22501 1.8403113e-38
2329.29 1145.86 -275.05499 1.8403113e-38
2338.71 1142.21 -275.591 1.8403113e-38
2323.1101 1155.16 -276.888 1.8403113e-38
2314.78 1161.24 -277.314 1.8403113e-38
2233.98 1198.01 -274.42599 1.8403113e-38
2226.0901 1206.0601 -275.556 1.8403113e-38
2245.28 1200.66 -277.297 1.8403113e-38
2256.4399 1201.26 -279.491 1.8403113e-38
2198.8899 1217.9399 -274.42599 1.8403113e-38
2217.3101 1210.33 -275.32999 1.8403113e-38
2189.8301 1223.05 -274.41599 1.8403113e-38
2210.1299 1220.95 -277.401 1.8403113e-38
2172.51 1234.74 -275 1.8403113e-38
2182.53 1232.46 -276.07999 1.8403113e-38
2153.8999 1242.52 -274.121 1.8403113e-38
2165.25 1244.95 -276.927 1.8403113e-38
2136.3 1254.59 -274.77499 1.8403113e-38
2145.98 1250.8 -275.315 1.8403113e-38
2108.8301 1268.91 -274.37 1.8403113e-38
2118.8201 1268.23 -275.95099 1.8403113e-38
2127.51 1260 -274.90701 1.8403113e-38
2098.97 1272.4 -273.70099 1.8403113e-38
2090.8899 1282.16 -275.33801 1.8403113e-38
2072.3999 1294.23 -275.83301 1.8403113e-38
2081.99 1291.0699 -276.55701 1.8403113e-38
2043.22 1308.11 -274.98099 1.8403113e-38
2053.5901 1306.01 -276.181 1.8403113e-38
2063.45 1303.9301 -277.29599 1.8403113e-38
2013.39 1316.52 -272.27899 1.8403113e-38
2033.61 1311.9 -274.452 1.8403113e-38
2004.08 1327.6801 -274.13901 1.8403113e-38
2024.24 1321.33 -275.75299 1.8403113e-38
1994.66 1334.9399 -274.742 1.8403113e-38
1984.92 1345.03 -276.186 1.8403113e-38
1964.9 1358.3199 -276.793 1.8403113e-38
1975.52 1354.99 -277.647 1.8403113e-38
1944.29 1368.46 -276.297 1.8403113e-38
1955.1 1366.24 -277.53799 1.8403113e-38
1934.34 1377.17 -277.267 1.8403113e-38
1913.29 1388.73 -277.14099 1.8403113e-38
1923.83 1387.77 -278.73001 1.8403113e-38
1880.72 1399.74 -274.76999 1.8403113e-38
1891.87 1399 -276.54001 1.8403113e-38
1902.45 1397.26 -277.892 1.8403113e-38
1870.12 1409.88 -276.07501 1.8403113e-38
1836.53 1428.41 -275.89899 1.8403113e-38
1847.9301 1427.09 -277.53101 1.8403113e-38
1858.77 1426.65 -279.34 1.8403113e-38
1825.38 1437.26 -276.69699 1.8403113e-38
1802.51 1447.0601 -275.686 1.8403113e-38
1790.5 1454.6801 -275.93799 1.8403113e-38
1813.22 1453.66 -279.702 1.8403113e-38
1778.84 1463.16 -276.526 1.8403113e-38
1754.61 1478.86 -277.142 1.8403113e-38
1765.88 1479.17 -279.263 1.8403113e-38
1741.88 1487.98 -277.73901 1.8403113e-38
1729.64 1496.0699 -278.09698 1.8403113e-38
1716.6899 1504.02 -278.28601 1.8403113e-38
1691.0699 1518.66 -278.315 1.8403113e-38
1704.29 1510.9399 -278.24701 1.8403113e-38
1678.28 1526.3199 -278.439 1.8403113e-38
1652.01 1539.35 -277.841 1.8403113e-38
1664.77 1533.8101 -278.384 1.8403113e-38
1638.25 1546.6 -277.66299 1.8403113e-38
1609.29 1569.34 -279.65399 1.8403113e-38
1581.26 1583.04 -278.94901 1.8403113e-38
1521.12 1619.22 -279.59201 1.8403113e-38
1506.15 1627.27 -279.44601 1.8403113e-38
1474.35 1645.63 -279.54001 1.8403113e-38
1441.3101 1665.23 -279.80399 1.8403113e-38
1407.21 1685.11 -279.96799 1.8403113e-38
1390.14 1692.87 -279.35501 1.8403113e-38
1238.61 1779.38 -279.495 1.8403113e-38
1196.79 1803.3 -279.547 1.8403113e-38
1176.05 1814.59 -279.39401 1.8403113e-38
1154 1826.3101 -279.14001 1.8403113e-38
1107.8199 1853.74 -279.517 1.8403113e-38
1063.48 1873.96 -277.94601 1.8403113e-38
1010.82 1908.11 -279.28699 1.8403113e-38
985.44897 1922.7 -279.34698 1.8403113e-38
957.68701 1939.3 -279.60699 1.8403113e-38
673.466 2076.05 -271.79501 1.8403113e-38
2683.4199 898.50403 -260.42999 1.8403113e-38
2675.47 917.90698 -265.14001 1.8403113e-38
2674.99 930.61298 -269.07501 1.8403113e-38
663.37598 2057.8601 -264.22501 1.8403113e-38
322.79501 2265.05 -268.57501 1.8403113e-38
2690.22 878.48499 -255.315 1.8403113e-38
2684.51 886.17603 -256.72299 1.8403113e-38
2673.27 902.41498 -259.84299 1.8403113e-38
625.565 2047.12 -254.02901 1.8403113e-38
651.12402 2041.64 -256.89001 1.8403113e-38
584.026 2073.8501 -255.02299 1.8403113e-38
317.03799 2236.01 -258.349 1.8403113e-38
-1203 3083.75 -253.408 1.8403113e-38
2701.1699 825.23297 -240.43201 1.8403113e-38
2697.1699 834.47101 -242.63499 1.8403113e-38
2695.5901 845.104 -245.717 1.8403113e-38
2694.3301 856.71198 -249.16299 1.8403113e-38
2687.3601 863.21802 -249.96899 1.8403113e-38
299.64401 2188.76 -240.27 1.8403113e-38
310.11899 2210.73 -249.105 1.8403113e-38
-1226.1899 3058.9199 -241.37801 1.8403113e-38
2706.6299 794.31702 -231.627 1.8403113e-38
2700.9299 801.49701 -232.87601 1.8403113e-38
2702.51 814.64398 -237.32001 1.8403113e-38
290.284 2167.3501 -231.812 1.8403113e-38
2714.4199 765.41199 -223.881 1.8403113e-38
2705.5801 770.84698 -224.011 1.8403113e-38
2706.3101 782.37201 -227.78999 1.8403113e-38
277.87799 2148.3899 -223.58 1.8403113e-38
243.755 2157.47 -220.32001 1.8403113e-38
168.31599 2213.3101 -224.433 1.8403113e-38
-1219.36 3004.5 -225.383 1.8403113e-38
2724.95 717.96698 -210.758 1.8403113e-38
2718.3 724.26001 -211.554 1.8403113e-38
2716.99 734.41901 -214.532 1.8403113e-38
2717.3999 745.284 -218.04601 1.8403113e-38
2711.8701 752.89001 -219.459 1.8403113e-38
-1232.9301 2971.52 -212.509 1.8403113e-38
2733.27 681.104 -200.586 1.8403113e-38
2734.3501 691.78302 -204.16 1.8403113e-38
2726.8899 708.30798 -208.05 1.8403113e-38
2731.78 700.95898 -206.60201 1.8403113e-38
-1274.9399 2961.6699 -201.839 1.8403113e-38
2749.6799 639.25403 -190.29201 1.8403113e-38
2745.96 647.53198 -192.244 1.8403113e-38
2740.7 654.53003 -193.51199 1.8403113e-38
2742.72 665.92499 -197.48199 1.8403113e-38
2738.98 673.81 -199.30499 1.8403113e-38
-1368.63 2998.26 -196.578 1.8403113e-38
-3170.6599 4009.28 -192.617 1.8403113e-38
2748.8999 619.26501 -183.826 1.8403113e-38
2751.28 610.961 -181.625 1.8403113e-38
2742.8 626.242 -184.937 1.8403113e-38
-1387.54 2966.8999 -183.254 1.8403113e-38
2754.1799 574.34698 -170.558 1.8403113e-38
2755.6699 584.14301 -173.92599 1.8403113e-38
2747.6699 599.47699 -177.342 1.8403113e-38
2752.48 592.40399 -175.968 1.8403113e-38
2763.6101 541.31598 -161.8 1.8403113e-38
2757.27 557.11401 -165.66 1.8403113e-38
2767.27 551.70203 -165.745 1.8403113e-38
2757.1899 566.09601 -168.48801 1.8403113e-38
2766.3201 506.33701 -151.216 1.8403113e-38
2771.3 516.80499 -155.425 1.8403113e-38
2768.76 525.11102 -157.597 1.8403113e-38
2763.6001 532.01202 -158.854 1.8403113e-38
-1393.97 2880.96 -154.89799 1.8403113e-38
-2847.4199 3702.51 -153.633 1.8403113e-38
2777.0601 465.724 -140.29401 1.8403113e-38
2780.55 475.71799 -144.084 1.8403113e-38
2775.78 482.79001 -145.465 1.8403113e-38
2768.6799 498.078 -149.02699 1.8403113e-38
2772.6499 490.78799 -147.433 1.8403113e-38
2787.05 434.02802 -132.05901 1.8403113e-38
2783.0449 445.93951 -135.10901 1.8403113e-38
2780.76 458.349 -138.625 1.8403113e-38
2788.55 404.7695 -123.068 1.8403113e-38
2784.55 416.38 -126.024 1.8403113e-38
2782.96 424.66101 -128.35899 1.8403113e-38
-1409.22 2804.2 -127.863 1.8403113e-38
-2974.5701 3674.99 -122.069 1.8403113e-38
2797.8701 368.91699 -113.396 1.8403113e-38
2800.75 361.32001 -111.51 1.8403113e-38
2796.73 377.24301 -115.827 1.8403113e-38
2793.71 384.797 -117.675 1.8403113e-38
2791.47 392.90701 -119.839 1.8403113e-38
-1476.97 2814.55 -118.962 1.8403113e-38
2808.77 325.21899 -101.52699 1.8403113e-38
2797.6101 335.827 -102.879 1.8403113e-38
2804.49 345.345 -107.127 1.8403113e-38
2802.7 353.146 -109.274 1.8403113e-38
-2322.02 3259.74 -107.951 1.8403113e-38
2816.3301 289.00699 -91.425201 1.8403113e-38
2813.99 297.16501 -93.587097 1.8403113e-38
2813.5901 305.138 -96.038597 1.8403113e-38
2810.1399 313.14099 -97.950996 1.8403113e-38
2818.98 256.53601 -81.624496 1.8403113e-38
2826.71 265.45999 -85.838501 1.8403113e-38
2817.8 272.767 -86.549797 1.8403113e-38
2816.5801 281.03601 -88.948502 1.8403113e-38
2830.9399 216.463 -71.092003 1.8403113e-38
2831.25 224.459 -73.679001 1.8403113e-38
2821.6399 232.472 -74.4879 1.8403113e-38
2819.9199 248.64799 -79.298103 1.8403113e-38
2829.6599 240.79201 -78.562798 1.8403113e-38
-2278.1001 3124.29 -72.978897 1.8403113e-38
2834.9099 183.783 -61.463799 1.8403113e-38
2833.55 191.77 -63.745998 1.8403113e-38
2831.335 204.11951 -67.256599 1.8403113e-38
2834.25 175.424 -58.699699 1.8403113e-38
-2197.1101 3016.1101 -53.3004 1.8403113e-38
-2213.3501 2979.21 -38.701401 1.8403113e-38
-2196.28 2917.78 -22.3293 1.8403113e-38
2602.9399 173.912 -16.6404 1.8403113e-38
2897.76 -45.088402 -0.326947 1.8403113e-38
2892.5701 -35.1591 -2.5364699 1.8403113e-38
2893.1899 -26.167 -5.4935498 1.8403113e-38
2886.8401 -16.180201 -7.5131698 1.8403113e-38
2566.6899 157.082 -4.7981901 1.8403113e-38
2569.595 165.883 -8.1060905 1.8403113e-38
-2201.5601 2874.3501 -7.6354399 1.8403113e-38
2900.99 -73.276703 8.0128603 1.8403113e-38
2902.9299 -64.437401 4.8669 1.8403113e-38
2896.96 -54.126499 2.6763301 1.8403113e-38
2554.0098 125.9555 7.332015 1.8403113e-38
2554.3999 134.547 4.5426302 1.8403113e-38
2556.6401 143.1595 1.414832 1.8403113e-38
2547.9299 152.48199 0.030100901 1.8403113e-38
-2214.1299 2833.73 7.48142 1.8403113e-38
2908.8799 -112.379 18.9697 1.8403113e-38
2904.47 -101.574 16.3428 1.8403113e-38
2905.6101 -92.8685 13.3835 1.8403113e-38
2900.03 -81.937302 10.9267 1.8403113e-38
2646.5601 40.3764 17.7792 1.8403113e-38
2556.8501 87.548698 18.9764 1.8403113e-38
2557.7549 96.302155 16.043301 1.8403113e-38
2560.52 104.817 12.8519 1.8403113e-38
2551.55 117.579 10.4257 1.8403113e-38
2560.97 110.501 10.9723 1.8403113e-38
-2327.3501 2859.55 19.660999 1.8403113e-38
2917.8799 -143.26199 27.126301 1.8403113e-38
2913.6699 -132.646 24.522301 1.8403113e-38
2906.6201 -120.828 22.0508 1.8403113e-38
2568.3799 67.908302 23.119101 1.8403113e-38
2574.3501 60.606998 24.357 1.8403113e-38
2562.3101 74.821297 22.0236 1.8403113e-38
2562.0701 80.949303 20.1262 1.8403113e-38
3034.79 -223.76601 31.5882 1.8403113e-38
2969.1299 -190.278 32.7929 1.8403113e-38
2914.49 -161.314 33.447701 1.8403113e-38
2915.22 -152.19 30.430099 1.8403113e-38
-2445.6799 2884.1299 33.152401 1.8403113e-38
-2587.47 2923.26 46.255699 1.8403113e-38
2775.6799 -139.56799 51.518501 1.8403113e-38
2679.7 -111.679 59.945202 1.8403113e-38
-3123.77 3194.3799 56.8564 1.8403113e-38
2650.9199 -123.283 68.790604 1.8403113e-38
2659.95 -119.208 65.877502 1.8403113e-38
2666.98 -114.597 63.154701 1.8403113e-38
2645.9199 -151.442 78.601196 1.8403113e-38
2639.55 -140.866 76.399498 1.8403113e-38
2647.6399 -136.97701 73.714302 1.8403113e-38
2648.46 -129.59599 71.232201 1.8403113e-38
-3579.1899 3409.02 70.789001 1.8403113e-38
2634.4199 -176.927 88.733902 1.8403113e-38
2632.99 -164.5945 85.089203 1.8403113e-38
2634.1101 -153.567 81.398102 1.8403113e-38
-3680.5 3406.29 89.864197 1.8403113e-38
2622.8701 -202.424 98.879501 1.8403113e-38
2626.1499 -196.052 96.2742 1.8403113e-38
2624.75 -187.69901 93.881699 1.8403113e-38
2618.9299 -176.87399 91.502602 1.8403113e-38
2645.1499 -247.258 109.064 1.8403113e-38
2624.3701 -227.084 106.415 1.8403113e-38
2619.8101 -216.694 103.946 1.8403113e-38
2629.3899 -213.661 101.264 1.8403113e-38
-3332.1899 3149.3601 108.568 1.8403113e-38
