# .PCD v0.7 - Point Cloud Data file format
VERSION 0.7
FIELDS x y z rgb
SIZE 4 4 4 4
TYPE F F F F
COUNT 1 1 1 1
WIDTH 346
HEIGHT 1
VIEWPOINT 0 0 0 1 0 0 0
POINTS 346
DATA ascii
586.56299 2756.96 -291.55099 1.8403113e-38
558.89001 2760.0901 -291.37299 1.8403113e-38
410.746 2776.6599 -290.341 1.8403113e-38
345.01501 2784.8701 -290.19299 1.8403113e-38
379.11401 2780.05 -290.06699 1.8403113e-38
198.017 2806.01 -290.86801 1.8403113e-38
-3.50193 2830.0801 -290.01901 1.8403113e-38
-144.298 2849.0701 -290.20901 1.8403113e-38
-195.069 2856.1899 -290.37701 1.8403113e-38
-251.142 2865.73 -291.168 1.8403113e-38
2899.05 2422.47 -280.259 1.8403113e-38
2674.27 2452.5601 -280.483 1.8403113e-38
2567.8899 2465.6799 -280.185 1.8403113e-38
2581.1101 2467.23 -281.36899 1.8403113e-38
2479.1399 2477.21 -280.14499 1.8403113e-38
2502.73 2477.8999 -281.51199 1.8403113e-38
2511.74 2472.6299 -280.034 1.8403113e-38
2534.1399 2470.1699 -280.20801 1.8403113e-38
2547.22 2472.0901 -281.51999 1.8403113e-38
2383.99 2489.95 -280.241 1.8403113e-38
2425.75 2484.28 -280.17099 1.8403113e-38
2438.7 2488.24 -282.21301 1.8403113e-38
2448.24 2484.3201 -281.25101 1.8403113e-38
2457.75 2480.3301 -280.26001 1.8403113e-38
2333.6899 2499.8601 -281.436 1.8403113e-38
2374.0801 2492.46 -280.67599 1.8403113e-38
2395.99 2492.6101 -281.76999 1.8403113e-38
2408.0801 2495.1499 -283.259 1.8403113e-38
2417.6799 2491.49 -282.39099 1.8403113e-38
2282.78 2505.8 -281.173 1.8403113e-38
2294.0701 2508.5801 -282.70901 1.8403113e-38
2304.0601 2506.75 -282.521 1.8403113e-38
2313.76 2503.9299 -281.965 1.8403113e-38
2222.53 2512.6201 -280.78201 1.8403113e-38
2154.29 2528.1599 -283.16299 1.8403113e-38
2024.8101 2538.54 -280.78201 1.8403113e-38
2044.63 2535.54 -280.63501 1.8403113e-38
2064.8601 2538.77 -282.759 1.8403113e-38
2145.3701 2536.1699 -285.63101 1.8403113e-38
1944.73 2548.24 -280.49399 1.8403113e-38
1954.83 2546.5 -280.341 1.8403113e-38
1964.88 2545.6101 -280.495 1.8403113e-38
1974.88 2548.3999 -281.97501 1.8403113e-38
1984.9301 2546.3999 -281.73099 1.8403113e-38
2014.92 2541.8 -281.491 1.8403113e-38
2095.9099 2547.1899 -287.26501 1.8403113e-38
2105.96 2546.0801 -287.341 1.8403113e-38
2115.78 2543.02 -286.702 1.8403113e-38
2125.79 2541.75 -286.71701 1.8403113e-38
2136.45 2545.05 -288.41199 1.8403113e-38
1904.09 2553.46 -280.45401 1.8403113e-38
1914.3101 2552.05 -280.427 1.8403113e-38
2086.1101 2551.02 -288.185 1.8403113e-38
1810.55 2565.1201 -280.23499 1.8403113e-38
1820.46 2568.22 -281.823 1.8403113e-38
1831.46 2563.76 -280.73499 1.8403113e-38
1851.9399 2564.8701 -282.10199 1.8403113e-38
1734.66 2576.3101 -280.67999 1.8403113e-38
1745.14 2577.24 -281.51199 1.8403113e-38
1777.98 2572.0701 -281.20099 1.8403113e-38
1655.77 2586.45 -280.60999 1.8403113e-38
1666.65 2587.1299 -281.36899 1.8403113e-38
1700.1899 2584.9199 -282.16 1.8403113e-38
1710.78 2586.1399 -283.10001 1.8403113e-38
1572.54 2597.8701 -280.79001 1.8403113e-38
1607.04 2598.1399 -282.521 1.8403113e-38
1630.85 2594.79 -282.439 1.8403113e-38
1643.22 2591.1299 -281.70499 1.8403113e-38
1676.78 2590.46 -283.04901 1.8403113e-38
1687.92 2590.03 -283.42401 1.8403113e-38
1521.33 2608.1299 -282.07199 1.8403113e-38
1548.28 2600.1299 -280.45999 1.8403113e-38
1559.1 2602.6201 -281.871 1.8403113e-38
1583.01 2601.05 -282.43399 1.8403113e-38
1594.4301 2601.45 -283.11899 1.8403113e-38
1617.51 2601.04 -284.06299 1.8403113e-38
1430.65 2617.5701 -281.18799 1.8403113e-38
1444.53 2614.99 -280.914 1.8403113e-38
1455.9399 2617.49 -282.354 1.8403113e-38
1470.48 2612.9099 -281.38901 1.8403113e-38
1483.37 2611.6799 -281.55499 1.8403113e-38
1496.2 2610.3201 -281.67401 1.8403113e-38
1507.14 2613.25 -283.24799 1.8403113e-38
1532.23 2610.8501 -283.56799 1.8403113e-38
1376.5 2622.23 -280.306 1.8403113e-38
1387.61 2626.1599 -282.25299 1.8403113e-38
1401.76 2624.02 -282.147 1.8403113e-38
1416.6801 2620.01 -281.40701 1.8403113e-38
1302.54 2633.49 -280.87 1.8403113e-38
1313.79 2638.05 -283.04901 1.8403113e-38
1328.8199 2635.8101 -282.953 1.8403113e-38
1343.77 2633.4199 -282.79599 1.8403113e-38
1358.17 2631.71 -282.86301 1.8403113e-38
1268.6801 2642.99 -282.69601 1.8403113e-38
1284.45 2640.3999 -282.508 1.8403113e-38
1137.52 2659.8501 -282.577 1.8403113e-38
1170.45 2657.3101 -283.21799 1.8403113e-38
1186.26 2656.5701 -283.70001 1.8403113e-38
1202 2655.6699 -284.11801 1.8403113e-38
1218.1801 2653.79 -284.20401 1.8403113e-38
1233.76 2652.54 -284.49301 1.8403113e-38
1249.26 2651.1399 -284.71799 1.8403113e-38
1100.8199 2666.3501 -283.185 1.8403113e-38
1121.49 2660.0701 -281.897 1.8403113e-38
1149.0699 2665.8101 -285.272 1.8403113e-38
1007.06 2678.8701 -283.26501 1.8403113e-38
1023.63 2679.8401 -284.39999 1.8403113e-38
1062.48 2673.54 -283.966 1.8403113e-38
1078.8199 2673.9299 -284.88 1.8403113e-38
983.67902 2685.97 -284.72299 1.8403113e-38
1040.15 2680.6299 -285.46701 1.8403113e-38
880.72198 2698.22 -284.27301 1.8403113e-38
903.604 2693.9299 -283.80499 1.8403113e-38
920.61102 2695.97 -285.34698 1.8403113e-38
943.86298 2690.4199 -284.444 1.8403113e-38
961.341 2691.3 -285.58701 1.8403113e-38
833.836 2706.6899 -285.10901 1.8403113e-38
857.68597 2702.24 -284.633 1.8403113e-38
762.021 2717.53 -285.62399 1.8403113e-38
787.00897 2713.27 -285.271 1.8403113e-38
804.48102 2716.51 -287.26501 1.8403113e-38
708.09399 2728.53 -287.04199 1.8403113e-38
738.24597 2720.0801 -285.42099 1.8403113e-38
631.88202 2736.71 -286.388 1.8403113e-38
656.95801 2734.76 -286.86899 1.8403113e-38
678.40198 2735.8899 -288.29501 1.8403113e-38
538.36499 2756.3401 -289.048 1.8403113e-38
450.42801 2765.8701 -288.32501 1.8403113e-38
475.698 2766.71 -289.823 1.8403113e-38
507.49899 2761.4099 -289.41599 1.8403113e-38
311.48499 2788.6101 -289.95901 1.8403113e-38
245.446 2793.5601 -288.61899 1.8403113e-38
277.77301 2791.9099 -289.55399 1.8403113e-38
131.63699 2807.48 -288.25699 1.8403113e-38
163.71001 2807.8401 -289.90601 1.8403113e-38
82.5839 2818.7 -289.98401 1.8403113e-38
41.277699 2823.5601 -289.784 1.8403113e-38
-42.808701 2832.1001 -288.88901 1.8403113e-38
-92.991302 2840.6799 -289.60901 1.8403113e-38
-289.85001 2863.5701 -288.55801 1.8403113e-38
-403.37799 2878.8601 -288.70099 1.8403113e-38
-347.30899 2872.1399 -288.92999 1.8403113e-38
-458.87299 2884.26 -288.026 1.8403113e-38
-530.12201 2897.7 -289.50299 1.8403113e-38
-589.672 2903.3 -288.707 1.8403113e-38
-721.81598 2918.46 -287.92499 1.8403113e-38
-656.45203 2911.8401 -288.63 1.8403113e-38
-795.38098 2928.27 -287.98599 1.8403113e-38
-871.073 2937.8999 -287.879 1.8403113e-38
-948.901 2947.29 -287.58499 1.8403113e-38
-1034.21 2959.04 -287.789 1.8403113e-38
-1110.1 2964.73 -286.25201 1.8403113e-38
-1198.87 2975.26 -285.85101 1.8403113e-38
-1298.86 2989.47 -286.24701 1.8403113e-38
-1386.65 2996.3899 -284.59 1.8403113e-38
-1492.96 3010.0601 -284.495 1.8403113e-38
-1607.04 3025.28 -284.58899 1.8403113e-38
-1738.12 3045.75 -285.77301 1.8403113e-38
-1867.97 3063.4199 -286.00699 1.8403113e-38
-1994.6899 3077.5801 -285.121 1.8403113e-38
-2120.0701 3089.05 -283.327 1.8403113e-38
-2268.23 3107.2 -282.866 1.8403113e-38
3050.1201 2382.55 -273 1.8403113e-38
2994.3301 2398.5601 -276.138 1.8403113e-38
3023.29 2391.8301 -275.07999 1.8403113e-38
3043.5901 2393.3101 -276.57401 1.8403113e-38
2933.96 2407.3201 -276.44299 1.8403113e-38
2968.9299 2407.95 -278.32599 1.8403113e-38
2984.0801 2405.6299 -278.20599 1.8403113e-38
3015.21 2401.1101 -278.048 1.8403113e-38
2875.5801 2414.6899 -276.341 1.8403113e-38
2904.02 2410.6499 -276.229 1.8403113e-38
2925.04 2415.22 -278.87201 1.8403113e-38
2953.8101 2410.0901 -278.384 1.8403113e-38
2812.01 2429.99 -278.85501 1.8403113e-38
2821.05 2423.02 -276.76599 1.8403113e-38
2835.75 2422.4099 -277.24399 1.8403113e-38
2850.5 2421.6399 -277.66299 1.8403113e-38
2865.96 2421.3999 -278.30899 1.8403113e-38
2732.0901 2438.48 -278.138 1.8403113e-38
2747.0801 2439.6799 -279.28 1.8403113e-38
2756.2 2433.24 -277.38699 1.8403113e-38
2770.0801 2432.6599 -277.83499 1.8403113e-38
2782.79 2430.45 -277.63901 1.8403113e-38
2797.98 2431.04 -278.569 1.8403113e-38
2632.6699 2449 -277.23001 1.8403113e-38
2658 2448.1299 -278.11301 1.8403113e-38
2685.1599 2449.04 -279.729 1.8403113e-38
2693.24 2441.5701 -277.41299 1.8403113e-38
2708.04 2443.23 -278.71399 1.8403113e-38
2721.2 2442.4399 -279.052 1.8403113e-38
2600.78 2458.6001 -279.18701 1.8403113e-38
2613.6201 2458.98 -279.92999 1.8403113e-38
2624.45 2456.03 -279.37601 1.8403113e-38
2646.6399 2450.6001 -278.46899 1.8403113e-38
2521.5901 2468.95 -279.172 1.8403113e-38
2553.8 2462.3501 -278.315 1.8403113e-38
2589.98 2461.3401 -279.66199 1.8403113e-38
2466.4099 2474.55 -278.58401 1.8403113e-38
2488.1599 2472.1201 -278.73401 1.8403113e-38
2249.1399 2495.9299 -276.01801 1.8403113e-38
2321.97 2496.5701 -279.69501 1.8403113e-38
2342.3999 2494.1299 -279.78201 1.8403113e-38
2352.6201 2492.78 -279.77899 1.8403113e-38
2362.8401 2491.3401 -279.74301 1.8403113e-38
2181.1201 2508.3899 -277.29501 1.8403113e-38
2191.1799 2508.4299 -277.78601 1.8403113e-38
2200.3101 2503.78 -276.54099 1.8403113e-38
2211.1699 2507.3301 -278.33701 1.8403113e-38
2230.3301 2502.24 -277.40601 1.8403113e-38
2241.55 2506.4299 -279.44699 1.8403113e-38
2261.6399 2504.48 -279.694 1.8403113e-38
2271.0601 2501.1101 -278.92401 1.8403113e-38
2161.51 2510.8201 -277.24701 1.8403113e-38
2171.8899 2512.8799 -278.48199 1.8403113e-38
2054.1399 2528.29 -278.46899 1.8403113e-38
2073.49 2522 -277.11499 1.8403113e-38
1994.9 2539.6201 -279.75601 1.8403113e-38
2004.85 2538.3999 -279.78699 1.8403113e-38
2034.4301 2530.51 -278.33701 1.8403113e-38
1924.75 2545.8501 -278.68399 1.8403113e-38
1934.8199 2545.21 -278.92899 1.8403113e-38
1842.73 2556.4099 -278.61301 1.8403113e-38
1863.59 2552.6399 -278.241 1.8403113e-38
1873.48 2555.3201 -279.67401 1.8403113e-38
1883.9301 2552.28 -279.073 1.8403113e-38
1894.01 2552.9099 -279.77899 1.8403113e-38
1757.34 2569.74 -279.38501 1.8403113e-38
1767.9301 2569.55 -279.819 1.8403113e-38
1789.55 2566.1201 -279.604 1.8403113e-38
1800.6801 2561.9399 -278.621 1.8403113e-38
1724.39 2574.3701 -279.495 1.8403113e-38
-2563.5 3135.52 -279.11801 1.8403113e-38
-2749.01 3159.52 -278.99799 1.8403113e-38
-2939.02 3181.8999 -278.086 1.8403113e-38
3052.4399 2352.27 -262.185 1.8403113e-38
3052.1201 2368.01 -267.84698 1.8403113e-38
-2275.25 3069.6001 -268.96701 1.8403113e-38
-3033.3999 3168.5701 -268.80801 1.8403113e-38
3054.71 2322.8301 -251.668 1.8403113e-38
3056.29 2339.6699 -257.81799 1.8403113e-38
3054.7 2292.4199 -240.692 1.8403113e-38
3057.46 2309.6899 -247.05499 1.8403113e-38
3054 2277.03 -235.104 1.8403113e-38
2977 2204.8799 -205.425 1.8403113e-38
2559.29 1885.22 -70.300301 1.8403113e-38
-5210.04 2892.1101 -66.048302 1.8403113e-38
2529.8999 1835.2 -50.8577 1.8403113e-38
2525.1499 1845.89 -54.4925 1.8403113e-38
2526.24 1853.78 -57.389198 1.8403113e-38
2514.8899 1811.67 -41.654701 1.8403113e-38
2508 1826.99 -46.857201 1.8403113e-38
2521.27 1822.55 -45.882801 1.8403113e-38
-5198.4302 2828.6499 -43.695499 1.8403113e-38
2517.76 1787.75 -33.159599 1.8403113e-38
2513.5 1794.625 -35.438049 1.8403113e-38
2507.52 1800.4 -37.239101 1.8403113e-38
2513.2451 1757.605 -22.06745 1.8403113e-38
2511.55 1765.62 -24.8794 1.8403113e-38
2509.9199 1776.8199 -28.843599 1.8403113e-38
2514.5601 1773.4301 -27.839899 1.8403113e-38
-5211.7598 2770.1101 -21.9394 1.8403113e-38
2513.97 1726.1899 -10.7631 1.8403113e-38
2508.0098 1737.3201 -14.49915 1.8403113e-38
2514.0701 1731.89 -12.8269 1.8403113e-38
2507.9299 1745.9 -17.5909 1.8403113e-38
2511.6299 1697.62 -0.34492701 1.8403113e-38
2507.0601 1706.3199 -3.26684 1.8403113e-38
2511.1499 1702.79 -2.18765 1.8403113e-38
2508.27 1712.3199 -5.4899201 1.8403113e-38
2516.46 1721.79 -9.2933598 1.8403113e-38
428.11301 1978.25 -3.03286 1.8403113e-38
2518.5498 1676.7151 6.874105 1.8403113e-38
2519.0801 1684.83 3.9214101 1.8403113e-38
2516.55 1694.42 0.57727599 1.8403113e-38
2524.1799 1692.3101 0.97911 1.8403113e-38
441.16 1945.89 8.0280504 1.8403113e-38
426.47198 1964.6 1.97252 1.8403113e-38
2516.1499 1647.65 17.4758 1.8403113e-38
2525.3252 1643.225 18.63875 1.8403113e-38
2514.825 1654.725 14.9853 1.8403113e-38
2511.5098 1663.65 11.92075 1.8403113e-38
420.44 1924.25 16.8176 1.8403113e-38
421.68301 1937.89 11.8358 1.8403113e-38
2557.8201 1609.65 29.2181 1.8403113e-38
2551.3149 1615.5801 27.384701 1.8403113e-38
2534.8049 1626.0549 24.387001 1.8403113e-38
2542.8501 1620.85 25.885599 1.8403113e-38
2527.3101 1633.8049 21.944649 1.8403113e-38
449.15799 1888.49 28.366501 1.8403113e-38
448.13699 1902.4 23.393801 1.8403113e-38
3039.8601 1516.88 39.889 1.8403113e-38
3041.1699 1525.67 36.6525 1.8403113e-38
3038.4199 1534.23 33.694401 1.8403113e-38
2579.46 1578.72 39.356998 1.8403113e-38
2572.3301 1584.955 37.4426 1.8403113e-38
2556.4299 1596.6699 33.968948 1.8403113e-38
2561.27 1590.21 36.0714 1.8403113e-38
2556.3501 1604.2 31.254 1.8403113e-38
471.54599 1868.9301 34.362999 1.8403113e-38
3042.1948 1495.1899 47.605698 1.8403113e-38
3040.46 1508.1899 42.994301 1.8403113e-38
2911.28 1533.41 40.007 1.8403113e-38
2616.97 1548.27 48.570599 1.8403113e-38
2632.6399 1544.91 49.040901 1.8403113e-38
2598.3401 1550.96 48.482399 1.8403113e-38
2601.3601 1556.6 46.3018 1.8403113e-38
2586.5601 1569.75 42.257301 1.8403113e-38
2592.51 1565.6 43.472099 1.8403113e-38
2601.3701 1561.84 44.411701 1.8403113e-38
2583.51 1574.35 40.741901 1.8403113e-38
469.20499 1829.79 48.599998 1.8403113e-38
464.69 1844.12 43.6427 1.8403113e-38
490.30301 1850.78 40.027 1.8403113e-38
3047.24 1464.74 58.353401 1.8403113e-38
3047.05 1473.48 55.210602 1.8403113e-38
3043.77 1482.16 52.232399 1.8403113e-38
2633.3049 1525.995 55.835999 1.8403113e-38
2663.0701 1520.39 56.451401 1.8403113e-38
2622.3401 1532.9301 53.851002 1.8403113e-38
2630.49 1539.22 51.195499 1.8403113e-38
476.729 1801.87 58.32 1.8403113e-38
492.362 1811.25 54.193699 1.8403113e-38
3038.3601 1438.76 68.152603 1.8403113e-38
3047.3999 1447.28 64.650398 1.8403113e-38
3039.3701 1456.0699 61.8573 1.8403113e-38
468.177 1777.74 67.432999 1.8403113e-38
479.72601 1788.25 63.093899 1.8403113e-38
3038.75 1412.74 77.5215 1.8403113e-38
3047.125 1425.4451 72.540802 1.8403113e-38
2952.6599 1392.99 88.725502 1.8403113e-38
3000.03 1397.9 84.712303 1.8403113e-38
3038.3799 1404.09 80.662498 1.8403113e-38
371.284 1729.34 89.483803 1.8403113e-38
361.758 1744.6 84.428596 1.8403113e-38
2955.74 1368.6801 97.349998 1.8403113e-38
2956.45 1376.66 94.439201 1.8403113e-38
2950.1101 1385.2 91.6548 1.8403113e-38
371.086 1715.8 94.379402 1.8403113e-38
2954.1499 1336.61 109 1.8403113e-38
2960.1201 1343.96 106.066 1.8403113e-38
2951.1201 1353.1 103.192 1.8403113e-38
2953.96 1360.8199 100.271 1.8403113e-38
519.63397 1668.04 104.585 1.8403113e-38
522.36798 1679.9 100.177 1.8403113e-38
296.89401 1685.02 109 1.8403113e-38
