# .PCD v0.7 - Point Cloud Data file format
VERSION 0.7
FIELDS x y z rgb
SIZE 4 4 4 4
TYPE F F F F
COUNT 1 1 1 1
WIDTH 341
HEIGHT 1
VIEWPOINT 0 0 0 1 0 0 0
POINTS 341
DATA ascii
510.56799 2728 -290.966 1.8403113e-38
391.25299 2738.6899 -290.64899 1.8403113e-38
423.418 2734.9199 -290.41199 1.8403113e-38
455.397 2730.71 -290.01199 1.8403113e-38
293.70099 2747.3999 -290.379 1.8403113e-38
325.60901 2745.53 -290.82199 1.8403113e-38
358.90799 2742.03 -290.724 1.8403113e-38
185.867 2758.4199 -290.58499 1.8403113e-38
252.15199 2755.8501 -291.98001 1.8403113e-38
105.206 2768.6799 -291.46799 1.8403113e-38
146.05299 2763.55 -291.04401 1.8403113e-38
22.847099 2777.21 -291.668 1.8403113e-38
-104.745 2787.23 -290.81601 1.8403113e-38
-62.8405 2785.02 -291.48801 1.8403113e-38
-18.649 2780.6101 -291.44299 1.8403113e-38
-204.325 2799.0601 -291.60699 1.8403113e-38
-157.76801 2795.5701 -291.978 1.8403113e-38
-298.07501 2804.04 -290.11899 1.8403113e-38
-250.24699 2801.3799 -290.83499 1.8403113e-38
-589.21899 2832.8201 -290.32199 1.8403113e-38
-720.42798 2844.8401 -290.07001 1.8403113e-38
2950.95 2462.99 -280.64801 1.8403113e-38
2966.96 2461.6299 -280.71899 1.8403113e-38
2987.8501 2464.79 -282.59799 1.8403113e-38
2774.4399 2478.3601 -280.021 1.8403113e-38
2832.51 2475.8799 -281.16101 1.8403113e-38
2876.27 2471.95 -281.272 1.8403113e-38
2896.6001 2476.4199 -283.60599 1.8403113e-38
2697.4399 2488.9299 -281.14401 1.8403113e-38
2721.8501 2484.4099 -280.36401 1.8403113e-38
2734.6599 2482.72 -280.20401 1.8403113e-38
2750.4099 2484.6899 -281.47 1.8403113e-38
2762.72 2481.96 -280.914 1.8403113e-38
2573.76 2499.29 -280.55701 1.8403113e-38
2622.6201 2496.3301 -281.20001 1.8403113e-38
2647.78 2494.8999 -281.565 1.8403113e-38
2658.29 2490.8301 -280.45999 1.8403113e-38
2671.47 2490.6001 -280.83801 1.8403113e-38
2494.26 2508.7 -281.172 1.8403113e-38
2504.6899 2505.99 -280.55899 1.8403113e-38
2517.3101 2507.3899 -281.508 1.8403113e-38
2540.9399 2506.47 -282.00299 1.8403113e-38
2553.73 2507.49 -282.82199 1.8403113e-38
2564.7 2505.0801 -282.33499 1.8403113e-38
2599.6001 2500.49 -281.89899 1.8403113e-38
2612.6101 2500.8899 -282.49899 1.8403113e-38
2429.6699 2518.6499 -282.509 1.8403113e-38
2449.3301 2511.71 -280.686 1.8403113e-38
2471.74 2510.4099 -281.004 1.8403113e-38
2484.6599 2513.01 -282.396 1.8403113e-38
2531.8 2512 -283.685 1.8403113e-38
2291.9099 2529.97 -281.772 1.8403113e-38
2301.9399 2528.1399 -281.461 1.8403113e-38
2323.4399 2528.7 -282.41901 1.8403113e-38
2333.78 2527.49 -282.34601 1.8403113e-38
2345.3799 2529.76 -283.573 1.8403113e-38
2354.8 2525.7 -282.435 1.8403113e-38
2365.1699 2524.22 -282.26401 1.8403113e-38
2377.22 2527.0601 -283.715 1.8403113e-38
2386.95 2523.6299 -282.814 1.8403113e-38
2399.1101 2526.25 -284.19 1.8403113e-38
2409.1899 2523.51 -283.552 1.8403113e-38
2419.25 2520.6899 -282.883 1.8403113e-38
2442.4099 2521.6899 -284.05899 1.8403113e-38
2199.73 2534.3601 -280.12701 1.8403113e-38
2211.1299 2539.73 -282.474 1.8403113e-38
2221.3799 2539.5 -282.74899 1.8403113e-38
2230.55 2534.6001 -281.297 1.8403113e-38
2251.75 2536.4399 -282.70901 1.8403113e-38
2262.54 2537.6799 -283.534 1.8403113e-38
2272.1001 2534.28 -282.63901 1.8403113e-38
2282.4099 2533.52 -282.72601 1.8403113e-38
2313.3899 2530.71 -282.79501 1.8403113e-38
2120.95 2547.25 -282.03299 1.8403113e-38
2150.5901 2543.02 -281.54099 1.8403113e-38
2160.45 2541.45 -281.31799 1.8403113e-38
2170.46 2540.73 -281.40601 1.8403113e-38
1951.66 2559.25 -280.435 1.8403113e-38
1971.65 2559.29 -281.14999 1.8403113e-38
1991.6 2556.1799 -280.724 1.8403113e-38
2011.5699 2556.5 -281.54099 1.8403113e-38
2021.58 2557.01 -282.07599 1.8403113e-38
2041.53 2555.8999 -282.37399 1.8403113e-38
2061.3899 2553.52 -282.211 1.8403113e-38
2132.3201 2556.1599 -285.65701 1.8403113e-38
2142.4399 2555.6599 -285.83301 1.8403113e-38
1870.65 2568.01 -280.763 1.8403113e-38
1880.97 2565.9199 -280.36899 1.8403113e-38
1891.02 2566.5601 -280.953 1.8403113e-38
1911.3101 2564.77 -281.01801 1.8403113e-38
1941.48 2564.75 -282.07001 1.8403113e-38
1961.54 2566.8401 -283.52899 1.8403113e-38
1981.66 2562.01 -282.48599 1.8403113e-38
2001.6801 2560.6101 -282.68301 1.8403113e-38
2082.6299 2565.79 -287.401 1.8403113e-38
2092.8 2565.71 -287.728 1.8403113e-38
2102.4299 2560.8701 -286.315 1.8403113e-38
2112.9099 2563.4199 -287.60699 1.8403113e-38
1745.1899 2578.78 -280.26001 1.8403113e-38
1787.22 2577.8501 -281.397 1.8403113e-38
1807.6899 2579.6499 -282.767 1.8403113e-38
1819.22 2571.55 -280.241 1.8403113e-38
1829.0601 2574.5701 -281.67801 1.8403113e-38
1849.4399 2575.6799 -282.79501 1.8403113e-38
1859.98 2572.8301 -282.133 1.8403113e-38
1900.75 2571.8101 -283.19601 1.8403113e-38
1921.0601 2570.8 -283.543 1.8403113e-38
1931.16 2571.1101 -284.01001 1.8403113e-38
1690.13 2586.1699 -281.004 1.8403113e-38
1701.28 2584.7 -280.86401 1.8403113e-38
1712.6 2582.22 -280.36099 1.8403113e-38
1732.39 2588.9399 -283.48999 1.8403113e-38
1755.16 2581.46 -281.57999 1.8403113e-38
1765.7 2581.27 -281.883 1.8403113e-38
1776.4 2580.0701 -281.823 1.8403113e-38
1598.49 2596.99 -281.70499 1.8403113e-38
1608.8101 2599.9399 -283.138 1.8403113e-38
1621.76 2594.6799 -281.686 1.8403113e-38
1643.2 2597.3999 -283.42401 1.8403113e-38
1654.58 2596.3501 -283.44199 1.8403113e-38
1665.41 2597.02 -284.065 1.8403113e-38
1677.96 2591.2 -282.396 1.8403113e-38
1721.09 2591.6101 -284.05899 1.8403113e-38
1500.33 2609.8 -282.89801 1.8403113e-38
1512.58 2609.1499 -283.09601 1.8403113e-38
1548.37 2608.3201 -284.04901 1.8403113e-38
1560.4399 2607.23 -284.077 1.8403113e-38
1574.0699 2601.55 -282.50101 1.8403113e-38
1584.75 2603.8101 -283.69299 1.8403113e-38
1630.09 2603.78 -285.276 1.8403113e-38
1345.11 2617.52 -280.245 1.8403113e-38
1370.2 2619.8899 -281.987 1.8403113e-38
1399.11 2614.1299 -280.914 1.8403113e-38
1423.86 2615.5 -282.27802 1.8403113e-38
1436.8 2614.71 -282.448 1.8403113e-38
1448.49 2616.3999 -283.46799 1.8403113e-38
1460.5601 2617.1101 -284.14999 1.8403113e-38
1472.99 2616.8301 -284.487 1.8403113e-38
1486.14 2614.7 -284.17499 1.8403113e-38
1521.59 2616.3401 -286.01599 1.8403113e-38
1534.16 2614.6101 -285.82999 1.8403113e-38
1300.23 2625.02 -281.38699 1.8403113e-38
1379.39 2627.26 -284.979 1.8403113e-38
1408.29 2621.28 -283.828 1.8403113e-38
1205.9301 2638.8601 -283.09 1.8403113e-38
1235.66 2638.1699 -283.88199 1.8403113e-38
1251.46 2635.96 -283.63699 1.8403113e-38
1280.78 2634.3201 -284.07401 1.8403113e-38
1310.79 2630.4199 -283.71301 1.8403113e-38
1321.87 2634.8999 -285.72501 1.8403113e-38
1351.48 2630.1101 -285.03201 1.8403113e-38
1106.14 2649.53 -283.452 1.8403113e-38
1122.05 2649.51 -284.004 1.8403113e-38
1137.89 2649.3201 -284.491 1.8403113e-38
1158.12 2642.6599 -282.789 1.8403113e-38
1169.9301 2647.6399 -285.00699 1.8403113e-38
1185.5699 2646.9399 -285.30099 1.8403113e-38
1216.62 2645.03 -285.70099 1.8403113e-38
1262.62 2640.9399 -285.83301 1.8403113e-38
1052.0699 2656.1399 -283.948 1.8403113e-38
1068.23 2656.6899 -284.715 1.8403113e-38
1084.33 2657.0701 -285.41599 1.8403113e-38
974.38202 2666.96 -285.138 1.8403113e-38
997.07898 2660.8701 -283.73099 1.8403113e-38
1014.08 2661.26 -284.46701 1.8403113e-38
1031.01 2661.45 -285.13199 1.8403113e-38
935.48401 2670.25 -284.965 1.8403113e-38
952.13702 2672.02 -286.19299 1.8403113e-38
760.14801 2689.8799 -285.918 1.8403113e-38
807.61603 2683.6201 -285.319 1.8403113e-38
824.74103 2686.73 -287.04599 1.8403113e-38
847.83301 2683.27 -286.604 1.8403113e-38
867.47803 2683.1001 -287.23099 1.8403113e-38
888.34399 2681.25 -287.29501 1.8403113e-38
907.15503 2681.3301 -287.98499 1.8403113e-38
777.44299 2693.47 -287.828 1.8403113e-38
654.245 2707.3999 -288.54901 1.8403113e-38
676.89301 2707.3799 -289.33701 1.8403113e-38
706.48499 2700.3301 -287.823 1.8403113e-38
724.685 2703.79 -289.71301 1.8403113e-38
548.68402 2716.8301 -288.25699 1.8403113e-38
573.26703 2716.76 -289.095 1.8403113e-38
598.47198 2715.73 -289.60599 1.8403113e-38
624.27802 2713.72 -289.785 1.8403113e-38
486.43301 2726.71 -289.651 1.8403113e-38
225.453 2752.74 -289.91599 1.8403113e-38
72.301102 2767.72 -289.96701 1.8403113e-38
-349.547 2807.97 -289.73599 1.8403113e-38
-462.728 2818.8301 -289.694 1.8403113e-38
-406.43399 2814.05 -289.94199 1.8403113e-38
-519.27698 2822.77 -289.13901 1.8403113e-38
-650.711 2837.27 -289.776 1.8403113e-38
-783.35602 2847.8501 -288.95001 1.8403113e-38
-851.88501 2852.52 -288.237 1.8403113e-38
-1013.18 2869.6599 -288.78299 1.8403113e-38
-935.93701 2863.3999 -289.22699 1.8403113e-38
-1170.41 2879.49 -286.823 1.8403113e-38
-1089.83 2874.3501 -287.789 1.8403113e-38
-1435.98 2896.73 -283.745 1.8403113e-38
-1359.02 2897.3799 -286.681 1.8403113e-38
-1266.8 2890.1499 -287.298 1.8403113e-38
-1539.9 2905.75 -283.36301 1.8403113e-38
-1654.39 2917.2 -283.48901 1.8403113e-38
-1775.84 2929.3799 -283.63599 1.8403113e-38
-1906.14 2942.8201 -283.93301 1.8403113e-38
-2151.3201 2957.5901 -280.67099 1.8403113e-38
-2039.74 2955.27 -283.75 1.8403113e-38
3022.98 2446.46 -277.19199 1.8403113e-38
3041.29 2446.1699 -277.73001 1.8403113e-38
2997.04 2456.3601 -279.86499 1.8403113e-38
3012.47 2453.79 -279.47699 1.8403113e-38
2841.79 2468.72 -278.89301 1.8403113e-38
2856.1101 2467.21 -278.85001 1.8403113e-38
2901.28 2463.8301 -279.20999 1.8403113e-38
2916.4299 2462.3601 -279.20801 1.8403113e-38
2930.96 2460.02 -278.87201 1.8403113e-38
2787.97 2476.8701 -279.95599 1.8403113e-38
2801.53 2475.24 -279.84 1.8403113e-38
2813.27 2471.26 -278.811 1.8403113e-38
2682.52 2487.1001 -279.95801 1.8403113e-38
2706.8301 2482.8701 -279.28 1.8403113e-38
2583.72 2495.0701 -279.37601 1.8403113e-38
2631.55 2490.0901 -279.25299 1.8403113e-38
2458.1101 2505.98 -278.91699 1.8403113e-38
2239.4199 2528.72 -279.479 1.8403113e-38
2070.1001 2538.6399 -277.12601 1.8403113e-38
2179.0601 2532.53 -278.73801 1.8403113e-38
2189.3799 2533.49 -279.448 1.8403113e-38
2031.1801 2548.98 -279.50699 1.8403113e-38
2050.79 2544.9099 -278.71799 1.8403113e-38
1840.14 2568.1499 -279.74301 1.8403113e-38
1798.75 2570.8799 -279.27701 1.8403113e-38
-2296.1599 2969.6499 -279.95499 1.8403113e-38
-2437.71 2978.1599 -278.06799 1.8403113e-38
-2616.6299 2996.6299 -278.479 1.8403113e-38
-2794.28 3011.6699 -277.69 1.8403113e-38
-2981.0801 3026.5801 -276.53201 1.8403113e-38
-3163.6899 3037.1001 -273.92801 1.8403113e-38
-3366.9299 3050.6299 -271.694 1.8403113e-38
3037.4199 2409.26 -264.22198 1.8403113e-38
3035.1599 2423.8101 -269.41199 1.8403113e-38
-3592.8301 3067.22 -269.77301 1.8403113e-38
-3833.8101 3084.2 -267.46301 1.8403113e-38
-4084.1399 3099.6599 -264.27399 1.8403113e-38
-4373.7998 3121.1101 -261.875 1.8403113e-38
3033.6299 2389.71 -257.005 1.8403113e-38
3045.0801 2383.4099 -255.12399 1.8403113e-38
-4661.3398 3137.21 -257.60901 1.8403113e-38
-5010.7402 3163.4199 -254.83701 1.8403113e-38
3040.8401 2348.4199 -242.299 1.8403113e-38
3042.3401 2365.24 -248.44701 1.8403113e-38
-5343.5298 3179.96 -249.144 1.8403113e-38
3039.45 2316.8601 -230.817 1.8403113e-38
3036.8501 2329.8701 -235.44 1.8403113e-38
-5530.8101 3158.5 -234.79401 1.8403113e-38
3038.8201 2301.49 -225.229 1.8403113e-38
3034.6101 2269.26 -213.40601 1.8403113e-38
3035.6599 2284.45 -218.944 1.8403113e-38
-5508.1802 3089 -210.409 1.8403113e-38
3038.8501 2258.1799 -209.53799 1.8403113e-38
-5336.0698 2989.3101 -180.339 1.8403113e-38
-5203.9199 2900.7 -152.87601 1.8403113e-38
-5201.3301 2839.04 -130.632 1.8403113e-38
-5208.96 2779.48 -108.786 1.8403113e-38
2592.01 1923.14 -72.474098 1.8403113e-38
2537.3 1876.54 -53.670101 1.8403113e-38
2516.47 1848.04 -42.615101 1.8403113e-38
2526.8799 1844.8101 -41.8092 1.8403113e-38
2525.8 1861.36 -47.766499 1.8403113e-38
-5217.6401 2598.9199 -43.069099 1.8403113e-38
2516.355 1824.655 -34.140198 1.8403113e-38
2506.23 1793.21 -22.3908 1.8403113e-38
2503.8601 1801.01 -25.134899 1.8403113e-38
2509.1299 1810.49 -28.753799 1.8403113e-38
2503.1101 1764.7 -11.9548 1.8403113e-38
2510.97 1763.09 -11.6475 1.8403113e-38
2508.0249 1776.1851 -16.286999 1.8403113e-38
2505.9299 1783.95 -19.028099 1.8403113e-38
2506.28 1738.01 -2.39398 1.8403113e-38
2511.3501 1734.89 -1.44416 1.8403113e-38
2506.5901 1749.36 -6.5181799 1.8403113e-38
2510.8601 1745.85 -5.3968 1.8403113e-38
2502.29 1752.8199 -7.6208701 1.8403113e-38
-4547.3799 2440.1001 -9.0692396 1.8403113e-38
2513.0449 1705.79 9.0407648 1.8403113e-38
2505.0801 1713.0149 6.7005148 1.8403113e-38
2505.52 1723.9451 2.7272 1.8403113e-38
-1912.8101 2151.3501 3.02953 1.8403113e-38
-4608.8198 2394 9.7894001 1.8403113e-38
2514.8799 1677.85 19.096399 1.8403113e-38
2514.7852 1685.545 16.31365 1.8403113e-38
2515.855 1696.365 12.3545 1.8403113e-38
-1911.5601 2118.3301 14.9506 1.8403113e-38
2517.8201 1648.66 29.5669 1.8403113e-38
2507.95 1655.39 27.4772 1.8403113e-38
2518.0801 1653.71 27.729401 1.8403113e-38
2513.3501 1664.64 23.935551 1.8403113e-38
2509.29 1670.76 21.860399 1.8403113e-38
-4937.6099 2381.8 25.754801 1.8403113e-38
2527.25 1626.75 37.173901 1.8403113e-38
2545.1851 1623.915 37.570251 1.8403113e-38
2533.2148 1635.775 33.695297 1.8403113e-38
2523.0249 1642.8101 31.504749 1.8403113e-38
3038.99 1544.83 48.881001 1.8403113e-38
2581.3 1588.42 49.1623 1.8403113e-38
2552.6001 1598.16 46.642799 1.8403113e-38
2571.845 1594.385 47.332352 1.8403113e-38
2555.21 1606.1899 43.641251 1.8403113e-38
2547.3701 1614.4351 40.930149 1.8403113e-38
-4590.6099 2281.9199 49.7565 1.8403113e-38
3045.71 1518.83 58.067799 1.8403113e-38
3045.21 1527.6 54.907299 1.8403113e-38
3042.6399 1536.26 51.8578 1.8403113e-38
2595.6899 1559.6 59.098 1.8403113e-38
2623.1899 1557.66 58.836498 1.8403113e-38
2595.9302 1567.415 56.2579 1.8403113e-38
2589.22 1579.41 52.148602 1.8403113e-38
2591.1499 1574.52 53.851101 1.8403113e-38
2583.3101 1583.61 50.833199 1.8403113e-38
3041.71 1492.4399 67.765404 1.8403113e-38
3039.2949 1505.51 63.11845 1.8403113e-38
2629.8601 1536.71 66.189003 1.8403113e-38
2647.3301 1532.64 67.053001 1.8403113e-38
2764.3701 1535.02 62.080898 1.8403113e-38
2625.4502 1544.4351 63.547401 1.8403113e-38
2628.8899 1552.89 60.364399 1.8403113e-38
-4586.1699 2226.8 69.567101 1.8403113e-38
3041.98 1466.23 77.253197 1.8403113e-38
3041.97 1474.97 74.087898 1.8403113e-38
3039.8799 1483.7 70.996696 1.8403113e-38
3039.2 1431.39 89.972198 1.8403113e-38
3038.635 1444.49 85.245499 1.8403113e-38
3041.8999 1457.49 80.420998 1.8403113e-38
-4389.27 2151.6101 89.891098 1.8403113e-38
3010.8401 1407.22 99.724503 1.8403113e-38
3038.3301 1413.97 96.311501 1.8403113e-38
3040.8 1422.5699 93.111397 1.8403113e-38
2953.99 1387.12 109 1.8403113e-38
2953.73 1395.22 106.075 1.8403113e-38
2954.3999 1403.23 103.15 1.8403113e-38
-4440.3599 2103.8201 108.999 1.8403113e-38
