# .PCD v0.7 - Point Cloud Data file format
VERSION 0.7
FIELDS x y z rgb
SIZE 4 4 4 4
TYPE F F F F
COUNT 1 1 1 1
WIDTH 350
HEIGHT 1
VIEWPOINT 0 0 0 1 0 0 0
POINTS 350
DATA ascii
-2341.72 1824.35 -292.89001 1.8403113e-38
-2214.29 1834.4 -294.12601 1.8403113e-38
-2089.1299 1842.28 -294.61301 1.8403113e-38
-1957.21 1847.1801 -293.88699 1.8403113e-38
-1850.84 1855.47 -294.88199 1.8403113e-38
-1738.6899 1861.1801 -294.82999 1.8403113e-38
-1636.52 1867.09 -295.03699 1.8403113e-38
-1550.7 1876.25 -296.73999 1.8403113e-38
-1451.76 1879.89 -296.185 1.8403113e-38
-1371.98 1887.9 -297.582 1.8403113e-38
-3716.1299 1721.84 -281.71701 1.8403113e-38
-3492.1399 1737.14 -283.02701 1.8403113e-38
-3289.1799 1751.25 -284.30499 1.8403113e-38
-3114.8 1767.49 -286.89801 1.8403113e-38
-2924.97 1777.53 -286.94199 1.8403113e-38
-2441.78 1807.49 -288.66101 1.8403113e-38
217.58099 1935.85 -284.83801 1.8403113e-38
435.60699 1935.55 -280.58899 1.8403113e-38
523.91101 1949.27 -283.901 1.8403113e-38
440.827 1950.58 -285.953 1.8403113e-38
462.51199 1954.8101 -287.07901 1.8403113e-38
492.81201 1952.4301 -285.63901 1.8403113e-38
546.75897 1951.1801 -284.16 1.8403113e-38
571.26703 1951.83 -283.93301 1.8403113e-38
597.07202 1950.8 -283.069 1.8403113e-38
613.61603 1956.6899 -284.89401 1.8403113e-38
641.539 1953.26 -283.11801 1.8403113e-38
664.87402 1953.25 -282.67001 1.8403113e-38
680.35999 1958.83 -284.405 1.8403113e-38
707.30103 1955.2 -282.57401 1.8403113e-38
730.17499 1954.13 -281.75201 1.8403113e-38
747.16998 1957.95 -282.81799 1.8403113e-38
767.651 1958.24 -282.53299 1.8403113e-38
794.039 1953.3199 -280.246 1.8403113e-38
811.401 1955.62 -280.754 1.8403113e-38
831.74799 1955.28 -280.242 1.8403113e-38
848.99103 1957.15 -280.59299 1.8403113e-38
903.49701 1959.13 -280.27899 1.8403113e-38
864.93701 1960.29 -281.43201 1.8403113e-38
948.40802 1967.98 -282.64401 1.8403113e-38
970.76801 1963.03 -280.42001 1.8403113e-38
986.85101 1963.97 -280.457 1.8403113e-38
1001.73 1966.28 -281.01199 1.8403113e-38
1032.51 1968.8199 -281.353 1.8403113e-38
1047.74 1969.77 -281.40799 1.8403113e-38
1013.18 1971.84 -282.819 1.8403113e-38
1063.08 1970.67 -281.44501 1.8403113e-38
1078.21 1971.28 -281.37799 1.8403113e-38
1093.4399 1971.84 -281.29199 1.8403113e-38
1106.63 1974.34 -281.95099 1.8403113e-38
1122.96 1973.0699 -281.181 1.8403113e-38
1165.28 1975.5601 -281.28201 1.8403113e-38
1181.3101 1973.6 -280.26501 1.8403113e-38
1190.87 1979.84 -282.354 1.8403113e-38
1206.77 1977.5699 -281.22501 1.8403113e-38
1234.3101 1977.88 -280.814 1.8403113e-38
1215.8101 1984.39 -283.53299 1.8403113e-38
1246.04 1980.53 -281.55499 1.8403113e-38
1255.8199 1986.35 -283.48499 1.8403113e-38
1268.61 1987.1899 -283.548 1.8403113e-38
1285.63 1981.5699 -281.181 1.8403113e-38
1298.78 1981.3101 -280.83801 1.8403113e-38
1308.0699 1987.5 -282.91299 1.8403113e-38
1321.1801 1987.01 -282.483 1.8403113e-38
1335.35 1984.8199 -281.41901 1.8403113e-38
1345.95 1988.16 -282.43399 1.8403113e-38
1359.53 1986.53 -281.58301 1.8403113e-38
1395.02 1989.01 -281.81201 1.8403113e-38
1369.1899 1991.33 -283.14401 1.8403113e-38
1379.97 1994.46 -284.07599 1.8403113e-38
1404 1995.29 -283.922 1.8403113e-38
1416.3 1994.64 -283.45401 1.8403113e-38
1429.98 1991.4 -282.01501 1.8403113e-38
1440.5 1993.92 -282.73099 1.8403113e-38
1453.22 1992.13 -281.83801 1.8403113e-38
1477.1 1990.6899 -280.86099 1.8403113e-38
1500.02 1990.52 -280.367 1.8403113e-38
1510.0699 1993.3101 -281.18799 1.8403113e-38
1522.4399 1990.8101 -280.04501 1.8403113e-38
1532.13 1994.28 -281.12399 1.8403113e-38
1553.42 1996.62 -281.57101 1.8403113e-38
1564.9301 1995.46 -280.931 1.8403113e-38
1575.6 1995.92 -280.89401 1.8403113e-38
1596.74 1997.5 -281.06601 1.8403113e-38
1629.11 1996.9399 -280.24799 1.8403113e-38
1484.13 2000.6 -284.33099 1.8403113e-38
1606.36 2001.3101 -282.271 1.8403113e-38
1617.26 2000.5 -281.76999 1.8403113e-38
1648.51 2003.02 -282.091 1.8403113e-38
1669.23 2004.23 -282.138 1.8403113e-38
1690.12 2004.1801 -281.72101 1.8403113e-38
1700.13 2005.37 -281.965 1.8403113e-38
1710.92 2003.76 -281.17401 1.8403113e-38
1721.5 2002.02 -280.341 1.8403113e-38
1821.48 2010.54 -281.54099 1.8403113e-38
1911.34 2011.4301 -280.159 1.8403113e-38
2072.01 2024.45 -281.841 1.8403113e-38
2092.9399 2028.89 -283.05801 1.8403113e-38
2103.1899 2029.59 -283.117 1.8403113e-38
2112.9299 2025.52 -281.45499 1.8403113e-38
2134.1101 2029.26 -282.41299 1.8403113e-38
2206.8101 2027.98 -280.565 1.8403113e-38
2238.95 2028.6801 -280.211 1.8403113e-38
2124.24 2032.5699 -283.79999 1.8403113e-38
2294.0701 2032.25 -280.46201 1.8403113e-38
2363.5701 2038.9 -281.55801 1.8403113e-38
-3944.1001 1704.24 -279.647 1.8403113e-38
239.19701 1904.35 -272.979 1.8403113e-38
441.90201 1912.88 -272.23001 1.8403113e-38
886.97601 1957.08 -279.84799 1.8403113e-38
922.552 1958.12 -279.55099 1.8403113e-38
938.95203 1959.76 -279.836 1.8403113e-38
1155.76 1969.1 -279.116 1.8403113e-38
1140.21 1970 -279.73499 1.8403113e-38
1467.28 1986.7 -279.59698 1.8403113e-38
1544.72 1990.6801 -279.57401 1.8403113e-38
1587.33 1993.66 -279.849 1.8403113e-38
1640.6899 1993.21 -278.673 1.8403113e-38
1661.26 1994.5601 -278.77301 1.8403113e-38
1681.33 1997.38 -279.418 1.8403113e-38
1732.75 1997.45 -278.46701 1.8403113e-38
1742.48 1999.21 -278.92401 1.8403113e-38
1773.01 1998.51 -278.09 1.8403113e-38
1783.3199 1996.23 -277.065 1.8403113e-38
1802.8 1999.8101 -277.996 1.8403113e-38
1812.95 1999.16 -277.56699 1.8403113e-38
1752.5601 2000 -279.01901 1.8403113e-38
1762.47 2000.6801 -279.07599 1.8403113e-38
1792.39 2003.1899 -279.422 1.8403113e-38
1832.09 2005.99 -279.68701 1.8403113e-38
1842.08 2005.08 -279.16501 1.8403113e-38
1851.95 2006.9 -279.64099 1.8403113e-38
1861.91 2005.8199 -279.06 1.8403113e-38
1872.14 2002.8 -277.76599 1.8403113e-38
1882.0699 2000.62 -276.784 1.8403113e-38
1891.89 2003.05 -277.483 1.8403113e-38
1901.65 2003.52 -277.46799 1.8403113e-38
1921.36 2004.23 -277.35001 1.8403113e-38
1931.36 2000.7 -275.879 1.8403113e-38
1941.05 2009.3101 -278.823 1.8403113e-38
1951.03 2006.5601 -277.63501 1.8403113e-38
1970.6801 2001.75 -275.51599 1.8403113e-38
1980.6 2007.22 -277.314 1.8403113e-38
1990.64 2008.84 -277.71301 1.8403113e-38
2000.36 2006.63 -276.72501 1.8403113e-38
2010.48 2009.03 -277.40302 1.8403113e-38
1960.87 2010.3101 -278.81 1.8403113e-38
2020.6801 2014.16 -279.07599 1.8403113e-38
2030.48 2010.76 -277.65399 1.8403113e-38
2040.47 2011.98 -277.90601 1.8403113e-38
2050.6499 2013.1 -278.12 1.8403113e-38
2060.99 2016.95 -279.32599 1.8403113e-38
2081.03 2015.98 -278.59201 1.8403113e-38
2162.1499 2014.3199 -276.44901 1.8403113e-38
2173.1299 2017.1801 -277.27802 1.8403113e-38
2194.5 2019.87 -277.85101 1.8403113e-38
2225 2016.36 -275.996 1.8403113e-38
2247.1399 2019.95 -276.883 1.8403113e-38
2143.0801 2022.2 -279.67401 1.8403113e-38
2153.7 2023.38 -279.901 1.8403113e-38
2185.03 2024.58 -279.742 1.8403113e-38
2216.9399 2025.85 -279.599 1.8403113e-38
2259.03 2023.85 -278.07401 1.8403113e-38
2271.1201 2028.59 -279.56601 1.8403113e-38
2282.0901 2028.64 -279.37701 1.8403113e-38
2302.76 2024.9 -277.62601 1.8403113e-38
2314.8101 2028.3101 -278.63599 1.8403113e-38
2337.4299 2029.38 -278.59399 1.8403113e-38
2347.5701 2026.17 -277.23499 1.8403113e-38
2393.97 2028.4301 -277.17599 1.8403113e-38
2327.4399 2032.45 -279.89999 1.8403113e-38
2373.45 2034.59 -279.80399 1.8403113e-38
2384.8701 2034.67 -279.616 1.8403113e-38
445.35001 1892.7 -264.82999 1.8403113e-38
2396.53 2007.3 -269.45001 1.8403113e-38
385.26801 1857.5 -253.177 1.8403113e-38
413.18799 1858.67 -253.07001 1.8403113e-38
428.60599 1867.3 -255.91499 1.8403113e-38
442.25 1876.5699 -259.02499 1.8403113e-38
454.56799 1766.3 -218.711 1.8403113e-38
2343.01 1857.03 -215.843 1.8403113e-38
442.427 1723.8199 -203.50101 1.8403113e-38
460.17999 1730.55 -205.61 1.8403113e-38
475.478 1738.66 -208.267 1.8403113e-38
2335.1899 1817.3101 -201.554 1.8403113e-38
-2913.9199 1530.0601 -196.783 1.8403113e-38
425.33801 1700.24 -195.255 1.8403113e-38
434.207 1711.74 -199.26601 1.8403113e-38
2342.49 1791.92 -192.188 1.8403113e-38
2338.6101 1803.72 -196.55 1.8403113e-38
420.22501 1670.83 -184.66299 1.8403113e-38
432.38199 1680.67 -188.00999 1.8403113e-38
2346.8701 1762.28 -181.33 1.8403113e-38
2358.3401 1766.66 -182.707 1.8403113e-38
2347.9399 1783.5 -189.026 1.8403113e-38
-2872.79 1485.22 -179.705 1.8403113e-38
-1270.14 1548.8101 -172.397 1.8403113e-38
2364.26 1742.12 -173.673 1.8403113e-38
2359.3799 1750.59 -176.845 1.8403113e-38
2901.01 1764.5601 -171.642 1.8403113e-38
2884.26 1778.6899 -177.09599 1.8403113e-38
2901.53 1779.3101 -176.994 1.8403113e-38
-1277.74 1522.9399 -163.13901 1.8403113e-38
485.715 1609.5601 -161.149 1.8403113e-38
496.45599 1619.37 -164.51199 1.8403113e-38
2381.3101 1706.52 -160.41 1.8403113e-38
2377.8799 1716.72 -164.18201 1.8403113e-38
2365.29 1726.95 -168.13901 1.8403113e-38
2370.77 1720.15 -165.564 1.8403113e-38
2903.25 1738.25 -162.03799 1.8403113e-38
2834.01 1747.59 -166.746 1.8403113e-38
2901.9099 1751 -166.69701 1.8403113e-38
-170.36099 1564.61 -157.267 1.8403113e-38
83.568298 1575.63 -156.452 1.8403113e-38
387.02701 1576.61 -151.045 1.8403113e-38
337.04999 1581.36 -153.72099 1.8403113e-38
475.19901 1584.61 -152.282 1.8403113e-38
484.849 1594.99 -155.87 1.8403113e-38
2407.8 1689.54 -153.735 1.8403113e-38
2413.1001 1683.37 -151.39301 1.8403113e-38
2386.3799 1699.6899 -157.832 1.8403113e-38
2394.3999 1697.72 -156.963 1.8403113e-38
2401.3101 1694.09 -155.515 1.8403113e-38
2904.04 1711.51 -152.302 1.8403113e-38
2903.04 1724.17 -156.923 1.8403113e-38
82.275497 1541.5601 -144.09 1.8403113e-38
86.079399 1557.36 -149.761 1.8403113e-38
201.811 1551.64 -145.48599 1.8403113e-38
222.59599 1560.74 -148.401 1.8403113e-38
260.96201 1562.8199 -148.42799 1.8403113e-38
291.927 1567.35 -149.48599 1.8403113e-38
327.35001 1569.4 -149.56 1.8403113e-38
441.44901 1569.41 -147.395 1.8403113e-38
475.51999 1569.66 -146.842 1.8403113e-38
2423.4299 1656.5699 -141.45599 1.8403113e-38
2443.1299 1658.21 -141.677 1.8403113e-38
2436.4299 1662.24 -143.27 1.8403113e-38
2415.3301 1672.26 -147.314 1.8403113e-38
2423.05 1670.08 -146.37199 1.8403113e-38
2904.1399 1684.98 -142.657 1.8403113e-38
2903.47 1697.54 -147.23599 1.8403113e-38
42.733299 1519.4301 -136.799 1.8403113e-38
84.210197 1523.71 -137.565 1.8403113e-38
2469.25 1628.99 -130.563 1.8403113e-38
2456.48 1637.38 -133.85201 1.8403113e-38
2463.52 1633.95 -132.472 1.8403113e-38
2482.1201 1633.0699 -131.8 1.8403113e-38
2444.1201 1646.33 -137.342 1.8403113e-38
2455.1599 1648.48 -137.91299 1.8403113e-38
2488.79 1604.88 -121.426 1.8403113e-38
2499.27 1605.6 -121.491 1.8403113e-38
2521.54 1608.24 -122.025 1.8403113e-38
2538.26 1603.84 -120.11 1.8403113e-38
2489.3501 1617.49 -126.001 1.8403113e-38
2516.5701 1614.4 -124.36 1.8403113e-38
2483.05 1621.92 -127.728 1.8403113e-38
2693.4099 1631.9301 -127.374 1.8403113e-38
2531.9099 1585.4301 -113.539 1.8403113e-38
2556.655 1595.2151 -116.626 1.8403113e-38
2570.3799 1592.6 -115.415 1.8403113e-38
2583.0801 1594.49 -115.862 1.8403113e-38
2599.3899 1599.58 -117.403 1.8403113e-38
2646.6399 1599.9301 -116.633 1.8403113e-38
2526.97 1602.85 -119.965 1.8403113e-38
2611.5901 1600.45 -117.485 1.8403113e-38
2625.3501 1602.42 -117.941 1.8403113e-38
2639.0901 1604.3101 -118.368 1.8403113e-38
2791.79 1586.23 -108.899 1.8403113e-38
-1469.84 1298.6 -85.243599 1.8403113e-38
2689.1499 1478.65 -71.742996 1.8403113e-38
2683.4399 1484.05 -73.815201 1.8403113e-38
2686.23 1495.97 -78.092598 1.8403113e-38
2702.4102 1454.7051 -62.7864 1.8403113e-38
2702.9299 1469.26 -68.069603 1.8403113e-38
2695.6899 1473.66 -69.803703 1.8403113e-38
-1390.52 1207.54 -50.641102 1.8403113e-38
-1040.79 1229.3 -51.909 1.8403113e-38
2712.885 1424.74 -51.696251 1.8403113e-38
2712.77 1438.39 -56.659599 1.8403113e-38
2708.22 1444.5699 -58.9921 1.8403113e-38
-1384.09 1179.27 -40.2407 1.8403113e-38
-1046.51 1204.8101 -43.116798 1.8403113e-38
2697.5701 1393.29 -40.555901 1.8403113e-38
2701 1403.98 -44.376099 1.8403113e-38
-1379.35 1151.71 -30.136101 1.8403113e-38
2690.3701 1372.08 -32.982201 1.8403113e-38
2697.47 1384.59 -37.394501 1.8403113e-38
2674.21 1338.54 -21.100401 1.8403113e-38
2679.1499 1349.3199 -24.9224 1.8403113e-38
2683.1499 1359.61 -28.587999 1.8403113e-38
-1374.12 1096.67 -10.0287 1.8403113e-38
-1373.39 1123.74 -19.8533 1.8403113e-38
2665.6001 1318.35 -13.9251 1.8403113e-38
2666.46 1326.59 -16.902201 1.8403113e-38
2653.96 1282.62 -1.15826 1.8403113e-38
2656.7349 1295.0349 -5.61799 1.8403113e-38
2654.9099 1305.3 -9.38381 1.8403113e-38
-1369.63 1068.9399 0.133158 1.8403113e-38
2647.6799 1258.29 7.5637102 1.8403113e-38
2656.9199 1255.3 8.8263903 1.8403113e-38
2646.5901 1264.79 5.1816702 1.8403113e-38
2645.3701 1271.39 2.7597499 1.8403113e-38
-1361.86 1041.6899 10.1871 1.8403113e-38
2660.5601 1228.9399 18.4778 1.8403113e-38
2657.8899 1234.8199 16.2918 1.8403113e-38
2653.3701 1243.29 13.1255 1.8403113e-38
-1362.85 1014.3 20.123301 1.8403113e-38
2673.3999 1206.45 26.8978 1.8403113e-38
2694.51 1207.1801 27.0305 1.8403113e-38
2784.3899 1208.15 28.3843 1.8403113e-38
2665.5249 1213.78 24.083099 1.8403113e-38
2729.8401 1212.35 25.822901 1.8403113e-38
2781.97 1214.9399 25.8724 1.8403113e-38
2661.28 1222.42 20.8617 1.8403113e-38
2775.6599 1220.55 23.711901 1.8403113e-38
-1353.58 987.23999 30.135201 1.8403113e-38
2785.8799 1178.4301 39.217098 1.8403113e-38
2785.6399 1185.78 36.5396 1.8403113e-38
2781.47 1192.12 34.1549 1.8403113e-38
2785.8501 1200.9399 31.0345 1.8403113e-38
-1346.28 933.09998 49.9524 1.8403113e-38
-1355.05 959.93103 40.033298 1.8403113e-38
2796.365 1155.095 47.896202 1.8403113e-38
2791.96 1165.17 44.1525 1.8403113e-38
2789.9299 1172.02 41.624298 1.8403113e-38
-1347.25 905.84003 59.8423 1.8403113e-38
2807.79 1124.41 59.267799 1.8403113e-38
2804.2798 1134.71 55.456001 1.8403113e-38
2797.74 1144.28 51.853802 1.8403113e-38
-1346.97 879.05103 69.584503 1.8403113e-38
2814.8 1096.28 69.625099 1.8403113e-38
2813.3999 1103.3199 67.039101 1.8403113e-38
2811.645 1114.075 63.096451 1.8403113e-38
-1346.4399 851.802 79.4991 1.8403113e-38
2826.55 1076.04 77.204399 1.8403113e-38
2817.1399 1089.27 72.2174 1.8403113e-38
2826.3 1083.46 74.502296 1.8403113e-38
-1345.66 825.02502 89.246597 1.8403113e-38
2830.77 1047.14 87.789001 1.8403113e-38
2830.8 1054.5699 85.090202 1.8403113e-38
2824.78 1064.755 81.273346 1.8403113e-38
-1335.63 798.18701 99.191803 1.8403113e-38
2839.8899 1018.62 98.327904 1.8403113e-38
2834.22 1025.53 95.707298 1.8403113e-38
2834.0498 1036.5 91.718506 1.8403113e-38
-1335.36 771.45099 108.915 1.8403113e-38
2838.97 989.14801 109.023 1.8403113e-38
2839.55 996.58301 106.332 1.8403113e-38
2839.0701 1003.83 103.686 1.8403113e-38
2841.5 1011.44 100.969 1.8403113e-38
