# .PCD v0.7 - Point Cloud Data file format
VERSION 0.7
FIELDS x y z rgb
SIZE 4 4 4 4
TYPE F F F F
COUNT 1 1 1 1
WIDTH 361
HEIGHT 1
VIEWPOINT 0 0 0 1 0 0 0
POINTS 361
DATA ascii
-539.65302 -146.85001 -300.95901 1.8403113e-38
-528.56598 -178.396 -295.85699 1.8403113e-38
-528.47601 -71.893204 -299.487 1.8403113e-38
-519.43903 -5.7655101 -298.48801 1.8403113e-38
-507.034 66.667603 -296.48401 1.8403113e-38
-505.289 115.722 -297.539 1.8403113e-38
-495.849 178.858 -296.29099 1.8403113e-38
-491.10001 229.985 -296.32901 1.8403113e-38
-487.51901 279.755 -296.74301 1.8403113e-38
-484.423 325.33401 -297.189 1.8403113e-38
-478.91501 375.47101 -296.918 1.8403113e-38
-477.155 416.435 -297.689 1.8403113e-38
-472.41699 462.76401 -297.56601 1.8403113e-38
-466.772 507.44501 -297.05801 1.8403113e-38
-464.01999 548.37 -297.46799 1.8403113e-38
-463.83301 582.82703 -298.586 1.8403113e-38
-458.858 624.98798 -298.233 1.8403113e-38
-454.27301 663.92999 -297.91101 1.8403113e-38
-449.86301 703.229 -297.66501 1.8403113e-38
-442.46399 744.11298 -296.39099 1.8403113e-38
-438.121 781.37097 -296.099 1.8403113e-38
-432.60001 817.849 -295.353 1.8403113e-38
-428.436 853.11798 -295.05701 1.8403113e-38
-429.23099 879.91998 -296.267 1.8403113e-38
-425.397 913.29901 -296.026 1.8403113e-38
-420.50101 945.92297 -295.37399 1.8403113e-38
-423.28601 969.86798 -297.207 1.8403113e-38
-418.22601 1001.41 -296.45901 1.8403113e-38
-413.32599 1033.3101 -295.78101 1.8403113e-38
-413.23401 1057.8199 -296.591 1.8403113e-38
-411.44101 1084.98 -296.875 1.8403113e-38
-402.19 1118.6801 -294.68201 1.8403113e-38
-402.952 1141.9 -295.75699 1.8403113e-38
-396.89301 1170.87 -294.55801 1.8403113e-38
-399.728 1191.03 -296.27802 1.8403113e-38
-398.42401 1214.0699 -296.599 1.8403113e-38
-396.64801 1238.25 -296.78699 1.8403113e-38
-389.94101 1265.87 -295.30701 1.8403113e-38
-381.263 1295.86 -293.194 1.8403113e-38
-381.55099 1315.62 -293.978 1.8403113e-38
-379.94101 1337.85 -294.159 1.8403113e-38
-376.189 1360.74 -293.58701 1.8403113e-38
-373.311 1383.37 -293.323 1.8403113e-38
-369.005 1405.96 -292.539 1.8403113e-38
-364.841 1428.9301 -291.82101 1.8403113e-38
-372.453 1440.4301 -294.97501 1.8403113e-38
-358.95001 1470.73 -291.12399 1.8403113e-38
-361.755 1485.88 -292.66199 1.8403113e-38
-361.797 1504.01 -293.29999 1.8403113e-38
-362.759 1520.3101 -294.20999 1.8403113e-38
-349.50699 1548.49 -290.37799 1.8403113e-38
-356.897 1559.22 -293.42401 1.8403113e-38
-349.96301 1581.6801 -291.685 1.8403113e-38
-349.35999 1598.21 -292.034 1.8403113e-38
-343.47699 1619.1899 -290.625 1.8403113e-38
-342.48099 1635.52 -290.82501 1.8403113e-38
-342.42401 1651.73 -291.362 1.8403113e-38
-341.46399 1683.4399 -292.10501 1.8403113e-38
-339.77701 1699.46 -292.04501 1.8403113e-38
-332.59201 1719.61 -290.13501 1.8403113e-38
-329.40201 1751.12 -290.06299 1.8403113e-38
-329.45599 1765.22 -290.56699 1.8403113e-38
-327.18301 1781.28 -290.29599 1.8403113e-38
-325.29001 1796.24 -290.125 1.8403113e-38
-325.992 1810.1801 -290.85901 1.8403113e-38
-326.29501 1823.5699 -291.42899 1.8403113e-38
-322.54099 1839.77 -290.62601 1.8403113e-38
-320.04199 1854.41 -290.224 1.8403113e-38
-318.479 1869.03 -290.16101 1.8403113e-38
-318.07001 1895.77 -290.93201 1.8403113e-38
-317.55801 1908.8101 -291.19501 1.8403113e-38
-306.03101 2002.89 -290.255 1.8403113e-38
-304.51001 2015.45 -290.13501 1.8403113e-38
-300.259 2065.0601 -290.302 1.8403113e-38
-299.20999 2077.5 -290.35001 1.8403113e-38
-285.362 2217.46 -290.146 1.8403113e-38
-502.202 -183.062 -286.14301 1.8403113e-38
-335.54099 1671.76 -289.55701 1.8403113e-38
-330.53101 1735.41 -289.931 1.8403113e-38
-312.293 1885.27 -288.478 1.8403113e-38
-311.996 1924.83 -289.73099 1.8403113e-38
-307.76801 1939.38 -288.69901 1.8403113e-38
-307.92001 1952.29 -289.198 1.8403113e-38
-303.40701 1966.64 -288.05701 1.8403113e-38
-300.68701 1980.6 -287.552 1.8403113e-38
-302.875 1991.67 -288.72501 1.8403113e-38
-298.638 2030.23 -288.51599 1.8403113e-38
-301.29001 2040.88 -289.84299 1.8403113e-38
-298.694 2054.0901 -289.358 1.8403113e-38
-289.82999 2092.22 -287.457 1.8403113e-38
-293.01999 2102.95 -288.98199 1.8403113e-38
-292.37299 2114.3999 -289.142 1.8403113e-38
-288.15302 2127.48 -288.06201 1.8403113e-38
-290.91199 2137.6899 -289.41299 1.8403113e-38
-286.461 2150.6201 -288.245 1.8403113e-38
-288.12601 2161.0801 -289.20801 1.8403113e-38
-288.914 2172.3101 -289.88 1.8403113e-38
-284.00601 2184.52 -288.522 1.8403113e-38
-286.42099 2195.2 -289.76401 1.8403113e-38
-283.13501 2206.79 -288.97198 1.8403113e-38
-275.43301 2230.4399 -286.995 1.8403113e-38
-280.229 2240.4299 -289.07599 1.8403113e-38
-274.694 2252.1499 -287.474 1.8403113e-38
-276.54099 2262.75 -288.508 1.8403113e-38
-276.36401 2273.22 -288.80399 1.8403113e-38
-272.465 2284.8701 -287.79199 1.8403113e-38
-273.03601 2295.1101 -288.35101 1.8403113e-38
-266.147 2307.0801 -286.267 1.8403113e-38
-268.40201 2316.96 -287.423 1.8403113e-38
-269.70499 2327.5 -288.258 1.8403113e-38
-268.99701 2337.8101 -288.35599 1.8403113e-38
-271.05899 2348.24 -289.46201 1.8403113e-38
-261.76099 2359.53 -286.48199 1.8403113e-38
-262.707 2370.01 -287.185 1.8403113e-38
-258.841 2380.48 -286.14401 1.8403113e-38
-264.29999 2390.51 -288.46701 1.8403113e-38
-258.38699 2401.05 -286.68701 1.8403113e-38
-260.862 2411.3701 -287.939 1.8403113e-38
-261.35101 2421.3501 -288.45901 1.8403113e-38
-259.89801 2431.9299 -288.297 1.8403113e-38
-258.34201 2441.99 -288.07901 1.8403113e-38
-257.65601 2452.47 -288.19101 1.8403113e-38
-248.41299 2462.6699 -285.19299 1.8403113e-38
-246.614 2473.0601 -284.89801 1.8403113e-38
-251.311 2482.8799 -286.93799 1.8403113e-38
-251.22099 2493.27 -287.263 1.8403113e-38
-251.05499 2503.1699 -287.543 1.8403113e-38
-246.09599 2513.46 -286.10001 1.8403113e-38
-245.76801 2523.3101 -286.32001 1.8403113e-38
-248.157 2533.76 -287.54501 1.8403113e-38
-242.034 2543.3701 -285.65701 1.8403113e-38
-243.314 2553.78 -286.479 1.8403113e-38
-240.78799 2563.48 -285.89801 1.8403113e-38
-233.464 2573.28 -283.58099 1.8403113e-38
-232.659 2583.02 -283.62399 1.8403113e-38
-235.472 2593.5901 -285.00699 1.8403113e-38
-236.373 2603.55 -285.67599 1.8403113e-38
-227.80099 2612.95 -282.89401 1.8403113e-38
-228.545 2622.8799 -283.504 1.8403113e-38
-228.213 2633.1799 -283.73901 1.8403113e-38
-232.511 2643.6699 -285.65701 1.8403113e-38
-230.14301 2653.75 -285.146 1.8403113e-38
-225.91 2663.02 -283.931 1.8403113e-38
-221.53 2672.71 -282.677 1.8403113e-38
-224.556 2683.1799 -284.133 1.8403113e-38
-213.549 2691.5801 -280.43399 1.8403113e-38
-217.332 2702.25 -282.172 1.8403113e-38
-214.48199 2712.1399 -281.479 1.8403113e-38
-214.405 2722.1201 -281.79501 1.8403113e-38
-219.645 2733.8501 -284.09698 1.8403113e-38
-215.72501 2743.04 -282.99301 1.8403113e-38
-214.366 2753.3301 -282.854 1.8403113e-38
-212.121 2762.9199 -282.371 1.8403113e-38
-210.592 2773.1899 -282.17001 1.8403113e-38
-214.53799 2784.51 -283.98901 1.8403113e-38
-205.584 2792.74 -281.02802 1.8403113e-38
-210.245 2804.3999 -283.117 1.8403113e-38
-205.657 2813.8601 -281.78101 1.8403113e-38
-211.907 2826.22 -284.47101 1.8403113e-38
-208.041 2835.96 -283.405 1.8403113e-38
-204.242 2845.1899 -282.34601 1.8403113e-38
-208.235 2857.6399 -284.22101 1.8403113e-38
-204.267 2866.8601 -283.10001 1.8403113e-38
-201.841 2877.1499 -282.57501 1.8403113e-38
-203.897 2888.6399 -283.715 1.8403113e-38
-203.91901 2899.98 -284.11301 1.8403113e-38
-199.625 2909.1201 -282.87201 1.8403113e-38
-195.959 2919.05 -281.88501 1.8403113e-38
-197.60899 2930.6799 -282.883 1.8403113e-38
-198.097 2942.47 -283.465 1.8403113e-38
-192.61099 2951.1499 -281.776 1.8403113e-38
-197.19701 2964.9299 -283.91199 1.8403113e-38
-188.97301 2972.3701 -281.18799 1.8403113e-38
-192.46001 2985.8701 -282.91599 1.8403113e-38
-190.90601 2996.52 -282.71899 1.8403113e-38
-184.813 3005.52 -280.82101 1.8403113e-38
-188.983 3019.1599 -282.80099 1.8403113e-38
-186.07201 3029.8799 -282.11499 1.8403113e-38
-189.13699 3043.25 -283.685 1.8403113e-38
-185.49899 3065.6499 -283.138 1.8403113e-38
-181.44 3088.1001 -282.439 1.8403113e-38
-177.088 3098.3501 -281.215 1.8403113e-38
-173.707 3108.6001 -280.34201 1.8403113e-38
-178.87 3124.8101 -282.76999 1.8403113e-38
-175.25999 3135.1101 -281.81699 1.8403113e-38
-176.092 3148.95 -282.59399 1.8403113e-38
-177.043 3162.3999 -283.40201 1.8403113e-38
-172.041 3172.6599 -281.94199 1.8403113e-38
-171.94501 3185.6499 -282.354 1.8403113e-38
-166.74001 3195.8799 -280.82001 1.8403113e-38
-162.53 3220.24 -280.13199 1.8403113e-38
-163.929 3249.26 -281.638 1.8403113e-38
-163.782 3263.0701 -282.06 1.8403113e-38
-157.481 3287.1399 -280.604 1.8403113e-38
-146.74001 3385.45 -280.09399 1.8403113e-38
-145.8 3400.3101 -280.26501 1.8403113e-38
-130.82201 3560.01 -280.33099 1.8403113e-38
-474.289 -181.524 -276.082 1.8403113e-38
-176.858 3048.98 -279.43301 1.8403113e-38
-175.575 3072.6299 -279.78201 1.8403113e-38
-163.287 3206.72 -279.94199 1.8403113e-38
-159.62199 3231.6499 -279.47101 1.8403113e-38
-157.145 3272.6799 -279.98499 1.8403113e-38
-152.129 3297.8999 -279.035 1.8403113e-38
-150.69701 3311.22 -278.974 1.8403113e-38
-150.987 3326.8701 -279.61801 1.8403113e-38
-149.979 3340.9099 -279.73499 1.8403113e-38
-149.19299 3356.0601 -279.97198 1.8403113e-38
-147.867 3370.1899 -279.97699 1.8403113e-38
-143.621 3415.01 -279.98099 1.8403113e-38
-137.476 3425.3201 -278.10901 1.8403113e-38
-137.75999 3442.73 -278.811 1.8403113e-38
-138.217 3459.78 -279.56299 1.8403113e-38
-136.03999 3475.3101 -279.30801 1.8403113e-38
-131.388 3487.6699 -278.048 1.8403113e-38
-131.543 3506.03 -278.73499 1.8403113e-38
-129.235 3521.22 -278.422 1.8403113e-38
-130.26801 3541.1399 -279.48099 1.8403113e-38
-121.694 3569.3201 -277.34399 1.8403113e-38
-123.132 3589.74 -278.56699 1.8403113e-38
-120.073 3606.3 -278.02802 1.8403113e-38
-117.265 3622.46 -277.56699 1.8403113e-38
-113.189 3638.3501 -276.63699 1.8403113e-38
-110.003 3654.5701 -276.04001 1.8403113e-38
-104.939 3669.73 -274.72699 1.8403113e-38
-107.387 3693.6001 -276.435 1.8403113e-38
-102.489 3709.6101 -275.20999 1.8403113e-38
-98.480202 3725.96 -274.32001 1.8403113e-38
-92.614601 3741.2 -272.71899 1.8403113e-38
-93.403801 3764.6201 -273.811 1.8403113e-38
-88.8162 3782.27 -272.75601 1.8403113e-38
-89.591003 3806.6599 -273.875 1.8403113e-38
-83.950203 3823.5901 -272.414 1.8403113e-38
-79.737099 3841.71 -271.51099 1.8403113e-38
-74.373199 3884.96 -271.05499 1.8403113e-38
-73.095703 3910.1499 -271.45801 1.8403113e-38
-70.999603 3933.3701 -271.49799 1.8403113e-38
-67.497299 3956.25 -271.01501 1.8403113e-38
-64.785599 3979.6001 -270.836 1.8403113e-38
-66.175102 4011.8101 -272.448 1.8403113e-38
-58.318001 4027.72 -270.14801 1.8403113e-38
-58.912998 4060.1399 -271.479 1.8403113e-38
-54.867599 4083.75 -270.82501 1.8403113e-38
-52.703999 4112.96 -271.04599 1.8403113e-38
-447.595 -184.70799 -266.30099 1.8403113e-38
-70.958603 3854.6101 -268.77301 1.8403113e-38
-44.250702 4129.79 -268.56201 1.8403113e-38
-32.419701 4248.5 -268.358 1.8403113e-38
-15.7962 4253.3901 -262.50299 1.8403113e-38
-541.22998 -1401.1 -258.38699 1.8403113e-38
-416.495 -175.37801 -255.353 1.8403113e-38
-493.285 -1369.4301 -242.104 1.8403113e-38
-391.66101 -181.543 -246.142 1.8403113e-38
13.9089 4121.3398 -247.19701 1.8403113e-38
-362.58801 -297.81799 -231.608 1.8403113e-38
-366.707 -246.19299 -234.87601 1.8403113e-38
-374.00699 -200.494 -239.093 1.8403113e-38
-351.25 -473.729 -221.44901 1.8403113e-38
-353.25699 -407.42599 -224.457 1.8403113e-38
-356.99399 -350.99301 -227.752 1.8403113e-38
-420.43799 -1256.33 -219.599 1.8403113e-38
-375.42899 -848.992 -217.302 1.8403113e-38
-344.72299 -680.99597 -211.95399 1.8403113e-38
-343.25201 -600.75403 -214.18201 1.8403113e-38
-347.233 -534.133 -217.916 1.8403113e-38
89.451103 3912.1499 -212.63 1.8403113e-38
120.826 3880.74 -200.181 1.8403113e-38
-290.65201 -967.49597 -182.507 1.8403113e-38
195.103 3848.6599 -172.164 1.8403113e-38
-314.89301 -1875.23 -160.067 1.8403113e-38
-291.43201 -1518.87 -163.82401 1.8403113e-38
227.01401 3840.1499 -160.30901 1.8403113e-38
207.858 3852.23 -167.66499 1.8403113e-38
-258.57999 -1531.95 -151.47 1.8403113e-38
-204.745 -892.96198 -153.94299 1.8403113e-38
-182.19 -723.64001 -151.595 1.8403113e-38
238.446 3846.0801 -156.37 1.8403113e-38
252.53101 3844.4099 -151.209 1.8403113e-38
-282.466 -1902.04 -147.395 1.8403113e-38
-186.638 -1039.53 -142.341 1.8403113e-38
263.996 3850.1001 -147.25101 1.8403113e-38
275.341 3854.51 -143.291 1.8403113e-38
-242.782 -1893.21 -133.32001 1.8403113e-38
-148.98599 -806.45599 -136.715 1.8403113e-38
292.077 3847.1899 -136.976 1.8403113e-38
302.29099 3854.0901 -133.51199 1.8403113e-38
332.522 3843.8501 -122.206 1.8403113e-38
316.67401 3851.9399 -128.22701 1.8403113e-38
-203.90401 -1894.14 -119.201 1.8403113e-38
361.573 3834.77 -111.367 1.8403113e-38
347.03299 3840.4299 -116.83 1.8403113e-38
364.16699 3864.6299 -111.455 1.8403113e-38
366.34799 3895.27 -111.718 1.8403113e-38
367.39099 3932.78 -112.63 1.8403113e-38
371.76001 3959.8 -111.977 1.8403113e-38
370.655 4007.8601 -114.03 1.8403113e-38
372.276 4047.3201 -114.8 1.8403113e-38
374.85199 4088.02 -115.267 1.8403113e-38
380.40201 4118.1099 -114.291 1.8403113e-38
-166.821 -1894.25 -105.76 1.8403113e-38
-128.07201 -1894.42 -91.713799 1.8403113e-38
-91.126198 -1893.8199 -78.347504 1.8403113e-38
460.85599 3879.6799 -76.937798 1.8403113e-38
471.77802 3884.1799 -73.134804 1.8403113e-38
-52.919899 -1895.2 -64.456398 1.8403113e-38
486.508 3876.26 -67.525299 1.8403113e-38
497.17599 3881.49 -63.839802 1.8403113e-38
508.686 3885.8301 -59.818298 1.8403113e-38
532.35101 3889.1699 -51.358601 1.8403113e-38
518.34399 3895.71 -56.658901 1.8403113e-38
546.289 3879.4299 -45.973301 1.8403113e-38
559.19897 3876.48 -41.194 1.8403113e-38
576.61798 4053.5601 -40.9734 1.8403113e-38
577.41199 4128.8101 -43.274101 1.8403113e-38
570.91101 3876.21 -36.940701 1.8403113e-38
582.414 3879.8501 -32.898102 1.8403113e-38
58.835499 -1891.51 -24.0896 1.8403113e-38
142.267 -1084.76 -21.609301 1.8403113e-38
593.401 3883.27 -29.034599 1.8403113e-38
742.271 4715.9502 -3.7353001 1.8403113e-38
234.20599 -759.81299 0.52653402 1.8403113e-38
744.29199 4339.8101 9.9356604 1.8403113e-38
761.284 4709.0601 3.3908999 1.8403113e-38
779.03699 4710.9302 9.7591801 1.8403113e-38
243.972 -1026.16 13.2267 1.8403113e-38
673.771 3591.8501 10.1108 1.8403113e-38
797.711 4711.6699 16.5 1.8403113e-38
307.733 -811.02502 28.9298 1.8403113e-38
709.24597 3467.6499 27.237 1.8403113e-38
700.16901 3472.1599 23.792999 1.8403113e-38
748.52002 3839.4099 28.680201 1.8403113e-38
749.974 3992.8101 23.930201 1.8403113e-38
815.508 4712.2202 22.93 1.8403113e-38
834.18799 4712.6099 29.6847 1.8403113e-38
262.59698 -1504.48 36.428902 1.8403113e-38
276.39999 -1201.04 30.9923 1.8403113e-38
717.08801 3468.9199 30.035101 1.8403113e-38
726.27301 3462.25 33.592701 1.8403113e-38
734.07001 3463.3601 36.3797 1.8403113e-38
741.34497 3473.3799 38.6707 1.8403113e-38
747.92999 3586.6499 37.160702 1.8403113e-38
750.74902 3664.1899 35.5149 1.8403113e-38
851.99701 4714.8301 36.061501 1.8403113e-38
749.41602 3472.3701 41.630299 1.8403113e-38
870.69299 4714.8799 42.834202 1.8403113e-38
888.46503 4712.7598 49.346298 1.8403113e-38
380.534 -891.21503 58.066898 1.8403113e-38
907.19702 4714.46 56.0751 1.8403113e-38
320.41101 -1863.63 69.731102 1.8403113e-38
419.69601 -800.71399 69.143898 1.8403113e-38
943.36102 4706.3799 69.457001 1.8403113e-38
925.00201 4714.02 62.542 1.8403113e-38
961.57898 4714.5898 75.775597 1.8403113e-38
352.048 -1896.58 82.327797 1.8403113e-38
997.13599 4699.5298 89.177597 1.8403113e-38
980.133 4711.6099 82.601402 1.8403113e-38
398.45599 -1808.1 96.099503 1.8403113e-38
1016.07 4703.1802 95.914001 1.8403113e-38
435.61801 -1782.66 108.69 1.8403113e-38
1033.95 4703.7402 102.371 1.8403113e-38
1061.52 4796.6401 109.166 1.8403113e-38
