# .PCD v0.7 - Point Cloud Data file format
VERSION 0.7
FIELDS x y z rgb
SIZE 4 4 4 4
TYPE F F F F
COUNT 1 1 1 1
WIDTH 326
HEIGHT 1
VIEWPOINT 0 0 0 1 0 0 0
POINTS 326
DATA ascii
373.76999 -1583.33 -324.22198 1.8403113e-38
-195.05499 482.99701 -328.905 1.8403113e-38
-191.99001 507.298 -325.53201 1.8403113e-38
-203.258 566.15552 -323.93048 1.8403113e-38
272.80701 -1137.98 -317.62601 1.8403113e-38
268.39499 -1068.5699 -312.61899 1.8403113e-38
229.00999 -961.74701 -316.36801 1.8403113e-38
187.666 -815.79102 -317.108 1.8403113e-38
185.836 -751.39001 -311.66599 1.8403113e-38
150.04201 -677.409 -317.25699 1.8403113e-38
149.50301 -614.06201 -311.45999 1.8403113e-38
116.159 -543.71698 -316.53299 1.8403113e-38
117.004 -480.46799 -310.26001 1.8403113e-38
84.697601 -421.629 -316.05499 1.8403113e-38
85.485397 -367.29199 -310.64401 1.8403113e-38
57.110401 -299.45001 -314.207 1.8403113e-38
31.7194 -186.015 -312.41299 1.8403113e-38
3.6345899 -102.566 -314.39899 1.8403113e-38
-15.1086 10.815 -310.27399 1.8403113e-38
-58.427399 173.97501 -310.082 1.8403113e-38
-132.36099 447.88199 -310.18701 1.8403113e-38
-163.875 465.16901 -319.63 1.8403113e-38
-154.603 507.96799 -312.327 1.8403113e-38
504.702 -1861.78 -304.51199 1.8403113e-38
493.31299 -1850.36 -307.435 1.8403113e-38
230.114 -849.88397 -305.41 1.8403113e-38
58.7547 -247.181 -308.69 1.8403113e-38
32.241901 -145.51199 -308.40201 1.8403113e-38
6.04742 -57.327801 -309.276 1.8403113e-38
-10.7872 59.741501 -304.13101 1.8403113e-38
-36.848099 97.177803 -309.754 1.8403113e-38
-33.6455 137.326 -304.83499 1.8403113e-38
-53.625801 216.832 -304.345 1.8403113e-38
-76.602798 254.54401 -308.858 1.8403113e-38
-73.591904 287.763 -304.66 1.8403113e-38
-92.5989 334.04999 -306.96701 1.8403113e-38
-92.553101 354.905 -304.98099 1.8403113e-38
-111.23 397.48401 -307.522 1.8403113e-38
-110.702 418.272 -305.37201 1.8403113e-38
-126.969 481.595 -305.10599 1.8403113e-38
-182.60699 697.85303 -304.22699 1.8403113e-38
-194.181 751.53802 -303.22299 1.8403113e-38
-191.26401 770.823 -300.375 1.8403113e-38
-206.23599 800.625 -302.82199 1.8403113e-38
-203.718 818.02197 -300.293 1.8403113e-38
-214.80901 853.97498 -300.79401 1.8403113e-38
-227.063 896.64203 -301.069 1.8403113e-38
-240.394 934.92401 -302.138 1.8403113e-38
-239.47501 946.82397 -300.69 1.8403113e-38
-251.317 975.742 -302.12 1.8403113e-38
-261.129 1025.6899 -300.849 1.8403113e-38
-258.755 1020.67 -300.48801 1.8403113e-38
-269.638 1066.23 -300.009 1.8403113e-38
-288.228 1131.21 -300.40302 1.8403113e-38
-177.48 723.55402 -299.99701 1.8403113e-38
-213.162 868.625 -298.83099 1.8403113e-38
-223.78799 913.81201 -298.29599 1.8403113e-38
-246.875 993.52899 -298.87799 1.8403113e-38
-264.957 1065.39 -298.444 1.8403113e-38
-277.513 1097.48 -299.82401 1.8403113e-38
-275.53699 1109.0699 -298.035 1.8403113e-38
-288.617 1138.66 -299.83701 1.8403113e-38
-296.48901 1167.3101 -299.896 1.8403113e-38
-294.56 1177.92 -298.215 1.8403113e-38
-302.72501 1204.86 -298.539 1.8403113e-38
-295.62399 1222.52 -294.375 1.8403113e-38
-312.45999 1235.95 -299.02399 1.8403113e-38
-310.08099 1246.39 -297.20001 1.8403113e-38
-321.435 1266.99 -299.245 1.8403113e-38
-313.09 1285.05 -294.60501 1.8403113e-38
-324.37799 1304.8101 -296.70499 1.8403113e-38
-322.14099 1314.3101 -295.022 1.8403113e-38
-334.12201 1332.6 -297.505 1.8403113e-38
-330.49399 1343.51 -295.198 1.8403113e-38
-340.16299 1364.0601 -296.655 1.8403113e-38
-337.54001 1373.39 -294.85101 1.8403113e-38
-347.30801 1393.2 -296.41299 1.8403113e-38
-345.121 1401.72 -294.84 1.8403113e-38
-353.76599 1422.25 -295.93799 1.8403113e-38
-350.76501 1431.4 -294.01901 1.8403113e-38
-361.55499 1454.64 -295.61499 1.8403113e-38
-358.89099 1451.89 -294.939 1.8403113e-38
-362.9505 1484.475 -293.2865 1.8403113e-38
-373.76001 1503.9301 -295.24799 1.8403113e-38
-370.22299 1512.79 -293.16699 1.8403113e-38
-382.37799 1527.88 -296.01401 1.8403113e-38
-378.67401 1536.65 -293.883 1.8403113e-38
-383.54501 1558.36 -293.54401 1.8403113e-38
-380.35501 1566.36 -291.66599 1.8403113e-38
-388.92599 1584.1 -293.00299 1.8403113e-38
-384.164 1593.29 -290.461 1.8403113e-38
-394.45901 1609.13 -292.582 1.8403113e-38
-395.267 1613.22 -292.48001 1.8403113e-38
-404.181 1632.46 -293.7955 1.8403113e-38
-408.33401 1655.36 -293.09201 1.8403113e-38
-405.28299 1662.4 -291.353 1.8403113e-38
-414.564 1678.4399 -293.10001 1.8403113e-38
-412.129 1684.8199 -291.64099 1.8403113e-38
-415.259 1707.505 -290.5975 1.8403113e-38
-425.61899 1724.53 -292.63101 1.8403113e-38
-421.40601 1731.87 -290.45599 1.8403113e-38
-432.77899 1745.88 -293.13 1.8403113e-38
-432.32501 1750.4301 -292.54001 1.8403113e-38
-438.995 1771.79 -292.866 1.8403113e-38
-440.31799 1792.23 -291.39999 1.8403113e-38
-442.98599 1815.52 -290.13699 1.8403113e-38
-450.06549 1837.78 -290.522 1.8403113e-38
-463.80801 1880.01 -291.36099 1.8403113e-38
-467.20801 1901.74 -290.50299 1.8403113e-38
-471.88699 1922.5699 -290.17999 1.8403113e-38
-487.84299 1960.75 -292.17999 1.8403113e-38
-430.888 1773.04 -289.89899 1.8403113e-38
-434.90701 1799.77 -288.78601 1.8403113e-38
-439.85001 1821.45 -288.47501 1.8403113e-38
-451.84201 1858.95 -289.146 1.8403113e-38
-450.95599 1863.3199 -288.42099 1.8403113e-38
-455.64899 1880.59 -288.439 1.8403113e-38
-458.20901 1902.62 -287.25699 1.8403113e-38
-468.78201 1920.37 -289.29599 1.8403113e-38
-471.24799 1943.88 -287.9415 1.8403113e-38
-476.23001 1962.3101 -287.95099 1.8403113e-38
-483.03149 1983.4651 -288.34302 1.8403113e-38
-491.19 2003.99 -289.271 1.8403113e-38
-483.01901 2003.74 -286.423 1.8403113e-38
-494.32397 2022.905 -288.58502 1.8403113e-38
-495.931 2044 -287.15698 1.8403113e-38
-500.34299 2065.6499 -286.66199 1.8403113e-38
-498.418 2062.8401 -286.25 1.8403113e-38
-510.035 2080.3301 -288.68201 1.8403113e-38
-506.548 2084.8999 -287.02399 1.8403113e-38
-511.97 2102.675 -287.24951 1.8403113e-38
-517.11499 2122.2451 -287.20947 1.8403113e-38
-522.39001 2141.7651 -287.21899 1.8403113e-38
-519.12201 2163.3398 -284.03101 1.8403113e-38
-526.46948 2182.26 -284.82651 1.8403113e-38
-528.453 2202.3799 -283.6225 1.8403113e-38
-534.87299 2219.9399 -284.21899 1.8403113e-38
-532.71399 2223.6499 -283.11099 1.8403113e-38
-543.74298 2242.1799 -285.23599 1.8403113e-38
-535.755 2240.1799 -282.617 1.8403113e-38
-546.53101 2258.8701 -284.63901 1.8403113e-38
-546.11298 2262.24 -284.173 1.8403113e-38
-552.35699 2278.48 -284.83301 1.8403113e-38
-554.685 2281.5 -285.366 1.8403113e-38
-562.54498 2297.73 -286.595 1.8403113e-38
-560.14801 2301.3101 -285.41501 1.8403113e-38
-566.81 2317.8 -286.198 1.8403113e-38
-562.47699 2321.49 -284.32599 1.8403113e-38
-568.86902 2338.0901 -285.004 1.8403113e-38
-567.29199 2341.52 -284.12601 1.8403113e-38
-574.35602 2358.22 -285.03101 1.8403113e-38
-570.841 2361.71 -283.465 1.8403113e-38
-576.69098 2378.6001 -283.92599 1.8403113e-38
-573.117 2382.03 -282.34601 1.8403113e-38
-580.57703 2398.99 -283.36499 1.8403113e-38
-583.54602 2402.28 -284.09799 1.8403113e-38
-589.789 2419.51 -284.664 1.8403113e-38
-588.93103 2422.8601 -284.04599 1.8403113e-38
-590.66101 2441.845 -282.85999 1.8403113e-38
-597.75598 2462.7949 -283.37451 1.8403113e-38
-606.823 2485.8201 -284.38599 1.8403113e-38
-598.41199 2481.9299 -281.797 1.8403113e-38
-607.60101 2505.1499 -282.83252 1.8403113e-38
-608.93152 2526.3 -281.30151 1.8403113e-38
-621.79901 2547.1399 -283.85599 1.8403113e-38
-620.604 2550.46 -283.121 1.8403113e-38
-622.90399 2568.6599 -282.20999 1.8403113e-38
-630.10797 2573.1101 -284.32199 1.8403113e-38
-633.59399 2595.26 -283.45401 1.8403113e-38
-628.33899 2590.95 -282.01401 1.8403113e-38
-632.2395 2615.0298 -281.1095 1.8403113e-38
-637.56299 2639.6599 -280.65399 1.8403113e-38
-644.56299 2663.1899 -280.89099 1.8403113e-38
-649.13403 2684.7349 -280.46149 1.8403113e-38
-658.22601 2711.3701 -281.14099 1.8403113e-38
334.793 -928.98901 -276.091 1.8403113e-38
-632.45203 2635.1299 -279.285 1.8403113e-38
-635.80499 2657.77 -278.32501 1.8403113e-38
-643.17798 2703.98 -276.54901 1.8403113e-38
-654.54999 2729.5601 -278.13 1.8403113e-38
-656.573 2733.8101 -278.439 1.8403113e-38
-665.54901 2759.4199 -279.17401 1.8403113e-38
-658.09497 2753.53 -277.10999 1.8403113e-38
-662.12299 2777.98 -276.216 1.8403113e-38
-666.73499 2783.1899 -277.34399 1.8403113e-38
-867.07397 3595.25 -271.02899 1.8403113e-38
388.276 -981.59302 -262.263 1.8403113e-38
347.233 -868.35303 -265.98901 1.8403113e-38
-628.39398 2794.3301 -262.81601 1.8403113e-38
-856.60797 3579.8501 -268.80499 1.8403113e-38
-866.758 3629.6599 -267.66599 1.8403113e-38
-876.909 3645.3301 -269.75299 1.8403113e-38
-880.06299 3684.0701 -267.20099 1.8403113e-38
-891.33801 3701.3201 -269.534 1.8403113e-38
-886.24402 3733.9199 -264.66299 1.8403113e-38
-901.47803 3755.48 -267.98099 1.8403113e-38
-902.53802 3795.23 -264.59698 1.8403113e-38
-919.44702 3819.21 -268.27399 1.8403113e-38
-912.35901 3852.6101 -262.62701 1.8403113e-38
-928.099 3876.27 -265.923 1.8403113e-38
-926.89398 3917.05 -261.647 1.8403113e-38
-948.30603 3947.47 -266.298 1.8403113e-38
-954.49902 4006.8 -262.86899 1.8403113e-38
-971.73901 4080.6699 -261.94901 1.8403113e-38
-604.729 2782.96 -255.57201 1.8403113e-38
-939.74103 3982.3799 -259.98901 1.8403113e-38
-950.87201 4048.5601 -257.64801 1.8403113e-38
-1006.95 4292.27 -254.33099 1.8403113e-38
-1025.8 4325.8301 -257.784 1.8403113e-38
-1022.61 4377.4902 -251.78101 1.8403113e-38
-1045.04 4416.9399 -255.938 1.8403113e-38
-1064.75 4513.1802 -253.772 1.8403113e-38
-1056.86 4564.5298 -246.146 1.8403113e-38
-1074.13 4600.2402 -248.841 1.8403113e-38
-871.69299 4014.6201 -233.024 1.8403113e-38
-967.28802 4374.0698 -232.66 1.8403113e-38
447.883 -856.289 -229.47099 1.8403113e-38
456.92401 -845.87402 -225.30901 1.8403113e-38
-577.94202 2958.25 -229.593 1.8403113e-38
-574.56598 2980.9399 -226.263 1.8403113e-38
-847.927 4050.8701 -221.245 1.8403113e-38
557.867 -1064.0699 -210.44701 1.8403113e-38
-547.38397 2970.9399 -217.653 1.8403113e-38
-537.513 2985.9099 -212.769 1.8403113e-38
566.659 -1011.5 -202.38901 1.8403113e-38
-513.92999 2977.1699 -205.306 1.8403113e-38
-776.61798 3914.51 -209.06599 1.8403113e-38
-476.198 2912.0901 -198.19299 1.8403113e-38
-592.10699 3330.9199 -199.35699 1.8403113e-38
-752.46899 3929.3401 -199.177 1.8403113e-38
-398.06201 2734.72 -187.489 1.8403113e-38
-406.33401 2740.6001 -189.841 1.8403113e-38
-399.04901 2755.2749 -185.8925 1.8403113e-38
-404.10049 2776.1401 -185.69749 1.8403113e-38
-402.51501 2794.75 -183.381 1.8403113e-38
-411.155 2819.49 -184.08099 1.8403113e-38
-409.496 2815.5801 -183.867 1.8403113e-38
-411.87601 2839.72 -182.422 1.8403113e-38
-420.836 2840.47 -185.50101 1.8403113e-38
-425.8515 2864.8252 -184.96301 1.8403113e-38
-448.16901 2960.55 -183.76199 1.8403113e-38
-446.25201 2982.1001 -181.052 1.8403113e-38
-542.77899 3285.79 -186.283 1.8403113e-38
611.95898 -921.50897 -177.963 1.8403113e-38
620.776 -916.56897 -174.397 1.8403113e-38
-434.12399 2956.3401 -179.22301 1.8403113e-38
-438.12 2981.0601 -178.291 1.8403113e-38
-419.00101 2988.7 -170.85001 1.8403113e-38
-765.70496 4238.4648 -174.619 1.8403113e-38
669.89001 -989.05499 -163.98399 1.8403113e-38
-412.569 2988.47 -168.61099 1.8403113e-38
-410.97 3056.95 -161.578 1.8403113e-38
-427.927 3089.03 -164.507 1.8403113e-38
-434.159 3097.45 -165.901 1.8403113e-38
-426.5235 3115.085 -161.55099 1.8403113e-38
-730.88 4248.2402 -161.45399 1.8403113e-38
678.28198 -971.99701 -159.422 1.8403113e-38
-378.7395 2988.075 -156.75751 1.8403113e-38
-384.397 3035.1201 -154.3 1.8403113e-38
-421.55899 3136.96 -157.7395 1.8403113e-38
-410.18701 3152.03 -152.31799 1.8403113e-38
-727.19 4253.48 -159.662 1.8403113e-38
-360.612 2996.76 -149.565 1.8403113e-38
-352.625 2995.1101 -146.914 1.8403113e-38
-401.37799 3149.3401 -149.476 1.8403113e-38
-698.862 4266.9102 -148.436 1.8403113e-38
-687.42603 4260.4702 -145.026 1.8403113e-38
722.82898 -930.08801 -139.804 1.8403113e-38
731.55402 -925.815 -136.33299 1.8403113e-38
-657.427 4276.1699 -132.9975 1.8403113e-38
778.06403 -927.86798 -120.18 1.8403113e-38
-624.104 4286.2402 -120.333 1.8403113e-38
-740.47498 4635.7998 -128.20599 1.8403113e-38
-731.66803 4634.21 -125.261 1.8403113e-38
786.86499 -925.422 -116.855 1.8403113e-38
-617.09998 4286.1299 -117.882 1.8403113e-38
-632.80103 4372.0698 -115.28 1.8403113e-38
-644.36902 4403.6401 -116.363 1.8403113e-38
-691.26501 4634.1299 -111.067 1.8403113e-38
833.763 -930.59302 -100.86 1.8403113e-38
-685.414 4637.5801 -108.684 1.8403113e-38
1050.12 -1689.02 -96.476402 1.8403113e-38
1014.62 -1491.96 -90.334198 1.8403113e-38
841.51599 -917.05103 -96.855003 1.8403113e-38
-642.914 4632.2002 -94.253601 1.8403113e-38
-636.13599 4633.7402 -91.7257 1.8403113e-38
889.67297 -933.27802 -81.461502 1.8403113e-38
898.95801 -935.466 -78.4048 1.8403113e-38
1051.72 -1290.6801 -58.276402 1.8403113e-38
1054.4 -1239 -52.4505 1.8403113e-38
1072.8 -1028.85 -26.125601 1.8403113e-38
1077.89 -1001.87 -21.785601 1.8403113e-38
1129.37 -966.55902 -0.35612699 1.8403113e-38
1118.45 -957.20398 -3.3088801 1.8403113e-38
-135.94299 3727.1101 -1.5836101 1.8403113e-38
-133.38 3730.76 -0.33764499 1.8403113e-38
-104.925 3727.72 9.3773499 1.8403113e-38
-112.326 3734 7.3691602 1.8403113e-38
1175.92 -958.505 16.7689 1.8403113e-38
-83.581902 3729.5701 17.053801 1.8403113e-38
-80.528999 3732.1899 18.374599 1.8403113e-38
1184.54 -954.90002 20.139 1.8403113e-38
-56.675499 3732.6001 26.797649 1.8403113e-38
1232.9399 -955.77802 37.068401 1.8403113e-38
-31.595499 3734.25 35.768547 1.8403113e-38
1241.9301 -953.96503 40.398399 1.8403113e-38
-4.7297001 3730.7451 44.880699 1.8403113e-38
1289.79 -950.99701 57.5 1.8403113e-38
16.8731 3734.3401 52.813202 1.8403113e-38
20.0072 3736.6899 54.1367 1.8403113e-38
1300.98 -958.76202 60.700298 1.8403113e-38
39.8731 3739.1499 61.351898 1.8403113e-38
43.728199 3739.55 62.745499 1.8403113e-38
63.8979 3740.6799 69.941002 1.8403113e-38
1348.74 -953.88702 77.950203 1.8403113e-38
70.383904 3733.46 71.538696 1.8403113e-38
91.0196 3732.24 78.677101 1.8403113e-38
1358.91 -956.58301 81.267502 1.8403113e-38
95.144203 3731.54 80.060303 1.8403113e-38
117.083 3731.415 87.759903 1.8403113e-38
1407.21 -952.724 98.609802 1.8403113e-38
136.64 3738.5601 95.308701 1.8403113e-38
140.439 3738.6599 96.653503 1.8403113e-38
1419.22 -961.995 101.956 1.8403113e-38
162.41699 3737.21 104.242 1.8403113e-38
185.035 3732.47 111.744 1.8403113e-38
