# .PCD v0.7 - Point Cloud Data file format
VERSION 0.7
FIELDS x y z rgb
SIZE 4 4 4 4
TYPE F F F F
COUNT 1 1 1 1
WIDTH 318
HEIGHT 1
VIEWPOINT 0 0 0 1 0 0 0
POINTS 318
DATA ascii
1267.34 -988.07898 -315.664 1.8403113e-38
1179.4399 -862.297 -316.02802 1.8403113e-38
1091.64 -715.31897 -311.98001 1.8403113e-38
1331.77 -1010.39 -300.96301 1.8403113e-38
1322.84 -1002.26 -301.95901 1.8403113e-38
1245.17 -926.90198 -309.672 1.8403113e-38
1154.9 -785.30902 -307.478 1.8403113e-38
1072.3101 -654.38098 -305.18701 1.8403113e-38
1014.07 -591.72998 -309.70001 1.8403113e-38
996.41199 -532.41901 -302.74301 1.8403113e-38
942.77197 -477.26999 -307.427 1.8403113e-38
926.70203 -419.62701 -300.33701 1.8403113e-38
876.57703 -368.23001 -304.74301 1.8403113e-38
816.95099 -276.47198 -303.66 1.8403113e-38
761.40302 -190.453 -302.54001 1.8403113e-38
710.06897 -114.2 -302.17499 1.8403113e-38
662.12701 -44.885101 -302.22501 1.8403113e-38
616.383 27.211399 -301.043 1.8403113e-38
574.25201 82.407799 -302.26901 1.8403113e-38
533.97998 138.293 -302.79501 1.8403113e-38
495.70901 190.895 -303.39899 1.8403113e-38
491.16599 206.69501 -301.49799 1.8403113e-38
459.19199 244.08701 -303.35699 1.8403113e-38
424.444 299.78201 -302.26599 1.8403113e-38
391.44501 351.078 -301.561 1.8403113e-38
360.061 400.87701 -300.67999 1.8403113e-38
329.88501 443.29501 -300.96201 1.8403113e-38
300.87 483.202 -301.41501 1.8403113e-38
862.83899 -317.16501 -298.31299 1.8403113e-38
805.284 -232.039 -297.979 1.8403113e-38
750.91803 -147.80499 -296.87299 1.8403113e-38
700.68298 -73.362999 -296.55301 1.8403113e-38
654.14801 -9.8026104 -297.37 1.8403113e-38
609.45898 58.476601 -296.66101 1.8403113e-38
567.96399 113.761 -297.677 1.8403113e-38
528.65503 162.855 -299.31699 1.8403113e-38
454.86301 271.70599 -298.94901 1.8403113e-38
420.689 327.439 -297.67899 1.8403113e-38
388.08899 370.939 -298.46399 1.8403113e-38
357.47101 429.55301 -295.534 1.8403113e-38
327.371 463.20401 -297.604 1.8403113e-38
299.332 510.90302 -296.155 1.8403113e-38
274.159 535.13702 -298.69299 1.8403113e-38
272.31 553.11902 -295.53299 1.8403113e-38
247.798 574.77899 -298.40601 1.8403113e-38
246.427 593.72803 -294.90201 1.8403113e-38
222.929 616.66901 -297.20599 1.8403113e-38
222.07401 636.57098 -293.35199 1.8403113e-38
198.843 654.98401 -296.51099 1.8403113e-38
197.29201 667.177 -294.457 1.8403113e-38
174.46851 694.39453 -295.67499 1.8403113e-38
152.748 723.79303 -296.11301 1.8403113e-38
152.405 739.79602 -292.91 1.8403113e-38
130.636 755.24701 -296.24301 1.8403113e-38
129.679 766.47803 -294.20999 1.8403113e-38
108.259 781.271 -297.57401 1.8403113e-38
109.159 800.05603 -293.42401 1.8403113e-38
88.378304 815.09802 -296.54501 1.8403113e-38
89.432098 832.888 -292.55399 1.8403113e-38
69.046097 847.22803 -295.702 1.8403113e-38
68.800697 858.41803 -293.46399 1.8403113e-38
48.915001 873.01599 -296.409 1.8403113e-38
48.391102 882.32501 -294.64301 1.8403113e-38
29.247299 898.10303 -297.121 1.8403113e-38
29.452 909.24799 -294.758 1.8403113e-38
15.0846 939.03198 -292.91199 1.8403113e-38
12.9841 941.87 -292.95499 1.8403113e-38
-3.7685652 966.31702 -292.92651 1.8403113e-38
-22.395599 983.66101 -294.92599 1.8403113e-38
-22.136299 992.88501 -292.94299 1.8403113e-38
-37.105999 1014.84 -292.89499 1.8403113e-38
-36.645699 1024.03 -290.858 1.8403113e-38
-56.1077 1032.6899 -294.90302 1.8403113e-38
-52.345001 1049.88 -290.224 1.8403113e-38
-70.604698 1067.89 -291.978 1.8403113e-38
-68.536102 1065.85 -291.77899 1.8403113e-38
-87.2341 1085.535 -293.3165 1.8403113e-38
-99.926147 1114.425 -291.15198 1.8403113e-38
-116.31149 1133.865 -292.048 1.8403113e-38
-132.78101 1149.4301 -293.76801 1.8403113e-38
-131.23801 1158.39 -291.45599 1.8403113e-38
-147.42599 1170.9399 -293.71399 1.8403113e-38
-161.729 1194.925 -293.048 1.8403113e-38
-170.912 1221.79 -290.25 1.8403113e-38
1391.23 -1011.4 -283.35001 1.8403113e-38
1383.8101 -1009.15 -285.11099 1.8403113e-38
-142.634 1185.76 -289.21701 1.8403113e-38
-171.645 1225.62 -289.67899 1.8403113e-38
-182.379 1246.03 -288.681 1.8403113e-38
-179.64 1255.5699 -285.88901 1.8403113e-38
-196.201 1265.4399 -288.81299 1.8403113e-38
-192.784 1275.72 -285.66599 1.8403113e-38
-210.06 1288.8101 -288.14001 1.8403113e-38
-209.065 1285.79 -288.46399 1.8403113e-38
-222.1785 1307.365 -287.939 1.8403113e-38
-234.599 1327.145 -287.57599 1.8403113e-38
-245.89101 1345.9 -287.086 1.8403113e-38
-243.367 1353.52 -284.75601 1.8403113e-38
-255.17 1368.9 -285.116 1.8403113e-38
-251.36 1377.96 -282.10199 1.8403113e-38
-266.53949 1390.42 -284.07901 1.8403113e-38
-279.75201 1405.3199 -284.961 1.8403113e-38
-277.983 1411.27 -283.20099 1.8403113e-38
-293.85901 1422.6951 -285.59998 1.8403113e-38
-303.89099 1444.52 -284.09799 1.8403113e-38
-299.694 1445.78 -282.57999 1.8403113e-38
-315.92801 1458.38 -284.84299 1.8403113e-38
-315.72501 1462.09 -284.01501 1.8403113e-38
-328.12399 1475.41 -284.98099 1.8403113e-38
-324.62701 1482.54 -282.45999 1.8403113e-38
-338.50751 1495.7749 -283.8855 1.8403113e-38
-349.31451 1513.7251 -283.41699 1.8403113e-38
-362.04599 1528.01 -284.28201 1.8403113e-38
-360.88501 1532.3 -283.047 1.8403113e-38
-372.2785 1547.71 -283.28 1.8403113e-38
-384.5145 1563.8201 -283.6185 1.8403113e-38
-396.45001 1578.63 -284.138 1.8403113e-38
-391.478 1585.88 -281.14999 1.8403113e-38
-407.78299 1595.39 -284.07101 1.8403113e-38
-401.95401 1603.14 -280.724 1.8403113e-38
-416.94202 1615.265 -282.71201 1.8403113e-38
-423.13599 1635.72 -280.34351 1.8403113e-38
-434.20898 1652.26 -280.24548 1.8403113e-38
-445.76599 1668.4199 -280.371 1.8403113e-38
-456.03299 1684.1 -280.20999 1.8403113e-38
-479.418 1716.3101 -280.565 1.8403113e-38
-454.19 1688.0699 -278.836 1.8403113e-38
-466.89752 1702.075 -279.75348 1.8403113e-38
-472.651 1723.1899 -277.11499 1.8403113e-38
-486.88101 1736.35 -278.66251 1.8403113e-38
-501.28799 1752.22 -279.70099 1.8403113e-38
-492.80701 1754.49 -276.69199 1.8403113e-38
-512.01898 1769.02 -279.448 1.8403113e-38
-504.315 1770.67 -276.798 1.8403113e-38
-519.44055 1786.3149 -278.10052 1.8403113e-38
-526.67798 1804.8999 -276.43048 1.8403113e-38
-542.91949 1819.08 -278.3685 1.8403113e-38
-553.43054 1836.2051 -277.98102 1.8403113e-38
-565.83398 1852.6 -278.31201 1.8403113e-38
-574.94995 1870.52 -277.3425 1.8403113e-38
-588.16351 1886.885 -277.92297 1.8403113e-38
-599.37903 1904.215 -277.70453 1.8403113e-38
-605.88098 1923.3501 -275.70148 1.8403113e-38
-624.60999 1938.425 -278.19897 1.8403113e-38
-633.24451 1957.1 -276.9295 1.8403113e-38
-647.93604 1974.11 -277.81949 1.8403113e-38
-662.28802 1992.76 -278.26901 1.8403113e-38
-657.93799 1991.49 -277.22699 1.8403113e-38
-673.73199 2011.23 -277.883 1.8403113e-38
-666.64203 2010.5699 -275.896 1.8403113e-38
-678.73401 2028.97 -275.71799 1.8403113e-38
-679.35797 2031.26 -275.43301 1.8403113e-38
-694.09448 2048.1599 -276.35748 1.8403113e-38
-716.62402 2066.3799 -279.34601 1.8403113e-38
-703.02197 2066.54 -275.23801 1.8403113e-38
-724.35901 2085.365 -277.7435 1.8403113e-38
-731.57898 2105.77 -275.6925 1.8403113e-38
-746.47705 2125.25 -276.13348 1.8403113e-38
-765.54901 2145.8899 -277.586 1.8403113e-38
-754.73901 2144.6699 -274.59799 1.8403113e-38
-770.84802 2167.21 -274.76999 1.8403113e-38
-767.63397 2165.04 -274.25601 1.8403113e-38
-791.00403 2187.4299 -276.63501 1.8403113e-38
-782.117 2185.6299 -274.34299 1.8403113e-38
-802.29401 2208.8201 -275.60101 1.8403113e-38
-794.38098 2206.79 -273.64899 1.8403113e-38
-811.08398 2228.0801 -274.25601 1.8403113e-38
-812.28998 2230.5801 -274.103 1.8403113e-38
-825.65552 2251.25 -273.83752 1.8403113e-38
-840.62701 2272.3 -273.978 1.8403113e-38
-839.83801 2274.8899 -273.20499 1.8403113e-38
-857.39203 2297.74 -273.746 1.8403113e-38
-868.74597 2318.3701 -272.888 1.8403113e-38
-875.54102 2321.2 -274.34 1.8403113e-38
-890.43201 2345.1299 -273.85999 1.8403113e-38
-883.67902 2342.1599 -272.45099 1.8403113e-38
-901.091 2369.3101 -272.06 1.8403113e-38
-895.34198 2366.26 -270.96799 1.8403113e-38
-925.73199 2395.01 -274.13599 1.8403113e-38
-938.43597 2420.4299 -272.694 1.8403113e-38
-955.495 2446.8401 -272.35199 1.8403113e-38
-947.026 2443.04 -270.59698 1.8403113e-38
-971.14001 2473.72 -271.48801 1.8403113e-38
-986.31403 2501.1499 -270.37 1.8403113e-38
1443.12 -1008.23 -267.147 1.8403113e-38
1450.01 -1008.44 -265.12601 1.8403113e-38
-840.97498 2294.99 -269.39401 1.8403113e-38
-907.56 2390.8201 -269.55701 1.8403113e-38
-918.40399 2415.7 -267.66699 1.8403113e-38
-962.72998 2469.74 -269.789 1.8403113e-38
-977.96802 2496.99 -268.72699 1.8403113e-38
-1002.91 2529.45 -269.49799 1.8403113e-38
-993.677 2524.95 -267.66101 1.8403113e-38
-1016.14 2557.8101 -267.60501 1.8403113e-38
-1007.93 2553.3 -266.078 1.8403113e-38
-1039.3 2588.8301 -268.14099 1.8403113e-38
-1025.48 2582.95 -265.211 1.8403113e-38
-1052.42 2618.55 -265.92999 1.8403113e-38
-1045.3101 2613.8799 -264.76599 1.8403113e-38
-1058.9 2644.1799 -262.58099 1.8403113e-38
-1074.42 2651.0801 -265.806 1.8403113e-38
-1079.46 2676.96 -261.97 1.8403113e-38
-1089.22 2682.71 -263.70901 1.8403113e-38
-1117.48 2718.8501 -264.71201 1.8403113e-38
-1101.26 2711.05 -261.46301 1.8403113e-38
-1128.92 2747.8999 -262.14301 1.8403113e-38
-1136.6 2753.54 -263.28 1.8403113e-38
-1150.26 2784.03 -261.07501 1.8403113e-38
-1165.28 2792.22 -263.883 1.8403113e-38
-1176.4301 2822.8501 -260.89899 1.8403113e-38
-1191.3 2831.3701 -263.59698 1.8403113e-38
-1209.14 2868.8799 -261.19501 1.8403113e-38
-1250.05 2916.0901 -263.70499 1.8403113e-38
-1274.42 2958.7 -262.20599 1.8403113e-38
-1303.3199 3004.55 -261.397 1.8403113e-38
-1333.02 3052.3201 -260.42999 1.8403113e-38
-1367.02 3103.72 -260.005 1.8403113e-38
-1193.5 2859.73 -258.396 1.8403113e-38
-1226.33 2903.48 -259.198 1.8403113e-38
-1250.91 2945.6201 -257.86301 1.8403113e-38
-1281.86 2991.73 -257.61099 1.8403113e-38
-1309.98 3038.27 -256.427 1.8403113e-38
-1344.24 3089.1799 -256.17899 1.8403113e-38
-1379.12 3142.28 -255.66499 1.8403113e-38
-1395.42 3154.3301 -258.06 1.8403113e-38
-1415.4301 3198.0701 -255.024 1.8403113e-38
-1437.66 3213.5701 -258.487 1.8403113e-38
-1449.5601 3254.8401 -253.528 1.8403113e-38
-1475.01 3272.6299 -257.479 1.8403113e-38
-1487.59 3315.8 -252.33299 1.8403113e-38
-1517.04 3336.47 -256.89001 1.8403113e-38
1505.34 -1014.69 -249.83501 1.8403113e-38
1511.33 -1011.93 -247.468 1.8403113e-38
-1481.8 3359.3701 -241.599 1.8403113e-38
1575.24 -1020.81 -230.14999 1.8403113e-38
1566.01 -1014.29 -231.57001 1.8403113e-38
-1458.6899 3341.6101 -238.34 1.8403113e-38
-1480.42 3401.24 -232.53799 1.8403113e-38
-1456.76 3382.5601 -229.304 1.8403113e-38
-1458.23 3426.24 -220.722 1.8403113e-38
-1481.5699 3445.3601 -223.77 1.8403113e-38
1627.89 -1015.53 -213.28 1.8403113e-38
1635.55 -1017.21 -211.33099 1.8403113e-38
1700.25 -1023.6 -193.261 1.8403113e-38
1690.04 -1015.56 -194.662 1.8403113e-38
1827.3199 -1182.15 -187.931 1.8403113e-38
1788.8 -1105.03 -183.545 1.8403113e-38
-1262.64 3347.02 -178.46899 1.8403113e-38
-1254.9 3346.6499 -176.22701 1.8403113e-38
-1103.965 3285.5752 -143.60699 1.8403113e-38
-1111.87 3329.99 -136.80299 1.8403113e-38
-1109.62 3324.1899 -137.325 1.8403113e-38
-1090.73 3348.77 -126.589 1.8403113e-38
-1088.83 3351.74 -125.406 1.8403113e-38
1619.36 -531.823 -115.929 1.8403113e-38
1611.3 -527.48199 -117.448 1.8403113e-38
1662.02 -517.90503 -100.269 1.8403113e-38
-1035.87 3505.6499 -77.744202 1.8403113e-38
1484.12 -101.457 -67.568001 1.8403113e-38
-993.98199 3508.8701 -64.526299 1.8403113e-38
-988.74298 3509.02 -62.925301 1.8403113e-38
-1256.66 3886.8401 -65.1791 1.8403113e-38
-1258.05 3894.21 -64.074799 1.8403113e-38
-970.55402 3529.5601 -53.231998 1.8403113e-38
-989.83698 3551.51 -54.477501 1.8403113e-38
-1013.57 3611.1399 -49.271801 1.8403113e-38
-1028.72 3630.1499 -49.887901 1.8403113e-38
1393.48 197.12199 -33.063099 1.8403113e-38
1376.59 223.513 -32.672401 1.8403113e-38
-649.98901 3155.76 -34.369499 1.8403113e-38
-1094.79 3781.55 -38.4175 1.8403113e-38
1468.1801 118.96 -26.8181 1.8403113e-38
-487.25 2949.1499 -28.273199 1.8403113e-38
-478.034 2945.0901 -26.349199 1.8403113e-38
-592.659 3106.28 -27.4079 1.8403113e-38
-999.70398 3693.4099 -28.125999 1.8403113e-38
1427.1801 214.36099 -19.4025 1.8403113e-38
-453.64301 2947.45 -18.553699 1.8403113e-38
-456.418 2952.1599 -18.4123 1.8403113e-38
-446.77197 2966.6499 -12.5277 1.8403113e-38
-931.854 3666.24 -13.4035 1.8403113e-38
-928.617 3668.1399 -12.0417 1.8403113e-38
2211.6001 -864.94897 -7.24897 1.8403113e-38
1461.86 229.526 -5.8759799 1.8403113e-38
1453.95 235.702 -6.9707599 1.8403113e-38
-890.11798 3668.71 -0.385979 1.8403113e-38
1699.54 -48.894299 7.8464999 1.8403113e-38
1651.3199 29.6101 9.6110497 1.8403113e-38
1516.65 206.38699 5.7627301 1.8403113e-38
1480.87 265.54501 7.2591901 1.8403113e-38
-888.258 3671.96 0.84227198 1.8403113e-38
-851.34198 3673.04 12.1303 1.8403113e-38
-844.052 3670.3401 13.7564 1.8403113e-38
-842.66998 3709.96 22.3536 1.8403113e-38
-839.37299 3711.6299 23.6877 1.8403113e-38
1576.08 248.90601 32.357201 1.8403113e-38
-835.98853 3753.0249 33.251297 1.8403113e-38
-836.08698 3799.98 42.919601 1.8403113e-38
-839.66803 3810.0601 43.929001 1.8403113e-38
1516.12 427.25201 51.2248 1.8403113e-38
1520.12 428.39401 52.658901 1.8403113e-38
-836.8075 3855.46 54.1632 1.8403113e-38
1535.0801 467.89148 65.300003 1.8403113e-38
-834.66302 3903.45 64.717796 1.8403113e-38
-837.17401 3912.9299 65.924599 1.8403113e-38
1525.04 545.52301 78.326797 1.8403113e-38
1518.6801 562.76599 79.980499 1.8403113e-38
-833.96503 3958.46 76.289902 1.8403113e-38
-838.05499 3970.4299 77.536102 1.8403113e-38
-833.52899 4016.25 88.355904 1.8403113e-38
-835.586 4025.8999 89.732697 1.8403113e-38
1627.49 457.86099 90.923203 1.8403113e-38
1561.71 551.05902 90.457901 1.8403113e-38
1658.4301 468.79401 102.454 1.8403113e-38
1663.51 468.612 103.939 1.8403113e-38
-821.25702 4066.9299 102.502 1.8403113e-38
-833.21997 4076.8501 100.966 1.8403113e-38
-830.08801 4136.1802 114.159 1.8403113e-38
