# .PCD v0.7 - Point Cloud Data file format
VERSION 0.7
FIELDS x y z rgb
SIZE 4 4 4 4
TYPE F F F F
COUNT 1 1 1 1
WIDTH 328
HEIGHT 1
VIEWPOINT 0 0 0 1 0 0 0
POINTS 328
DATA ascii
1613.35 -1018.66 -321.66901 1.8403113e-38
1676.98 -1045.15 -310.94199 1.8403113e-38
1574.24 -944.15399 -314.05899 1.8403113e-38
1499.62 -881.72302 -318.98599 1.8403113e-38
1463.59 -810.19702 -311.27301 1.8403113e-38
1399.29 -765.375 -317.70599 1.8403113e-38
1367.5 -700.64899 -310.50601 1.8403113e-38
1302.51 -644.84399 -314.44699 1.8403113e-38
1216.2 -540.90802 -312.41 1.8403113e-38
1136.8101 -445.44199 -310.56601 1.8403113e-38
1685.23 -1042.0699 -307.96301 1.8403113e-38
1275.37 -588.901 -308.13199 1.8403113e-38
1190.61 -485.41501 -305.785 1.8403113e-38
1114.75 -397.05801 -304.72198 1.8403113e-38
1060.58 -347.29599 -307.21799 1.8403113e-38
1040.99 -303.26401 -301.76901 1.8403113e-38
992.76001 -265.60101 -305.60901 1.8403113e-38
977.73901 -234.565 -302.09601 1.8403113e-38
931.01501 -194.911 -305.04401 1.8403113e-38
915.76599 -159.784 -300.595 1.8403113e-38
872.47803 -125.842 -304.008 1.8403113e-38
818.49902 -65.218498 -303.80099 1.8403113e-38
765.90601 0.31072 -302.02301 1.8403113e-38
718.27698 52.355301 -302.19299 1.8403113e-38
671.20898 113.032 -300.10599 1.8403113e-38
587.90302 202.925 -300.681 1.8403113e-38
858.02502 -90.454697 -299.28 1.8403113e-38
803.99402 -25.745399 -298.09 1.8403113e-38
753.40302 34.230598 -297.12601 1.8403113e-38
707.19501 82.605797 -297.80701 1.8403113e-38
662.07098 135.711 -297.04199 1.8403113e-38
628.13098 161.963 -299.806 1.8403113e-38
619.797 182.847 -296.96301 1.8403113e-38
579.66699 226.851 -297.069 1.8403113e-38
547.89801 255.283 -298.715 1.8403113e-38
541.177 270.582 -296.79901 1.8403113e-38
510.634 298.59399 -298.216 1.8403113e-38
503.92899 317.888 -295.32101 1.8403113e-38
475.09 339.60699 -297.81299 1.8403113e-38
468.97101 357.04999 -295.211 1.8403113e-38
441.483 372.44 -298.88199 1.8403113e-38
435.63501 391.91699 -295.711 1.8403113e-38
408.311 421.39099 -295.90201 1.8403113e-38
403.32199 431.21201 -294.854 1.8403113e-38
377.31201 451.38699 -296.95801 1.8403113e-38
372.45099 466.14401 -294.67099 1.8403113e-38
347.26901 486.729 -296.452 1.8403113e-38
342.737 503.49301 -293.58701 1.8403113e-38
318.39401 521.54901 -295.758 1.8403113e-38
314.24799 539.336 -292.539 1.8403113e-38
290.772 560.66699 -293.67801 1.8403113e-38
286.80701 570.74103 -292.29099 1.8403113e-38
264.026 590.47998 -293.63 1.8403113e-38
260.66 608.34497 -290.181 1.8403113e-38
238.362 622.60498 -292.72601 1.8403113e-38
234.88901 632.77197 -291.18399 1.8403113e-38
213.36 650.25598 -292.73401 1.8403113e-38
210.202 661.427 -290.86301 1.8403113e-38
187.96899 685.77405 -290.92902 1.8403113e-38
166.64999 712.315 -290.21399 1.8403113e-38
143.642 735.17499 -290.85199 1.8403113e-38
78.097198 801.776 -292.311 1.8403113e-38
58.212502 827.672 -291.366 1.8403113e-38
39.106098 853.79102 -290.155 1.8403113e-38
-0.146957 893.65802 -291.034 1.8403113e-38
-125.657 1034.37 -290.61301 1.8403113e-38
-140.47501 1047.61 -291.38501 1.8403113e-38
-142.384 1051.6801 -290.90701 1.8403113e-38
-157.584 1067.59 -291.13251 1.8403113e-38
1738.89 -1020.33 -288.16501 1.8403113e-38
163.795 721.62402 -288.71399 1.8403113e-38
140.866 743.55798 -289.55701 1.8403113e-38
122.47 765.96198 -289.061 1.8403113e-38
119.906 774.36902 -287.703 1.8403113e-38
100.829 788.45001 -289.42099 1.8403113e-38
97.319901 790.24701 -289.931 1.8403113e-38
77.671997 819.67102 -288.061 1.8403113e-38
56.1991 836.14398 -289.84299 1.8403113e-38
37.925598 865.07703 -287.72101 1.8403113e-38
20.33 878.25098 -289.26099 1.8403113e-38
18.7076 886.73999 -287.62799 1.8403113e-38
-1.35658 903.08301 -289.061 1.8403113e-38
-17.6457 918.56 -289.686 1.8403113e-38
-18.9065 927.05902 -287.953 1.8403113e-38
-33.047001 948.203 -286.61499 1.8403113e-38
-35.210201 953.03802 -286.01999 1.8403113e-38
-51.919998 964.31 -287.784 1.8403113e-38
-52.513599 973.70697 -285.65201 1.8403113e-38
-71.364655 983.11353 -288.45001 1.8403113e-38
-85.859901 1004.45 -287.16101 1.8403113e-38
-86.390297 1012.92 -285.23801 1.8403113e-38
-104.0685 1024.14 -287.27649 1.8403113e-38
-121.179 1036.49 -288.88501 1.8403113e-38
-172.94701 1090.35 -289.73099 1.8403113e-38
-164.011 1101.71 -284.54501 1.8403113e-38
-180.457 1116.86 -285.29199 1.8403113e-38
-182.46899 1120.11 -285.04401 1.8403113e-38
-192.9955 1142.715 -282.3735 1.8403113e-38
-208.756 1154.49 -283.75699 1.8403113e-38
-209.267 1160.27 -282.48499 1.8403113e-38
-223.99001 1176.8101 -282.42801 1.8403113e-38
-219.442 1178.47 -280.79599 1.8403113e-38
-236.76599 1193.09 -281.909 1.8403113e-38
-254.27299 1207.1801 -283.20099 1.8403113e-38
-264.09299 1227.355 -280.93201 1.8403113e-38
-305.98199 1277.09 -280.11401 1.8403113e-38
-346.96399 1322.9301 -280.00299 1.8403113e-38
-359.92801 1333.9301 -280.82101 1.8403113e-38
1672.46 -890.72198 -274.49301 1.8403113e-38
-246.248 1214.33 -279.289 1.8403113e-38
-274.43799 1248.835 -278.48651 1.8403113e-38
-290.29599 1264.26 -279.00699 1.8403113e-38
-287.814 1262.45 -278.77701 1.8403113e-38
-302.436 1276.78 -279.23199 1.8403113e-38
-315.73651 1295.2749 -278.31348 1.8403113e-38
-327.97 1309.78 -278.08099 1.8403113e-38
-330.33401 1311.6801 -278.254 1.8403113e-38
-344.039 1321.71 -279.509 1.8403113e-38
-355.59 1343.86 -277.228 1.8403113e-38
-371.94299 1350.7 -279.97699 1.8403113e-38
-368.65201 1359.1 -277.03699 1.8403113e-38
-385.6665 1367.5701 -279.56848 1.8403113e-38
-395.38251 1386.3401 -277.61401 1.8403113e-38
-410.48401 1397.02 -279.08701 1.8403113e-38
-406.07901 1405.88 -275.73801 1.8403113e-38
-422.52701 1413.03 -278.435 1.8403113e-38
-433.59 1429.85 -277.32199 1.8403113e-38
-419.29401 1420.47 -275.74799 1.8403113e-38
-437.013 1430.72 -278.034 1.8403113e-38
-446.02499 1447.245 -276.43701 1.8403113e-38
-455.36151 1465.26 -274.56451 1.8403113e-38
-484.668 1489.88 -276.47501 1.8403113e-38
-464.58301 1485.08 -272.22198 1.8403113e-38
-480.048 1497.55 -273.35599 1.8403113e-38
-487.7955 1514.4351 -271.33002 1.8403113e-38
-505.46802 1525.39 -273.4325 1.8403113e-38
-523.95001 1537.9399 -275.36301 1.8403113e-38
-517.60999 1538.9 -273.41599 1.8403113e-38
-527.85596 1557.46 -271.65698 1.8403113e-38
-542.25201 1569.48 -272.61301 1.8403113e-38
-543.96503 1571.92 -272.48099 1.8403113e-38
-558.5885 1584.005 -273.48151 1.8403113e-38
-567.50299 1599.9 -272.013 1.8403113e-38
-569.14001 1602.4 -271.845 1.8403113e-38
-588.646 1613.64 -274.37399 1.8403113e-38
-578.97101 1615.95 -271.19601 1.8403113e-38
-596.2655 1630.41 -272.33951 1.8403113e-38
-607.65845 1646.7251 -271.43799 1.8403113e-38
-621.29651 1661.925 -271.414 1.8403113e-38
-638.81598 1677.05 -272.457 1.8403113e-38
-650.75598 1693.52 -271.66599 1.8403113e-38
-648.49597 1691.22 -271.61499 1.8403113e-38
-663.47998 1708.0649 -271.5535 1.8403113e-38
-682.54498 1723.38 -272.96899 1.8403113e-38
-673.41803 1724.01 -270.349 1.8403113e-38
-688.13202 1739.7 -270.495 1.8403113e-38
-691.16699 1741.78 -270.80899 1.8403113e-38
-707.40802 1757.2 -271.435 1.8403113e-38
-719.01801 1774.6801 -270.30701 1.8403113e-38
-861.44299 1932.66 -270.24301 1.8403113e-38
-456.95001 1487.73 -269.51099 1.8403113e-38
-629.789 1678.21 -269.73499 1.8403113e-38
-698.23602 1757.49 -268.88599 1.8403113e-38
-714.263 1773.13 -269.39899 1.8403113e-38
-732.15002 1791.77 -269.68399 1.8403113e-38
-724.73102 1791.08 -267.84799 1.8403113e-38
-747.737 1808.29 -269.866 1.8403113e-38
-737.61499 1808.34 -267.11801 1.8403113e-38
-763.10602 1825.2 -269.89301 1.8403113e-38
-752.06 1825.34 -266.87399 1.8403113e-38
-772.77197 1844.1 -267.89301 1.8403113e-38
-769.00403 1841.89 -267.41299 1.8403113e-38
-794.06897 1859.96 -269.77802 1.8403113e-38
-786.65399 1858.66 -268.09201 1.8403113e-38
-807.79504 1876.63 -269.418 1.8403113e-38
-823.13501 1896.55 -268.702 1.8403113e-38
-812.03101 1895.8199 -265.88101 1.8403113e-38
-842.87 1914.22 -269.72198 1.8403113e-38
-835.48602 1912.46 -268.159 1.8403113e-38
-850.32898 1931.46 -267.53101 1.8403113e-38
-873.18298 1952.79 -268.504 1.8403113e-38
-868.65802 1950.2 -267.91101 1.8403113e-38
-889.33398 1972.47 -268.065 1.8403113e-38
-879.17798 1970.6899 -265.755 1.8403113e-38
-897.75854 1991.9551 -265.58749 1.8403113e-38
-918.56055 2011.7649 -266.3735 1.8403113e-38
-941.755 2033.6801 -267.293 1.8403113e-38
-930.70001 2031.37 -264.871 1.8403113e-38
-965.323 2054.55 -268.57001 1.8403113e-38
-948.55103 2052.49 -264.54001 1.8403113e-38
-984.76099 2076.4199 -268.48599 1.8403113e-38
-968.00299 2074.03 -264.54199 1.8403113e-38
-998.104 2099.1799 -266.53799 1.8403113e-38
-980.40802 2096.52 -262.40701 1.8403113e-38
-1001.12 2119.0701 -262.5 1.8403113e-38
-1011.08 2122.3301 -264.396 1.8403113e-38
-1035.26 2145.7 -265.22601 1.8403113e-38
-1028.23 2142.1599 -264.19101 1.8403113e-38
-1053.29 2169.8401 -264.20599 1.8403113e-38
-1044.38 2166.1399 -262.70401 1.8403113e-38
-1073.8199 2194.6201 -263.70999 1.8403113e-38
-1084.2 2215.9199 -261.31601 1.8403113e-38
-1092.99 2220.03 -262.689 1.8403113e-38
-1056.27 2190.55 -259.961 1.8403113e-38
-1103.04 2245.5901 -259.16901 1.8403113e-38
-1093.34 2241.25 -257.60699 1.8403113e-38
-1118.49 2268.02 -257.871 1.8403113e-38
-1128.13 2272.5901 -259.358 1.8403113e-38
-1136.4301 2295.05 -256.12299 1.8403113e-38
-1154.6899 2300.6201 -259.69699 1.8403113e-38
-1174.585 2326.8799 -258.6655 1.8403113e-38
-1203.46 2359.02 -258.625 1.8403113e-38
-1179.58 2351.97 -253.894 1.8403113e-38
-1220.8 2388.5801 -256.10001 1.8403113e-38
-1212.45 2383.24 -255.147 1.8403113e-38
-1237.0601 2414.4299 -254.185 1.8403113e-38
-1246.28 2420.1399 -255.284 1.8403113e-38
-1269.75 2448.01 -254.823 1.8403113e-38
-1278.87 2453.97 -255.834 1.8403113e-38
-1285.51 2479.5801 -251.379 1.8403113e-38
-1309.86 2488.76 -255.71899 1.8403113e-38
-1316.95 2515.1699 -251.19099 1.8403113e-38
-1332.54 2523.01 -253.491 1.8403113e-38
-1361.25 2559.6299 -252.312 1.8403113e-38
-1345.79 2551.4399 -250.134 1.8403113e-38
-1399.7 2599.9199 -252.871 1.8403113e-38
-1428.8101 2639.29 -251.13 1.8403113e-38
-1463.74 2681.6299 -250.23599 1.8403113e-38
1703.36 -805.36298 -245.32401 1.8403113e-38
1689.53 -794.974 -246.52699 1.8403113e-38
-1375.83 2589.22 -249.032 1.8403113e-38
-1405.12 2628.1001 -247.461 1.8403113e-38
-1446.86 2671.8101 -248.073 1.8403113e-38
-1472.63 2712.47 -245.116 1.8403113e-38
-1496.86 2724.97 -248.61099 1.8403113e-38
-1513.5 2759.22 -244.75 1.8403113e-38
-1537.5 2772.26 -248.05299 1.8403113e-38
-1547.77 2805.5701 -242.702 1.8403113e-38
-1571.53 2819.1299 -245.815 1.8403113e-38
-1586.62 2855.2 -241.09 1.8403113e-38
-1611.0601 2869.6201 -244.174 1.8403113e-38
-1618.86 2904.1899 -237.84801 1.8403113e-38
-1605.24 2904.71 -234.04201 1.8403113e-38
-1839.4301 3159.1599 -235.23399 1.8403113e-38
-1877.61 3183.4299 -239.627 1.8403113e-38
-1595.0449 2935.375 -223.808 1.8403113e-38
-1830.4301 3199.1399 -223.05099 1.8403113e-38
-1589.83 2968.1299 -214.408 1.8403113e-38
-1583.47 2971.22 -211.936 1.8403113e-38
-1795.02 3188.8501 -215.994 1.8403113e-38
1634.5 -554.92297 -202.834 1.8403113e-38
1643.62 -556.36102 -200.72099 1.8403113e-38
-1613.91 3016.8201 -209.036 1.8403113e-38
-1596.59 3015.1001 -204.776 1.8403113e-38
2006.67 -909.67401 -188.836 1.8403113e-38
1983.1801 -884.71899 -189.09599 1.8403113e-38
1665.49 -505.14899 -182.32001 1.8403113e-38
1675.4399 -508.241 -180.386 1.8403113e-38
-2210.3799 3767.73 -186.98399 1.8403113e-38
-2204.8701 3773.1899 -184.166 1.8403113e-38
-1593.59 3125.77 -176.97 1.8403113e-38
-1593.13 3131.6499 -175.414 1.8403113e-38
-2209.0701 3826.29 -172.345 1.8403113e-38
1733.17 -511.79599 -165.659 1.8403113e-38
-1591.01 3164.8799 -166.73399 1.8403113e-38
-1599.23 3175.3701 -166.396 1.8403113e-38
-1627.8199 3225.8301 -161.80701 1.8403113e-38
-1629.6899 3233.27 -160.50101 1.8403113e-38
-1875.47 3506.1001 -160.34 1.8403113e-38
-2200.1001 3829.52 -169.133 1.8403113e-38
-1884.1801 3519.03 -159.535 1.8403113e-38
-1586.1 3244.8899 -145.89101 1.8403113e-38
-1597.4 3257.6699 -145.825 1.8403113e-38
-1589.72 3289.3601 -136.02 1.8403113e-38
-1592.21 3297.3301 -134.746 1.8403113e-38
-1999.45 3744.9199 -135.571 1.8403113e-38
-1989.0699 3746.3999 -132.405 1.8403113e-38
1409.76 93.628304 -105.335 1.8403113e-38
-1739.2 3619.1101 -95.959396 1.8403113e-38
-1733.25 3622.6799 -93.482201 1.8403113e-38
1417.17 237.78 -68.171898 1.8403113e-38
1422.0699 240.37 -66.215103 1.8403113e-38
1421.64 302.42899 -51.194099 1.8403113e-38
1430.92 297.30399 -49.936401 1.8403113e-38
1462.54 314.04999 -37.308701 1.8403113e-38
1438.17 343.74701 -36.649502 1.8403113e-38
-1255.24 3319.05 -38.4263 1.8403113e-38
-1256.48 3326.04 -37.055 1.8403113e-38
1515.75 296.80399 -27.1437 1.8403113e-38
1496.11 317.60001 -27.3745 1.8403113e-38
-1255.8101 3359.95 -28.599701 1.8403113e-38
-1253.7 3364.6001 -26.898701 1.8403113e-38
1605.49 294.259 -3.52299 1.8403113e-38
1435.0699 476.80099 -5.0285001 1.8403113e-38
1442.63 474.46899 -3.55516 1.8403113e-38
-1132.36 3308.2949 -7.8539801 1.8403113e-38
1503.36 435.086 3.2411399 1.8403113e-38
-1113.855 3332.6602 3.086925 1.8403113e-38
1573.13 404.754 14.6885 1.8403113e-38
1526.8199 461.448 16.009199 1.8403113e-38
-1105.655 3365.625 13.3447 1.8403113e-38
1535 508.38101 29.666901 1.8403113e-38
-1045.2949 3354.21 26.8636 1.8403113e-38
1555.0699 489.53299 30.491899 1.8403113e-38
-1052.41 3397.52 35.5075 1.8403113e-38
-1053.1 3404.3501 36.9846 1.8403113e-38
1558.1 533.599 42.060501 1.8403113e-38
1564.01 534.22101 43.807899 1.8403113e-38
-1087.3149 3474.25 44.7943 1.8403113e-38
1529.12 625.47998 56.645401 1.8403113e-38
1536.6801 623.70502 58.253399 1.8403113e-38
1596.15 597.18896 67.849045 1.8403113e-38
1673.46 560.09802 79.6847 1.8403113e-38
1626.61 608.302 78.789299 1.8403113e-38
-469.332 2931.1201 79.240303 1.8403113e-38
-482.81201 2940.1201 77.794197 1.8403113e-38
2151.3501 59.271801 86.605499 1.8403113e-38
2119.3601 85.857597 84.450302 1.8403113e-38
-445.14301 2928.99 85.254501 1.8403113e-38
-443.25201 2930.9399 86.240799 1.8403113e-38
-437.241 2948.3899 92.121399 1.8403113e-38
-682.828 3235.3999 95.793999 1.8403113e-38
-708.25299 3256.74 94.131897 1.8403113e-38
1925.3101 381.004 104.029 1.8403113e-38
1904.92 394.98901 101.932 1.8403113e-38
-488.67099 3059.6799 105.376 1.8403113e-38
-504.45499 3072.3301 104.198 1.8403113e-38
-480.81601 3076.24 111.537 1.8403113e-38
