# .PCD v0.7 - Point Cloud Data file format
VERSION 0.7
FIELDS x y z rgb
SIZE 4 4 4 4
TYPE F F F F
COUNT 1 1 1 1
WIDTH 360
HEIGHT 1
VIEWPOINT 0 0 0 1 0 0 0
POINTS 360
DATA ascii
1886.12 337.45801 -307.81201 1.8403113e-38
1487.8101 406.80499 -303.43201 1.8403113e-38
1434.42 418.23801 -302.07401 1.8403113e-38
1459.02 414.48999 -302.15201 1.8403113e-38
1363.49 429.08701 -301.83401 1.8403113e-38
1405.41 427.349 -300.293 1.8403113e-38
1293.34 443.245 -300.36301 1.8403113e-38
2441.29 305.61099 -290.56799 1.8403113e-38
1334.46 439.92001 -299.43301 1.8403113e-38
1381.17 431.73499 -299.966 1.8403113e-38
1269.88 449.03101 -299.492 1.8403113e-38
1311.34 444.43701 -299.00201 1.8403113e-38
1207.7 458.87399 -299.16199 1.8403113e-38
1226.5 457.64001 -298.634 1.8403113e-38
1249.02 452.069 -299.47601 1.8403113e-38
1129.54 471.40701 -298.689 1.8403113e-38
1141.62 477.90701 -295.72299 1.8403113e-38
1164.04 470.522 -297.224 1.8403113e-38
1181.4 470.36099 -296.383 1.8403113e-38
1036.21 489.78699 -296.89499 1.8403113e-38
1052.37 489.06799 -296.31799 1.8403113e-38
1069.6899 486.922 -296.19501 1.8403113e-38
1086.5601 485.76099 -295.741 1.8403113e-38
1106.84 480.03799 -296.754 1.8403113e-38
985.625 497.06299 -296.89001 1.8403113e-38
999.99701 498.26599 -295.71399 1.8403113e-38
1017 495.54999 -295.81299 1.8403113e-38
968.30499 500.95001 -296.38599 1.8403113e-38
886.37299 518.11603 -294.44 1.8403113e-38
903.09302 513.32599 -295.29999 1.8403113e-38
917.57703 512.89801 -294.70499 1.8403113e-38
933.07898 510.95099 -294.60501 1.8403113e-38
947.68597 510.823 -293.89499 1.8403113e-38
826.85101 527.04901 -294.29999 1.8403113e-38
839.646 528.43201 -293.14001 1.8403113e-38
855.55701 523.97998 -293.92099 1.8403113e-38
870.23999 522.23798 -293.789 1.8403113e-38
783.33099 534.88702 -293.72699 1.8403113e-38
794.32202 539.33002 -291.55801 1.8403113e-38
808.62299 536.97601 -291.66599 1.8403113e-38
700.552 549.99701 -292.56601 1.8403113e-38
713.96002 547.58301 -292.742 1.8403113e-38
725.96002 548.81799 -291.67599 1.8403113e-38
742.14301 540.51801 -293.82901 1.8403113e-38
755.026 540.25403 -293.258 1.8403113e-38
765.57703 545.33502 -290.88199 1.8403113e-38
591.125 552.883 -297.186 1.8403113e-38
660.79999 558.008 -291.73599 1.8403113e-38
672.61603 558.77301 -290.849 1.8403113e-38
685.83398 556.09198 -291.13101 1.8403113e-38
553.526 562.19202 -295.77701 1.8403113e-38
565.36298 561.10101 -295.55801 1.8403113e-38
576.15302 563.75403 -294.04401 1.8403113e-38
598.51801 566.61102 -291.858 1.8403113e-38
622.70398 564.44598 -291.38699 1.8403113e-38
635.96301 560.38397 -292.164 1.8403113e-38
646.74597 563.61798 -290.44199 1.8403113e-38
539.50897 571.62903 -293.10199 1.8403113e-38
469.95499 581.98499 -292.96899 1.8403113e-38
480.16 585.70502 -291.10101 1.8403113e-38
412.64099 598.185 -290.09799 1.8403113e-38
-71.407898 667.34998 -290.21799 1.8403113e-38
2446.5701 328.41699 -282.07901 1.8403113e-38
1810.11 424.16299 -280.50601 1.8403113e-38
1450.3 468.22101 -283.245 1.8403113e-38
608.65601 571.34399 -289.62799 1.8403113e-38
490.52499 588.58301 -289.52802 1.8403113e-38
512.98297 587.23602 -288.85199 1.8403113e-38
524.25598 586.70898 -288.45901 1.8403113e-38
433.91699 599.21503 -288.62601 1.8403113e-38
445.63 594.29199 -289.79401 1.8403113e-38
455.948 596.89099 -288.323 1.8403113e-38
500.63101 592.466 -287.60699 1.8403113e-38
368.94601 606.54901 -289.34399 1.8403113e-38
379.35199 607.59198 -288.42999 1.8403113e-38
389.61099 609.65503 -287.15601 1.8403113e-38
400.85101 605.26898 -288.155 1.8403113e-38
421.49899 608.89697 -285.78 1.8403113e-38
315.64099 616.711 -288.44101 1.8403113e-38
326.215 614.5 -288.69 1.8403113e-38
336.64801 614.255 -288.23901 1.8403113e-38
346.78601 616.909 -286.758 1.8403113e-38
357.42999 614.96002 -286.91 1.8403113e-38
243.013 629.90399 -287.44501 1.8403113e-38
253.24899 628.97302 -287.25 1.8403113e-38
263.53299 627.18597 -287.362 1.8403113e-38
273.92899 623.60199 -288.11499 1.8403113e-38
283.901 629.50897 -285.47198 1.8403113e-38
294.573 622.33398 -287.504 1.8403113e-38
304.914 621.828 -287.15201 1.8403113e-38
202.339 639.16302 -286.21201 1.8403113e-38
222.614 639.54199 -285.02701 1.8403113e-38
232.77 634.68103 -286.25299 1.8403113e-38
141.735 644.72198 -287.345 1.8403113e-38
151.83099 643.901 -287.11801 1.8403113e-38
162.04401 645.04102 -286.17899 1.8403113e-38
171.94501 640.63098 -287.25601 1.8403113e-38
182.26401 644.75598 -285.23599 1.8403113e-38
192.263 641.44897 -285.91 1.8403113e-38
212.50999 641.66199 -284.78601 1.8403113e-38
91.600998 651.93103 -287.341 1.8403113e-38
111.787 650.48401 -286.81799 1.8403113e-38
122.105 652.224 -285.65701 1.8403113e-38
132.054 650.30701 -285.83301 1.8403113e-38
-45.03265 667.00854 -288.9765 1.8403113e-38
42.533798 664.87903 -285.21399 1.8403113e-38
62.687302 663.55103 -284.64999 1.8403113e-38
72.623802 662.08197 -284.66501 1.8403113e-38
82.6968 661.62701 -284.30801 1.8403113e-38
102.823 660.96802 -283.504 1.8403113e-38
-80.265602 673.61603 -288.418 1.8403113e-38
-59.278301 672.953 -287.57199 1.8403113e-38
-5.8696799 678.85498 -282.68301 1.8403113e-38
4.1317801 677.74402 -282.565 1.8403113e-38
14.3182 677.63898 -282.07599 1.8403113e-38
23.250401 671.15997 -283.94901 1.8403113e-38
33.963902 673.99103 -282.37399 1.8403113e-38
53.668201 670.66498 -282.55301 1.8403113e-38
-25.6507 682.242 -282.48599 1.8403113e-38
-15.4489 681.88098 -282.08801 1.8403113e-38
-125.308 699.62201 -281.379 1.8403113e-38
-103.999 699.95599 -280.15601 1.8403113e-38
-94.646301 696.22302 -281.01801 1.8403113e-38
-84.712502 694.36603 -281.173 1.8403113e-38
-186.42999 709.70697 -280.90701 1.8403113e-38
-146.103 701.44702 -281.797 1.8403113e-38
2456.6299 348.077 -274.47501 1.8403113e-38
1445.33 494.83899 -273.91199 1.8403113e-38
-154.38699 708.23901 -279.77899 1.8403113e-38
-133.985 705.37598 -279.755 1.8403113e-38
-113.605 702.86902 -279.604 1.8403113e-38
-215.662 718.97699 -279.07999 1.8403113e-38
-205.448 716.96301 -279.27701 1.8403113e-38
-193.42799 719.39502 -277.77899 1.8403113e-38
-173.772 714.09198 -278.673 1.8403113e-38
-163.922 711.565 -279.073 1.8403113e-38
-267.52802 728.70599 -278.25699 1.8403113e-38
-256.08701 728.78802 -277.63599 1.8403113e-38
-245.89101 726.41602 -277.96301 1.8403113e-38
-234.119 727.56799 -276.939 1.8403113e-38
-223.17799 727.11298 -276.53699 1.8403113e-38
-344.47198 738.70099 -278.63599 1.8403113e-38
-322.14301 735.797 -278.52802 1.8403113e-38
-312.354 732.00598 -279.38699 1.8403113e-38
-299.013 734.995 -277.62 1.8403113e-38
-289.67001 730.56097 -278.73401 1.8403113e-38
-276.46201 733.80298 -276.883 1.8403113e-38
-386.82599 749.82898 -276.81799 1.8403113e-38
-376.61301 746.29303 -277.564 1.8403113e-38
-363.95099 746.91602 -276.68399 1.8403113e-38
-353.267 744.40198 -277.03799 1.8403113e-38
-331.44101 740.49701 -277.315 1.8403113e-38
-470.53601 759.35498 -277.716 1.8403113e-38
-433.884 755.44202 -277.23001 1.8403113e-38
-423.65399 751.48499 -278.12701 1.8403113e-38
-409.26801 753.99103 -276.479 1.8403113e-38
-397.021 753.45697 -276.03799 1.8403113e-38
-517.08801 769.87598 -276.33401 1.8403113e-38
-503.99701 768.96899 -275.98401 1.8403113e-38
-493.793 764.38202 -277.108 1.8403113e-38
-479.07199 766.03998 -275.74899 1.8403113e-38
-455.91901 761.297 -276.26001 1.8403113e-38
-443.552 760.27399 -275.98901 1.8403113e-38
-539.815 776.58398 -275.09299 1.8403113e-38
-527.27301 774.67297 -275.13199 1.8403113e-38
-605.40399 785.27197 -275.35501 1.8403113e-38
-591.47302 784.11798 -275.05099 1.8403113e-38
-578.20697 782.39001 -274.987 1.8403113e-38
-561.922 784.479 -273.392 1.8403113e-38
-549.36499 782.32703 -273.51801 1.8403113e-38
-687.84998 797.58002 -275.186 1.8403113e-38
-673.698 795.48999 -275.207 1.8403113e-38
-658.92401 794.25702 -274.88699 1.8403113e-38
-645.50299 791.789 -275.082 1.8403113e-38
-629.53003 792.302 -274.07101 1.8403113e-38
-614.27698 792.29199 -273.285 1.8403113e-38
-777.65302 809.62201 -275.49301 1.8403113e-38
-760.48199 809.14899 -274.77499 1.8403113e-38
-746.16803 806.23401 -275.08401 1.8403113e-38
-731.19 804.15302 -275.06 1.8403113e-38
-717.62 800.896 -275.53101 1.8403113e-38
-701.35797 800.51202 -274.828 1.8403113e-38
-804.28003 818.24103 -273.76501 1.8403113e-38
-789.17902 815.47101 -273.98199 1.8403113e-38
-887.69397 828.685 -274.31699 1.8403113e-38
-867.94 828.646 -273.30899 1.8403113e-38
-854.92401 823.27197 -274.57199 1.8403113e-38
-834.56897 824.315 -273.14301 1.8403113e-38
-819.41101 821.18799 -273.48599 1.8403113e-38
-957.51001 839.00299 -274.211 1.8403113e-38
-917.56201 837.28302 -272.76401 1.8403113e-38
-903.75598 831.992 -273.95599 1.8403113e-38
-989.14001 848.04199 -272.59 1.8403113e-38
-973.70801 843.138 -273.55899 1.8403113e-38
-932.89301 841.55103 -272.01901 1.8403113e-38
-1006.15 852.00299 -272.04401 1.8403113e-38
-1037.85 862.21198 -270.005 1.8403113e-38
2461.4199 370.892 -266.008 1.8403113e-38
1444.8101 516.45398 -266.15201 1.8403113e-38
-1053.3101 867.87701 -268.76401 1.8403113e-38
-1014.46 862.30499 -268.76099 1.8403113e-38
-1115.21 876.04498 -269.02301 1.8403113e-38
-1086.64 878.17603 -266.77701 1.8403113e-38
-1069.5699 873.19202 -267.69 1.8403113e-38
-1147.89 888.29901 -266.298 1.8403113e-38
-1129.08 883.62097 -267.01099 1.8403113e-38
-1187.25 897.39502 -265.05701 1.8403113e-38
-1170.0601 891.20898 -266.397 1.8403113e-38
-1225.85 908.008 -263.23099 1.8403113e-38
-1204.4301 903.79797 -263.64001 1.8403113e-38
2468.51 392.16199 -257.978 1.8403113e-38
2480.51 410.44299 -250.771 1.8403113e-38
1441.1899 540.711 -257.60001 1.8403113e-38
2482.8799 434.263 -242.067 1.8403113e-38
1708.23 529.35999 -247.87601 1.8403113e-38
1617.52 542.89801 -247.69099 1.8403113e-38
1436.52 565.5 -248.911 1.8403113e-38
1442.13 580.03003 -243.386 1.8403113e-38
2486.71 457.05301 -233.658 1.8403113e-38
1867.99 532.59198 -238.448 1.8403113e-38
1693.73 561.65002 -236.993 1.8403113e-38
1442.55 599.23901 -236.44299 1.8403113e-38
1449.2 612.41803 -231.351 1.8403113e-38
-1142.36 970.922 -236.245 1.8403113e-38
-2527.23 1164.23 -238.23801 1.8403113e-38
-2567.8799 1180.04 -234.64301 1.8403113e-38
2491.1499 479.33301 -225.401 1.8403113e-38
1848.36 567.81097 -226.77499 1.8403113e-38
1857.23 582.15198 -221.149 1.8403113e-38
1674.88 596.65302 -225.35699 1.8403113e-38
1727.45 595.922 -222.901 1.8403113e-38
1761.41 590.48999 -223.10201 1.8403113e-38
1694.48 601.22302 -222.69701 1.8403113e-38
1462.26 619.71997 -228.045 1.8403113e-38
1475.27 627.15503 -224.69299 1.8403113e-38
1492.6801 630.85699 -222.459 1.8403113e-38
-2578.2 1202.2 -227.194 1.8403113e-38
-2608.8501 1220.77 -222.089 1.8403113e-38
-2681.5 1232.55 -221.601 1.8403113e-38
-2748.28 1246.46 -220.047 1.8403113e-38
2502.3301 497.811 -218.166 1.8403113e-38
1974.71 585.35101 -213.92 1.8403113e-38
1857.03 602.737 -213.743 1.8403113e-38
-2773.76 1267.8101 -213.672 1.8403113e-38
2505.45 520.57703 -209.802 1.8403113e-38
2510.0801 542.39001 -201.70399 1.8403113e-38
1868 615.46002 -208.592 1.8403113e-38
1881.3199 626.63397 -203.877 1.8403113e-38
-3776.6101 1447.87 -200.675 1.8403113e-38
2515.3701 563.74103 -193.739 1.8403113e-38
-1121.74 1084.99 -194.082 1.8403113e-38
-1134.99 1092.86 -191.93201 1.8403113e-38
-1545.86 1143.9 -194.79601 1.8403113e-38
-1881.14 1205.13 -190.082 1.8403113e-38
-3617.2 1427.3199 -199.83299 1.8403113e-38
-3896.1599 1473.52 -197.619 1.8403113e-38
-4019.55 1500.88 -194.142 1.8403113e-38
-4157.7202 1529.5601 -190.959 1.8403113e-38
2528.4299 581.09399 -186.811 1.8403113e-38
-1070.63 1095.85 -187.526 1.8403113e-38
-1140.1801 1104.59 -187.976 1.8403113e-38
-1025.98 1104.4301 -182.125 1.8403113e-38
-1146.16 1115.9399 -184.194 1.8403113e-38
-1344.3101 1136.21 -187.142 1.8403113e-38
-1366.65 1143.08 -185.821 1.8403113e-38
-1288.04 1142.88 -181.82899 1.8403113e-38
-1552.46 1158.29 -189.957 1.8403113e-38
-1407.6 1159.1 -182.17101 1.8403113e-38
-1374.15 1155.63 -181.69099 1.8403113e-38
-1437.37 1164.35 -181.819 1.8403113e-38
-1549.51 1175.6801 -183.536 1.8403113e-38
-2540.23 1327.45 -180.104 1.8403113e-38
-4305.6899 1560.1 -187.61 1.8403113e-38
-4469.4199 1592.5699 -184.38 1.8403113e-38
-4650.8999 1627.33 -181.245 1.8403113e-38
2537.76 600.32703 -179.399 1.8403113e-38
2540.6399 622.64203 -171.211 1.8403113e-38
-934.26501 1099.74 -179.071 1.8403113e-38
-993.79303 1107.45 -179.37199 1.8403113e-38
-967.836 1107.78 -177.912 1.8403113e-38
-944.57397 1107.1 -176.952 1.8403113e-38
-1143.9399 1130.9 -178.69099 1.8403113e-38
-1140.64 1146.16 -173.024 1.8403113e-38
-1554.87 1190.39 -178.515 1.8403113e-38
-1551.5601 1207.66 -172.12199 1.8403113e-38
-1713.85 1229.73 -172.563 1.8403113e-38
-2605.4199 1341.84 -178.29201 1.8403113e-38
-2684.3701 1355.48 -177.463 1.8403113e-38
-2755.4099 1371.34 -175.424 1.8403113e-38
-2837.27 1387.11 -173.978 1.8403113e-38
-2921.0701 1403.98 -172.233 1.8403113e-38
-3011.75 1421.54 -170.599 1.8403113e-38
2542.3799 645.34601 -162.94099 1.8403113e-38
-1140.79 1159.79 -168.121 1.8403113e-38
-1173.55 1173.77 -164.776 1.8403113e-38
-1141.71 1173 -163.408 1.8403113e-38
-1548.0699 1224.83 -165.756 1.8403113e-38
-1553.9399 1239.25 -160.864 1.8403113e-38
-3107.3301 1440.12 -168.849 1.8403113e-38
-4663.4102 1667.3 -167.491 1.8403113e-38
2545.6899 667.17102 -154.907 1.8403113e-38
-1556.8 1254.49 -155.52 1.8403113e-38
2563.28 682.448 -148.493 1.8403113e-38
2563.46 705.547 -140.162 1.8403113e-38
-4563.73 1708.04 -147.658 1.8403113e-38
-4693.3398 1747.8199 -140.02901 1.8403113e-38
2567.95 726.61102 -132.341 1.8403113e-38
2574.99 746.51898 -124.804 1.8403113e-38
2585.52 764.961 -117.615 1.8403113e-38
-1392.08 1341.89 -115.512 1.8403113e-38
-5475.6899 1937.73 -112.079 1.8403113e-38
2588.49 786.47101 -109.712 1.8403113e-38
2605.1599 802.51801 -103.068 1.8403113e-38
-1355.33 1364.71 -105.39 1.8403113e-38
-1359.89 1377.5699 -100.994 1.8403113e-38
2613.3201 821.96997 -95.638 1.8403113e-38
-1366.27 1390.05 -96.826202 1.8403113e-38
-5465.46 1984.1801 -94.816498 1.8403113e-38
2614.76 843.92603 -87.653297 1.8403113e-38
2611.29 867.54303 -79.324303 1.8403113e-38
2588.75 897.69 -69.628601 1.8403113e-38
2574.3401 924.487 -60.719898 1.8403113e-38
2562.46 950.03998 -52.128601 1.8403113e-38
-4805.0498 1996.4 -56.250801 1.8403113e-38
2552.1799 974.72498 -43.7668 1.8403113e-38
-4863.04 2041.35 -43.056702 1.8403113e-38
-5481.0698 2125.8701 -44.575298 1.8403113e-38
2553.05 995.57001 -36.2118 1.8403113e-38
2564.21 1013.15 -29.301901 1.8403113e-38
2559.8999 1035.4301 -21.496 1.8403113e-38
-5477.0898 2172.6499 -27.517099 1.8403113e-38
2573.5901 1052.3101 -14.7055 1.8403113e-38
-5473.6699 2219.46 -10.4754 1.8403113e-38
2602.53 1065.05 -8.6199903 1.8403113e-38
2667.0601 1068.51 -4.03543 1.8403113e-38
-2163.8 1759.6899 -4.9071798 1.8403113e-38
2670.8101 1089.01 3.5447199 1.8403113e-38
-2157.8301 1779.22 2.4377699 1.8403113e-38
-2164.6599 1799.01 9.21346 1.8403113e-38
-5478.77 2267.0701 6.4143701 1.8403113e-38
2676.3101 1109.04 11.0436 1.8403113e-38
2681.6201 1129.11 18.549999 1.8403113e-38
2687.72 1149 26.030399 1.8403113e-38
-5474.48 2313.8799 23.499901 1.8403113e-38
2694.6001 1168.72 33.493301 1.8403113e-38
2701.3101 1188.52 40.9739 1.8403113e-38
2704.8999 1209.02 48.543098 1.8403113e-38
-5478.6899 2361.6201 40.484402 1.8403113e-38
2738.6699 1223.38 55.463699 1.8403113e-38
-5472.52 2408.29 57.617401 1.8403113e-38
2807.6899 1231.4 61.922699 1.8403113e-38
2804.96 1253.84 69.867798 1.8403113e-38
-5475.8501 2456.1599 74.688698 1.8403113e-38
2609.04 1310.41 80.113602 1.8403113e-38
2373.8799 1370.23 89.499901 1.8403113e-38
2343.26 1393.23 96.201897 1.8403113e-38
-5477.73 2503.97 91.819298 1.8403113e-38
2340.0601 1411.49 102.618 1.8403113e-38
2319.8701 1432.11 109 1.8403113e-38
-5479.1499 2551.8601 108.999 1.8403113e-38
