# .PCD v0.7 - Point Cloud Data file format
VERSION 0.7
FIELDS x y z rgb
SIZE 4 4 4 4
TYPE F F F F
COUNT 1 1 1 1
WIDTH 345
HEIGHT 1
VIEWPOINT 0 0 0 1 0 0 0
POINTS 345
DATA ascii
-3660.9299 2243.1001 -290.03799 1.8403113e-38
-2295.29 2367.3 -294.599 1.8403113e-38
-2177.3601 2379.6599 -295.58401 1.8403113e-38
-2049.4099 2389.79 -295.46701 1.8403113e-38
-1932.71 2398.5701 -295.19101 1.8403113e-38
-1812.87 2406.3799 -294.46899 1.8403113e-38
-1712.99 2415.21 -294.71201 1.8403113e-38
-1609.96 2423.21 -294.56 1.8403113e-38
-1520.98 2431.5 -294.92899 1.8403113e-38
-1442.33 2442.4399 -296.56299 1.8403113e-38
-1356.48 2448.8101 -296.32901 1.8403113e-38
-1281.87 2458.25 -297.54001 1.8403113e-38
-1200.12 2463.1299 -296.88599 1.8403113e-38
-1125.75 2470.1599 -297.23401 1.8403113e-38
-1049.0699 2474 -296.35199 1.8403113e-38
-973.09302 2478.1101 -295.58899 1.8403113e-38
-913.75897 2484.98 -296.32199 1.8403113e-38
-849.40302 2490.53 -296.42499 1.8403113e-38
-789.349 2495.26 -296.35999 1.8403113e-38
-721.52301 2497.55 -295.18301 1.8403113e-38
-664.55701 2501.3999 -294.88901 1.8403113e-38
-613.81201 2507.76 -295.69101 1.8403113e-38
-558.95398 2510.6399 -295.108 1.8403113e-38
-511.198 2516.48 -295.811 1.8403113e-38
-459.367 2518.8501 -295.13599 1.8403113e-38
-410.918 2522.8601 -295.151 1.8403113e-38
-366.66901 2526.72 -295.241 1.8403113e-38
-323.91699 2531.6001 -295.742 1.8403113e-38
-273.54599 2531.45 -294.19501 1.8403113e-38
-231.936 2535.3899 -294.38901 1.8403113e-38
-198.04601 2541.1101 -295.461 1.8403113e-38
-150.37601 2540.99 -294.004 1.8403113e-38
-117.554 2546.0701 -294.87299 1.8403113e-38
-76.388397 2547.6399 -294.22 1.8403113e-38
-43.733501 2551.73 -294.737 1.8403113e-38
-8.9623804 2555.24 -294.98099 1.8403113e-38
26.147699 2557.0601 -294.59799 1.8403113e-38
65.059097 2557.29 -293.52701 1.8403113e-38
105.109 2555.3 -291.61801 1.8403113e-38
170.55099 2558.4099 -290.806 1.8403113e-38
130.79201 2561.4399 -293.08301 1.8403113e-38
202.04201 2560.3401 -290.57101 1.8403113e-38
232.14 2561.6399 -290.15201 1.8403113e-38
256.677 2566.6799 -291.25101 1.8403113e-38
312.66699 2570.5 -290.978 1.8403113e-38
368.26801 2572.79 -290.159 1.8403113e-38
-4637.5 2139.3701 -281.37 1.8403113e-38
-3833 2214.1699 -284.64899 1.8403113e-38
289.10199 2565.6799 -289.92801 1.8403113e-38
350.64301 2565.03 -287.86899 1.8403113e-38
398.552 2571.2 -288.68399 1.8403113e-38
422.63 2574.1001 -289.022 1.8403113e-38
446.194 2576.0901 -289.047 1.8403113e-38
471.73199 2577.24 -288.707 1.8403113e-38
493.53601 2579.73 -288.961 1.8403113e-38
525.22601 2575.6899 -286.556 1.8403113e-38
548.41302 2576.3799 -286.12201 1.8403113e-38
564.92297 2582.53 -287.85999 1.8403113e-38
588.74701 2582.0901 -286.995 1.8403113e-38
612.13702 2582.45 -286.431 1.8403113e-38
634.97803 2581.99 -285.58701 1.8403113e-38
659.677 2580.52 -284.32199 1.8403113e-38
676.26501 2584.3401 -285.21701 1.8403113e-38
699.25598 2583.51 -284.23401 1.8403113e-38
715.00897 2587.51 -285.21899 1.8403113e-38
737.815 2586.1399 -284.043 1.8403113e-38
776.08801 2587.8101 -283.51401 1.8403113e-38
752.75 2590.3601 -285.13199 1.8403113e-38
791.65503 2590.98 -284.202 1.8403113e-38
809.07001 2593.1001 -284.45599 1.8403113e-38
823.86603 2596.5601 -285.272 1.8403113e-38
841.89301 2597.6201 -285.12201 1.8403113e-38
879.34302 2596.6299 -283.65302 1.8403113e-38
899.40399 2593.8899 -282.06299 1.8403113e-38
915.07001 2596.1001 -282.401 1.8403113e-38
930.24402 2597.74 -282.548 1.8403113e-38
857.31897 2600.05 -285.547 1.8403113e-38
945.16498 2600.3 -283.03201 1.8403113e-38
961.56299 2600.1899 -282.508 1.8403113e-38
975.10303 2603.8201 -283.42099 1.8403113e-38
989.46002 2605.5 -283.60599 1.8403113e-38
1010.58 2600.1799 -281.04901 1.8403113e-38
1020.4 2606.5701 -283.078 1.8403113e-38
1039.41 2603 -281.21701 1.8403113e-38
1049.24 2609.1499 -283.15799 1.8403113e-38
1080.9 2607.3701 -281.57101 1.8403113e-38
1098.3101 2604.48 -280.008 1.8403113e-38
1109.29 2608.6299 -281.18799 1.8403113e-38
1123.0601 2609.95 -281.25699 1.8403113e-38
1138.04 2608.51 -280.29099 1.8403113e-38
1148.88 2613.3701 -281.733 1.8403113e-38
1162.08 2613.96 -281.55499 1.8403113e-38
1176.78 2613.1399 -280.82199 1.8403113e-38
1187.16 2617.3601 -282.04599 1.8403113e-38
1215.83 2614.7 -280.23099 1.8403113e-38
1252.89 2618.54 -280.52301 1.8403113e-38
1225.0699 2621.25 -282.33099 1.8403113e-38
1238.53 2620.24 -281.565 1.8403113e-38
1263.21 2622.1001 -281.508 1.8403113e-38
1276.96 2620.9299 -280.677 1.8403113e-38
1289.6899 2620.1899 -280.03101 1.8403113e-38
1299.96 2624.49 -281.28799 1.8403113e-38
1324.28 2625.1201 -280.79599 1.8403113e-38
1331.85 2633.0701 -283.45401 1.8403113e-38
1392.47 2631.8201 -281.202 1.8403113e-38
1426.01 2633.6299 -280.86401 1.8403113e-38
1436.3 2636.74 -281.68799 1.8403113e-38
1448.38 2634.3701 -280.47101 1.8403113e-38
1458.3 2638.1699 -281.55301 1.8403113e-38
1491.72 2637.27 -280.23499 1.8403113e-38
1543.75 2644.3401 -281.259 1.8403113e-38
1553.86 2645.3999 -281.34399 1.8403113e-38
1586.13 2644.7 -280.134 1.8403113e-38
1686.64 2656.6799 -281.49701 1.8403113e-38
1707.35 2654.54 -280.108 1.8403113e-38
1855.61 2672.54 -282.23999 1.8403113e-38
1865.8101 2673.8501 -282.41299 1.8403113e-38
1885.8 2675.27 -282.336 1.8403113e-38
1895.55 2671.6201 -280.724 1.8403113e-38
1975.8199 2677.1299 -280.341 1.8403113e-38
1875.4399 2681.6399 -284.95499 1.8403113e-38
-4915.79 2104.74 -277.06 1.8403113e-38
-2268.49 2325.98 -278.815 1.8403113e-38
1071.1 2601.48 -279.724 1.8403113e-38
1206.05 2609.9399 -278.793 1.8403113e-38
1313.55 2621.8601 -279.92999 1.8403113e-38
1349.76 2622.76 -279.18201 1.8403113e-38
1360.4301 2624.6399 -279.548 1.8403113e-38
1373.26 2623.26 -278.66501 1.8403113e-38
1383.04 2626.6201 -279.59698 1.8403113e-38
1405.95 2627.3301 -279.172 1.8403113e-38
1416.6 2629.76 -279.73901 1.8403113e-38
1470.99 2633.8301 -279.604 1.8403113e-38
1483.33 2631.29 -278.315 1.8403113e-38
1505.64 2630.0901 -277.22 1.8403113e-38
1515.04 2633.25 -278.086 1.8403113e-38
1524.9399 2636.48 -278.965 1.8403113e-38
1534.4 2639.48 -279.77399 1.8403113e-38
1566.97 2638.4199 -278.422 1.8403113e-38
1575.89 2642.8899 -279.77899 1.8403113e-38
1596.6801 2643.5901 -279.418 1.8403113e-38
1607.41 2643.4199 -279.03601 1.8403113e-38
1617.88 2642.1201 -278.254 1.8403113e-38
1627.15 2647.22 -279.83099 1.8403113e-38
1638.9301 2640.27 -276.95801 1.8403113e-38
1648.02 2646.1201 -278.81299 1.8403113e-38
1657.96 2646.3 -278.58401 1.8403113e-38
1669.14 2642.8201 -276.98801 1.8403113e-38
1678.64 2644.6699 -277.37701 1.8403113e-38
1697.63 2650.99 -279.108 1.8403113e-38
1717.5699 2652.3701 -279.01901 1.8403113e-38
1727.47 2654.8301 -279.61801 1.8403113e-38
1737.89 2650.6399 -277.78601 1.8403113e-38
1747.67 2653.8601 -278.66501 1.8403113e-38
1757.74 2651.3501 -277.45599 1.8403113e-38
1767.55 2654.4099 -278.27499 1.8403113e-38
1776.9301 2657.3401 -279.06 1.8403113e-38
1787.4 2654.6299 -277.767 1.8403113e-38
1796.73 2658.3401 -278.836 1.8403113e-38
1807.4399 2651.71 -276.11499 1.8403113e-38
1816.53 2659.02 -278.49399 1.8403113e-38
1827.16 2651.28 -275.371 1.8403113e-38
1836.61 2653.74 -275.983 1.8403113e-38
1846.62 2655.21 -276.21899 1.8403113e-38
1905.72 2667.8999 -279.07101 1.8403113e-38
1915.34 2664.0901 -277.40601 1.8403113e-38
1925.51 2664.8999 -277.39801 1.8403113e-38
1935.1 2662.8201 -276.358 1.8403113e-38
1945.17 2661.5801 -275.60999 1.8403113e-38
1955.29 2669.6699 -278.245 1.8403113e-38
1965.48 2669.21 -277.77399 1.8403113e-38
1994.95 2666.4299 -275.89301 1.8403113e-38
1985.59 2670.8601 -277.77899 1.8403113e-38
2006.08 2675 -278.67001 1.8403113e-38
2016.14 2676.95 -279.082 1.8403113e-38
2026.04 2673.1699 -277.41599 1.8403113e-38
2036.64 2678.7 -279.108 1.8403113e-38
2046.9 2677.55 -278.38699 1.8403113e-38
2055.96 2671.72 -276.00101 1.8403113e-38
2067.2 2676.9199 -277.556 1.8403113e-38
2076.6399 2673.72 -276.116 1.8403113e-38
2088.01 2678.74 -277.59698 1.8403113e-38
2098.1299 2679.0901 -277.42401 1.8403113e-38
2108.3899 2677.4199 -276.51501 1.8403113e-38
2139.77 2679.46 -276.32401 1.8403113e-38
2120.0701 2684.99 -278.91699 1.8403113e-38
2130.1799 2682.22 -277.61099 1.8403113e-38
2151.77 2684.8 -277.905 1.8403113e-38
2161.3601 2681.8601 -276.55701 1.8403113e-38
2173.05 2685.1599 -277.40701 1.8403113e-38
2193.3999 2681.51 -275.478 1.8403113e-38
2204.22 2682.8 -275.62601 1.8403113e-38
2216.9199 2688.4199 -277.28601 1.8403113e-38
2238.21 2686.75 -276.04901 1.8403113e-38
2294.5801 2689.95 -275.53799 1.8403113e-38
2185.54 2693.03 -279.89001 1.8403113e-38
2228.98 2693.1201 -278.63599 1.8403113e-38
2250.3899 2691.25 -277.32101 1.8403113e-38
2262.8601 2694.5901 -278.16501 1.8403113e-38
2273.6799 2694.3799 -277.76599 1.8403113e-38
2285.02 2693.9199 -277.263 1.8403113e-38
2307.26 2692.8501 -276.216 1.8403113e-38
2319.1899 2694.9099 -276.608 1.8403113e-38
2329.5701 2691.3799 -275.022 1.8403113e-38
2342.3 2694.99 -275.952 1.8403113e-38
2379.75 2699.4399 -276.457 1.8403113e-38
2390.46 2697.3401 -275.37701 1.8403113e-38
2451.4099 2696.72 -273.345 1.8403113e-38
2356.3601 2700.04 -277.36899 1.8403113e-38
2368.55 2701.6399 -277.586 1.8403113e-38
2404.8601 2701.8701 -276.59299 1.8403113e-38
2416.8401 2702.1399 -276.33499 1.8403113e-38
2431.02 2705.52 -277.14099 1.8403113e-38
2440.99 2701.27 -275.30399 1.8403113e-38
2469.22 2707.5801 -276.755 1.8403113e-38
2479.25 2701.95 -274.41599 1.8403113e-38
2494.1899 2706.5601 -275.647 1.8403113e-38
2505.1201 2702.4099 -273.815 1.8403113e-38
2641.3301 2703.22 -270.07101 1.8403113e-38
2656.72 2705.21 -270.33701 1.8403113e-38
2523.53 2712.5701 -276.95499 1.8403113e-38
2536.9299 2712.3101 -276.46301 1.8403113e-38
2551.8101 2715.47 -277.16901 1.8403113e-38
2563.3401 2711.6299 -275.436 1.8403113e-38
2590.9299 2712.0601 -274.771 1.8403113e-38
2607.1399 2716.24 -275.80899 1.8403113e-38
2621.3501 2715.9399 -275.27802 1.8403113e-38
2636.1699 2717.3799 -275.35901 1.8403113e-38
2680.99 2718.55 -274.457 1.8403113e-38
2584.3799 2724.3201 -279.414 1.8403113e-38
2700.01 2724.8401 -276.17401 1.8403113e-38
2716.8701 2726.6899 -276.34399 1.8403113e-38
2727.5701 2720.9199 -273.935 1.8403113e-38
2743.97 2721.6599 -273.71799 1.8403113e-38
2763.47 2727.1499 -275.129 1.8403113e-38
2779.46 2726.73 -274.505 1.8403113e-38
2795.6201 2727.25 -274.21201 1.8403113e-38
2812.95 2727.98 -273.96201 1.8403113e-38
2823.6899 2721.4099 -271.263 1.8403113e-38
2839.8701 2720.3101 -270.384 1.8403113e-38
-5100.0698 2062.0701 -267.043 1.8403113e-38
2855.6001 2719.4099 -269.58899 1.8403113e-38
2866.1399 2711.3799 -266.36301 1.8403113e-38
-5273.3398 2013 -254.382 1.8403113e-38
-2112.2 2265.3501 -252.186 1.8403113e-38
2870.23 2677.4399 -253.933 1.8403113e-38
2866.45 2692.76 -259.60199 1.8403113e-38
2873.3601 2643.71 -241.60201 1.8403113e-38
2866.0901 2654.6699 -245.793 1.8403113e-38
-5346.2998 1958.99 -236.952 1.8403113e-38
-2109.8999 2230.1899 -239.364 1.8403113e-38
2874.6799 2627.47 -235.67101 1.8403113e-38
-2040.9301 2186.8201 -221.586 1.8403113e-38
2877.0801 2594.76 -223.73399 1.8403113e-38
2871.48 2606 -227.981 1.8403113e-38
2876.49 2560.23 -211.22701 1.8403113e-38
2871.26 2571.4199 -215.442 1.8403113e-38
-2047.72 2153.8101 -209.814 1.8403113e-38
2875.6799 2542.5601 -204.839 1.8403113e-38
-2052.96 2122.1799 -198.493 1.8403113e-38
2875.76 2510.51 -193.213 1.8403113e-38
2877.75 2528.7 -199.75301 1.8403113e-38
-2087.8301 2092.6399 -188.81 1.8403113e-38
2877.1299 2480.71 -182.36 1.8403113e-38
2880.3101 2499.3999 -189.04601 1.8403113e-38
-4474.73 1861.72 -175.821 1.8403113e-38
2882.8601 2455.6101 -173.086 1.8403113e-38
2875.49 2464.46 -176.51601 1.8403113e-38
-4543.3501 1812.89 -160.142 1.8403113e-38
2884.97 2428.0801 -163.035 1.8403113e-38
2883.8201 2442.01 -168.12601 1.8403113e-38
-2051.5701 1990.16 -150.561 1.8403113e-38
2887.8799 2401.96 -153.47501 1.8403113e-38
2887.0801 2415.8201 -158.52499 1.8403113e-38
-4729.5298 1763.37 -147.7 1.8403113e-38
2885.49 2372.3701 -142.813 1.8403113e-38
2885.8501 2386.71 -148.004 1.8403113e-38
-2073.3999 1958.58 -139.752 1.8403113e-38
-4676.4102 1709.36 -126.534 1.8403113e-38
-4732.7798 1654.6 -108.34 1.8403113e-38
-4748.8599 1492.51 -50.015701 1.8403113e-38
2569.51 2116.45 -59.3447 1.8403113e-38
-4661.25 1438.79 -27.931101 1.8403113e-38
2404.3201 1982.52 -15.6595 1.8403113e-38
-4682.1299 1385.6 -9.2560301 1.8403113e-38
2368.29 1936.85 -0.157793 1.8403113e-38
2377.8899 1937.39 -0.071582802 1.8403113e-38
2371.5901 1945.23 -3.10273 1.8403113e-38
2380.9199 1958.5699 -7.6620898 1.8403113e-38
2371.8999 1909.55 9.8502998 1.8403113e-38
2368.5601 1918.96 6.3385301 1.8403113e-38
2370.6001 1914.63 7.97156 1.8403113e-38
2376.8601 1930.74 2.3130701 1.8403113e-38
-1261.1801 1599.22 14.6958 1.8403113e-38
2363.9551 1884.99 18.523602 1.8403113e-38
2367.53 1895.4 14.853 1.8403113e-38
2370.52 1903.08 12.1592 1.8403113e-38
-1266.36 1572.66 24.175301 1.8403113e-38
2354.77 1855.86 28.8211 1.8403113e-38
2357.48 1862.65 26.4387 1.8403113e-38
2365.3101 1875.035 22.17795 1.8403113e-38
2349.29 1828.37 38.6278 1.8403113e-38
2356.01 1836.55 35.861599 1.8403113e-38
2357.4751 1844.79 32.914497 1.8403113e-38
2357.9199 1852.65 30.077499 1.8403113e-38
2359.4299 1809.46 45.789001 1.8403113e-38
2364.9751 1804.98 47.579399 1.8403113e-38
2370.49 1800.4 49.4039 1.8403113e-38
2347.1899 1817.86 42.379299 1.8403113e-38
2358.1799 1818.3199 42.538799 1.8403113e-38
2363.73 1816.29 43.441502 1.8403113e-38
2347.8799 1822.79 40.611301 1.8403113e-38
2373.5698 1776.26 58.25375 1.8403113e-38
2373.9551 1785.54 54.898102 1.8403113e-38
2368.6899 1794.88 51.355499 1.8403113e-38
2377.79 1794.0699 51.916 1.8403113e-38
-963.91998 1481.17 66.332001 1.8403113e-38
2382.8 1745.83 69.566803 1.8403113e-38
2376.6899 1757.25 65.240402 1.8403113e-38
2385 1753.2251 66.946953 1.8403113e-38
2375.4351 1763.46 62.951752 1.8403113e-38
2376.9199 1770.64 60.390499 1.8403113e-38
-943.03802 1459.27 74.895897 1.8403113e-38
2393.1499 1718.11 79.928398 1.8403113e-38
2389.1799 1721.37 78.627998 1.8403113e-38
2393.8201 1727.02 76.713898 1.8403113e-38
2393.0266 1735.5732 73.589363 1.8403113e-38
2384.0801 1741.91 71.0242 1.8403113e-38
-943.867 1435.33 83.554901 1.8403113e-38
2430.8 1697.145 88.650848 1.8403113e-38
2421.615 1704.4351 85.734001 1.8403113e-38
2409.8 1717.54 80.627197 1.8403113e-38
2419.6699 1710.76 83.382004 1.8403113e-38
2420.5701 1715.6 81.650299 1.8403113e-38
-934.56 1413.15 91.879097 1.8403113e-38
2442.9399 1673.98 97.411598 1.8403113e-38
2451.3501 1675.05 97.273544 1.8403113e-38
2436.71 1684.45 93.430649 1.8403113e-38
2433.05 1690.75 91.035797 1.8403113e-38
-921.24799 1367.6 108.796 1.8403113e-38
-925.974 1389.91 100.562 1.8403113e-38
2488.4399 1645.64 109.043 1.8403113e-38
2462.4199 1655.335 104.756 1.8403113e-38
2483.02 1650.1899 107.233 1.8403113e-38
2452.415 1663.59 101.464 1.8403113e-38
