# .PCD v0.7 - Point Cloud Data file format
VERSION 0.7
FIELDS x y z rgb
SIZE 4 4 4 4
TYPE F F F F
COUNT 1 1 1 1
WIDTH 343
HEIGHT 1
VIEWPOINT 0 0 0 1 0 0 0
POINTS 343
DATA ascii
-2415.97 2358.8 -292.34201 1.8403113e-38
-2297.8101 2374.02 -294.30301 1.8403113e-38
-2181.6699 2387.74 -295.77899 1.8403113e-38
-2051.96 2396.8799 -295.18799 1.8403113e-38
-1935.09 2406.5901 -295.19101 1.8403113e-38
-1823.22 2415.5 -295.05301 1.8403113e-38
-1715.39 2423.52 -294.71201 1.8403113e-38
-1621.27 2433 -295.315 1.8403113e-38
-1529.1899 2441.47 -295.61401 1.8403113e-38
-1444.96 2450.4299 -296.328 1.8403113e-38
-1357.96 2457.3301 -296.20901 1.8403113e-38
-1279.73 2465.1899 -296.70401 1.8403113e-38
-1205.45 2472.8999 -297.26199 1.8403113e-38
-1126.51 2478.0801 -296.76599 1.8403113e-38
-1051.54 2483.1699 -296.35199 1.8403113e-38
-982.40802 2488.8301 -296.32401 1.8403113e-38
-915.302 2494.02 -296.186 1.8403113e-38
-844.56598 2496.96 -295.121 1.8403113e-38
-797.48499 2506.6299 -297.211 1.8403113e-38
-726.10602 2507.26 -295.29001 1.8403113e-38
-675.46301 2514.02 -296.21399 1.8403113e-38
-617.46802 2517.3201 -295.66599 1.8403113e-38
-564.25403 2521.47 -295.56601 1.8403113e-38
-512.091 2525.1599 -295.33301 1.8403113e-38
-467.418 2530.9399 -296.08401 1.8403113e-38
-420.082 2534.95 -296.11499 1.8403113e-38
-377.427 2540.1399 -296.70999 1.8403113e-38
-325.76901 2540.8799 -295.422 1.8403113e-38
-285.151 2545.51 -295.879 1.8403113e-38
-242.821 2548.75 -295.78101 1.8403113e-38
-201.505 2551.78 -295.63501 1.8403113e-38
-160.306 2554.2 -295.272 1.8403113e-38
-120.121 2556.4399 -294.87299 1.8403113e-38
-80.060501 2558.0901 -294.26599 1.8403113e-38
-46.308102 2562.1899 -294.737 1.8403113e-38
-12.6378 2565.8201 -295.03601 1.8403113e-38
20.9443 2568.96 -295.164 1.8403113e-38
62.2589 2567.53 -293.401 1.8403113e-38
94.741096 2570.1201 -293.36099 1.8403113e-38
127.124 2572.25 -293.15799 1.8403113e-38
159.403 2573.9199 -292.79199 1.8403113e-38
198.386 2571.27 -290.65601 1.8403113e-38
221.92599 2576.8799 -291.983 1.8403113e-38
254.70599 2576.71 -290.93301 1.8403113e-38
285.67099 2577.0801 -290.13599 1.8403113e-38
333.96899 2584.8201 -291.48901 1.8403113e-38
364.62201 2584.01 -290.271 1.8403113e-38
388.586 2587.02 -290.642 1.8403113e-38
412.48401 2589.72 -290.89999 1.8403113e-38
-3850.02 2221.3201 -285.672 1.8403113e-38
-3656.3201 2246.99 -289.146 1.8403113e-38
316.51199 2577.02 -289.185 1.8403113e-38
444.396 2586.6499 -288.82501 1.8403113e-38
468.09799 2588.6399 -288.83499 1.8403113e-38
522.39899 2586.6101 -286.46301 1.8403113e-38
490.92499 2590.8899 -288.961 1.8403113e-38
538.71997 2592.76 -288.202 1.8403113e-38
562.08502 2593.51 -287.76999 1.8403113e-38
585.35602 2593.96 -287.23099 1.8403113e-38
608.52802 2594.1001 -286.58301 1.8403113e-38
626.24103 2598.1101 -287.505 1.8403113e-38
650.76398 2596.48 -286.17401 1.8403113e-38
671.38501 2597.5701 -285.94901 1.8403113e-38
695.66803 2595.3101 -284.39999 1.8403113e-38
735.70801 2596.75 -283.716 1.8403113e-38
705.70599 2604.5601 -287.452 1.8403113e-38
749.39502 2602.49 -285.384 1.8403113e-38
767.44501 2604.23 -285.47299 1.8403113e-38
783.99902 2607.05 -285.996 1.8403113e-38
800.51599 2609.6699 -286.44901 1.8403113e-38
827.59003 2602.22 -282.93201 1.8403113e-38
838.33197 2609.6799 -285.314 1.8403113e-38
927.60901 2609.47 -282.548 1.8403113e-38
853.987 2612.3501 -285.811 1.8403113e-38
870.29602 2614.1699 -285.978 1.8403113e-38
885.87402 2616.47 -286.345 1.8403113e-38
906.81299 2613.1001 -284.49301 1.8403113e-38
938.32898 2616.04 -284.608 1.8403113e-38
953.02698 2618.29 -284.98199 1.8403113e-38
972.88098 2614.71 -283.08401 1.8403113e-38
987.45697 2616.5901 -283.327 1.8403113e-38
1003.26 2616.8701 -282.953 1.8403113e-38
1016.49 2619.8701 -283.642 1.8403113e-38
1062.77 2619.8799 -282.25299 1.8403113e-38
1031.5699 2620.53 -283.42999 1.8403113e-38
1047.2 2620.3 -282.87299 1.8403113e-38
1071.64 2627.48 -284.74399 1.8403113e-38
1091.88 2620.76 -281.69699 1.8403113e-38
1100.77 2628.1399 -284.104 1.8403113e-38
1120.76 2621.01 -280.914 1.8403113e-38
1131.38 2625.8601 -282.354 1.8403113e-38
1144.87 2626.77 -282.27802 1.8403113e-38
1170.59 2629.71 -282.57101 1.8403113e-38
1184.5 2629.4199 -282.04599 1.8403113e-38
1197.8 2629.76 -281.76999 1.8403113e-38
1156.0699 2630.6299 -283.341 1.8403113e-38
1208.9399 2633.1399 -282.65799 1.8403113e-38
1222.17 2633.22 -282.289 1.8403113e-38
1235.35 2633.1599 -281.871 1.8403113e-38
1245.9399 2636.99 -282.94199 1.8403113e-38
1260.55 2634.25 -281.508 1.8403113e-38
1273.08 2634.6101 -281.259 1.8403113e-38
1284.6 2636.47 -281.58701 1.8403113e-38
1296.58 2637.3999 -281.564 1.8403113e-38
1344.64 2639.1001 -280.73499 1.8403113e-38
1307.13 2640.6899 -282.439 1.8403113e-38
1319.53 2640.5601 -282.01999 1.8403113e-38
1330.08 2643.6499 -282.82199 1.8403113e-38
1352.9399 2646.1699 -283.04901 1.8403113e-38
1366.0601 2643.8899 -281.827 1.8403113e-38
1376.15 2647.4199 -282.80099 1.8403113e-38
1389.15 2644.8899 -281.49301 1.8403113e-38
1400.84 2644.8 -281.10699 1.8403113e-38
1445.7 2646.77 -280.47101 1.8403113e-38
1456.11 2648.74 -280.87399 1.8403113e-38
1477.62 2650.6599 -280.922 1.8403113e-38
1499.0699 2652.2 -280.832 1.8403113e-38
1514.9451 2653.5249 -280.836 1.8403113e-38
1541.42 2655 -280.57401 1.8403113e-38
1593.21 2658.8999 -280.427 1.8403113e-38
1613.5 2661.1001 -280.61499 1.8403113e-38
1623.75 2661.6201 -280.49399 1.8403113e-38
1683.6899 2669.3401 -281.48801 1.8403113e-38
1724.23 2669.4099 -280.29401 1.8403113e-38
1693.2 2672.95 -282.51199 1.8403113e-38
1703.42 2672.79 -282.14499 1.8403113e-38
1733.9399 2671.77 -280.858 1.8403113e-38
1823.37 2677.27 -280.16 1.8403113e-38
1862.89 2684.8999 -281.73499 1.8403113e-38
1872.83 2687.0701 -282.224 1.8403113e-38
1892.8199 2685.54 -281.065 1.8403113e-38
1882.78 2692.9299 -284.047 1.8403113e-38
2044.96 2698.22 -281.08099 1.8403113e-38
2150.51 2705.51 -280.547 1.8403113e-38
2261.96 2714.4099 -280.418 1.8403113e-38
2393.96 2724.8501 -280.23099 1.8403113e-38
-4899.8599 2107.5901 -276.04401 1.8403113e-38
1426.45 2639.1001 -278.26901 1.8403113e-38
1414.09 2641.1599 -279.38699 1.8403113e-38
1436.8199 2641.24 -278.73401 1.8403113e-38
1467.95 2647.1299 -279.93201 1.8403113e-38
1490.0601 2647.0801 -279.246 1.8403113e-38
1531.71 2651.99 -279.77399 1.8403113e-38
1552.91 2652.5601 -279.341 1.8403113e-38
1563.48 2652.7 -279.073 1.8403113e-38
1573.74 2653.6499 -279.108 1.8403113e-38
1583.47 2656.3101 -279.78201 1.8403113e-38
1605.48 2652.3301 -277.67401 1.8403113e-38
1634.67 2659.3101 -279.32599 1.8403113e-38
1655.05 2659.8899 -278.92401 1.8403113e-38
1644.4399 2661.47 -279.81799 1.8403113e-38
1664.8199 2661.8899 -279.354 1.8403113e-38
1675.37 2660.1201 -278.396 1.8403113e-38
1714.7 2666.05 -279.35999 1.8403113e-38
1744.59 2667.54 -279.00201 1.8403113e-38
1754.79 2666.01 -278.14001 1.8403113e-38
1764.72 2666.26 -277.931 1.8403113e-38
1784.74 2664.6399 -276.73999 1.8403113e-38
1804.27 2667.3601 -277.14099 1.8403113e-38
1833.85 2667.5701 -276.32401 1.8403113e-38
1912.47 2669.5701 -274.68201 1.8403113e-38
1774.01 2672.03 -279.74399 1.8403113e-38
1793.85 2673.0601 -279.51999 1.8403113e-38
1813.67 2673.76 -279.17801 1.8403113e-38
1843.33 2675.6101 -278.95599 1.8403113e-38
1853.36 2672.3101 -277.45599 1.8403113e-38
1902.7 2675.25 -277.034 1.8403113e-38
1922.4399 2674.1599 -276.04599 1.8403113e-38
1932.48 2678.6599 -277.37701 1.8403113e-38
1962.2 2677.5901 -276.09201 1.8403113e-38
1942.53 2681.21 -277.99701 1.8403113e-38
1952.5699 2682.73 -278.245 1.8403113e-38
1972.52 2682.7 -277.63501 1.8403113e-38
1982.54 2683.03 -277.45401 1.8403113e-38
1993.1 2688.9099 -279.26599 1.8403113e-38
2003 2687.2 -278.34799 1.8403113e-38
2023.3 2688.21 -278.104 1.8403113e-38
2053.9199 2689.5601 -277.67099 1.8403113e-38
2013.61 2691.96 -279.755 1.8403113e-38
2034.02 2692.79 -279.44299 1.8403113e-38
2064.8101 2693.8701 -278.90799 1.8403113e-38
2074.53 2690.6499 -277.44601 1.8403113e-38
2085.8601 2696.6399 -279.27701 1.8403113e-38
2096.4399 2697.8899 -279.41101 1.8403113e-38
2106.6899 2697.1899 -278.85001 1.8403113e-38
2117.3201 2698.26 -278.91699 1.8403113e-38
2127.1899 2695.54 -277.634 1.8403113e-38
2159.0701 2697.02 -277.20901 1.8403113e-38
2139.1101 2701.96 -279.604 1.8403113e-38
2170.99 2702.21 -278.73401 1.8403113e-38
2181.8101 2702.72 -278.59299 1.8403113e-38
2192.9199 2704.05 -278.73999 1.8403113e-38
2203.8101 2704.3701 -278.52802 1.8403113e-38
2215.26 2706.4099 -278.922 1.8403113e-38
2224.29 2700.1899 -276.39401 1.8403113e-38
2236.6399 2704.75 -277.67599 1.8403113e-38
2248.8 2708.29 -278.59399 1.8403113e-38
2293.45 2707.8999 -277.10699 1.8403113e-38
2316.77 2709.3101 -276.91901 1.8403113e-38
2272.78 2713.22 -279.66199 1.8403113e-38
2283.28 2711.05 -278.55701 1.8403113e-38
2306.26 2711.77 -278.12701 1.8403113e-38
2330.0701 2713.8401 -278.159 1.8403113e-38
2342.05 2714.7 -278.11301 1.8403113e-38
2352.98 2712.8201 -277.10101 1.8403113e-38
2366.53 2716.97 -278.198 1.8403113e-38
2379.4199 2719.24 -278.63199 1.8403113e-38
2403.8401 2719.9299 -278.146 1.8403113e-38
2427.5801 2718.4299 -276.88699 1.8403113e-38
2452.28 2718.1899 -276.05701 1.8403113e-38
2477.5701 2718.3301 -275.34399 1.8403113e-38
2417.3301 2722.6799 -278.73901 1.8403113e-38
2442.8799 2724.3601 -278.578 1.8403113e-38
2466 2720.4399 -276.45999 1.8403113e-38
2495.05 2727.04 -277.98001 1.8403113e-38
2505.3401 2722.1499 -275.896 1.8403113e-38
2521.22 2727.1899 -277.24399 1.8403113e-38
2535.3301 2728.73 -277.37601 1.8403113e-38
2559.8101 2724.78 -275.207 1.8403113e-38
2575.5801 2728.3601 -276.03101 1.8403113e-38
2661.03 2729.48 -273.86499 1.8403113e-38
2550.47 2731.77 -278.02399 1.8403113e-38
2592.47 2733.3999 -277.35001 1.8403113e-38
2607.96 2735.8101 -277.759 1.8403113e-38
2623.02 2737.25 -277.827 1.8403113e-38
2638.1499 2738.53 -277.83401 1.8403113e-38
2650.6799 2735.6499 -276.414 1.8403113e-38
2677.9399 2732.7 -274.521 1.8403113e-38
2700.01 2742.78 -277.51199 1.8403113e-38
2713.8201 2740.8799 -276.409 1.8403113e-38
2729.3701 2741.1699 -276.04599 1.8403113e-38
2745.5701 2742.0601 -275.88199 1.8403113e-38
2765.96 2748.1399 -277.47 1.8403113e-38
2782.3601 2748.6299 -277.15601 1.8403113e-38
2798.8301 2748.95 -276.77399 1.8403113e-38
2814.1599 2747.5701 -275.814 1.8403113e-38
2827.0601 2743.05 -273.784 1.8403113e-38
2846.79 2746.55 -274.461 1.8403113e-38
2859.1101 2740.99 -272.07001 1.8403113e-38
-5105.1099 2064.8 -266.70401 1.8403113e-38
2873.98 2718.6101 -263.50601 1.8403113e-38
2866.9299 2730.1799 -267.91599 1.8403113e-38
-5242.3101 2014.84 -252.713 1.8403113e-38
2871.8 2696.9099 -255.702 1.8403113e-38
-2036.9301 2259.51 -244.909 1.8403113e-38
2869.29 2675.3301 -247.951 1.8403113e-38
-5312.2798 1959.42 -234.72099 1.8403113e-38
-2101.23 2236.29 -238.422 1.8403113e-38
2875.3701 2627.4199 -230.38901 1.8403113e-38
2867.3201 2636.77 -234.02299 1.8403113e-38
2855.8501 2642.52 -236.452 1.8403113e-38
-2040.21 2193.49 -221.05901 1.8403113e-38
2874.45 2609 -223.73399 1.8403113e-38
-2054.71 2162.3799 -210.213 1.8403113e-38
2872.51 2573.1101 -210.774 1.8403113e-38
2874.6399 2592.04 -217.578 1.8403113e-38
2880.1499 2547.6499 -201.308 1.8403113e-38
2879.22 2563.0801 -206.935 1.8403113e-38
-2064.98 2130.5601 -198.983 1.8403113e-38
2874.46 2526.28 -193.728 1.8403113e-38
-2066.0601 2097.53 -187.033 1.8403113e-38
2874.45 2495.1399 -182.435 1.8403113e-38
2872.76 2509.03 -187.52299 1.8403113e-38
-4524.3301 1868.38 -177.964 1.8403113e-38
2882.4299 2471.98 -173.79401 1.8403113e-38
2874.49 2480 -176.942 1.8403113e-38
2882.3701 2442.52 -163.11099 1.8403113e-38
2881.3899 2456.27 -168.12601 1.8403113e-38
-4527.0498 1815.6801 -158.931 1.8403113e-38
-2051.53 1997.05 -150.14999 1.8403113e-38
2883.8 2415.1799 -153.149 1.8403113e-38
2883.1699 2428.8301 -158.119 1.8403113e-38
-4763.0498 1768.54 -148.939 1.8403113e-38
2883.75 2387.4299 -143.08501 1.8403113e-38
2883.48 2400.97 -148.004 1.8403113e-38
-2067.25 1965.71 -139.254 1.8403113e-38
2877.49 2355.77 -131.78999 1.8403113e-38
2886.1699 2375.73 -138.771 1.8403113e-38
-4675.9302 1712.51 -125.991 1.8403113e-38
-2064.78 1932.6801 -127.199 1.8403113e-38
-4710.2002 1658.83 -107.554 1.8403113e-38
2634.46 2161.99 -68.824699 1.8403113e-38
-4665.3799 1443.21 -27.9937 1.8403113e-38
2407.8 1986.73 -12.0804 1.8403113e-38
-4683.1499 1388.77 -8.7828398 1.8403113e-38
2391.26 1968.1899 -5.8545799 1.8403113e-38
-4760.3599 1331.53 9.6551304 1.8403113e-38
2378.3301 1928.64 8.1040297 1.8403113e-38
2366.73 1932.64 6.3025398 1.8403113e-38
2381.1299 1936.41 5.3677301 1.8403113e-38
2371.5249 1944.89 2.002228 1.8403113e-38
-1260.53 1607.48 14.9818 1.8403113e-38
2360.1599 1894.65 19.8843 1.8403113e-38
2368.45 1905.21 16.3036 1.8403113e-38
2368.925 1913.9299 13.1553 1.8403113e-38
-1266.66 1581.5601 24.2022 1.8403113e-38
2351.3101 1868.55 29.0863 1.8403113e-38
2352.3701 1874.25 27.049101 1.8403113e-38
2359.3201 1883.48 23.909901 1.8403113e-38
2362.74 1890.8199 21.3503 1.8403113e-38
-1247.5699 1555.96 34.0611 1.8403113e-38
2352.3999 1839.54 39.641899 1.8403113e-38
2353.6299 1847.415 36.819599 1.8403113e-38
2350.9751 1855.855 33.68 1.8403113e-38
2356.25 1866.22 30.077499 1.8403113e-38
2355.1699 1814.99 48.627251 1.8403113e-38
2365.23 1812.4301 49.8606 1.8403113e-38
2356.71 1827.34 44.1936 1.8403113e-38
2360.47 1824.37 45.3866 1.8403113e-38
2352.8101 1832.58 42.1758 1.8403113e-38
2373.72 1788.28 58.876202 1.8403113e-38
2372.1899 1794.5349 56.561798 1.8403113e-38
2366.6699 1803.7933 53.036968 1.8403113e-38
2375.51 1757.78 69.9925 1.8403113e-38
2371.3101 1760.83 68.759102 1.8403113e-38
2380.3701 1768.12 66.387703 1.8403113e-38
2374.335 1777.255 62.8927 1.8403113e-38
2380.8201 1772.74 64.726601 1.8403113e-38
2370.6299 1782.65 60.826199 1.8403113e-38
-976.13 1466.41 74.7183 1.8403113e-38
2391.1001 1733.775 79.169449 1.8403113e-38
2380.405 1744 75.13665 1.8403113e-38
2392.3101 1740.64 76.713898 1.8403113e-38
2379.6899 1754.67 71.2463 1.8403113e-38
2380.97 1750.6801 72.733803 1.8403113e-38
-943.99902 1444.6899 83.563904 1.8403113e-38
2415.01 1705.95 89.980499 1.8403113e-38
2396.6899 1719.84 84.390701 1.8403113e-38
2403.51 1716.9301 85.651802 1.8403113e-38
2417.1699 1715.29 86.658501 1.8403113e-38
2421.02 1711.55 88.130997 1.8403113e-38
2395.665 1726.1399 82.075806 1.8403113e-38
-943.60797 1421.37 92.0354 1.8403113e-38
2433.8999 1684.3201 98.396599 1.8403113e-38
2424.51 1698.6899 92.903 1.8403113e-38
2431.0549 1692.97 95.174248 1.8403113e-38
2423.71 1703.04 91.298103 1.8403113e-38
-922.24402 1376.38 108.999 1.8403113e-38
-927.04498 1399.24 100.562 1.8403113e-38
2458.1201 1657.1 109 1.8403113e-38
2444.3167 1665.0767 105.691 1.8403113e-38
2433.8301 1677.54 100.854 1.8403113e-38
2441.3301 1673.9 102.399 1.8403113e-38
