# .PCD v0.7 - Point Cloud Data file format
VERSION 0.7
FIELDS x y z rgb
SIZE 4 4 4 4
TYPE F F F F
COUNT 1 1 1 1
WIDTH 320
HEIGHT 1
VIEWPOINT 0 0 0 1 0 0 0
POINTS 320
DATA ascii
-2555.4099 1226.0029 134 9.2197031e-39
-1049.12 1389.105 136.94299 9.2197031e-39
-1001.12 1384.397 139.674 9.2197031e-39
385.53799 1546.2789 139.25951 9.2197031e-39
393.84799 1547.9619 139.067 9.2197031e-39
2415.52 1782.21 138.933 9.2197031e-39
2418.46 1801.09 134 9.2197031e-39
-961.91302 1358.458 147.785 9.2197031e-39
-967.46503 1368.033 145.065 9.2197031e-39
-993.72803 1374.75 142.46899 9.2197031e-39
-505.45599 1417.8469 146.024 9.2197031e-39
-434.48099 1424.426 146.45799 9.2197031e-39
-300.85599 1429.963 149.09599 9.2197031e-39
-373.49301 1430.292 146.77299 9.2197031e-39
-339.116 1431.829 147.422 9.2197031e-39
-313.616 1432.0801 148.14 9.2197031e-39
-264.71301 1433.397 149.29401 9.2197031e-39
-228.67101 1437.432 149.33 9.2197031e-39
-184.004 1444.217 148.89799 9.2197031e-39
-120.128 1456.6909 147.54401 9.2197031e-39
-96.681747 1458.082 147.895 9.2197031e-39
-56.989601 1464.641 147.371 9.2197031e-39
-34.173801 1468.5449 147.034 9.2197031e-39
-29.6241 1467.359 147.49001 9.2197031e-39
93.118896 1479.3621 148.07201 9.2197031e-39
112.90366 1485.847 146.95467 9.2197031e-39
107.8525 1495.1 144.336 9.2197031e-39
115.32899 1505.1411 141.89375 9.2197031e-39
122.031 1502.5925 142.7785 9.2197031e-39
370.48999 1508.2051 148.931 9.2197031e-39
381.4035 1507.8511 149.36099 9.2197031e-39
376.72 1511.125 148.345 9.2197031e-39
387.22403 1514.8024 147.68985 9.2197031e-39
395.125 1511.9805 148.68399 9.2197031e-39
373.75464 1527.8724 143.79634 9.2197031e-39
383.04468 1523.4784 145.252 9.2197031e-39
375.87915 1533.8037 142.28282 9.2197031e-39
381.487 1531.73 143.008 9.2197031e-39
392.60901 1537.8998 141.70769 9.2197031e-39
395.59033 1541.964 140.71767 9.2197031e-39
2399.1699 1743.77 148.662 9.2197031e-39
2402.46 1762.4301 143.798 9.2197031e-39
-931.62402 1353.0869 150.146 9.2197031e-39
-30.400801 1432.9451 156.62601 9.2197031e-39
396.44199 1501.1389 151.61 9.2197031e-39
2373.1299 1705.29 158.103 9.2197031e-39
2381.76 1724.05 153.375 9.2197031e-39
-128.44299 1383.717 166.71201 9.2197031e-39
-72.315804 1411.933 160.929 9.2197031e-39
2379.3101 1669.59 167.798 9.2197031e-39
2361.3301 1686.49 162.744 9.2197031e-39
-155.97501 1367.365 170.217 9.2197031e-39
2378.8601 1633.47 177.396 9.2197031e-39
2380.1699 1651.5699 172.618 9.2197031e-39
2382.75 1597.516 187.08701 9.2197031e-39
2362.3999 1614.9409 181.82201 9.2197031e-39
2375.96 1579.374 191.70599 9.2197031e-39
-1352.33 703.98639 309.974 9.2197031e-39
-1350.95 722.01398 305.21799 9.2197031e-39
-1350.26 739.50403 300.58401 9.2197031e-39
-1354.46 667.68408 319.57101 9.2197031e-39
-1351.75 686.82251 314.561 9.2197031e-39
-1348.86 635.02679 328.436 9.2197031e-39
-1347.41 653.80463 323.48199 9.2197031e-39
-1348.55 598.73328 338.10599 9.2197031e-39
-1350.09 616.1593 333.42001 9.2197031e-39
-1351.05 578.68121 343.367 9.2197031e-39
-1303.01 533.89642 356.76501 9.2197031e-39
-1263.37 541.37311 355.996 9.2197031e-39
-1270.71 517.58801 362.10001 9.2197031e-39
1900.5601 861.70599 368.10199 9.2197031e-39
1921.53 869.797 366.59399 9.2197031e-39
1906.74 825.45203 377.94199 9.2197031e-39
1906.95 842.27502 373.47 9.2197031e-39
-1413.86 399.14301 389.22198 9.2197031e-39
-1524.04 410.276 382.86801 9.2197031e-39
2184.21 782.62701 397.88 9.2197031e-39
-1748.4 313.35001 401.763 9.2197031e-39
-1696.16 322.68799 400.88501 9.2197031e-39
-1558.86 252.18201 423.87701 9.2197031e-39
-1366.36 259.827 427.767 9.2197031e-39
-1331.75 265.14001 427.418 9.2197031e-39
-1301.9301 267.146 427.80099 9.2197031e-39
-1695.11 179.19299 439.112 9.2197031e-39
-1325.92 224.24799 438.48099 9.2197031e-39
-1668.75 148.04401 448.215 9.2197031e-39
-1345.51 184.078 448.57101 9.2197031e-39
-1341.42 163.65601 454.133 9.2197031e-39
-1716.53 87.015015 462.98901 9.2197031e-39
-1667.09 98.197998 461.53299 9.2197031e-39
-1607.4 92.708008 464.832 9.2197031e-39
-1349.34 107.46899 468.84399 9.2197031e-39
-1345.21 135.97601 461.384 9.2197031e-39
2922.46 621.10736 463.59299 9.2197031e-39
-1701.0601 45.877014 474.414 9.2197031e-39
-1351.63 80.127014 476.052 9.2197031e-39
2914.25 572.51221 476.27499 9.2197031e-39
2922.21 595.47998 470.40701 9.2197031e-39
-1345.09 34.55603 488.383 9.2197031e-39
-1345.62 60.070007 481.57501 9.2197031e-39
2923.72 542.97089 484.42999 9.2197031e-39
-1354.13 -0.67999268 497.48401 9.2197031e-39
2921.76 517.47498 491.15601 9.2197031e-39
-1335.86 -36.97998 507.70801 9.2197031e-39
-1345.8 -19.541992 502.76099 9.2197031e-39
-1345.04 -74.101013 517.30701 9.2197031e-39
-1347.51 -105.09698 525.48102 9.2197031e-39
2385.6101 315.673 528.37 9.2197031e-39
2413.1599 324.646 526.83002 9.2197031e-39
2462.3201 322.02802 529.03998 9.2197031e-39
-1338.04 -124.07599 530.82397 9.2197031e-39
2351.71 286.14899 535.185 9.2197031e-39
2367.4299 301.56699 531.56598 9.2197031e-39
2920.8301 356.33701 534.01801 9.2197031e-39
-1340.34 -185.927 547.216 9.2197031e-39
-1343.77 -159.62097 540.10901 9.2197031e-39
2344.1899 240.689 547.05499 9.2197031e-39
2343.4399 266.26801 540.22302 9.2197031e-39
2917.3501 302.39301 548.27002 9.2197031e-39
2920.5801 328.78201 541.34497 9.2197031e-39
-1345.76 -222.56201 556.80103 9.2197031e-39
-1151.71 -211.35901 559.79102 9.2197031e-39
-1093.0699 -199.29401 558.38397 9.2197031e-39
-1064.36 -193.11603 557.62299 9.2197031e-39
-1037.6 -188.95898 557.34003 9.2197031e-39
-1007.57 -179.71698 555.80499 9.2197031e-39
-981.77502 -175.69897 555.52899 9.2197031e-39
-955.58398 -170.57599 554.97101 9.2197031e-39
-872.35498 -177.45203 559.36298 9.2197031e-39
-929.57599 -165.14301 554.32599 9.2197031e-39
-882.97498 -160.72601 554.58398 9.2197031e-39
-896.65399 -148.83002 550.99701 9.2197031e-39
2339.6399 218.16901 552.909 9.2197031e-39
2922.79 271.69901 556.60699 9.2197031e-39
-1323.41 -260.02899 567.461 9.2197031e-39
-1287.36 -249.83502 565.85797 9.2197031e-39
-1255.4 -243.70001 565.20801 9.2197031e-39
-1332.42 -238.73798 561.51703 9.2197031e-39
-1216.17 -228.04901 562.25 9.2197031e-39
-1187.21 -224.11499 562.09399 9.2197031e-39
-1129.22 -214.41998 561.29797 9.2197031e-39
-852.01202 -213.24103 569.51501 9.2197031e-39
-858.37201 -189.16602 562.91101 9.2197031e-39
2380.3501 166.15302 568.00702 9.2197031e-39
2919.8601 244.71899 563.698 9.2197031e-39
-853.95599 -251.53998 579.65002 9.2197031e-39
2921.97 186.12 579.36102 9.2197031e-39
2924.6201 213.716 572.09698 9.2197031e-39
-847.76599 -277.40302 586.724 9.2197031e-39
2406.26 95.487 587.61401 9.2197031e-39
2425.21 110.08701 584.31097 9.2197031e-39
2926.05 154.814 587.81897 9.2197031e-39
-855.521 -327.76398 599.89001 9.2197031e-39
2376.96 60.711975 595.96899 9.2197031e-39
2392.8999 77.197998 592.07098 9.2197031e-39
2921.8999 127.504 594.961 9.2197031e-39
2376.9299 32.973022 603.35101 9.2197031e-39
2918.3301 99.684021 602.25598 9.2197031e-39
2376.5601 5.1170044 610.75403 9.2197031e-39
-926.672 -490.30005 640.96503 9.2197031e-39
2538.1299 -142.55603 655.034 9.2197031e-39
2439.8101 -320.18103 699.28699 9.2197031e-39
2509.95 -312.51001 699.40399 9.2197031e-39
2461.28 -305.23297 695.96899 9.2197031e-39
2546.7 -309.23297 699.66302 9.2197031e-39
2571.25 -295.70898 696.81897 9.2197031e-39
2597.28 -283.12201 694.26898 9.2197031e-39
1897.54 -420.88 709.401 9.2197031e-39
1919.1801 -411.17004 707.48297 9.2197031e-39
1943.34 -404.18994 706.36902 9.2197031e-39
1973.33 -403.53998 707.11798 9.2197031e-39
1999.52 -398.16998 706.49597 9.2197031e-39
2441.23 -354.82898 708.55402 9.2197031e-39
1815.34 -463.71997 718.276 9.2197031e-39
1832.96 -449.47998 715.02802 9.2197031e-39
1854.73 -440.41003 713.284 9.2197031e-39
1875.85 -430.37 711.26099 9.2197031e-39
2040.9399 -409.06995 710.67297 9.2197031e-39
2427.48 -376.67102 713.94397 9.2197031e-39
2775.01 -351.55603 717.95398 9.2197031e-39
2703.7 -331.75702 710.48999 9.2197031e-39
1789.67 -505 728.47302 9.2197031e-39
1805.89 -488.64001 724.61902 9.2197031e-39
1758.99 -540.51001 736.98199 9.2197031e-39
1772.11 -519.67004 731.83801 9.2197031e-39
1743.91 -558.91003 741.41602 9.2197031e-39
174.616 -809.73999 759.88501 9.2197031e-39
68.684799 -799.59998 753.92499 9.2197031e-39
90.454002 -792.15002 752.61102 9.2197031e-39
1741.4301 -595.57996 751.09802 9.2197031e-39
-1028.17 -967.44995 764.84601 9.2197031e-39
195.91 -810.07996 760.62903 9.2197031e-39
217.209 -810.22998 761.32501 9.2197031e-39
238.509 -810.19995 761.97302 9.2197031e-39
259.81 -809.98999 762.57397 9.2197031e-39
281.10999 -809.60999 763.12598 9.2197031e-39
302.35901 -807.10999 763.11499 9.2197031e-39
323.69901 -808.30005 764.08801 9.2197031e-39
344.73801 -801.57996 762.94702 9.2197031e-39
1755.99 -658.05005 768.17603 9.2197031e-39
2447.75 -573.57996 766.98102 9.2197031e-39
2476.23 -563.51001 765.17798 9.2197031e-39
2514.03 -561.80005 765.88599 9.2197031e-39
2545.46 -553.67004 764.68701 9.2197031e-39
2574 -542.54004 762.60303 9.2197031e-39
-818.92499 -985.55005 776.104 9.2197031e-39
-793.495 -987.93994 777.52197 9.2197031e-39
498.798 -843.90002 778.95203 9.2197031e-39
2387.6799 -627.68005 779.53003 9.2197031e-39
2408.0901 -610.05005 775.466 9.2197031e-39
2426.95 -590.87 770.94299 9.2197031e-39
-986.08099 -1053.8 789.12701 9.2197031e-39
-950.36102 -1037.35 785.84601 9.2197031e-39
-895.00598 -1037.13 787.49298 9.2197031e-39
-914.22699 -1018.72 782 9.2197031e-39
-776.026 -1009.98 783.927 9.2197031e-39
478.10101 -855.72998 781.466 9.2197031e-39
2351.79 -668.06995 789.17798 9.2197031e-39
2369.8301 -647.93994 784.375 9.2197031e-39
-1057.8 -1083.74 794.88702 9.2197031e-39
-883.229 -1073.3101 797.48499 9.2197031e-39
-1017.94 -1061.0699 790.08002 9.2197031e-39
-741.15503 -1056.48 797.37701 9.2197031e-39
-758.58801 -1032.83 790.54498 9.2197031e-39
615.51398 -888.30005 794.362 9.2197031e-39
637.224 -882.98999 793.61902 9.2197031e-39
1792.33 -754.85999 795.06097 9.2197031e-39
2344.8899 -700.20996 797.521 9.2197031e-39
-1203.62 -1135.22 804.104 9.2197031e-39
-1170.77 -1130.74 803.922 9.2197031e-39
-1133.63 -1117.24 801.47101 9.2197031e-39
-721.69098 -1075.47 803.02899 9.2197031e-39
-688.336 -1131.4 818.94299 9.2197031e-39
-706.21301 -1106.22 811.69202 9.2197031e-39
1800.26 -811.83997 810.47302 9.2197031e-39
-671.93903 -1161.99 827.59198 9.2197031e-39
-646.88599 -1167.59 829.85101 9.2197031e-39
-399.42899 -1122.33 825.42102 9.2197031e-39
-374.45599 -1123.6899 826.552 9.2197031e-39
-350.55499 -1129.5699 828.85199 9.2197031e-39
-449.185 -1118.01 822.73901 9.2197031e-39
-423.479 -1116.98 823.258 9.2197031e-39
143.27 -1071.01 828.46301 9.2197031e-39
839.17499 -963.92004 821.37598 9.2197031e-39
886.69897 -961.57996 822.21399 9.2197031e-39
911.61902 -964.29004 823.70398 9.2197031e-39
959.37701 -960.66003 824.20801 9.2197031e-39
984.51801 -962.70996 825.52502 9.2197031e-39
1009.47 -963.58997 826.52802 9.2197031e-39
1059.61 -964.66003 828.35602 9.2197031e-39
1085.4 -966.68005 829.68799 9.2197031e-39
1134.36 -961.79004 829.89203 9.2197031e-39
861.41901 -956.76001 820.15302 9.2197031e-39
934.33197 -958.39001 822.83197 9.2197031e-39
1032.1801 -956.85999 825.43597 9.2197031e-39
1107.8199 -958.40002 828.17297 9.2197031e-39
1207.46 -951.42004 829.38202 9.2197031e-39
-630.92297 -1201.66 839.41199 9.2197031e-39
-252.409 -1140.59 834.80603 9.2197031e-39
-228.142 -1144.49 836.591 9.2197031e-39
-178.3 -1144.02 838 9.2197031e-39
-326.38901 -1134.3 830.85498 9.2197031e-39
-302.17999 -1138.8199 832.80402 9.2197031e-39
-276.08701 -1133.63 832.22498 9.2197031e-39
1159.38 -960.37 830.284 9.2197031e-39
1186.48 -964.16003 832.12598 9.2197031e-39
1289.58 -960.52002 834.33197 9.2197031e-39
1344.2 -963.44995 836.79102 9.2197031e-39
1233.28 -951.12 830.09698 9.2197031e-39
1262.8 -959.55005 833.25 9.2197031e-39
1393.1899 -952.07996 835.27301 9.2197031e-39
1423.65 -958.78003 837.99298 9.2197031e-39
1448.85 -953.80005 837.44299 9.2197031e-39
-610.69202 -1223.59 845.87299 9.2197031e-39
-205.423 -1157.74 840.81598 9.2197031e-39
-155.412 -1156.87 842.125 9.2197031e-39
382.694 -1122.71 849.591 9.2197031e-39
1337.38 -1010.22 849.03003 9.2197031e-39
1379.61 -982.18005 842.86798 9.2197031e-39
1560.51 -952.13 840.43701 9.2197031e-39
-1340.79 -1328.49 851.32599 9.2197031e-39
-594.57098 -1260.28 856.13501 9.2197031e-39
-532.35602 -1232.48 850.65002 9.2197031e-39
-571.38702 -1274.52 860.638 9.2197031e-39
86.719498 -1233.38 869.94202 9.2197031e-39
-145.72099 -1266.38 871.57202 9.2197031e-39
857.32898 -1149 871.19702 9.2197031e-39
109.453 -1284.63 884.28101 9.2197031e-39
415.229 -1259.13 886.90601 9.2197031e-39
439.57501 -1242.9301 883.34302 9.2197031e-39
-141.14999 -1430.6201 915.42798 9.2197031e-39
-114.607 -1436.4299 917.79199 9.2197031e-39
-87.557999 -1438.1699 919.08899 9.2197031e-39
629.755 -1330.14 912.409 9.2197031e-39
-7.33881 -1453.5901 925.66302 9.2197031e-39
-61.480999 -1449.3101 922.85602 9.2197031e-39
-33.705799 -1443.8601 922.26099 9.2197031e-39
1760.52 -1270.65 931.37299 9.2197031e-39
619.98602 -1463.8401 947.69598 9.2197031e-39
2075.6399 -1340.58 959.685 9.2197031e-39
2109.7 -1337.0601 959.79797 9.2197031e-39
-629.69299 -1693.1599 970.276 9.2197031e-39
-1720.51 -1944.75 1003.67 9.2197031e-39
814.974 -1790.6799 1040.6899 9.2197031e-39
845.65698 -1788.3501 1041.02 9.2197031e-39
550.09399 -1920.0701 1066.98 9.2197031e-39
517.90302 -1912.1599 1063.89 9.2197031e-39
644 -1910.4099 1067.3 9.2197031e-39
934.37598 -1920.3101 1078.87 9.2197031e-39
901.36102 -1917.7 1077.16 9.2197031e-39
965.71899 -1914.1201 1078.1899 9.2197031e-39
998.44598 -1914.26 1079.23 9.2197031e-39
739.27502 -1909.8601 1070.09 9.2197031e-39
2213.1499 -1887.8999 1109.6 9.2197031e-39
2139.77 -1901.51 1110.97 9.2197031e-39
2180.48 -1902.0801 1112.37 9.2197031e-39
2260.9099 -1899.4199 1114.14 9.2197031e-39
2300.5601 -1896.21 1114.5 9.2197031e-39
2340.8301 -1893.4299 1115 9.2197031e-39
2384.79 -1896.01 1117.04 9.2197031e-39
