# .PCD v0.7 - Point Cloud Data file format
VERSION 0.7
FIELDS x y z rgb
SIZE 4 4 4 4
TYPE F F F F
COUNT 1 1 1 1
WIDTH 320
HEIGHT 1
VIEWPOINT 0 0 0 1 0 0 0
POINTS 320
DATA ascii
-1263.1 108.035 137.912 9.2197031e-39
-1261.77 123.09601 134 9.2197031e-39
287.578 375.08899 139.763 9.2197031e-39
290.02301 377.263 139.304 9.2197031e-39
296.71552 384.57901 137.6855 9.2197031e-39
304.24832 386.65067 137.49034 9.2197031e-39
313.547 385.742 138.164 9.2197031e-39
313.67999 392.64999 136.347 9.2197031e-39
321.19699 395.56799 135.92799 9.2197031e-39
582.67969 428.36465 139.468 9.2197031e-39
567.58899 431.12 138.037 9.2197031e-39
578.617 430.57401 138.696 9.2197031e-39
596.45697 434.09 138.60001 9.2197031e-39
2973.3201 849.62402 139.80299 9.2197031e-39
2962.76 869.74701 134 9.2197031e-39
-1260.38 63.846008 149.69901 9.2197031e-39
-1262.4 78.383972 145.769 9.2197031e-39
-1256.4399 94.455994 141.806 9.2197031e-39
204.931 342.013 144.63699 9.2197031e-39
231.049 349.12701 143.97701 9.2197031e-39
282.086 346.92899 146.938 9.2197031e-39
248.586 353.57401 143.62199 9.2197031e-39
309.91101 352.09201 146.873 9.2197031e-39
313.466 351.948 147.07651 9.2197031e-39
296.87 369.93799 141.556 9.2197031e-39
306.02124 365.98187 143.02663 9.2197031e-39
312.396 364.35699 143.752 9.2197031e-39
287.50299 372.21301 140.519 9.2197031e-39
290.85501 374.74799 140.006 9.2197031e-39
308.52499 373.06 141.276 9.2197031e-39
568.30902 392.448 148.27499 9.2197031e-39
574.05365 393.46103 148.27568 9.2197031e-39
585.61035 394.75098 148.474 9.2197031e-39
592.93304 397.32666 148.136 9.2197031e-39
575.18451 409.17499 144.18201 9.2197031e-39
580.91901 403.69351 145.896 9.2197031e-39
591.61835 403.26831 146.50667 9.2197031e-39
575.34967 412.048 143.43134 9.2197031e-39
585.09027 415.55676 142.95999 9.2197031e-39
595.513 418.237 142.739 9.2197031e-39
600.565 419.41498 142.664 9.2197031e-39
587.37006 424.75464 140.63966 9.2197031e-39
595.64148 421.53101 141.8755 9.2197031e-39
2978.78 828.56598 145.614 9.2197031e-39
-1263.72 33.015015 157.67799 9.2197031e-39
-1267.01 47.380005 153.73399 9.2197031e-39
170.944 284.17099 158.314 9.2197031e-39
207.04401 305.418 154.39101 9.2197031e-39
246.174 327.38101 150.42101 9.2197031e-39
585.17151 386.33652 150.67349 9.2197031e-39
2988.1299 786.117 157.25 9.2197031e-39
2981.0801 806.99597 151.412 9.2197031e-39
124.5065 254.91049 163.8685 9.2197031e-39
2981.8401 741.59698 168.70399 9.2197031e-39
2980.1299 763.15802 162.935 9.2197031e-39
2987.3301 720.49097 174.52901 9.2197031e-39
3021.6001 680.43597 186.696 9.2197031e-39
3014.49 701.67261 180.761 9.2197031e-39
3016.3401 636.09448 198.14999 9.2197031e-39
3013.6001 657.73871 192.312 9.2197031e-39
3016.8899 614.26996 203.935 9.2197031e-39
-539.26703 -387.94 302.53601 9.2197031e-39
-519.89301 -385.87 302.89301 9.2197031e-39
-499.12299 -382.25 302.90601 9.2197031e-39
-485.203 -384.20001 304.07001 9.2197031e-39
-470.57599 -385.32001 305.048 9.2197031e-39
-449.38901 -380.28003 304.70599 9.2197031e-39
-434.91299 -380.97998 305.565 9.2197031e-39
-415.43399 -376.75702 305.35999 9.2197031e-39
-394.66199 -370.90698 304.785 9.2197031e-39
-380.44901 -370.96198 305.46301 9.2197031e-39
-366.29599 -370.83899 306.09 9.2197031e-39
-352.90302 -371.237 306.82001 9.2197031e-39
-324.905 -370.11499 307.82999 9.2197031e-39
-331.95499 -363.70697 305.81 9.2197031e-39
-304.89801 -362.83801 306.84201 9.2197031e-39
-291.80099 -362.513 307.367 9.2197031e-39
-278.10001 -361.29901 307.686 9.2197031e-39
-264.47299 -359.914 307.95599 9.2197031e-39
-251.577 -359.099 308.34201 9.2197031e-39
-240.039 -359.61499 309.017 9.2197031e-39
-227.903 -359.24701 309.48499 9.2197031e-39
-215.19 -357.97803 309.74399 9.2197031e-39
-1261.99 -573.31006 317.74301 9.2197031e-39
-184.838 -362.50201 312.353 9.2197031e-39
-172.339 -360.68402 312.45599 9.2197031e-39
-205.054 -359.59802 310.64401 9.2197031e-39
-191.22 -356.51099 310.474 9.2197031e-39
-159.32001 -357.93402 312.33701 9.2197031e-39
-146.987 -355.81097 312.35199 9.2197031e-39
-135.32001 -354.33197 312.50601 9.2197031e-39
-123.145 -351.91901 312.43701 9.2197031e-39
-116.187 -356.565 313.98801 9.2197031e-39
-94.919197 -355.15198 314.60699 9.2197031e-39
-82.993103 -352.229 314.392 9.2197031e-39
-72.782303 -351.62299 314.70801 9.2197031e-39
-64.222397 -353.37402 315.569 9.2197031e-39
-53.561798 -351.72803 315.63199 9.2197031e-39
-46.601601 -355.78601 317.02701 9.2197031e-39
-34.9991 -352.258 316.63699 9.2197031e-39
-25.5119 -351.95599 317 9.2197031e-39
-14.3071 -356.3895 318.6925 9.2197031e-39
-100.741 -349.07501 312.73199 9.2197031e-39
-1255.15 -608.43005 327.32901 9.2197031e-39
-1247.13 -583.96997 321.24899 9.2197031e-39
-8.8190298 -387.44 327.14301 9.2197031e-39
55.439899 -385.38 329.59601 9.2197031e-39
-10.7741 -374.32703 323.59 9.2197031e-39
69.291298 -374.34198 327.328 9.2197031e-39
-1261.01 -652.12 338.58301 9.2197031e-39
-1224.67 -649.08997 339.479 9.2197031e-39
-1267.9399 -636.25 334.073 9.2197031e-39
-7.50773 -419.80005 335.741 9.2197031e-39
23.587601 -413.94995 335.64801 9.2197031e-39
-9.9235802 -406.60999 332.14801 9.2197031e-39
35.384998 -408.56006 334.77499 9.2197031e-39
68.800301 -394.26001 332.55899 9.2197031e-39
75.756599 -398.16998 333.91599 9.2197031e-39
-1229.24 -672.28003 345.38501 9.2197031e-39
-0.29079601 -442.75 342.133 9.2197031e-39
-8.0416298 -439.08997 340.80499 9.2197031e-39
56.032101 -463.82996 350.32101 9.2197031e-39
36.3241 -532.56006 367.53799 9.2197031e-39
2500.8701 -174.21899 387.92099 9.2197031e-39
2478.6599 -148.93298 380.21301 9.2197031e-39
2506.6001 -195.08698 393.694 9.2197031e-39
-1526.9301 -966.07996 409.02399 9.2197031e-39
-1682.71 -1022.49 416.642 9.2197031e-39
-1685.53 -998.02002 410.05399 9.2197031e-39
-1526.62 -991.19995 415.66699 9.2197031e-39
-33.027802 -725.25 415.146 9.2197031e-39
2602.5 -264.341 416.44 9.2197031e-39
2608.8401 -245.974 411.88901 9.2197031e-39
2608.1101 -307.25299 428.02399 9.2197031e-39
2610.1299 -287.289 422.85001 9.2197031e-39
-1602.11 -1072.17 433.51099 9.2197031e-39
2552.5601 -391 447.53201 9.2197031e-39
2590.6499 -384.54999 447.604 9.2197031e-39
2656.48 -344.78497 440.18301 9.2197031e-39
2539.8601 -427.85999 456.664 9.2197031e-39
2547.6799 -410 452.31601 9.2197031e-39
2697.6599 -402.71997 457.39001 9.2197031e-39
2751.02 -399.84003 459.11801 9.2197031e-39
2542.8501 -450.20996 462.702 9.2197031e-39
162.002 -923.79004 476.629 9.2197031e-39
2555.3501 -498.43994 476.01001 9.2197031e-39
2555.6101 -476.94995 470.35199 9.2197031e-39
-1671.9 -1296.65 489.48801 9.2197031e-39
170.573 -944.03003 482.37 9.2197031e-39
2555.95 -542.43994 487.64899 9.2197031e-39
2557.5701 -521.20996 482.121 9.2197031e-39
567.68201 -937.25 499.10001 9.2197031e-39
1927.61 -696.75 499.061 9.2197031e-39
1945.7 -689.85999 498.08701 9.2197031e-39
1962.99 -682.17004 496.866 9.2197031e-39
1974.66 -670.29004 494.27399 9.2197031e-39
2007.17 -672.93994 496.48999 9.2197031e-39
166.258 -1034.77 506.112 9.2197031e-39
207.858 -1027.35 506.09299 9.2197031e-39
222.22701 -1020.48 504.95001 9.2197031e-39
234.827 -1024.99 506.728 9.2197031e-39
250.674 -1005.39 502.29501 9.2197031e-39
263.90302 -1003.9 502.51901 9.2197031e-39
276.76401 -1005.1801 503.457 9.2197031e-39
289.33401 -1009.25 505.116 9.2197031e-39
302.79999 -1004.53 504.5 9.2197031e-39
316.84201 -991.98999 501.84399 9.2197031e-39
329.74899 -990.89001 502.15799 9.2197031e-39
355.311 -991.28003 503.452 9.2197031e-39
419.12201 -992.77002 506.82101 9.2197031e-39
444.65799 -990.68005 507.45901 9.2197031e-39
342.763 -987.76001 501.93799 9.2197031e-39
368.65201 -980.19995 501.14999 9.2197031e-39
380.98401 -988.32996 503.871 9.2197031e-39
393.71201 -988.63 504.543 9.2197031e-39
406.64999 -980.12 502.901 9.2197031e-39
431.909 -989.83997 506.64499 9.2197031e-39
457.37601 -987.54004 507.22299 9.2197031e-39
580.45801 -940.78003 500.62799 9.2197031e-39
593.20099 -943.23999 501.871 9.2197031e-39
1862.8199 -749.10999 509.85599 9.2197031e-39
1871.21 -735.06995 506.543 9.2197031e-39
1885.59 -725.87 504.785 9.2197031e-39
1902.23 -718.31995 503.57001 9.2197031e-39
1911.0699 -704.60999 500.36499 9.2197031e-39
189.634 -1056.08 512.82397 9.2197031e-39
535.79999 -1015.65 518.29999 9.2197031e-39
483.444 -1007.02 513.58099 9.2197031e-39
496.233 -1003.55 513.26202 9.2197031e-39
509.38699 -1008.67 515.224 9.2197031e-39
522.14099 -1004.98 514.84698 9.2197031e-39
548.05499 -1005 516.06097 9.2197031e-39
560.78101 -1001.96 515.85199 9.2197031e-39
470.28799 -995.89001 510.02899 9.2197031e-39
611.47101 -990.66003 515.23499 9.2197031e-39
625.23499 -996.68005 517.46301 9.2197031e-39
637.92102 -993.94995 517.336 9.2197031e-39
650.85901 -993.03003 517.69702 9.2197031e-39
664.09998 -993.91003 518.54602 9.2197031e-39
1853.55 -762.46997 512.948 9.2197031e-39
2097.3601 -714.64001 511.69699 9.2197031e-39
2705.4399 -634.42004 518.88898 9.2197031e-39
-2.8052001 -1146.12 527.60797 9.2197031e-39
105.721 -1126.47 527.48297 9.2197031e-39
21.280701 -1113.0699 520.00897 9.2197031e-39
165.772 -1113.26 526.797 9.2197031e-39
799.89099 -1002.79 527.22101 9.2197031e-39
758.11902 -998.67004 524.18597 9.2197031e-39
771.185 -996.71997 524.28101 9.2197031e-39
783.33099 -990.90002 523.31299 9.2197031e-39
812.53198 -998.60999 526.70801 9.2197031e-39
1866.48 -794.83997 522.09302 9.2197031e-39
2249.3999 -750.62 528.28101 9.2197031e-39
2727.6699 -668.95996 529.03998 9.2197031e-39
16.589001 -1186.87 539.263 9.2197031e-39
48.369301 -1182.12 539.49103 9.2197031e-39
-26.968901 -1177.03 534.63501 9.2197031e-39
33.706902 -1179.86 538.211 9.2197031e-39
751.927 -1032.62 532.85602 9.2197031e-39
903.92902 -1022.91 537.383 9.2197031e-39
831.461 -1017.64 532.61102 9.2197031e-39
844.48297 -1014.12 532.29199 9.2197031e-39
872.10498 -1012.3199 533.10498 9.2197031e-39
915.18298 -1013.28 535.36603 9.2197031e-39
943.36298 -1011.12 536.10999 9.2197031e-39
973.97699 -1014.79 538.50598 9.2197031e-39
986.98297 -1010.0699 537.86798 9.2197031e-39
856.12402 -1005.86 530.65503 9.2197031e-39
883.935 -1004.78 531.66498 9.2197031e-39
927.85901 -1008.15 534.60303 9.2197031e-39
956.005 -1005.75 535.284 9.2197031e-39
1001.01 -1007.95 537.961 9.2197031e-39
1013.23 -1001.21 536.75299 9.2197031e-39
1029.8101 -1005.1 538.55499 9.2197031e-39
2679.9099 -718.38 539.85199 9.2197031e-39
2685.05 -696.65002 534.35797 9.2197031e-39
2704.1799 -681.85999 531.34698 9.2197031e-39
-73.869797 -1227.75 545.83099 9.2197031e-39
60.8293 -1193.7 543.13 9.2197031e-39
77.944504 -1185.3101 541.71399 9.2197031e-39
734.44598 -1083.48 545.45898 9.2197031e-39
1048.77 -1014.17 541.83197 9.2197031e-39
1064.08 -1014.15 542.53998 9.2197031e-39
1081.02 -1017.52 544.21802 9.2197031e-39
1157.39 -1011.72 546.25 9.2197031e-39
1175.67 -1015.8 548.17999 9.2197031e-39
1189.15 -1010.24 547.341 9.2197031e-39
1092.86 -1009.26 542.59003 9.2197031e-39
1105.8199 -1003.54 541.685 9.2197031e-39
1123.74 -1008.1899 543.75 9.2197031e-39
1137.12 -1003.08 543.026 9.2197031e-39
1203.5 -1006.27 546.96301 9.2197031e-39
1234.52 -1002.17 547.328 9.2197031e-39
1284.4399 -1000.29 549.15997 9.2197031e-39
1215.52 -997.92004 545.31897 9.2197031e-39
2276.28 -790.93994 540.17401 9.2197031e-39
2685.05 -745.57996 547.26898 9.2197031e-39
-108.01 -1283.74 559.013 9.2197031e-39
-64.063202 -1248.61 551.79401 9.2197031e-39
697.47498 -1114.71 551.97699 9.2197031e-39
725.58502 -1111.7 552.49402 9.2197031e-39
755.42102 -1116.73 555.21301 9.2197031e-39
1258.46 -1014.64 551.73401 9.2197031e-39
1277.33 -1017.58 553.39001 9.2197031e-39
1308.89 -1012.05 553.401 9.2197031e-39
1323.42 -1006.98 552.742 9.2197031e-39
1356.09 -1002.15 552.992 9.2197031e-39
1394.27 -1004.74 555.45398 9.2197031e-39
1411.04 -1002.09 555.53802 9.2197031e-39
1432.8199 -1006.46 557.70599 9.2197031e-39
1334.83 -996.84998 550.60101 9.2197031e-39
1369.01 -994.20996 551.49902 9.2197031e-39
1446.34 -998.66003 556.27899 9.2197031e-39
1569.12 -977.94995 556.53998 9.2197031e-39
1761.99 -948.29004 557.70898 9.2197031e-39
1911.1801 -925.43994 558.63702 9.2197031e-39
2300.1201 -830.16003 551.63501 9.2197031e-39
2670.95 -787.81006 557.755 9.2197031e-39
2676.8 -766.01001 552.276 9.2197031e-39
1474.02 -1010.46 560.68201 9.2197031e-39
1516.84 -1015.05 563.89099 9.2197031e-39
1492.77 -1009.35 561.26599 9.2197031e-39
1528.11 -1003.4301 561.34998 9.2197031e-39
1654.97 -1004.8199 567.63397 9.2197031e-39
1544.63 -998.64001 560.85797 9.2197031e-39
1565.38 -999.03003 561.92798 9.2197031e-39
1605.3 -996.81995 563.20697 9.2197031e-39
1628.8 -999.47998 565.005 9.2197031e-39
1672.4 -999.51001 567.04602 9.2197031e-39
1686.6 -990.35999 565.29401 9.2197031e-39
1713.11 -994.87 567.71899 9.2197031e-39
1725.99 -983.91003 565.42798 9.2197031e-39
1746.73 -981.42004 565.73901 9.2197031e-39
1766.2 -977.27002 565.55103 9.2197031e-39
1831.65 -970.39001 566.789 9.2197031e-39
1802.48 -965.51001 564.14001 9.2197031e-39
1848.49 -962.55005 565.505 9.2197031e-39
1964.88 -950.15002 567.66101 9.2197031e-39
1858.98 -948.41003 562.26398 9.2197031e-39
1989.8199 -948.09998 568.28302 9.2197031e-39
1994.91 -928.39001 563.31897 9.2197031e-39
2650.02 -826.54004 566.99902 9.2197031e-39
2664.8899 -809.60999 563.22302 9.2197031e-39
-151.136 -1363.3199 577.99902 9.2197031e-39
1908.29 -971.23999 570.58801 9.2197031e-39
1932.41 -969.31995 571.20398 9.2197031e-39
2630.9199 -866.44995 576.638 9.2197031e-39
2636.73 -844.31006 571.06702 9.2197031e-39
-185.37 -1411.89 589.21899 9.2197031e-39
2682.3 -923.07996 593.97601 9.2197031e-39
747.84399 -1318.72 608.15601 9.2197031e-39
2664.72 -965.72998 604.40997 9.2197031e-39
2687.47 -952.91003 602.08801 9.2197031e-39
2693.3799 -1011.04 617.70203 9.2197031e-39
-260.78299 -1574.8999 628.71399 9.2197031e-39
-294.23199 -1612.1799 636.98999 9.2197031e-39
-395.577 -1658.47 644.47998 9.2197031e-39
-370.82401 -1649.8 643.34601 9.2197031e-39
-349.06 -1648.1599 643.927 9.2197031e-39
-322.98099 -1634.4299 641.521 9.2197031e-39
