# .PCD v0.7 - Point Cloud Data file format
VERSION 0.7
FIELDS x y z rgb
SIZE 4 4 4 4
TYPE F F F F
COUNT 1 1 1 1
WIDTH 333
HEIGHT 1
VIEWPOINT 0 0 0 1 0 0 0
POINTS 333
DATA ascii
2951.0901 66.380981 134 9.2197031e-39
2947.02 77.965027 136.487 9.2197031e-39
2946.5601 88.049011 138.955 9.2197031e-39
1798.04 538.79639 138.353 9.2197031e-39
1802.11 537.8894 138.52699 9.2197031e-39
1795.7201 544.146 139.45766 9.2197031e-39
-1923.21 1989.6 134.00101 9.2197031e-39
2950.7 96.382019 141.439 9.2197031e-39
2941.5801 109.45499 143.80099 9.2197031e-39
2921.9099 125.952 145.978 9.2197031e-39
2887.8301 146.88501 147.84399 9.2197031e-39
2557.97 264.09299 144.618 9.2197031e-39
2510.1499 285.271 145.194 9.2197031e-39
2460.1101 306.21799 145.494 9.2197031e-39
2445.2 315.67499 146.384 9.2197031e-39
2423.4399 326.82401 147.024 9.2197031e-39
2401.54 337.59399 147.554 9.2197031e-39
2375.6299 349.03699 147.85899 9.2197031e-39
2326.27 369.83801 148.189 9.2197031e-39
2337.98 363.08899 147.658 9.2197031e-39
2294.1001 381.38901 147.90401 9.2197031e-39
2251.0801 394.91998 147.045 9.2197031e-39
2179.6101 414.15302 144.81 9.2197031e-39
2136.53 427.80902 143.97701 9.2197031e-39
2147.8701 423.40802 143.996 9.2197031e-39
2126.1101 431.81702 143.952 9.2197031e-39
2059.0649 448.37 141.48401 9.2197031e-39
2090.1399 440.55499 142.593 9.2197031e-39
2055.5176 453.474 142.40775 9.2197031e-39
2062.2751 455.50601 143.57851 9.2197031e-39
2119 453.97198 148.77499 9.2197031e-39
1794.405 548.43286 140.397 9.2197031e-39
1785.0601 557.95782 141.85201 9.2197031e-39
1796.4519 553.4361 141.8454 9.2197031e-39
1804.8799 555.35968 143.15401 9.2197031e-39
1811.17 555.07739 143.702 9.2197031e-39
1797.67 568.53497 145.729 9.2197031e-39
1801.995 565.1463 145.30951 9.2197031e-39
1814.615 567.36639 147.104 9.2197031e-39
1824.36 569.49951 148.5945 9.2197031e-39
1830.87 566.04712 148.37399 9.2197031e-39
1797.02 572.43469 146.63699 9.2197031e-39
1803.7367 574.26855 147.754 9.2197031e-39
1814.725 574.01056 148.77051 9.2197031e-39
1821.5699 572.33539 149.026 9.2197031e-39
1803.47 581.0387 149.416 9.2197031e-39
-4634.9702 3123.6299 149.96899 9.2197031e-39
2139.98 453.81299 150.799 9.2197031e-39
2153.03 454.64801 152.28999 9.2197031e-39
2179.98 454.70398 154.955 9.2197031e-39
2231.8101 453.64502 159.787 9.2197031e-39
1809.91 589.93909 152.267 9.2197031e-39
2283.6399 453.465 164.84 9.2197031e-39
-3801.1799 2842.8 161.97 9.2197031e-39
2364.3401 452.83099 172.619 9.2197031e-39
-3482.6599 2764.4099 173.757 9.2197031e-39
2474.8999 452.44202 183.395 9.2197031e-39
2668.0801 451.517 202.162 9.2197031e-39
-5218.71 3571.9099 204.293 9.2197031e-39
2890.0801 453.27899 224.43401 9.2197031e-39
-5220.5 3644.48 222.20599 9.2197031e-39
2945.76 460.854 231.798 9.2197031e-39
2954.5801 469.55298 234.834 9.2197031e-39
2966.3101 478.41901 238.196 9.2197031e-39
2976.95 487.474 241.5 9.2197031e-39
2977.5601 496.49799 243.80901 9.2197031e-39
2977.0901 505.50702 246.009 9.2197031e-39
2987.47 514.93799 249.38 9.2197031e-39
-2497.5601 2662.49 245.23199 9.2197031e-39
-2839.01 2781.9299 241.423 9.2197031e-39
-5216.0801 3714.8101 240.17101 9.2197031e-39
2985.8501 523.9873 251.476 9.2197031e-39
2985.1299 533.07129 253.67 9.2197031e-39
2982.3601 542.02271 255.62801 9.2197031e-39
2981.48 551.08002 257.79901 9.2197031e-39
-2376.1299 2647.6299 253.47 9.2197031e-39
-5241.7598 3799.6001 258.77802 9.2197031e-39
2991.4099 561.02118 261.254 9.2197031e-39
2989.24 579.289 265.59299 9.2197031e-39
2994.3201 570.51611 263.90701 9.2197031e-39
2985.0701 588.09271 267.37799 9.2197031e-39
2984.77 597.29541 269.642 9.2197031e-39
-2345.8501 2677.6899 263.94101 9.2197031e-39
2992.26 607.48962 272.91901 9.2197031e-39
2986.8601 616.11658 274.539 9.2197031e-39
3002.99 627.74097 279.022 9.2197031e-39
-2325.95 2712.98 274.69501 9.2197031e-39
-5231.2598 3868.3 276.93701 9.2197031e-39
3018 639.50708 283.431 9.2197031e-39
3021.1399 649.66681 286.272 9.2197031e-39
3014.4099 658.24792 287.74899 9.2197031e-39
3012.48 667.5976 289.89001 9.2197031e-39
3012.4199 677.29553 292.30099 9.2197031e-39
3020.04 688.53021 295.85101 9.2197031e-39
3017.8501 697.93292 297.979 9.2197031e-39
3005.8999 705.25409 298.62799 9.2197031e-39
3013.21 716.6864 302.19699 9.2197031e-39
3010.76 726.03601 304.28699 9.2197031e-39
3008.23 735.36597 306.36301 9.2197031e-39
3005.6201 744.67603 308.427 9.2197031e-39
3012.49 756.44202 312.035 9.2197031e-39
3007.78 765.28003 313.77499 9.2197031e-39
3006.8 775.11902 316.13101 9.2197031e-39
3011.4299 786.60101 319.448 9.2197031e-39
3008.3601 795.94598 321.47501 9.2197031e-39
3016.52 808.72803 325.46399 9.2197031e-39
3011.3701 817.52802 327.151 9.2197031e-39
3009.8999 827.487 329.48801 9.2197031e-39
3013.9399 839.32703 332.836 9.2197031e-39
3010.3899 848.703 334.82501 9.2197031e-39
3006.77 858.05103 336.798 9.2197031e-39
3014.1599 871.40601 340.854 9.2197031e-39
3004.5801 889.43799 344.40601 9.2197031e-39
3010.3301 880.79004 342.81601 9.2197031e-39
3008.8301 901.98401 347.95099 9.2197031e-39
3006.55 912.06299 350.23901 9.2197031e-39
3009.6201 924.39502 353.61499 9.2197031e-39
3005.3201 933.74902 355.52301 9.2197031e-39
3002.73 943.85101 357.78699 9.2197031e-39
3005.4399 956.34204 361.16599 9.2197031e-39
3009.78 969.73401 364.93201 9.2197031e-39
3005.0701 979.09698 366.802 9.2197031e-39
3002.05 989.26501 369.039 9.2197031e-39
3004.22 1002.003 372.42801 9.2197031e-39
2999.23 1011.324 374.26001 9.2197031e-39
3002.8799 1025.053 378.04099 9.2197031e-39
3002.8999 1037.0811 381.04099 9.2197031e-39
3007.97 1051.915 385.237 9.2197031e-39
3002.52 1061.276 387.034 9.2197031e-39
3004.7 1074.865 390.63599 9.2197031e-39
2997.3501 1083.238 391.99899 9.2197031e-39
3000.1001 1097.408 395.802 9.2197031e-39
3002.6799 1111.677 399.612 9.2197031e-39
3003.4099 1125.035 403.013 9.2197031e-39
2998.1399 1134.881 404.94901 9.2197031e-39
2999.4099 1148.8369 408.55301 9.2197031e-39
3000.52 1162.8721 412.16 9.2197031e-39
3001.45 1176.9819 415.76901 9.2197031e-39
2994.8899 1186.308 417.448 9.2197031e-39
2995.52 1200.501 421.048 9.2197031e-39
2995.99 1214.7639 424.64899 9.2197031e-39
2996.27 1229.0959 428.24899 9.2197031e-39
2998.77 1245.198 432.508 9.2197031e-39
2997.1101 1258.5339 435.66901 9.2197031e-39
2997.6499 1273.6489 439.48901 9.2197031e-39
2997.22 1288.251 443.086 9.2197031e-39
2997.3799 1303.5071 446.905 9.2197031e-39
2995.8201 1317.63 450.271 9.2197031e-39
2996.3701 1333.62 454.311 9.2197031e-39
2994.45 1347.8459 457.668 9.2197031e-39
2993.8501 1363.353 461.474 9.2197031e-39
2992.3201 1378.2939 465.047 9.2197031e-39
2991.3401 1393.916 468.845 9.2197031e-39
2989.4299 1408.957 472.40601 9.2197031e-39
2987.3301 1424.041 475.95901 9.2197031e-39
2986.48 1440.4719 479.97101 9.2197031e-39
2983.28 1454.989 483.27399 9.2197031e-39
2988.3899 1477.516 489.39301 9.2197031e-39
2984.76 1492.155 492.68399 9.2197031e-39
2983.04 1508.8469 496.67499 9.2197031e-39
2985.23 1529.696 502.08701 9.2197031e-39
2988.5 1552.047 507.98001 9.2197031e-39
2990.0901 1573.152 513.39697 9.2197031e-39
2992.0601 1595.0759 519.05499 9.2197031e-39
2988.3999 1611.4661 522.78003 9.2197031e-39
2984.53 1627.89 526.492 9.2197031e-39
-385.909 2967.1599 528.84198 9.2197031e-39
2985.6499 1650.08 532.13501 9.2197031e-39
2987.1101 1673.12 538.02002 9.2197031e-39
-371.31799 2994.26 537.03003 9.2197031e-39
2987.5901 1695.55 543.65802 9.2197031e-39
2988.3799 1718.8199 549.53699 9.2197031e-39
-360.379 3025.73 545.94897 9.2197031e-39
2983.22 1735.54 553.19598 9.2197031e-39
2983.3999 1758.99 559.05902 9.2197031e-39
79.2425 2884.4199 553.96301 9.2197031e-39
113.587 2882.0601 556.75299 9.2197031e-39
-335.293 3041.52 552.35303 9.2197031e-39
-306.198 3052.5701 557.96802 9.2197031e-39
2983.8501 1783.3 565.16199 9.2197031e-39
113.713 2925.54 567.60199 9.2197031e-39
-189.16901 3047.8401 568.29797 9.2197031e-39
-235.83299 3059.28 566.56097 9.2197031e-39
-276.42401 3062.5601 563.38599 9.2197031e-39
2982.1299 1805.45 570.51501 9.2197031e-39
2981.29 1829.21 576.354 9.2197031e-39
-172.69099 3072.8799 576.15997 9.2197031e-39
2980.1101 1853.0601 582.18201 9.2197031e-39
2976.8301 1874.6899 587.25 9.2197031e-39
104.041 2983.6201 581.12598 9.2197031e-39
-101.77 3074.9399 583.64801 9.2197031e-39
-143.62399 3082.28 581.35999 9.2197031e-39
2980.1499 1905.71 595.30902 9.2197031e-39
2978.45 1930.64 601.35498 9.2197031e-39
2976.95 1956.4399 607.63898 9.2197031e-39
2977.8301 1986.3101 615.16998 9.2197031e-39
2975.52 2012.3199 621.427 9.2197031e-39
2971.75 2036.8199 627.16199 9.2197031e-39
2972.95 2069.45 635.41302 9.2197031e-39
2973.6399 2102.23 643.65198 9.2197031e-39
2969.1599 2127.8101 649.58698 9.2197031e-39
2970.4399 2163.3 658.55701 9.2197031e-39
2968.1299 2193.99 665.98102 9.2197031e-39
2966.8501 2227.28 674.151 9.2197031e-39
2964.5601 2259.8501 682.04498 9.2197031e-39
2963.6799 2295.8901 690.94 9.2197031e-39
2964.1399 2335.4199 700.84003 9.2197031e-39
2959.3101 2366.6499 708.14899 9.2197031e-39
2959.49 2408.1699 718.51398 9.2197031e-39
2959.01 2449.8398 728.854 9.2197031e-39
2956.53 2489.1001 738.39398 9.2197031e-39
2955.1599 2531.9199 748.93402 9.2197031e-39
1038.92 3277.29 746.26398 9.2197031e-39
1065.3 3279.4199 749.38898 9.2197031e-39
2951.4099 2571.4302 758.41101 9.2197031e-39
2948.6899 2614.52 768.88501 9.2197031e-39
1107.54 3319.6499 763.57001 9.2197031e-39
1078.1 3327.29 762.58099 9.2197031e-39
2946.1101 2659.49 779.841 9.2197031e-39
2942.8 2704.6001 790.758 9.2197031e-39
2943.8899 2761.29 804.99597 9.2197031e-39
1080.89 3514.3899 809.48901 9.2197031e-39
-427.20599 4099.1299 806.922 9.2197031e-39
2940.1699 2809.3401 816.60699 9.2197031e-39
-394.082 4116.5498 814.521 9.2197031e-39
851.62402 3675.6201 827.12903 9.2197031e-39
-268.47501 4124.7002 828.90503 9.2197031e-39
2938.71 2864.6299 830.24298 9.2197031e-39
1084.83 3607.6899 833.13098 9.2197031e-39
871.065 3711.8799 838.07703 9.2197031e-39
-235.655 4141.5703 836.33899 9.2197031e-39
-865.53998 4394.8896 837.53198 9.2197031e-39
2934.47 2915.6299 842.53802 9.2197031e-39
782.17798 3786.6299 847.96698 9.2197031e-39
-194.317 4143.6299 840.91803 9.2197031e-39
-156.48199 4151.2803 846.54401 9.2197031e-39
-815.05798 4394.9102 842.50201 9.2197031e-39
-769.237 4400.9102 848.50201 9.2197031e-39
2934.48 2979.29 858.40698 9.2197031e-39
1089.9 3703 857.38501 9.2197031e-39
-119.134 4159.4199 852.24701 9.2197031e-39
-81.313301 4166.3398 857.69 9.2197031e-39
-463.15601 4297.9502 852.94202 9.2197031e-39
-654.995 4376.79 853.72699 9.2197031e-39
-719.64001 4400.6699 853.32098 9.2197031e-39
2931.29 3037.77 872.66901 9.2197031e-39
2870.3601 3088.8301 879.40198 9.2197031e-39
2846.3899 3096.45 878.94501 9.2197031e-39
2903.0701 3104.52 886.53101 9.2197031e-39
2827.7 3119.3999 882.82599 9.2197031e-39
2934.0701 3114.4399 892.052 9.2197031e-39
1079.47 3867.6499 897.39899 9.2197031e-39
32.496101 4265.27 893.53998 9.2197031e-39
-158.49001 4389.5898 905.74402 9.2197031e-39
-126.958 4412.4297 914.539 9.2197031e-39
-84.450401 4413.96 919.10199 9.2197031e-39
1.51881 4413.1104 927.34302 9.2197031e-39
1072.62 4029.79 937.138 9.2197031e-39
39.427101 4422.25 933.34998 9.2197031e-39
81.933296 4421.2402 937.27802 9.2197031e-39
2876.46 3345.7 944.02698 9.2197031e-39
2851.3999 3357.0801 944.401 9.2197031e-39
2699.3201 3423.8899 946.09601 9.2197031e-39
2728.1699 3424.9199 949.18903 9.2197031e-39
165.71001 4419.7402 945.14502 9.2197031e-39
123.481 4421.5898 941.45203 9.2197031e-39
2838.3501 3406.99 955.55603 9.2197031e-39
2754.99 3418.25 950.164 9.2197031e-39
2783.6799 3417.8301 952.88098 9.2197031e-39
2813.27 3419.9299 956.31299 9.2197031e-39
204.657 4424.6899 950.20801 9.2197031e-39
245.10699 4425.6602 954.427 9.2197031e-39
287.336 4421.7002 957.59302 9.2197031e-39
365.50201 4427.1499 966.64001 9.2197031e-39
324.245 4430.0703 963.31 9.2197031e-39
2697.76 3529.3601 972.23102 9.2197031e-39
1070.55 4183.6602 975.28802 9.2197031e-39
402.392 4434.8301 972.18103 9.2197031e-39
443.08499 4432.0703 975.495 9.2197031e-39
480.285 4438.1396 980.66602 9.2197031e-39
500.20001 4492.8604 996.263 9.2197031e-39
2701.27 3663.23 1005.94 9.2197031e-39
1061.14 4383.5303 1024.1801 9.2197031e-39
1079.34 4469.1396 1047.3101 9.2197031e-39
1110.55 4497.3203 1057.4 9.2197031e-39
1184.3101 4498.2598 1064.89 9.2197031e-39
1146.8 4501.2998 1061.96 9.2197031e-39
1220.22 4503.5303 1069.73 9.2197031e-39
1335.4399 4468.3501 1072.3 9.2197031e-39
1257.61 4499.8398 1072.49 9.2197031e-39
1294.4399 4498.71 1075.83 9.2197031e-39
1361.72 4540.8398 1092.95 9.2197031e-39
1386.17 4637.29 1119.39 9.2197031e-39
2674.6001 4291.52 1159.92 9.2197031e-39
1407.71 4772.25 1155.15 9.2197031e-39
2718.9199 4332.4399 1174.48 9.2197031e-39
2652.4099 4363.21 1175.61 9.2197031e-39
2306.9099 4487.1699 1172.53 9.2197031e-39
2271.47 4497.8999 1171.71 9.2197031e-39
2826.98 4326.1899 1183.55 9.2197031e-39
2793.1201 4338.3398 1183.25 9.2197031e-39
2757.0801 4340.7598 1180.3 9.2197031e-39
2383.3999 4517.7402 1187.67 9.2197031e-39
2347.0701 4522.3701 1185.25 9.2197031e-39
2494.3201 4517.3398 1198.47 9.2197031e-39
2420.6299 4520.4902 1192.01 9.2197031e-39
2458.1001 4523.8701 1196.54 9.2197031e-39
2568.25 4513.8604 1204.88 9.2197031e-39
2532.0701 4521.02 1203.11 9.2197031e-39
2642.6399 4511.0098 1211.48 9.2197031e-39
2607.45 4524.52 1211.39 9.2197031e-39
1408.96 5113.1099 1240.23 9.2197031e-39
2298.3601 5305.0801 1375.55 9.2197031e-39
1841.71 7292.21 1825.9301 9.2197031e-39
1902.71 7303.8198 1834.8199 9.2197031e-39
1963.96 7317.8101 1844.33 9.2197031e-39
2149.05 7347.8799 1870.03 9.2197031e-39
2026.53 7399.1699 1870.76 9.2197031e-39
1183.66 7756.6899 1876.99 9.2197031e-39
2211.6599 7368.46 1881.3199 9.2197031e-39
2088.98 7414.0098 1880.61 9.2197031e-39
1248.65 7762.1401 1884.74 9.2197031e-39
2274.1799 7378.8101 1890.04 9.2197031e-39
2337.1201 7391.5098 1899.4 9.2197031e-39
1313.79 7766.0698 1892.12 9.2197031e-39
1379.63 7760.71 1897.26 9.2197031e-39
2400.0601 7399.79 1907.66 9.2197031e-39
1444.78 7763.5298 1904.37 9.2197031e-39
1509.97 7765.7798 1911.34 9.2197031e-39
1575.1899 7767.48 1918.1801 9.2197031e-39
1705.98 7759.5098 1929.0601 9.2197031e-39
1640.39 7769.6001 1925.12 9.2197031e-39
1771.1801 7759.5498 1935.48 9.2197031e-39
