# .PCD v0.7 - Point Cloud Data file format
VERSION 0.7
FIELDS x y z rgb
SIZE 4 4 4 4
TYPE F F F F
COUNT 1 1 1 1
WIDTH 328
HEIGHT 1
VIEWPOINT 0 0 0 1 0 0 0
POINTS 328
DATA ascii
-5227.4502 1252.754 134.00101 9.2197031e-39
1737.3265 1507.3802 139.18468 9.2197031e-39
1744.8101 1506.7056 138.93649 9.2197031e-39
2573.27 1533.8159 138.702 9.2197031e-39
2623.53 1530.506 137.36099 9.2197031e-39
2801.6699 1531.75 136.08299 9.2197031e-39
2996.8601 1530.568 134 9.2197031e-39
1718.8101 1518.995 142.46201 9.2197031e-39
1725.87 1518.728 142.32701 9.2197031e-39
1734.3232 1512.7061 140.638 9.2197031e-39
1729.22 1529.304 145.129 9.2197031e-39
1736.2581 1522.7068 143.2984 9.2197031e-39
1747.08 1522.619 143.177 9.2197031e-39
2007.385 1524.545 141.338 9.2197031e-39
2013.0033 1527.9523 142.2 9.2197031e-39
2025.11 1525.7224 141.493 9.2197031e-39
1716.65 1539.762 148.043 9.2197031e-39
1725.184 1536.2181 147.01721 9.2197031e-39
1730.87 1531.6011 145.729 9.2197031e-39
1753.64 1539.929 147.754 9.2197031e-39
1762.6832 1539.2367 147.48601 9.2197031e-39
2008.72 1530.707 142.976 9.2197031e-39
2016.7567 1533.9365 143.76833 9.2197031e-39
2064.1201 1532.171 142.867 9.2197031e-39
2081.1001 1534.0381 143.213 9.2197031e-39
2095.1899 1535.043 143.355 9.2197031e-39
2573.8799 1539.7209 140.278 9.2197031e-39
1726.3975 1543.7832 149.03201 9.2197031e-39
1748.9851 1542.9456 148.603 9.2197031e-39
2057.01 1549.875 147.673 9.2197031e-39
2136.8 1540.975 144.567 9.2197031e-39
2491.78 1549.7329 143.702 9.2197031e-39
2531.1101 1547.864 142.845 9.2197031e-39
2558.49 1544.426 141.677 9.2197031e-39
2077.3101 1558.2791 149.74001 9.2197031e-39
2215.9099 1552.9 147.045 9.2197031e-39
2252.8799 1556.28 147.616 9.2197031e-39
2285.01 1558.2429 147.851 9.2197031e-39
2306.3201 1558.006 147.595 9.2197031e-39
2373.78 1559.8301 147.47301 9.2197031e-39
2391.22 1557.8149 146.776 9.2197031e-39
2421.5601 1557.041 146.29401 9.2197031e-39
2439 1554.339 145.412 9.2197031e-39
2467.3799 1552.458 144.65199 9.2197031e-39
2348.4399 1560.4141 147.85899 9.2197031e-39
-5232.21 1312.6011 150.071 9.2197031e-39
1721.3199 1547.342 150.03101 9.2197031e-39
1747.66 1548.7009 150.157 9.2197031e-39
2113.5 1572.512 153.224 9.2197031e-39
2152.28 1588.349 157.114 9.2197031e-39
-5238.4199 1372.479 166.162 9.2197031e-39
-1147.38 1492.71 161.351 9.2197031e-39
-1148.21 1518.2429 168.196 9.2197031e-39
2187.97 1603.8301 160.937 9.2197031e-39
2242.0901 1626.8401 166.61 9.2197031e-39
-1142.8 1543.6899 174.96201 9.2197031e-39
2296.75 1651.13 172.619 9.2197031e-39
-5239.0898 1432.4929 182.24001 9.2197031e-39
2380.6899 1687.92 181.713 9.2197031e-39
2437.1699 1715.42 188.56599 9.2197031e-39
2443.4399 1723.5 190.672 9.2197031e-39
2456.96 1734.78 193.571 9.2197031e-39
2457.5 1740.8 195.179 9.2197031e-39
2465.4751 1753.115 198.405 9.2197031e-39
-1910.74 1620.5701 202.49899 9.2197031e-39
2466.115 1765.4551 201.7025 9.2197031e-39
2470.01 1776.49 204.62399 9.2197031e-39
2466.5649 1784.14 206.702 9.2197031e-39
2468.3401 1794.46 209.45 9.2197031e-39
-1908.36 1652.49 211.024 9.2197031e-39
-1889.73 1683.5699 219.17799 9.2197031e-39
2468.25 1800.78 211.144 9.2197031e-39
2479.47 1813.21 214.371 9.2197031e-39
2477.0801 1825.1801 217.59801 9.2197031e-39
2493.99 1827.75 218.13499 9.2197031e-39
2479.24 1833.13 219.707 9.2197031e-39
-1879.8 1714.88 227.472 9.2197031e-39
2484.74 1843.13 222.33701 9.2197031e-39
2503.77 1861.33 227.03799 9.2197031e-39
-1863.61 1745.63 235.561 9.2197031e-39
2543.74 1892.67 235.069 9.2197031e-39
-5244.3501 1672.75 246.627 9.2197031e-39
2960.72 2156.73 302.01001 9.2197031e-39
2992.5 2189.47 310.491 9.2197031e-39
2985.3501 2198.27 312.91299 9.2197031e-39
2993.8999 2217.27 317.922 9.2197031e-39
2995.5901 2232.0801 321.875 9.2197031e-39
2988.0701 2240.8901 324.29999 9.2197031e-39
2995.1599 2259.71 329.27802 9.2197031e-39
2989.8301 2270.2 332.13501 9.2197031e-39
2991.6499 2285.8301 336.30399 9.2197031e-39
2990.8701 2299.8 340.052 9.2197031e-39
2990.71 2314.4102 343.965 9.2197031e-39
2989.5801 2328.48 347.74301 9.2197031e-39
2990.6399 2344.3901 351.995 9.2197031e-39
2989.9299 2359.1699 355.95999 9.2197031e-39
2989.04 2374 359.94 9.2197031e-39
2987.97 2388.8799 363.935 9.2197031e-39
2987.48 2404.4399 368.10501 9.2197031e-39
2986.03 2419.4199 372.13101 9.2197031e-39
2982.8899 2433.1699 375.84 9.2197031e-39
2983.3101 2450.1699 380.388 9.2197031e-39
2988.6799 2471.8101 386.134 9.2197031e-39
2986.4199 2487.02 390.229 9.2197031e-39
2983.96 2502.27 394.33499 9.2197031e-39
2981.3101 2517.55 398.452 9.2197031e-39
2984.1799 2538.28 403.97699 9.2197031e-39
2981.8101 2554.3599 408.30301 9.2197031e-39
2984.8401 2575.98 414.06601 9.2197031e-39
2982 2592.1699 418.42899 9.2197031e-39
2985.8501 2615.4102 424.617 9.2197031e-39
2980.48 2629.6099 428.46701 9.2197031e-39
2983.0601 2652.3501 434.53299 9.2197031e-39
2979.27 2668.75 438.961 9.2197031e-39
2981.9099 2692.4199 445.27399 9.2197031e-39
2982.8999 2714.75 451.24701 9.2197031e-39
2984.8601 2738.6699 457.633 9.2197031e-39
2979.3899 2754.5601 461.94 9.2197031e-39
2979.45 2777.1699 467.99301 9.2197031e-39
2979.1899 2799.8701 474.07501 9.2197031e-39
2979.23 2823.4199 480.38101 9.2197031e-39
2978.9199 2847.0701 486.71701 9.2197031e-39
2977.04 2869.28 492.681 9.2197031e-39
2981.49 2900.04 500.88 9.2197031e-39
2974.73 2917.01 505.48401 9.2197031e-39
-446.116 2818.4199 510.02701 9.2197031e-39
-442.565 2842.98 516.57397 9.2197031e-39
2976.5801 2945.6899 513.14697 9.2197031e-39
2975.0901 2970.5701 519.82397 9.2197031e-39
2977.26 3001.0801 527.974 9.2197031e-39
-486.42499 2895.8501 531.12799 9.2197031e-39
-477 2917.8301 536.92798 9.2197031e-39
2975.55 3026.95 534.91901 9.2197031e-39
-473.25201 2943.3799 543.73798 9.2197031e-39
136.04201 2986.6899 549.82397 9.2197031e-39
2976.26 3056.9099 542.93701 9.2197031e-39
2972.6299 3081.3701 549.51703 9.2197031e-39
103.748 2987.74 550.39697 9.2197031e-39
2969.1899 3106.6799 556.328 9.2197031e-39
-532.02698 3008.4399 561.69202 9.2197031e-39
-442.92801 3008.97 561.02899 9.2197031e-39
-426.62701 3026.8899 565.67999 9.2197031e-39
-400.367 3038 568.41803 9.2197031e-39
107.368 3038.21 563.88 9.2197031e-39
2970.77 3140.21 565.29199 9.2197031e-39
-391.965 3061.1299 574.53497 9.2197031e-39
108.19 3064.8799 571.013 9.2197031e-39
2969.1699 3169.78 573.22601 9.2197031e-39
2818.25 3189.3101 579.82202 9.2197031e-39
2833.04 3180.53 577.336 9.2197031e-39
-380.08701 3081.96 580.00598 9.2197031e-39
-370.414 3104.4399 585.93799 9.2197031e-39
95.493301 3104.1599 581.64899 9.2197031e-39
2788.4099 3206.52 584.69897 9.2197031e-39
2807.0901 3204.8301 584.07898 9.2197031e-39
2970.78 3205.22 582.70099 9.2197031e-39
-361.30499 3127.45 592.01898 9.2197031e-39
-336.90399 3139.27 594.96198 9.2197031e-39
-193.48599 3147.4099 595.84601 9.2197031e-39
-116.142 3143.3 594.04498 9.2197031e-39
-321.901 3157.9299 599.82397 9.2197031e-39
-174.595 3161.76 599.51801 9.2197031e-39
2970.8 3239.1499 591.78802 9.2197031e-39
-1561.83 3152.51 609.59003 9.2197031e-39
-285.63901 3160.23 600.112 9.2197031e-39
-251.834 3163.8701 600.78198 9.2197031e-39
18.958799 3202.96 608.79797 9.2197031e-39
2970.8 3274.04 601.13098 9.2197031e-39
2962.22 3295.6799 607.00299 9.2197031e-39
-1509.25 3163.0901 611.94598 9.2197031e-39
2820.4299 3305.71 610.97198 9.2197031e-39
2963.22 3334.1201 617.28802 9.2197031e-39
-1526.75 3208.1299 624.16699 9.2197031e-39
2958.25 3363.4099 625.17798 9.2197031e-39
-1553.38 3258.5901 637.92102 9.2197031e-39
-1549.52 3293.96 647.35699 9.2197031e-39
1072.58 3387.46 648.67603 9.2197031e-39
1092.35 3387.97 648.633 9.2197031e-39
1051.2 3390.3201 649.63501 9.2197031e-39
2865.6899 3435.0801 645.20697 9.2197031e-39
-2197.1699 3289.6599 652.06403 9.2197031e-39
-2137.24 3304.4099 655.47101 9.2197031e-39
-989.43903 3330.49 652.07397 9.2197031e-39
-113.334 3356.8401 651.20502 9.2197031e-39
1099.3101 3419.74 657.07898 9.2197031e-39
2844.0801 3479.3301 657.25299 9.2197031e-39
2867.1599 3481.6299 657.66101 9.2197031e-39
-2112.53 3334.5 663.30701 9.2197031e-39
-1626.51 3372.95 669.20599 9.2197031e-39
1125.23 3456.22 666.61401 9.2197031e-39
-2094.76 3367.71 672.03802 9.2197031e-39
-154.731 3429.1299 670.93799 9.2197031e-39
1093.61 3484.9099 674.58197 9.2197031e-39
2718.3601 3535.76 673.50201 9.2197031e-39
2740.9099 3538.51 674.03601 9.2197031e-39
2828.53 3539.3101 673.45697 9.2197031e-39
2763.1799 3540.1499 674.27197 9.2197031e-39
2785.1599 3540.6699 674.21399 9.2197031e-39
2807.22 3540.98 674.09802 9.2197031e-39
2853.21 3544.47 674.61499 9.2197031e-39
1115.8199 3535.1699 687.841 9.2197031e-39
1110.77 3606.23 706.91602 9.2197031e-39
2720.1101 3649.02 703.81702 9.2197031e-39
2743.1499 3650.9199 704.11798 9.2197031e-39
1115.35 3653.78 719.60797 9.2197031e-39
2715.76 3695.9099 716.414 9.2197031e-39
2710.6299 3742.8899 729.04102 9.2197031e-39
1115.0601 3717.8999 736.78198 9.2197031e-39
2699.79 3776.24 738.07098 9.2197031e-39
1118.95 3773 751.50403 9.2197031e-39
854.79797 3783.6101 756.73401 9.2197031e-39
2697.04 3834.3101 753.64697 9.2197031e-39
1122.28 3832.8101 767.49103 9.2197031e-39
2716.01 3959.5701 787.02002 9.2197031e-39
1110.96 3942.6201 797 9.2197031e-39
-2494.1499 3886.6599 814.62598 9.2197031e-39
1112 4018.53 817.31799 9.2197031e-39
2725.22 4062.28 814.44202 9.2197031e-39
2703.46 4073.8701 817.742 9.2197031e-39
1106.97 4119.6699 844.44897 9.2197031e-39
2732.51 4250.1602 864.68701 9.2197031e-39
1104.77 4217.3701 870.63202 9.2197031e-39
2717.3101 4289.6797 875.40802 9.2197031e-39
2664.0701 4293.9102 877.02399 9.2197031e-39
2691.49 4294.71 876.98901 9.2197031e-39
2638.76 4300.3501 878.979 9.2197031e-39
-447.97101 4228.9697 887.784 9.2197031e-39
-402.409 4223.7803 885.98199 9.2197031e-39
-365.81201 4228.6104 886.94501 9.2197031e-39
-284.392 4226.3301 885.59698 9.2197031e-39
-329.30399 4233.04 887.79999 9.2197031e-39
-251.173 4233.73 887.27899 9.2197031e-39
-212.05701 4233.0098 886.73401 9.2197031e-39
-178.392 4238.8799 888.00098 9.2197031e-39
-140.731 4238.8896 887.66302 9.2197031e-39
-74.358803 4249.5801 889.92297 9.2197031e-39
2619.48 4330.0098 887.09601 9.2197031e-39
-111.805 4250.3398 890.46802 9.2197031e-39
-41.539299 4254.7998 891.02399 9.2197031e-39
-1005.54 4287.0303 908.37799 9.2197031e-39
-544.44 4292.0498 905.55103 9.2197031e-39
1099.67 4332.0898 901.40002 9.2197031e-39
34.7575 4356.6396 917.60699 9.2197031e-39
73.7491 4351.5601 915.89301 9.2197031e-39
-1005.3 4336.1201 921.52002 9.2197031e-39
1098.8101 4438.6899 929.95398 9.2197031e-39
-1004.4 4385.4102 934.711 9.2197031e-39
-1010.37 4442.6104 950.08301 9.2197031e-39
-167.17799 4491.6499 955.59003 9.2197031e-39
-101.897 4509.54 959.79102 9.2197031e-39
187.138 4518.2803 959.51501 9.2197031e-39
1102.22 4536.1396 956.021 9.2197031e-39
2338.03 4587.3701 958.55902 9.2197031e-39
-953.151 4487.4502 961.57599 9.2197031e-39
-907.24597 4491.1899 962.16101 9.2197031e-39
-860.83099 4493.6602 962.40198 9.2197031e-39
-810.66199 4491.2002 961.289 9.2197031e-39
-765.93103 4494 961.63501 9.2197031e-39
-1018.25 4502.9502 966.315 9.2197031e-39
-142.681 4512.9102 961.06097 9.2197031e-39
6.30337 4517.4297 960.92297 9.2197031e-39
42.8358 4518.1899 960.797 9.2197031e-39
80.2332 4516.8999 960.11298 9.2197031e-39
115.013 4519.4102 960.47101 9.2197031e-39
145.83701 4528.3301 962.58002 9.2197031e-39
218.30701 4525.6797 961.21399 9.2197031e-39
253.157 4525.9297 960.966 9.2197031e-39
320.70499 4528.8203 961.13 9.2197031e-39
355.203 4528.02 960.604 9.2197031e-39
454.983 4529.7002 960.151 9.2197031e-39
285.62399 4530.1201 961.79602 9.2197031e-39
384.853 4536.4697 962.59802 9.2197031e-39
421.26599 4530.6396 960.70697 9.2197031e-39
484.11899 4538.1299 962.146 9.2197031e-39
1122.8199 4570.8301 965.12299 9.2197031e-39
1353.89 4574.8701 964.11603 9.2197031e-39
1381.61 4580.21 965.29498 9.2197031e-39
2310.47 4593.9102 960.56201 9.2197031e-39
2662.4199 4609.4102 961.52899 9.2197031e-39
2370.76 4614.0303 965.40302 9.2197031e-39
2400.3601 4618.4199 966.31299 9.2197031e-39
2428.5601 4613.9902 964.86902 9.2197031e-39
2458.3101 4617.8701 965.64099 9.2197031e-39
2634.48 4616.7598 963.75 9.2197031e-39
2488.1699 4621.4902 966.341 9.2197031e-39
2518.3201 4625.7998 967.22101 9.2197031e-39
2546.5901 4620.3701 965.51001 9.2197031e-39
2576.48 4622.2598 965.74597 9.2197031e-39
2606.6799 4624.8203 966.159 9.2197031e-39
1145.77 4597.8604 972.15601 9.2197031e-39
1233.95 4597.5801 971.284 9.2197031e-39
1291.79 4599.5898 971.29797 9.2197031e-39
1173.86 4604 973.54602 9.2197031e-39
1203.86 4601.3999 972.578 9.2197031e-39
1262.03 4602.98 972.474 9.2197031e-39
1319.89 4604.5 972.35797 9.2197031e-39
1405.16 4613.02 973.86902 9.2197031e-39
2297.3401 4712.4102 992.414 9.2197031e-39
1415.72 4740.3701 1007.88 9.2197031e-39
1445.08 4744.23 1008.65 9.2197031e-39
1445.54 4979.8599 1071.74 9.2197031e-39
1433.58 5359.6899 1173.5699 9.2197031e-39
2350.01 5395.25 1174.8 9.2197031e-39
1383.5699 6161.71 1388.8 9.2197031e-39
1894.47 7392.0098 1713.64 9.2197031e-39
1947.8 7394.6802 1713.88 9.2197031e-39
2001.4399 7410.4302 1717.61 9.2197031e-39
2055.75 7438.27 1724.58 9.2197031e-39
2218.04 7454.3599 1727.41 9.2197031e-39
2272.8301 7465.8701 1730 9.2197031e-39
2327.7 7474.98 1731.95 9.2197031e-39
2383.0901 7487.48 1734.79 9.2197031e-39
2111.6001 7492.6802 1738.64 9.2197031e-39
2439.0901 7503.3398 1738.53 9.2197031e-39
2493.8401 7503.3398 1738.04 9.2197031e-39
2166.25 7500.2798 1740.1801 9.2197031e-39
2550.99 7524 1743.05 9.2197031e-39
1378.58 7837.96 1837.73 9.2197031e-39
1320.51 7842.0098 1839.35 9.2197031e-39
1435.9301 7842.0801 1838.3199 9.2197031e-39
1493.37 7844.75 1838.51 9.2197031e-39
1665.79 7848.8901 1838.0601 9.2197031e-39
1723.26 7848.6499 1837.48 9.2197031e-39
1780.71 7848.8999 1837.03 9.2197031e-39
1838.13 7849.6299 1836.7 9.2197031e-39
1550.58 7851.7598 1839.87 9.2197031e-39
1608.12 7852.5 1839.55 9.2197031e-39
1262.51 7843.6499 1840.3101 9.2197031e-39
