# .PCD v0.7 - Point Cloud Data file format
VERSION 0.7
FIELDS x y z rgb
SIZE 4 4 4 4
TYPE F F F F
COUNT 1 1 1 1
WIDTH 300
HEIGHT 1
VIEWPOINT 0 0 0 1 0 0 0
POINTS 300
DATA ascii
1181.2 -184.46899 136.27699 9.2197031e-39
493.565 2297.395 139.26001 9.2197031e-39
491.70251 2304.1899 139.26349 9.2197031e-39
487.02701 2315.73 139.66 9.2197031e-39
490.17499 2326.1602 138.11099 9.2197031e-39
417.85876 2584.3601 138.62274 9.2197031e-39
424.07501 2583.3081 137.08942 9.2197031e-39
117.108 3686.8201 138.733 9.2197031e-39
139.795 3685.8701 132.935 9.2197031e-39
121.782 3695.4299 136.918 9.2197031e-39
1149.55 -247.41901 148.89101 9.2197031e-39
1161.5601 -166.92401 140.117 9.2197031e-39
459.10449 2288.4299 148.80099 9.2197031e-39
461.28299 2285.73 148.42799 9.2197031e-39
456.07452 2295.29 149.101 9.2197031e-39
465.79999 2292.8999 146.75549 9.2197031e-39
484.04181 2296.8481 141.76102 9.2197031e-39
455.40201 2304.9199 148.5965 9.2197031e-39
466.72275 2301.3499 145.92151 9.2197031e-39
474.11099 2304.6523 143.77875 9.2197031e-39
487.883 2300.75 140.493 9.2197031e-39
453.24301 2314.2876 148.49525 9.2197031e-39
476.2695 2315.355 142.46725 9.2197031e-39
452.345 2335.1299 147.25999 9.2197031e-39
405.95523 2574.5281 142.3924 9.2197031e-39
395.76367 2582.9233 144.43565 9.2197031e-39
407.22949 2581.345 141.58301 9.2197031e-39
404.83469 2596.4797 141.13634 9.2197031e-39
404.15332 2601.7034 140.94434 9.2197031e-39
369.03601 2621.51 148.62801 9.2197031e-39
361.88599 2631.1499 149.798 9.2197031e-39
235.30299 3153.8899 145.70799 9.2197031e-39
79.168198 3685.7 148.62 9.2197031e-39
94.886002 3685.4099 144.577 9.2197031e-39
99.150597 3695.0701 142.79401 9.2197031e-39
1098.48 -101.40399 151.812 9.2197031e-39
444.32501 2298.24 151.931 9.2197031e-39
448.367 2306.55 150.3 9.2197031e-39
349.74899 2645.8501 151.901 9.2197031e-39
325.70499 2681.3301 155.618 9.2197031e-39
76.6259 3671.21 150.298 9.2197031e-39
1091.67 -205.78198 160.924 9.2197031e-39
283.30099 2740.48 162.41499 9.2197031e-39
238.379 2805.1101 169.47701 9.2197031e-39
1334.73 -1339.02 177.894 9.2197031e-39
204.168 2846.8201 175.384 9.2197031e-39
140.13499 2935.72 185.677 9.2197031e-39
1329.86 -1529.4099 192.562 9.2197031e-39
61.326401 3036 198.989 9.2197031e-39
1370.49 -1828.3701 203.112 9.2197031e-39
2.87152 3111.6299 208.77499 9.2197031e-39
1344.27 -1955.9199 218.87399 9.2197031e-39
34.801899 2843.3401 219.414 9.2197031e-39
34.364399 2852.74 218.86551 9.2197031e-39
36.2425 2860.2 217.855 9.2197031e-39
28.055099 2877.79 218.733 9.2197031e-39
36.695 2874.05 216.76199 9.2197031e-39
33.094501 2887.6699 216.73399 9.2197031e-39
31.191299 2894.3301 216.757 9.2197031e-39
26.583 2909.5801 216.87399 9.2197031e-39
24.179501 2917.0601 216.96899 9.2197031e-39
25.436899 2926.78 215.96001 9.2197031e-39
19.155001 2938.71 216.744 9.2197031e-39
13.3949 2956.6399 216.97 9.2197031e-39
10.7477 2965.0901 217.05901 9.2197031e-39
6.8122501 2981.8201 216.89799 9.2197031e-39
-2.11221 2997.8999 218.073 9.2197031e-39
0.94381398 3007.3701 216.616 9.2197031e-39
-3.78689 3019.1201 217.011 9.2197031e-39
-14.9046 3046.3601 217.968 9.2197031e-39
8.4654999 3065.71 210.562 9.2197031e-39
-7.4402599 3079.74 213.686 9.2197031e-39
-34.541302 3146.99 215.957 9.2197031e-39
-42.922699 3150.5801 217.871 9.2197031e-39
1318.15 -1946.6299 224.97501 9.2197031e-39
6.6318302 2805.22 229.382 9.2197031e-39
17.050949 2807.875 226.5015 9.2197031e-39
24.93585 2814.3398 224.008 9.2197031e-39
31.9312 2819.3899 221.84399 9.2197031e-39
34.615002 2821.2 221.022 9.2197031e-39
34.22715 2832.5601 220.32251 9.2197031e-39
-31.162001 3073 220.29401 9.2197031e-39
-78.302902 3147.6799 227.222 9.2197031e-39
1267.4301 -1956.8 238.802 9.2197031e-39
-27.1255 2778.9099 239.96201 9.2197031e-39
-11.9262 2779.165 236.015 9.2197031e-39
-1.611895 2784.3198 232.9855 9.2197031e-39
-0.135539 2793.6799 231.944 9.2197031e-39
6.4267998 2792.8301 230.308 9.2197031e-39
4.7950702 2802.6101 230.041 9.2197031e-39
-100.36 3183.6299 230.392 9.2197031e-39
1243.76 -1959.8301 245.13499 9.2197031e-39
-61.279099 2762.74 249.931 9.2197031e-39
-50.999802 2765.1799 247.10201 9.2197031e-39
-46.004902 2766.0701 245.748 9.2197031e-39
-34.0826 2767.1499 242.589 9.2197031e-39
-35.193253 2775.95 242.2565 9.2197031e-39
1188.36 -1941.46 258.164 9.2197031e-39
-90.297096 2766.6399 257.15799 9.2197031e-39
-86.760399 2760.6299 256.66699 9.2197031e-39
-75.653702 2767.1001 253.34 9.2197031e-39
-131.38699 2749.1899 269.01001 9.2197031e-39
-115.442 2752.1851 264.67651 9.2197031e-39
-102.141 2756.1499 260.95901 9.2197031e-39
-109.208 2764.02 262.23199 9.2197031e-39
-163.377 2746.9299 277.439 9.2197031e-39
-156.534 2748 275.595 9.2197031e-39
-139.08 2748.79 271.02701 9.2197031e-39
-191.35699 2745.8701 284.74701 9.2197031e-39
-180.91 2745.5801 282.06699 9.2197031e-39
-222.46201 2749.71 292.51901 9.2197031e-39
-260.69501 2750.96 302.315 9.2197031e-39
-518.716 2870.3401 360.61301 9.2197031e-39
-145.864 -888.71997 528.95697 9.2197031e-39
-184.692 -880.17004 538.39301 9.2197031e-39
-203.34 -879.96997 543.20001 9.2197031e-39
-727.50201 987.93604 547.16101 9.2197031e-39
-741.505 1006.854 549.44897 9.2197031e-39
-744.26898 1019.853 549.24799 9.2197031e-39
-750.15198 1047.745 548.80499 9.2197031e-39
-751.30701 1062.16 548.08801 9.2197031e-39
-751.25897 1095.7209 545.71198 9.2197031e-39
-759.26202 1102.0911 547.33301 9.2197031e-39
-755.78003 1138.2849 543.883 9.2197031e-39
-760.89099 1147.522 544.55402 9.2197031e-39
-772.12097 1167.266 546.06702 9.2197031e-39
-774.315 1179.3401 545.784 9.2197031e-39
-780.276 1203.978 545.59003 9.2197031e-39
-787.047 1211.2219 546.83002 9.2197031e-39
-792.48798 1235.842 546.50299 9.2197031e-39
-801.90997 1240.468 548.61298 9.2197031e-39
-805.42603 1279.718 546.758 9.2197031e-39
-798.30603 1273.0381 545.38702 9.2197031e-39
-814.849 1299.666 547.789 9.2197031e-39
-821.11102 1307.094 548.88501 9.2197031e-39
-827.21002 1329.689 548.87 9.2197031e-39
-260.957 -871.14001 557.474 9.2197031e-39
-241.866 -869.73999 552.44 9.2197031e-39
-834.052 1336.554 550.15503 9.2197031e-39
-839.70203 1359.165 550.02399 9.2197031e-39
-846.39801 1366.11 551.26599 9.2197031e-39
-850.84399 1389.335 550.77899 9.2197031e-39
-855.86902 1397.562 551.49902 9.2197031e-39
-869.047 1413.6111 553.776 9.2197031e-39
-873.93402 1421.925 554.45398 9.2197031e-39
-300.49701 -865.04004 567.26703 9.2197031e-39
-318.97601 -863.18994 571.914 9.2197031e-39
-933.50702 1403.3931 571.15997 9.2197031e-39
-363.56699 -876.56006 584.383 9.2197031e-39
-387.58499 -895.44995 591.92297 9.2197031e-39
-454.10001 -986.31006 615.51801 9.2197031e-39
-1183.52 1487.262 629.888 9.2197031e-39
-1169.84 1482.714 626.672 9.2197031e-39
-1175.5601 1518.884 625.604 9.2197031e-39
-1174.77 1531.6389 624.5 9.2197031e-39
-1150.85 1255.47 637.76599 9.2197031e-39
-1147.62 1288.2361 634.62402 9.2197031e-39
-1153.97 1297.553 635.60999 9.2197031e-39
-1160.97 1336.074 634.70599 9.2197031e-39
-1144.46 1333.8889 630.591 9.2197031e-39
-1160.42 1365.6179 632.48297 9.2197031e-39
-1157.45 1380.855 630.64203 9.2197031e-39
-1165.2 1404.349 630.99103 9.2197031e-39
-1166.01 1416.8579 630.32098 9.2197031e-39
-1174.9399 1439.344 631.04602 9.2197031e-39
-1174.6899 1452.317 630.06799 9.2197031e-39
-1222.24 1532.324 636.724 9.2197031e-39
-526.43298 -1176.51 647.61298 9.2197031e-39
-1730.4 3217.8999 649.39099 9.2197031e-39
-557.96698 -1126.08 652.21399 9.2197031e-39
-598.10101 -1191.1 667.16901 9.2197031e-39
-623.672 -1122.01 668.914 9.2197031e-39
-633.11798 -1084.22 668.69397 9.2197031e-39
-1690.95 2821.3501 667.12 9.2197031e-39
-1697.77 2835.1001 667.91302 9.2197031e-39
-1772.13 3218.4099 660.14203 9.2197031e-39
-663.56403 -1036.6899 673.21802 9.2197031e-39
-669.22601 -990.42004 671.42401 9.2197031e-39
-1715.74 2798.1101 675.164 9.2197031e-39
-1736.55 2788.6599 681.20898 9.2197031e-39
-737.33698 -1056.74 693.703 9.2197031e-39
-981.65601 -141.703 692.42297 9.2197031e-39
-1443.9301 1499.682 696.33801 9.2197031e-39
-760.76599 -1062.54 700.16901 9.2197031e-39
-1021.26 -139.25 702.48798 9.2197031e-39
-833.53101 -1073.97 719.78497 9.2197031e-39
-809.13397 -1066.8101 712.97302 9.2197031e-39
-2079.7 3477.3601 721.42102 9.2197031e-39
-890.88098 -1099.33 736.39801 9.2197031e-39
-1019.16 -568.54004 732.18103 9.2197031e-39
-1128.51 -216.45398 735.65302 9.2197031e-39
-2136.4399 3463.77 737.04797 9.2197031e-39
-920.73401 -1118.8 745.487 9.2197031e-39
-2160.01 3403.2 747.40601 9.2197031e-39
-2158.8101 3419.3701 745.95599 9.2197031e-39
-2178.0801 3462.99 747.86798 9.2197031e-39
-982.29303 -1150.08 763.604 9.2197031e-39
-1012.15 -1166.99 772.513 9.2197031e-39
-2289.1201 3287.1001 788.96198 9.2197031e-39
-1075.5 -1197.66 791.052 9.2197031e-39
-2298.97 3183.8201 798.78302 9.2197031e-39
-2294.3501 3199.21 796.50299 9.2197031e-39
-2287 3233.3201 792.20099 9.2197031e-39
-2294.29 3252.1299 792.76001 9.2197031e-39
-1109.95 -1222.9 801.73602 9.2197031e-39
-2308.7 3097.96 807.34399 9.2197031e-39
-2311.05 3134.3401 805.38898 9.2197031e-39
-2303.8501 3149.1001 802.48901 9.2197031e-39
-2335.5701 3087.6201 815.01898 9.2197031e-39
-2308.1399 2841.1101 825.289 9.2197031e-39
-2443.3201 3351.5701 824.28497 9.2197031e-39
-2332.04 2828.3401 832.367 9.2197031e-39
-2360.6699 2796.9299 841.98102 9.2197031e-39
-2440.28 2789.95 863.05298 9.2197031e-39
-2634.8201 3452.1001 866.716 9.2197031e-39
-2615.8201 3465.05 860.89099 9.2197031e-39
-1650.8101 -471.96997 888.67798 9.2197031e-39
-1641.7 -425.68005 883.06201 9.2197031e-39
-1671.83 -394.15997 888.63202 9.2197031e-39
-1621.9399 -738.37 899.97498 9.2197031e-39
-1640.4301 -646.62 898.29401 9.2197031e-39
-1645.22 -574.80005 894.474 9.2197031e-39
-1646.85 -541.67004 892.56403 9.2197031e-39
-1692.55 -388.67999 893.60303 9.2197031e-39
-2640.8701 3116.98 891.88 9.2197031e-39
-1611.77 -888.25 907.90198 9.2197031e-39
-1615.65 -853.66003 906.46802 9.2197031e-39
-1615.86 -767.79004 900.47498 9.2197031e-39
-1639.51 -682.43005 900.58002 9.2197031e-39
-1752.88 -395.90997 909.70898 9.2197031e-39
-1610.66 -977.29004 913.88702 9.2197031e-39
-1781.61 -399.84003 917.414 9.2197031e-39
-2219.4399 1309.3921 910.229 9.2197031e-39
-2243.79 1338.45 914.479 9.2197031e-39
-2242.79 1356.873 912.92297 9.2197031e-39
-2269.3701 1385.349 917.78998 9.2197031e-39
-1605.08 -1106.89 921.57202 9.2197031e-39
-2308.6899 1388.2471 927.75 9.2197031e-39
-1856.21 -422.16003 938.27197 9.2197031e-39
-2340.45 1415.7671 934.02301 9.2197031e-39
-2320.4299 1247.7219 940.68103 9.2197031e-39
-2381.6399 1419.0139 944.44397 9.2197031e-39
-1497.67 -1978.0801 955.15601 9.2197031e-39
-2417.74 1446.182 951.86298 9.2197031e-39
-1528.8 -1982.5901 963.52197 9.2197031e-39
-2454.4299 1452.069 960.93402 9.2197031e-39
-2406.22 1041.804 977.36298 9.2197031e-39
-2415.98 1080.953 977.13 9.2197031e-39
-2418.29 1099.947 976.38898 9.2197031e-39
-2417.6399 1143.488 973.15399 9.2197031e-39
-2414.27 1164.751 970.78601 9.2197031e-39
-1623.58 -1985.55 988.23499 9.2197031e-39
-1592.98 -1983.51 980.17999 9.2197031e-39
-1685.25 -1978.8701 1003.71 9.2197031e-39
-2629.99 1454.291 1006.17 9.2197031e-39
-1819 -1992.23 1039.23 9.2197031e-39
-1786.52 -1988.9199 1030.6 9.2197031e-39
-2775.6699 1515.488 1039.52 9.2197031e-39
-2779.55 1450.3989 1045.1 9.2197031e-39
-2774.0701 1472.3049 1042.14 9.2197031e-39
-2811.6101 1525.3611 1048.11 9.2197031e-39
-1887 -1993.1799 1056.87 9.2197031e-39
-2799.6399 1379.129 1055.3199 9.2197031e-39
-1921.1899 -1998.3501 1066.08 9.2197031e-39
-1995.5 -2008.0701 1085.97 9.2197031e-39
-3596.3799 3297.3 1126.21 9.2197031e-39
-3690.9299 3264.0901 1152.99 9.2197031e-39
-5144.8301 3515.04 1511.1899 9.2197031e-39
-4699.6201 1061.499 1568.88 9.2197031e-39
-4705.6001 1091.484 1568.3199 9.2197031e-39
-4888.3198 1450.543 1590.27 9.2197031e-39
-5043.6401 1626.37 1618.04 9.2197031e-39
-5098.0298 1688.48 1627.73 9.2197031e-39
-5179.2202 1813.59 1639.91 9.2197031e-39
-5171.0498 1884.99 1632.77 9.2197031e-39
-5171.6499 1917.34 1630.64 9.2197031e-39
-5163.8901 1712.11 1643.09 9.2197031e-39
-5175.1699 1781.48 1641.12 9.2197031e-39
-5706.8198 3057.3799 1688.71 9.2197031e-39
-5699.2598 3091.8601 1684.33 9.2197031e-39
-5723.7002 2982.3799 1698.36 9.2197031e-39
-5738.4102 2948.28 1704.5601 9.2197031e-39
-5736.9902 2724.47 1719.96 9.2197031e-39
-5727.3198 2759.23 1715.01 9.2197031e-39
-5743.9702 2836.6699 1713.86 9.2197031e-39
-5742.4199 2871.8899 1710.98 9.2197031e-39
-5715.6401 2536.0898 1727.7 9.2197031e-39
-5724.23 2612.48 1724.55 9.2197031e-39
-5720.9702 2647.52 1721.24 9.2197031e-39
-5714.3501 2389.72 1737.6801 9.2197031e-39
-5712.29 2424.8398 1734.67 9.2197031e-39
-5722.1699 2501.05 1731.86 9.2197031e-39
-5705.7402 2202.3501 1748.65 9.2197031e-39
-5709.4902 2278.48 1744.26 9.2197031e-39
-5710.9302 2313.5698 1742.16 9.2197031e-39
-5670.1499 1946.54 1757.46 9.2197031e-39
-5697.0298 2056.1201 1756.7 9.2197031e-39
-5704.48 2090.8799 1756.17 9.2197031e-39
-5710.4902 2166.98 1752.37 9.2197031e-39
-5690.7002 1980.11 1760.41 9.2197031e-39
