# .PCD v0.7 - Point Cloud Data file format
VERSION 0.7
FIELDS x y z rgb
SIZE 4 4 4 4
TYPE F F F F
COUNT 1 1 1 1
WIDTH 313
HEIGHT 1
VIEWPOINT 0 0 0 1 0 0 0
POINTS 313
DATA ascii
-1342.73 628.57513 137.78799 9.2197031e-39
-1344.3101 642.6225 134 9.2197031e-39
176.89301 788.93201 138.731 9.2197031e-39
182.20349 788.26453 139.06201 9.2197031e-39
184.18219 795.98035 137.0632 9.2197031e-39
195.17551 796.5 137.24051 9.2197031e-39
457.83701 817.60699 139.16499 9.2197031e-39
462.82401 817.41949 139.358 9.2197031e-39
470.91101 819.63599 139 9.2197031e-39
455.94901 821.04297 138.19501 9.2197031e-39
2885.4099 1076.986 139.81599 9.2197031e-39
2880.1899 1098.255 134 9.2197031e-39
-1339.21 586.24451 149.166 9.2197031e-39
-1339.1899 600.5257 145.362 9.2197031e-39
-1340.03 614.66644 141.571 9.2197031e-39
-33.2024 731.18701 148.078 9.2197031e-39
11.0726 739.71802 147.078 9.2197031e-39
47.4608 746.87299 146.217 9.2197031e-39
179.70651 758.44104 146.9355 9.2197031e-39
182.884 759.86499 146.647 9.2197031e-39
194.14301 759.55902 147.052 9.2197031e-39
187.395 766.84332 144.91766 9.2197031e-39
193.271 763.62964 145.94267 9.2197031e-39
177.67999 778.59998 141.507 9.2197031e-39
188.03276 774.73151 142.8345 9.2197031e-39
192.92424 776.48297 142.50876 9.2197031e-39
463.68301 779.14099 149.58 9.2197031e-39
175.968 780.78101 140.87601 9.2197031e-39
184.00999 781.78796 140.839 9.2197031e-39
191.423 781.53003 141.121 9.2197031e-39
454.73001 782.69867 148.375 9.2197031e-39
466.33151 784.29651 148.28299 9.2197031e-39
474.55624 784.11652 148.56725 9.2197031e-39
455.46799 798.39099 144.216 9.2197031e-39
465.07202 792.87195 145.96201 9.2197031e-39
454.84561 802.87439 143.00359 9.2197031e-39
462.646 804.99274 142.66324 9.2197031e-39
473.19049 808.78345 141.95651 9.2197031e-39
466.60699 813.646 140.472 9.2197031e-39
473.181 812.38629 140.99666 9.2197031e-39
2887.4399 1055.376 145.632 9.2197031e-39
-1334.91 558.2663 156.743 9.2197031e-39
-1335.14 572.54388 152.933 9.2197031e-39
459.60901 776.53796 150.157 9.2197031e-39
465.69601 775.84302 150.517 9.2197031e-39
2903.8899 1013.062 157.377 9.2197031e-39
2891.27 1033.913 151.46001 9.2197031e-39
2926.5701 970.651 169.327 9.2197031e-39
2920.3101 992.27301 163.38699 9.2197031e-39
2923.6399 948.49701 175.145 9.2197031e-39
2918.1899 904.39697 186.737 9.2197031e-39
2917.52 926.28198 180.88699 9.2197031e-39
2920.9399 860.63904 198.47301 9.2197031e-39
2918.6699 882.50598 192.582 9.2197031e-39
2921.02 838.724 204.314 9.2197031e-39
-1345.97 -9.6680298 307.72501 9.2197031e-39
-1326.7 -53.322998 319.909 9.2197031e-39
-1334.4399 -39.429016 315.98499 9.2197031e-39
-1343.8199 -26.372986 312.237 9.2197031e-39
-1328.46 -72.364014 324.931 9.2197031e-39
-955.99902 -50.736023 329.871 9.2197031e-39
-1342.58 -117.07599 336.43701 9.2197031e-39
-1336.96 -95.348999 330.81 9.2197031e-39
-1033.8199 -86.929993 337.27701 9.2197031e-39
-933.771 -83.794983 339.31699 9.2197031e-39
-1338.4399 -152.45898 345.98199 9.2197031e-39
-1341.9 -135.49298 341.36301 9.2197031e-39
-1023.88 -114.09698 344.79999 9.2197031e-39
-862.54498 -112.34302 348.96899 9.2197031e-39
-938.40503 -103.68903 344.483 9.2197031e-39
-868.513 -100.547 345.65399 9.2197031e-39
-978.23901 -99.002991 342.091 9.2197031e-39
-1330.13 -185.90698 355.13101 9.2197031e-39
-1333.09 -168.41602 350.38599 9.2197031e-39
-919.28998 -122.91101 350.15302 9.2197031e-39
-1321.76 -239.58801 369.673 9.2197031e-39
-1319.4399 -218.29901 364.06799 9.2197031e-39
-1332.88 -207.09302 360.69601 9.2197031e-39
-900.19299 -194.32599 369.728 9.2197031e-39
-931.328 -184.19598 366.134 9.2197031e-39
-1003.88 -169.40399 360.10901 9.2197031e-39
-881.65802 -161.50098 361.51501 9.2197031e-39
-1337.09 -269.72101 377.259 9.2197031e-39
2385.95 89.528992 388.52802 9.2197031e-39
2500.26 -14.567993 419.54401 9.2197031e-39
2433.3601 -51.700012 427.51401 9.2197031e-39
2443.1399 -34.551025 423.22699 9.2197031e-39
2474.9399 -26.041992 421.87299 9.2197031e-39
2605.8101 -10.622009 421.526 9.2197031e-39
2427.8899 -92.025024 438.10001 9.2197031e-39
2428.8999 -71.075989 432.548 9.2197031e-39
-740.68903 -452.56995 443.108 9.2197031e-39
2422.51 -132.85101 448.82199 9.2197031e-39
2433.9099 -116.24902 444.72601 9.2197031e-39
-1323.67 -570.5 457.77499 9.2197031e-39
-753.99701 -515.31006 459.44101 9.2197031e-39
-751.01202 -488.02002 452.255 9.2197031e-39
-1323.88 -595.21997 464.353 9.2197031e-39
-751.69702 -536.58997 465.17499 9.2197031e-39
2484.6201 -183.60797 464.12799 9.2197031e-39
2935.55 -156.34497 469.82101 9.2197031e-39
-1333.65 -654.16003 479.77499 9.2197031e-39
-1323.02 -619.39001 470.81601 9.2197031e-39
-749.09399 -557.92004 470.93301 9.2197031e-39
-1305 -654.05005 480.569 9.2197031e-39
-1273.5699 -650.89001 480.63 9.2197031e-39
-756.90198 -593.35999 480.14999 9.2197031e-39
2441.6699 -395.53998 519.35303 9.2197031e-39
2459.6101 -381.41998 516.10797 9.2197031e-39
2501.6799 -380.46997 517.06299 9.2197031e-39
2621.74 -370.25201 517.78998 9.2197031e-39
2670.5 -370.00598 519.12598 9.2197031e-39
2417.3899 -430.23999 527.901 9.2197031e-39
2433.01 -414.93994 524.27399 9.2197031e-39
2587.3799 -402.41998 525.37299 9.2197031e-39
2606.3601 -387.35999 521.90601 9.2197031e-39
2445.47 -472.09998 539.85797 9.2197031e-39
-1516.52 -904.78003 541.28601 9.2197031e-39
2459.54 -506.18994 549.34399 9.2197031e-39
2897.5701 -457.59998 548.98499 9.2197031e-39
2941.24 -451.33997 548.57202 9.2197031e-39
2945.6599 -425.70996 541.87299 9.2197031e-39
1960.42 -593.65002 558.302 9.2197031e-39
1924.64 -587.40002 555.61102 9.2197031e-39
-1593.04 -1008.0699 566.604 9.2197031e-39
-984.17499 -922.79004 561.38 9.2197031e-39
1848.39 -643.87 568.46301 9.2197031e-39
1859.53 -628.82996 564.77698 9.2197031e-39
1879.85 -622.39001 563.64398 9.2197031e-39
1896.5601 -612.41003 561.466 9.2197031e-39
1917.59 -606.18994 560.41199 9.2197031e-39
2029.67 -602.12 562.54901 9.2197031e-39
1994.1899 -597.48999 560.29498 9.2197031e-39
-976.17401 -976.94995 576.039 9.2197031e-39
-924.62598 -971.01001 575.93701 9.2197031e-39
-988.79797 -961.30005 571.50598 9.2197031e-39
-946.92499 -969.32996 574.849 9.2197031e-39
-895.20898 -961.93005 574.36298 9.2197031e-39
-876.95203 -968.77002 576.70898 9.2197031e-39
-828.14001 -963 576.57599 9.2197031e-39
-739.74799 -960.81006 578.53302 9.2197031e-39
-802.11401 -956.81006 575.67499 9.2197031e-39
1807.1801 -681.56006 577.31799 9.2197031e-39
1823.5699 -671.64001 575.14899 9.2197031e-39
1835.6899 -657.45996 571.71899 9.2197031e-39
2096.5 -631.79004 572.37402 9.2197031e-39
2552.29 -590.79004 574.54797 9.2197031e-39
-729.59399 -979.72998 583.86298 9.2197031e-39
-582.68298 -974.93994 586.81 9.2197031e-39
-701.21802 -967.21997 581.34601 9.2197031e-39
-638.26801 -965.51001 582.70099 9.2197031e-39
-620.33398 -969.98999 584.40802 9.2197031e-39
-403.319 -960.43994 588.09998 9.2197031e-39
-513.10699 -952.80005 582.91101 9.2197031e-39
1791.0699 -718.59998 586.724 9.2197031e-39
1798.89 -699.73999 581.92297 9.2197031e-39
-1353.05 -1083.04 593.47302 9.2197031e-39
-1328.8199 -1088.8 595.703 9.2197031e-39
-1289.96 -1077.05 593.69 9.2197031e-39
-495.017 -997.51001 595.34198 9.2197031e-39
-360.758 -993.33997 598.08698 9.2197031e-39
-550.211 -989.71997 591.67902 9.2197031e-39
-508.918 -985.34998 591.70203 9.2197031e-39
-472.34601 -989.95996 593.97998 9.2197031e-39
-431.72501 -984 593.56097 9.2197031e-39
-393.34799 -981.76001 594.06598 9.2197031e-39
-375.67599 -983.98999 595.16699 9.2197031e-39
-338.69699 -983.40002 596.073 9.2197031e-39
-321.43301 -986.05005 597.27502 9.2197031e-39
-230.879 -983.06995 599.08398 9.2197031e-39
-448.72198 -979.46997 591.86603 9.2197031e-39
-298.12701 -971.09998 593.961 9.2197031e-39
-281.64301 -975.22998 595.53699 9.2197031e-39
-264.526 -977.38 596.59998 9.2197031e-39
-247.414 -979.37 597.62299 9.2197031e-39
-209.619 -970.81006 596.42798 9.2197031e-39
-157.46201 -970.20996 597.76599 9.2197031e-39
-124.149 -974.04004 599.745 9.2197031e-39
-89.314903 -970.68994 599.85303 9.2197031e-39
97.568604 -940.81995 597.26501 9.2197031e-39
82.987701 -929.37 593.797 9.2197031e-39
1774.09 -755.56995 596.08398 9.2197031e-39
1788.37 -743.16003 593.19 9.2197031e-39
2592.8301 -672.29004 597.42297 9.2197031e-39
2613.8401 -657.80005 594.16699 9.2197031e-39
-1744.23 -1187.03 609.93597 9.2197031e-39
-1611.6801 -1158.5699 606.16302 9.2197031e-39
-1631.45 -1144.4 601.82001 9.2197031e-39
-1416.03 -1120.29 601.586 9.2197031e-39
-195.856 -983.51001 600.20801 9.2197031e-39
-179.567 -987.69995 601.79199 9.2197031e-39
-144.69 -987.21997 602.66602 9.2197031e-39
-74.599403 -980.60999 602.91901 9.2197031e-39
-41.845798 -985.85999 605.25897 9.2197031e-39
-8.1428204 -985.79004 606.20898 9.2197031e-39
9.49928 -980.77002 605.37701 9.2197031e-39
25.454901 -985.14001 607 9.2197031e-39
58.796398 -984.85999 607.88397 9.2197031e-39
-108.169 -978.56995 601.41199 9.2197031e-39
-57.5322 -979.98999 603.24298 9.2197031e-39
-23.700399 -979.23999 604.01599 9.2197031e-39
43.102798 -978.84998 605.83301 9.2197031e-39
223.964 -973.97998 609.73199 9.2197031e-39
110.857 -964.64001 603.992 9.2197031e-39
496.68799 -936.64001 607.62097 9.2197031e-39
511.43301 -924.43005 604.79199 9.2197031e-39
1753.62 -789.51001 604.539 9.2197031e-39
1772.14 -781.63 602.97101 9.2197031e-39
2570.8999 -714.43994 608.02197 9.2197031e-39
2579.1101 -691.46997 602.14001 9.2197031e-39
-1708.62 -1186.92 610.93103 9.2197031e-39
-1600.67 -1181.8 612.66803 9.2197031e-39
-1486.4399 -1163.9 611.18103 9.2197031e-39
124.033 -993.17004 611.97198 9.2197031e-39
140.80499 -990.81006 611.82599 9.2197031e-39
157.16901 -992.16003 612.65601 9.2197031e-39
190.005 -993.48999 613.95203 9.2197031e-39
206.58099 -991.53003 613.90601 9.2197031e-39
173.86301 -989.52002 612.43201 9.2197031e-39
435.55399 -982.38 618.04797 9.2197031e-39
452.26199 -987.03003 619.76599 9.2197031e-39
468.60101 -985.75 619.89502 9.2197031e-39
239.95599 -979.45996 611.651 9.2197031e-39
256.22101 -979.97998 612.25598 9.2197031e-39
272.67999 -973.59998 611.02802 9.2197031e-39
288.892 -973.83997 611.55798 9.2197031e-39
305.08801 -975.87 612.56598 9.2197031e-39
321.32199 -975.83997 613.02301 9.2197031e-39
337.54001 -973.73999 612.92902 9.2197031e-39
353.72198 -971.5 612.79797 9.2197031e-39
418.992 -978.55005 616.55298 9.2197031e-39
598.95099 -971.55005 619.85797 9.2197031e-39
369.867 -969.12 612.62903 9.2197031e-39
386.07599 -969.51001 613.198 9.2197031e-39
402.08301 -964.93005 612.43903 9.2197031e-39
532.48401 -967.76001 616.93799 9.2197031e-39
581.34497 -964.35999 617.43799 9.2197031e-39
2560.03 -735.68994 613.37299 9.2197031e-39
-1593.45 -1209.29 620.19897 9.2197031e-39
-1557.75 -1206.47 620.47302 9.2197031e-39
485.44501 -990.10999 621.54102 9.2197031e-39
704.93402 -997.93994 629.93298 9.2197031e-39
737.57501 -990.04004 628.76703 9.2197031e-39
755.29199 -992 629.797 9.2197031e-39
551.31 -986.89001 622.57599 9.2197031e-39
684.854 -983.20996 625.43201 9.2197031e-39
787.55798 -982.31995 628.14697 9.2197031e-39
805.60901 -984.75 629.31403 9.2197031e-39
566.48401 -976.16003 620.15399 9.2197031e-39
769.591 -979.71997 626.93799 9.2197031e-39
821.16199 -977.69995 627.88202 9.2197031e-39
907.47302 -970.95996 628.565 9.2197031e-39
888.60101 -967.64001 627.138 9.2197031e-39
942.36798 -967.91003 628.755 9.2197031e-39
974.34399 -956.05005 626.51398 9.2197031e-39
993.48602 -958.52002 627.72302 9.2197031e-39
1028.48 -953.91003 627.5 9.2197031e-39
1067.26 -957.58997 629.59497 9.2197031e-39
1084.5 -953.80005 629.08099 9.2197031e-39
2412.74 -801.48999 626.66998 9.2197031e-39
2543.24 -782.05005 625.23901 9.2197031e-39
2563.3999 -767.14001 621.84698 9.2197031e-39
626.03601 -1035.78 637.74701 9.2197031e-39
660.95898 -1037.75 639.27502 9.2197031e-39
674.86102 -1019.52 634.81897 9.2197031e-39
721.99799 -997.35999 630.26898 9.2197031e-39
841.15399 -986.32996 630.75403 9.2197031e-39
859.41901 -988.26001 631.79401 9.2197031e-39
875.77899 -983.55005 631.00897 9.2197031e-39
926.758 -975.01001 630.20001 9.2197031e-39
963.41602 -976.17004 631.56201 9.2197031e-39
1015.17 -967.13 630.64001 9.2197031e-39
1051.48 -964.81006 631.06598 9.2197031e-39
1107.96 -964.05005 632.48499 9.2197031e-39
1146.6801 -964.39001 633.68701 9.2197031e-39
1123.3101 -955.47998 630.64203 9.2197031e-39
1162.84 -957.25 632.25201 9.2197031e-39
1180.61 -953.47998 631.75702 9.2197031e-39
1200.53 -953.89001 632.43799 9.2197031e-39
1241.9301 -956.68005 634.37201 9.2197031e-39
1261.64 -955.62 634.65399 9.2197031e-39
1280.9399 -953.48999 634.64301 9.2197031e-39
1341.47 -950.19995 635.50403 9.2197031e-39
1386.42 -954.18994 637.85999 9.2197031e-39
1409.08 -955.81995 638.94501 9.2197031e-39
1431.84 -957.19995 639.96698 9.2197031e-39
1217.9 -948.90002 631.60797 9.2197031e-39
1296.0601 -943.53003 632.42297 9.2197031e-39
1319.17 -947.82996 634.23401 9.2197031e-39
1359.96 -945.60999 634.81403 9.2197031e-39
2390.49 -842.88 637.05499 9.2197031e-39
2396.3301 -817.94995 630.58099 9.2197031e-39
2470.45 -816.51001 632.33002 9.2197031e-39
649.383 -1071.11 647.83099 9.2197031e-39
1655.6899 -944.56006 643.03101 9.2197031e-39
1844.1801 -922.35999 642.53198 9.2197031e-39
2618.0801 -866.72998 649.94897 9.2197031e-39
2545.1299 -843.06995 641.54901 9.2197031e-39
1479.75 -997.71997 652.13898 9.2197031e-39
1524.77 -1031.85 662.52399 9.2197031e-39
1576.9399 -1075.09 675.54199 9.2197031e-39
1676.11 -1074.74 678.29901 9.2197031e-39
1589.21 -1057.05 671.08899 9.2197031e-39
1696.8 -1140.4399 696.39697 9.2197031e-39
1697.12 -1178.5601 706.56097 9.2197031e-39
1785.6899 -1153.1801 702.34302 9.2197031e-39
1800.35 -1210.48 718.03003 9.2197031e-39
1912.78 -1246.99 730.987 9.2197031e-39
1976.5699 -1290.96 744.534 9.2197031e-39
2023.65 -1311.89 751.461 9.2197031e-39
2178.5901 -1383.5 774.98999 9.2197031e-39
2105.05 -1373.84 770.30402 9.2197031e-39
2140.46 -1377.39 772.26703 9.2197031e-39
