# .PCD v0.7 - Point Cloud Data file format
VERSION 0.7
FIELDS x y z rgb
SIZE 4 4 4 4
TYPE F F F F
COUNT 1 1 1 1
WIDTH 297
HEIGHT 1
VIEWPOINT 0 0 0 1 0 0 0
POINTS 297
DATA ascii
3002.6101 167.22699 136.22301 9.2197031e-39
426.51099 2002.6801 138.981 9.2197031e-39
399.88 2018.2 139.761 9.2197031e-39
406.005 2017.33 138.99451 9.2197031e-39
397.05951 2024.605 138.8075 9.2197031e-39
168.854 2184.3999 139.662 9.2197031e-39
174.90239 2185.5776 138.45999 9.2197031e-39
185.285 2184.2751 137.1225 9.2197031e-39
191.10799 2183.9399 136.28534 9.2197031e-39
-1788.42 3622.46 132.283 9.2197031e-39
3005.52 140.59698 141.567 9.2197031e-39
385.272 1988.7799 148.44867 9.2197031e-39
393.36801 1986.95 147.58299 9.2197031e-39
366.4715 1997.96 149.386 9.2197031e-39
373.96301 1991.28 149.67 9.2197031e-39
384.92102 1993.0739 147.56799 9.2197031e-39
368.07999 2002.8 148.082 9.2197031e-39
371.25751 2001.1799 147.93701 9.2197031e-39
386.50699 2005.35 144.64799 9.2197031e-39
394.06 2006.87 143.1375 9.2197031e-39
404.64798 2007.3334 141.38249 9.2197031e-39
385.86703 2013.6901 142.93234 9.2197031e-39
393.86548 2011.9299 142.06599 9.2197031e-39
155.61899 2157.9851 147.47949 9.2197031e-39
161.793 2157.9302 146.52699 9.2197031e-39
152.87019 2164.988 146.384 9.2197031e-39
164.06139 2167.6738 144.05081 9.2197031e-39
168.05475 2173.6353 142.12976 9.2197031e-39
173.813 2173.21 141.32324 9.2197031e-39
157.702 2186.6299 140.9175 9.2197031e-39
165.78999 2184.98 140.01401 9.2197031e-39
-1937.98 3693.46 140.18401 9.2197031e-39
-1999.01 3716.1101 144.785 9.2197031e-39
3006.8701 68.767029 156.995 9.2197031e-39
3011 90.848022 151.543 9.2197031e-39
373.54901 1988.79 150.278 9.2197031e-39
-2223.8799 3831.99 154.67799 9.2197031e-39
3011.96 17.96698 167.259 9.2197031e-39
-2732.1799 4151.29 164.55299 9.2197031e-39
3012.79 -8.5529785 172.90401 9.2197031e-39
-2686.1499 4048.1899 179.813 9.2197031e-39
-2647.0801 4047.8401 173.785 9.2197031e-39
3018.3501 -87.862976 189.302 9.2197031e-39
3011.1699 -55.473022 183.37199 9.2197031e-39
3012.45 -132.62201 199.968 9.2197031e-39
2648.2 145.72601 196.261 9.2197031e-39
2557.03 156.422 208.172 9.2197031e-39
2575.55 163.93701 203.64301 9.2197031e-39
2531.5701 135.35001 216.73599 9.2197031e-39
-2294.0601 2833.52 383.026 9.2197031e-39
-2281.46 2752.71 398.64999 9.2197031e-39
-2277.8601 2782.05 391.70001 9.2197031e-39
-2297.29 2803.7 390.021 9.2197031e-39
-2308.0601 2742.6899 404.987 9.2197031e-39
-2376.1499 2727.8999 418.84299 9.2197031e-39
-2376.25 2680.0901 429.26599 9.2197031e-39
-2374.51 2710.6399 422.34299 9.2197031e-39
-2434.6799 2675.26 439.44501 9.2197031e-39
-837.11401 1343.084 479.95401 9.2197031e-39
-842.31201 1369.124 475.09698 9.2197031e-39
-839.02899 1360.964 476.36099 9.2197031e-39
-853.185 1386.0691 473.10602 9.2197031e-39
-879.55298 1393.512 475.604 9.2197031e-39
-803.45099 1275.7051 489.366 9.2197031e-39
-814.06897 1298.811 485.99399 9.2197031e-39
-808.737 1291.8821 486.67001 9.2197031e-39
-815.87799 1317.271 482.25699 9.2197031e-39
-821.05298 1324.238 481.54901 9.2197031e-39
-832.052 1336.022 480.70099 9.2197031e-39
-767.33099 1208.23 498.41501 9.2197031e-39
-782.31598 1228.55 496.33099 9.2197031e-39
-776.55402 1221.801 496.901 9.2197031e-39
-789.021 1244.069 494 9.2197031e-39
-789.32898 1255.092 491.64801 9.2197031e-39
-799.51202 1267.652 490.504 9.2197031e-39
1834.5 -694.66003 506.32199 9.2197031e-39
-756.237 1149.989 509.362 9.2197031e-39
-747.15399 1146.0129 508.80899 9.2197031e-39
-753.18298 1175.116 503.414 9.2197031e-39
-757.05402 1183.6531 502.16 9.2197031e-39
-768.04401 1195.8831 501.21399 9.2197031e-39
-1167.83 1452.093 507.87701 9.2197031e-39
-1173.12 1460.776 506.81299 9.2197031e-39
-742.328 1091.2991 519.96698 9.2197031e-39
-735.539 1121.491 512.33398 9.2197031e-39
-739.11102 1130.6741 510.892 9.2197031e-39
-1169.3101 1430.943 512.71198 9.2197031e-39
-1239.17 1463.869 516.45502 9.2197031e-39
-732.22498 1050.478 527.27698 9.2197031e-39
-734.98297 1061.135 525.38702 9.2197031e-39
-741.88599 1078.629 522.65698 9.2197031e-39
-1180.16 1382.0181 525.05902 9.2197031e-39
-1276.87 1469.1531 521.19397 9.2197031e-39
-727.83099 989.84698 539.79102 9.2197031e-39
-716.06799 988.41101 538.26599 9.2197031e-39
-730.47198 1013.134 535.13397 9.2197031e-39
-730.88 1026.6689 532.25098 9.2197031e-39
-1179 1315.699 539.31598 9.2197031e-39
-1172.24 1331.28 534.86798 9.2197031e-39
-1181.52 1359.929 530.08002 9.2197031e-39
-1173.03 1352.5649 530.35797 9.2197031e-39
-1233.98 1367.276 536.67499 9.2197031e-39
-713.58002 964.36804 543.112 9.2197031e-39
-701.12 963.82397 541.28497 9.2197031e-39
-1126.96 1254.2571 544.565 9.2197031e-39
-1168.87 1286.953 543.99298 9.2197031e-39
-1169.2 1298.9089 541.44098 9.2197031e-39
-1172.41 1249.908 552.612 9.2197031e-39
-1174.71 1261.009 550.55402 9.2197031e-39
1998.59 -1078.86 564.33899 9.2197031e-39
-1345.0699 1336.384 560.75201 9.2197031e-39
2007.12 -1142.14 576.78198 9.2197031e-39
1963.62 -1146.55 584.53699 9.2197031e-39
1825.92 -1055.9301 586.315 9.2197031e-39
1748.1801 -1031.35 593.10498 9.2197031e-39
1698.49 -1014.5 597.20099 9.2197031e-39
1820.35 -1136.29 604.68201 9.2197031e-39
1684.45 -1034.11 603.66302 9.2197031e-39
1970.72 -1303.9399 617.69598 9.2197031e-39
1619.45 -1031.99 613.35199 9.2197031e-39
1644.1801 -1037.29 610.64301 9.2197031e-39
1577.52 -1029.78 619.41998 9.2197031e-39
1531.41 -969.75 613.55402 9.2197031e-39
1511.8199 -1021.87 627.96002 9.2197031e-39
1352.1 -915.34998 629.71698 9.2197031e-39
1410.3101 -913.31995 620.18201 9.2197031e-39
1387.65 -908.23999 622.61603 9.2197031e-39
1331.84 -916.41003 633.11102 9.2197031e-39
1519.52 -1099.77 643.71698 9.2197031e-39
1280.24 -936.72998 645.59399 9.2197031e-39
1299.02 -931.31995 641.48499 9.2197031e-39
-2066.3501 1472.064 643.87 9.2197031e-39
1231.3101 -966.55005 659.72998 9.2197031e-39
1247.37 -952.02002 654.05701 9.2197031e-39
-2136.0901 1469.2629 655.37402 9.2197031e-39
1196.62 -976.57996 667.33099 9.2197031e-39
-2196.47 1483.556 661.69202 9.2197031e-39
1140.3199 -982.19995 677.349 9.2197031e-39
1176.73 -978.5 670.85602 9.2197031e-39
-2256.99 1485.033 670.823 9.2197031e-39
-2332.75 1497.998 679.83398 9.2197031e-39
1085.48 -992.55005 688.16699 9.2197031e-39
1121.45 -987.57996 681.46802 9.2197031e-39
2326.23 -1917.6899 695.79199 9.2197031e-39
1029.13 -996.18994 697.76202 9.2197031e-39
1064.64 -989.94995 690.85602 9.2197031e-39
971.98401 -994.96997 706.422 9.2197031e-39
1008.58 -994.18005 700.53198 9.2197031e-39
771.76703 -917.72998 720.87701 9.2197031e-39
619.09998 -829.07996 725.422 9.2197031e-39
613.77502 -957.17004 754.14001 9.2197031e-39
445.54199 -849.54004 756.98602 9.2197031e-39
463.47601 -840.41003 752.19501 9.2197031e-39
359.20901 -842.81006 769.005 9.2197031e-39
393.08401 -845.02002 764.19397 9.2197031e-39
411.56 -846.94995 761.729 9.2197031e-39
340.76901 -839.58997 771.18298 9.2197031e-39
306.94699 -825.06995 773.30603 9.2197031e-39
288.68399 -815.67004 774.112 9.2197031e-39
-5326.2402 3201.6799 776.474 9.2197031e-39
844.19501 -1247.09 781.27301 9.2197031e-39
254.74699 -840.64001 784.84698 9.2197031e-39
-5329.7998 3167.28 784.51898 9.2197031e-39
1053.25 -1477.99 798.89001 9.2197031e-39
511.94299 -1060.3101 792.50299 9.2197031e-39
-3046.1699 1474.679 796.341 9.2197031e-39
-5327.6299 3102.5701 798.26703 9.2197031e-39
-3078.02 1446.952 807.35303 9.2197031e-39
-3156.98 1493.944 809.45502 9.2197031e-39
-5323.71 3067.02 805.39502 9.2197031e-39
-900.88898 -152.55701 815.54199 9.2197031e-39
-930.43903 -144.078 818.31201 9.2197031e-39
-5323.3101 3003.02 819.26703 9.2197031e-39
543.48297 -1221.77 822.72803 9.2197031e-39
-5323.6602 2968.3701 826.86499 9.2197031e-39
788.914 -1436.1599 831.07098 9.2197031e-39
587.39801 -1289.4 830.59198 9.2197031e-39
-3358.5601 1523.45 834.51599 9.2197031e-39
-5315.23 2903.53 839.66699 9.2197031e-39
949.25 -1627.45 847.67401 9.2197031e-39
-3356.97 1481.1699 843.47198 9.2197031e-39
-3447.4099 1532.688 846.38202 9.2197031e-39
-3466.9099 1573.173 840.61401 9.2197031e-39
-5316.9199 2869.24 847.396 9.2197031e-39
-1092.63 -235.61902 863.57501 9.2197031e-39
-5314.3198 2771.1799 868.33899 9.2197031e-39
-5314.23 2805.5601 860.84003 9.2197031e-39
629.83197 -1523.5 874.93298 9.2197031e-39
-968.37402 -428.31006 886.11902 9.2197031e-39
-5301.1001 2672.4399 887.771 9.2197031e-39
-5305.5698 2707.1299 880.91699 9.2197031e-39
1078.67 -1951.04 897.91199 9.2197031e-39
1101.89 -1937.3999 891.31403 9.2197031e-39
1023.18 -1906.7 896.92499 9.2197031e-39
-994.047 -439 892.45697 9.2197031e-39
-1020.54 -417.42004 891.89502 9.2197031e-39
-5308.8301 2576.1099 909.95099 9.2197031e-39
-5304.04 2609.8799 901.85101 9.2197031e-39
-11.6576 -1246.25 914.76703 9.2197031e-39
9.8343496 -1242.9399 910.68903 9.2197031e-39
-49.9034 -1238.4 919.03003 9.2197031e-39
-1248.88 -359.49597 914.95001 9.2197031e-39
881.52197 -1924.6101 922.94897 9.2197031e-39
-110.701 -1241.51 929.20502 9.2197031e-39
-71.159698 -1238.4301 922.35699 9.2197031e-39
-5271.3901 2476.76 925.73297 9.2197031e-39
-5293.8701 2512.26 921.51599 9.2197031e-39
784.04303 -1923.21 937.87097 9.2197031e-39
158.957 -1477.1201 938.383 9.2197031e-39
-170.703 -1235.84 937.341 9.2197031e-39
-130.92101 -1232.48 930.39697 9.2197031e-39
-5240.4702 2412.8101 934.82703 9.2197031e-39
813.60901 -1957.03 940.61499 9.2197031e-39
117.375 -1482.75 946.10303 9.2197031e-39
95.3396 -1474.03 947.64502 9.2197031e-39
-233.136 -1244.48 948.97498 9.2197031e-39
-193.058 -1241.86 942.14301 9.2197031e-39
-549.65601 -1019.89 949.51599 9.2197031e-39
-561.53699 -986 943.992 9.2197031e-39
-5233.1802 2378.77 941.099 9.2197031e-39
31.205999 -1476.6299 958.22998 9.2197031e-39
53.6185 -1478.9299 955.229 9.2197031e-39
-254.618 -1243.37 952.08899 9.2197031e-39
-523.86401 -1070.75 956.56 9.2197031e-39
-609.71198 -1017.84 958.44897 9.2197031e-39
-5254.54 2317.72 957.72699 9.2197031e-39
-298.45999 -1265.38 963.72803 9.2197031e-39
-511.19901 -1105.52 962.151 9.2197031e-39
-637.38599 -1038.5601 967.28302 9.2197031e-39
218.211 -1680.22 973.34497 9.2197031e-39
174.899 -1673.75 978.70203 9.2197031e-39
-473.979 -1207.86 978.62 9.2197031e-39
-484.854 -1160.89 970.091 9.2197031e-39
-681.49701 -1051.7 977.03302 9.2197031e-39
-1357.4 -570.81995 977.909 9.2197031e-39
-445.673 -1263.05 986.21503 9.2197031e-39
-706.94598 -1062.58 983.37701 9.2197031e-39
-5278.2002 2188.4199 989.573 9.2197031e-39
-430.379 -1295.75 990.94501 9.2197031e-39
-754.52802 -1083.05 995.26703 9.2197031e-39
-4728.6802 1776.42 993.44202 9.2197031e-39
-5340.0601 2223.51 991.59497 9.2197031e-39
-5272.6499 2126.05 1002.29 9.2197031e-39
-848.22601 -1167.66 1028.3199 9.2197031e-39
-1684.29 -532.09998 1020.54 9.2197031e-39
-1701.13 -519.43994 1020.41 9.2197031e-39
-1737.22 -502.77002 1022.42 9.2197031e-39
-1753.89 -489.79004 1022.2 9.2197031e-39
-1795.25 -479.21997 1026.35 9.2197031e-39
-1811.78 -465.89001 1026.03 9.2197031e-39
-1850.64 -451.52002 1028.98 9.2197031e-39
-1862.64 -432.70996 1026.75 9.2197031e-39
-4765.29 1654.25 1025.76 9.2197031e-39
-5342.6099 2091.8301 1020.66 9.2197031e-39
-5653.9399 2296.01 1024.84 9.2197031e-39
-913.41199 -1163.6 1037.62 9.2197031e-39
-870.49402 -1164.5 1031.11 9.2197031e-39
-5315.1899 2029.09 1030.04 9.2197031e-39
-833.354 -1250.37 1044.01 9.2197031e-39
-943.948 -1181.76 1046.34 9.2197031e-39
-4788.1699 1594.342 1042.37 9.2197031e-39
-5103.3301 1812.03 1044.21 9.2197031e-39
-5227.3198 1901.03 1044.2 9.2197031e-39
-5356.8301 1993.97 1044.1899 9.2197031e-39
-447.01901 -1582.0601 1055.88 9.2197031e-39
-995.07501 -1199.77 1058.25 9.2197031e-39
-1615.72 -752.26001 1057.76 9.2197031e-39
-4803.3701 1561.156 1051.97 9.2197031e-39
-5222.46 1839.14 1056.91 9.2197031e-39
-1592.63 -790.76001 1062.53 9.2197031e-39
-1648 -760.76001 1064.65 9.2197031e-39
-5029.23 1663.0601 1065.0699 9.2197031e-39
-5131.3901 1715.83 1069.53 9.2197031e-39
-1595.52 -836.14001 1072.87 9.2197031e-39
-4855.2998 1405.319 1094.01 9.2197031e-39
-4956.7598 1451.692 1099.77 9.2197031e-39
-1077.13 -1344.9301 1102.67 9.2197031e-39
-1759.1801 -849.59998 1101.36 9.2197031e-39
-5652.8398 1920.8199 1106.35 9.2197031e-39
-1587.67 -1025.8 1112.9301 9.2197031e-39
-1891.45 -881.03003 1128.86 9.2197031e-39
-5149.4399 1461.281 1127.77 9.2197031e-39
-443.271 -1934.9099 1132.11 9.2197031e-39
-499.89301 -1976.3201 1149.97 9.2197031e-39
-1595.01 -1171.0601 1145.7 9.2197031e-39
-1914.22 -1029.9399 1164.84 9.2197031e-39
-2100.6399 -1211.39 1233.46 9.2197031e-39
-1381.88 -1971.4099 1286.66 9.2197031e-39
-1415.84 -1979.9099 1293.8199 9.2197031e-39
-1506.04 -1986.26 1309.29 9.2197031e-39
-1474.74 -1985.5701 1304.25 9.2197031e-39
-1562.3101 -1983.6399 1317.51 9.2197031e-39
-1593.84 -1983.7 1322.45 9.2197031e-39
-1685.14 -1985.4399 1337.08 9.2197031e-39
-1652.53 -1984.3 1331.74 9.2197031e-39
-1980.14 -2009.51 1388.4 9.2197031e-39
-2036.61 -1997.3401 1394.5699 9.2197031e-39
