# .PCD v0.7 - Point Cloud Data file format
VERSION 0.7
FIELDS x y z rgb
SIZE 4 4 4 4
TYPE F F F F
COUNT 1 1 1 1
WIDTH 316
HEIGHT 1
VIEWPOINT 0 0 0 1 0 0 0
POINTS 316
DATA ascii
2983.1599 1178.1169 134 9.2197031e-39
458.34201 1914.9399 139.254 9.2197031e-39
460.85901 1914.38 139.203 9.2197031e-39
473.048 1912.175 138.83151 9.2197031e-39
185.186 1996.325 139.39401 9.2197031e-39
197.35799 1995.3667 138.70166 9.2197031e-39
202.14101 1997.71 137.733 9.2197031e-39
216.39626 1997.6349 136.65399 9.2197031e-39
202.355 2003.63 136.196 9.2197031e-39
-2319.45 2768.5801 134 9.2197031e-39
3007.5 1121.504 146.657 9.2197031e-39
3005.03 1146.9861 140.306 9.2197031e-39
448.05667 1877.4434 149.668 9.2197031e-39
455.18402 1878.11 148.94949 9.2197031e-39
449.733 1881.64 148.4635 9.2197031e-39
457.427 1882.792 147.5746 9.2197031e-39
462.383 1882.36 147.30499 9.2197031e-39
448.16101 1896.6799 144.72351 9.2197031e-39
453.28772 1897.1174 144.21651 9.2197031e-39
472.70435 1898.8833 142.26866 9.2197031e-39
415.08899 1903.23 145.588 9.2197031e-39
447.57266 1905.4332 142.52232 9.2197031e-39
454.86569 1903.29 142.51033 9.2197031e-39
468.604 1905.3101 140.9355 9.2197031e-39
470.396 1904.41 141.028 9.2197031e-39
480.21899 1903.92 140.397 9.2197031e-39
176.849 1965.4551 147.957 9.2197031e-39
185.6575 1968.3899 146.52701 9.2197031e-39
191.258 1966.03 146.7 9.2197031e-39
202.283 1965.3 146.039 9.2197031e-39
183.38701 1973.11 145.48933 9.2197031e-39
191.0105 1974.11 144.6465 9.2197031e-39
200.04533 1978.0367 142.94267 9.2197031e-39
195.5574 1986.2621 141.17801 9.2197031e-39
202.23735 1982.14 141.722 9.2197031e-39
176.32001 1994.28 140.60001 9.2197031e-39
188.035 1991.35 140.45 9.2197031e-39
-2328.6299 2722.5801 146.513 9.2197031e-39
-2312.6299 2742.24 140.23399 9.2197031e-39
3006.9199 1071.85 159.44501 9.2197031e-39
3004 1097.7939 153.011 9.2197031e-39
449.229 1871.39 151.132 9.2197031e-39
-2334.0601 2675.72 158.95799 9.2197031e-39
-2355.1001 2705.5901 152.91 9.2197031e-39
3006.74 1046.782 165.89301 9.2197031e-39
-2339.8401 2653.1499 165.19299 9.2197031e-39
3006.5701 996.133 178.905 9.2197031e-39
3008.1899 1020.986 172.40199 9.2197031e-39
3009.3799 969.48901 185.52699 9.2197031e-39
3007.6599 918.43201 198.763 9.2197031e-39
3007.25 944.526 192.09801 9.2197031e-39
3008.74 891.88696 205.493 9.2197031e-39
3015.0801 862.95703 212.42999 9.2197031e-39
-1774.29 1818.9399 335.76199 9.2197031e-39
-1768.98 1837.3199 330.63501 9.2197031e-39
-1776.47 1782.5601 345.26501 9.2197031e-39
-1777.45 1800.61 340.70901 9.2197031e-39
-1775.52 1728.08 359.17499 9.2197031e-39
-1781.9399 1745.62 355.16599 9.2197031e-39
-1778.3 1764.22 350.112 9.2197031e-39
-1781.78 1709.03 364.54599 9.2197031e-39
-834.66498 1366.286 379.603 9.2197031e-39
-828.84399 1382.116 375.09201 9.2197031e-39
-1825.24 1666.09 378.91101 9.2197031e-39
-1800.67 1688.15 371.358 9.2197031e-39
-812.276 1326.019 388.21399 9.2197031e-39
-818.224 1335.901 386.13599 9.2197031e-39
-831.00403 1342.104 385.52802 9.2197031e-39
-835.94098 1352.6 383.21399 9.2197031e-39
-1166.6 1443.266 385.39899 9.2197031e-39
-1161.26 1459.641 380.784 9.2197031e-39
-1843.67 1644.47 385.879 9.2197031e-39
-797.66602 1280.8721 398.67599 9.2197031e-39
-802.33301 1291.645 396.271 9.2197031e-39
-808.58899 1301.45 394.23599 9.2197031e-39
-814.75702 1311.306 392.181 9.2197031e-39
-1173.62 1426.084 390.349 9.2197031e-39
-1861.86 1622.51 392.91599 9.2197031e-39
-784.495 1233.725 409.763 9.2197031e-39
-783.85797 1248.171 406.00699 9.2197031e-39
-791.33002 1257.304 404.23801 9.2197031e-39
-797.89301 1267.022 402.24899 9.2197031e-39
-1893.54 1597.9089 401.668 9.2197031e-39
-735.776 1181.575 419.397 9.2197031e-39
-770.08899 1200.5959 417.15701 9.2197031e-39
-769.883 1215.115 413.414 9.2197031e-39
-776.82202 1224.661 411.49899 9.2197031e-39
-739.70099 1148.996 428.061 9.2197031e-39
-738.62598 1164.749 423.935 9.2197031e-39
-767.72302 1187.708 420.28201 9.2197031e-39
-757.28302 1180.527 421.32199 9.2197031e-39
-736.38501 1105.5291 438.961 9.2197031e-39
-744.30402 1114.813 437.18799 9.2197031e-39
-747.51398 1127.76 434.112 9.2197031e-39
-1404.45 1325.679 433.88699 9.2197031e-39
-733.77802 1075.8931 446.367 9.2197031e-39
-735.92798 1090.1169 442.88199 9.2197031e-39
-724.09003 1034.9561 456.12799 9.2197031e-39
-728.95697 1047.343 453.323 9.2197031e-39
-732.19702 1061.002 450.06699 9.2197031e-39
-1300.48 1196.793 458.96301 9.2197031e-39
-705.34399 983.492 467.89301 9.2197031e-39
-711.50299 995.19299 465.36401 9.2197031e-39
-724.16101 1018.017 460.48099 9.2197031e-39
-713.93701 1010.206 461.698 9.2197031e-39
-1264.6 1179.3401 460.67999 9.2197031e-39
-1294.0699 1182.375 462.16901 9.2197031e-39
-1368.55 1200.6121 463.22198 9.2197031e-39
-1329.1 1200.923 460.10599 9.2197031e-39
-698.198 954.71497 474.729 9.2197031e-39
-709.57001 961.67798 473.81699 9.2197031e-39
-1484.97 1185.8301 475.978 9.2197031e-39
-1432.48 1190.1689 470.823 9.2197031e-39
2589.0901 -85.072998 488.53799 9.2197031e-39
-1603.4 1174.4099 488.026 9.2197031e-39
-1543.15 1180.0291 481.94501 9.2197031e-39
2573.8101 -106.44702 495.19901 9.2197031e-39
-1722.85 1166.7881 499.177 9.2197031e-39
-1659.34 1171.589 493.056 9.2197031e-39
2546.1799 -152.30298 509.09601 9.2197031e-39
2568.4199 -137.26001 503.52301 9.2197031e-39
-1787.53 1162.6541 505.21701 9.2197031e-39
-2010.05 1214.693 508.991 9.2197031e-39
-2123.46 1224.707 515.15198 9.2197031e-39
-2053.96 1223.235 510.17899 9.2197031e-39
-2268.6899 1229.3931 525.12799 9.2197031e-39
-2195.99 1226.463 520.284 9.2197031e-39
2600.53 -280.401 537.78802 9.2197031e-39
2638.04 -278.85101 534.50299 9.2197031e-39
-2114.3899 1157.6331 531.66803 9.2197031e-39
-2451.8799 1228.848 539.37 9.2197031e-39
-2362.55 1227.7151 532.784 9.2197031e-39
2585.47 -304.06799 545.02197 9.2197031e-39
-2548.1299 1229.7151 546.55701 9.2197031e-39
2566.7 -324.08502 551.60498 9.2197031e-39
-916.03198 718.75867 552.05701 9.2197031e-39
-2688.8401 1221.189 559.57703 9.2197031e-39
2612.75 -412.07996 570.64301 9.2197031e-39
2661.47 -505.32996 590.82501 9.2197031e-39
2710.04 -601 611.64203 9.2197031e-39
2685.98 -664.39001 629.76099 9.2197031e-39
2625.4299 -641.30005 628.49799 9.2197031e-39
2696.55 -630.87 620.34497 9.2197031e-39
-3368.9299 1153.2009 629.38 9.2197031e-39
-3370.9399 1186.03 621.10901 9.2197031e-39
2569.95 -668.25 639.68597 9.2197031e-39
2587.3999 -642.91003 631.83899 9.2197031e-39
2207.4399 -531.58997 632.51703 9.2197031e-39
2098.1101 -517.43005 637.29999 9.2197031e-39
2125.3101 -510.03003 633.30701 9.2197031e-39
2161.8301 -515.08997 631.79401 9.2197031e-39
2055.1599 -501.87 636.61298 9.2197031e-39
-3382.0701 1116.783 639.73798 9.2197031e-39
2543.99 -683.59998 645.62299 9.2197031e-39
1979.03 -528.65002 649.34497 9.2197031e-39
2009.38 -527.33997 646.67297 9.2197031e-39
2034.27 -517.56006 642.24701 9.2197031e-39
-3362.0601 1087.897 645.612 9.2197031e-39
2531.6699 -715.55005 654.771 9.2197031e-39
2355.1201 -681.17004 659.53802 9.2197031e-39
1958.91 -545.37 655.185 9.2197031e-39
2508.4299 -734.38 661.39203 9.2197031e-39
1924.87 -589.20996 669.05798 9.2197031e-39
1939.66 -563.58997 661.34399 9.2197031e-39
1902.58 -602.98999 674.31 9.2197031e-39
1899.3 -648.69995 686.29401 9.2197031e-39
2587.79 -883.41003 693.534 9.2197031e-39
1899.78 -702.17004 699.98102 9.2197031e-39
-1332.88 272.177 698.76202 9.2197031e-39
1921.89 -795.08997 722.12701 9.2197031e-39
1749.0601 -885.07996 758.52802 9.2197031e-39
-1346.6801 64.039001 753.24402 9.2197031e-39
-1465.9399 103.83698 752.21002 9.2197031e-39
2055.51 -1090.03 787.53802 9.2197031e-39
1629.6899 -960.43005 787.05499 9.2197031e-39
1687.5 -951.51001 780.31598 9.2197031e-39
-951.43103 -159.38599 780.15997 9.2197031e-39
-5004.8501 1029.741 786.99902 9.2197031e-39
1538.25 -960.02002 793.98901 9.2197031e-39
1442.45 -943.27002 797.06598 9.2197031e-39
1488.63 -986.25 804.54102 9.2197031e-39
1397.21 -979.92004 809.953 9.2197031e-39
1424.86 -974.97998 806.55701 9.2197031e-39
1332.13 -960.37 809.94598 9.2197031e-39
1362.13 -963.38 808.41101 9.2197031e-39
1801.47 -1126.66 816.49402 9.2197031e-39
1535.3 -1027.77 811.60498 9.2197031e-39
1281.41 -981.39001 819.24597 9.2197031e-39
1308.66 -976.55005 815.90601 9.2197031e-39
-1112.47 -241.77502 813.70203 9.2197031e-39
-1548.5601 -126.55402 817.70099 9.2197031e-39
1167.1801 -980.52002 827.81598 9.2197031e-39
1195.4399 -980.42004 825.61603 9.2197031e-39
1223.75 -980.06995 823.34601 9.2197031e-39
1252.6899 -981.32996 821.44098 9.2197031e-39
1138.46 -978.47998 829.50299 9.2197031e-39
-1520.76 -171.39502 827.06897 9.2197031e-39
-5212.9399 944.026 825.01703 9.2197031e-39
3083.25 -1574.5901 832.78601 9.2197031e-39
1055.4 -981.21997 836.59998 9.2197031e-39
1083.6899 -983.06995 834.89801 9.2197031e-39
1112.3101 -985.60999 833.34698 9.2197031e-39
998.84601 -975.81006 839.56403 9.2197031e-39
-5202.5698 896.82996 836.33197 9.2197031e-39
1029.4 -988.59998 840.495 9.2197031e-39
481.42401 -844.29004 845.64001 9.2197031e-39
430.66 -839.55005 848.33197 9.2197031e-39
455.85699 -838.15002 846.03302 9.2197031e-39
-5192.75 849.51898 847.71899 9.2197031e-39
329.64999 -842.02002 856.74298 9.2197031e-39
354.92999 -842.44995 854.90698 9.2197031e-39
380.19501 -841.69995 852.76801 9.2197031e-39
405.46201 -841.69995 850.823 9.2197031e-39
-957.35901 -456.27002 856.81097 9.2197031e-39
537.698 -925.57996 862.172 9.2197031e-39
304.29001 -848.16003 860.27002 9.2197031e-39
1004.38 -1129.29 878.53003 9.2197031e-39
513.38 -954.75 871.53198 9.2197031e-39
572.06897 -1031.61 886.74103 9.2197031e-39
-1030.26 -538.21997 883.45599 9.2197031e-39
-1354.73 -465.70996 889.82397 9.2197031e-39
-1828.28 -311.78699 886.77399 9.2197031e-39
802.93201 -1119.08 891.41699 9.2197031e-39
-1686.89 -405.55005 899.95502 9.2197031e-39
-1647.6801 -402.16998 896.06799 9.2197031e-39
-1640.12 -436.56006 904.31299 9.2197031e-39
-1634.53 -474.04004 913.50098 9.2197031e-39
-1843.96 -412.03003 913.71002 9.2197031e-39
-1878.25 -406.56006 914.94598 9.2197031e-39
-1466.99 -578.22998 927.34601 9.2197031e-39
-1632.03 -516.18005 924.125 9.2197031e-39
-1626.54 -555.41003 933.77197 9.2197031e-39
-1624.02 -599.38 944.86298 9.2197031e-39
-1622.03 -645.06995 956.435 9.2197031e-39
2426.04 -1907.52 968.82599 9.2197031e-39
2463.78 -1896.3401 963.05103 9.2197031e-39
814.95801 -1403.3199 963.44202 9.2197031e-39
-578.841 -986.43005 963.742 9.2197031e-39
-549.302 -985.32996 961.185 9.2197031e-39
-1622.24 -694.82996 969.22302 9.2197031e-39
2298.3701 -1910.9299 979.53003 9.2197031e-39
2340.05 -1908.77 975.76501 9.2197031e-39
2378.6299 -1900.1101 970.57202 9.2197031e-39
270.20999 -1267.4301 970.5 9.2197031e-39
-533.85797 -1032.1899 972.02399 9.2197031e-39
-650.91199 -1026.33 979.53101 9.2197031e-39
-615.24298 -1008.42 972.18701 9.2197031e-39
-1594.48 -707.07996 970.22803 9.2197031e-39
2214.45 -1912.26 986.33197 9.2197031e-39
-21.466299 -1254.58 989.65503 9.2197031e-39
8.4775 -1249.38 986.01599 9.2197031e-39
-515.81799 -1072.52 980.98499 9.2197031e-39
-717.40002 -1043.67 989.09998 9.2197031e-39
-685.43201 -1039.29 985.513 9.2197031e-39
-50.844799 -1253.75 991.70502 9.2197031e-39
-137.83099 -1241.16 995.16901 9.2197031e-39
-79.003098 -1243.09 991.13599 9.2197031e-39
-196.597 -1237.25 998.69098 9.2197031e-39
-166.757 -1236.47 996.19202 9.2197031e-39
-107.939 -1238.9 992.28802 9.2197031e-39
-501.668 -1129.5699 994.53699 9.2197031e-39
-750.51703 -1050.47 993.39398 9.2197031e-39
-287.21899 -1241.83 1006.84 9.2197031e-39
-257.86899 -1245.64 1005.56 9.2197031e-39
-227.16901 -1241.59 1002.16 9.2197031e-39
-481.439 -1166.99 1002.58 9.2197031e-39
-826.32098 -1086.53 1008.48 9.2197031e-39
-787.53699 -1066.9 1000.46 9.2197031e-39
981.47101 -1644.8899 1012.62 9.2197031e-39
-464.13901 -1218.37 1014.44 9.2197031e-39
-868.01801 -1112.03 1018.24 9.2197031e-39
-1593.75 -863.93994 1010.43 9.2197031e-39
-445.983 -1269.71 1026.22 9.2197031e-39
-906.31598 -1127.1801 1025.0699 9.2197031e-39
-1598.55 -926.59998 1026.88 9.2197031e-39
1071.47 -1763.52 1036.14 9.2197031e-39
1106.83 -1767.3101 1034.39 9.2197031e-39
1034.6 -1750.8101 1035.72 9.2197031e-39
79.513199 -1472.4199 1037.79 9.2197031e-39
110.509 -1475.05 1036.08 9.2197031e-39
48.537201 -1469.53 1039.4301 9.2197031e-39
142.181 -1465.8301 1031.28 9.2197031e-39
18.300501 -1458.6699 1038.97 9.2197031e-39
-428.50101 -1327.59 1039.73 9.2197031e-39
-947.56598 -1148.16 1033.63 9.2197031e-39
-999.83099 -1193.59 1049.3199 9.2197031e-39
-1593.16 -1034.1 1054.0601 9.2197031e-39
230.487 -1622.29 1064.64 9.2197031e-39
-1592.59 -1093.46 1069.25 9.2197031e-39
164.181 -1654.5 1078.01 9.2197031e-39
994.552 -1919.02 1081.97 9.2197031e-39
-1582.96 -1139.88 1080.42 9.2197031e-39
855.94299 -1945.01 1099.3101 9.2197031e-39
962.74701 -1943 1090.58 9.2197031e-39
749.961 -1950.0601 1108.77 9.2197031e-39
820.46399 -1945.71 1102.22 9.2197031e-39
783.789 -1935.49 1102.4301 9.2197031e-39
677.04498 -1926.1499 1108.25 9.2197031e-39
714.78003 -1952.76 1112.17 9.2197031e-39
-465.06699 -1632.49 1120.8 9.2197031e-39
-1137.16 -1432.55 1121.22 9.2197031e-39
-1194.99 -1480.3 1137.9301 9.2197031e-39
185.834 -1938.8701 1149.3199 9.2197031e-39
-454.142 -1912.78 1191.89 9.2197031e-39
-502.44199 -1967.6399 1209.6899 9.2197031e-39
-1498.48 -1970.48 1287.09 9.2197031e-39
-1449.89 -1958.3999 1280.25 9.2197031e-39
-1547.03 -1981.1499 1293.5699 9.2197031e-39
-1633.08 -1976.6899 1299.05 9.2197031e-39
-1584.49 -1967.8401 1293.04 9.2197031e-39
-1723.62 -1978.22 1306.41 9.2197031e-39
-1676.28 -1973.8101 1301.64 9.2197031e-39
-1906.3101 -1974.78 1319.59 9.2197031e-39
-1858.16 -1972.3401 1315.26 9.2197031e-39
-1961.49 -1988.4199 1327.34 9.2197031e-39
-2007.72 -1985.6001 1330.1801 9.2197031e-39
