# .PCD v0.7 - Point Cloud Data file format
VERSION 0.7
FIELDS x y z rgb
SIZE 4 4 4 4
TYPE F F F F
COUNT 1 1 1 1
WIDTH 355
HEIGHT 1
VIEWPOINT 0 0 0 1 0 0 0
POINTS 355
DATA ascii
1134.42 -3284.74 -289.19299 1.8403113e-38
1134.08 -3177.71 -286.38699 1.8403113e-38
1142.05 -3011.1399 -285.103 1.8403113e-38
1155.15 -2964.6799 -288.694 1.8403113e-38
1161.35 -2898.3301 -289.285 1.8403113e-38
1163.52 -2822.6799 -288.172 1.8403113e-38
1167.92 -2757.5701 -288.13901 1.8403113e-38
1172.92 -2697.29 -288.444 1.8403113e-38
1175.05 -2631.53 -287.56699 1.8403113e-38
1178.5 -2572.47 -287.34 1.8403113e-38
1184.47 -2522.8401 -288.263 1.8403113e-38
1184.47 -2459.4399 -286.67001 1.8403113e-38
1188.12 -2408.21 -286.71399 1.8403113e-38
1191.02 -2357.1201 -286.483 1.8403113e-38
1202.4301 -2329.04 -289.92499 1.8403113e-38
1195.64 -2258.0901 -285.67801 1.8403113e-38
1198.58 -2212.8799 -285.61301 1.8403113e-38
1198.49 -2162.3799 -284.31201 1.8403113e-38
1202.46 -2122.8501 -284.763 1.8403113e-38
1202.58 -2076.25 -283.63901 1.8403113e-38
1212.42 -2052.1299 -286.608 1.8403113e-38
1213.04 -2009.33 -285.76001 1.8403113e-38
1218.21 -1977.3 -286.832 1.8403113e-38
1217.66 -1934.76 -285.56601 1.8403113e-38
1218.72 -1896.77 -284.99701 1.8403113e-38
1221.9399 -1864.15 -285.35001 1.8403113e-38
1225.16 -1832.49 -285.72601 1.8403113e-38
1228.87 -1802.64 -286.32501 1.8403113e-38
1229.3199 -1767.71 -285.612 1.8403113e-38
1228.3101 -1731.21 -284.32999 1.8403113e-38
1233.13 -1705.91 -285.444 1.8403113e-38
1230.67 -1668.83 -283.62 1.8403113e-38
1236.21 -1646.22 -285.06601 1.8403113e-38
1241.96 -1624.47 -286.61099 1.8403113e-38
1244.86 -1598.59 -287.013 1.8403113e-38
1242.7 -1565.35 -285.39499 1.8403113e-38
1249.6 -1547.05 -287.44299 1.8403113e-38
1239.12 -1502.64 -282.522 1.8403113e-38
1247.53 -1487.74 -285.203 1.8403113e-38
1250.83 -1465.54 -285.84399 1.8403113e-38
1251.61 -1440.2 -285.49301 1.8403113e-38
1248.11 -1409.4 -283.45001 1.8403113e-38
1253.3 -1391.41 -284.88199 1.8403113e-38
1250.78 -1363.23 -283.259 1.8403113e-38
1252.53 -1341.45 -283.349 1.8403113e-38
1255.1801 -1321.29 -283.80499 1.8403113e-38
1261.14 -1305.79 -285.58301 1.8403113e-38
1253.09 -1272.74 -281.83099 1.8403113e-38
1258.5601 -1257.36 -283.42999 1.8403113e-38
1257.71 -1234.46 -282.547 1.8403113e-38
1257.1801 -1212.42 -281.80099 1.8403113e-38
1256.99 -1191.23 -281.20099 1.8403113e-38
1264.75 -1179.67 -283.73099 1.8403113e-38
1268.5699 -1163.7 -284.71701 1.8403113e-38
1273.49 -1149.1899 -286.14001 1.8403113e-38
1280.86 -1137.54 -288.52301 1.8403113e-38
1273.67 -1110.23 -285.22699 1.8403113e-38
1282 -1100.03 -287.99799 1.8403113e-38
1271.54 -1070.23 -283.452 1.8403113e-38
1272.12 -1052.47 -283.21799 1.8403113e-38
1280.65 -1042.99 -286.07501 1.8403113e-38
1281.5601 -1025.97 -285.978 1.8403113e-38
1281.5699 -1008.35 -285.54199 1.8403113e-38
1279.99 -989.47198 -284.49301 1.8403113e-38
1278.87 -971.36401 -283.633 1.8403113e-38
1287.4301 -962.48401 -286.51999 1.8403113e-38
1280.97 -939.96301 -283.60699 1.8403113e-38
1282.8199 -925.30499 -283.914 1.8403113e-38
1278.73 -905.62799 -281.935 1.8403113e-38
1291.88 -901.10602 -286.595 1.8403113e-38
1279.35 -874.763 -281.38699 1.8403113e-38
1284.9399 -864.01398 -283.146 1.8403113e-38
1279.28 -844.15802 -280.591 1.8403113e-38
1285.34 -834.03802 -282.54001 1.8403113e-38
1284.54 -818.55499 -281.85901 1.8403113e-38
1284.3101 -803.73499 -281.40701 1.8403113e-38
1286.22 -790.71198 -281.771 1.8403113e-38
1284.14 -774.86902 -280.621 1.8403113e-38
1285.67 -747.92401 -280.5 1.8403113e-38
1289.35 -736.711 -281.55499 1.8403113e-38
1286.63 -721.164 -280.17801 1.8403113e-38
1291.01 -697.229 -281.16599 1.8403113e-38
1289.42 -682.95099 -280.23099 1.8403113e-38
1293.47 -646.57501 -280.79001 1.8403113e-38
1316.23 -302.5 -280.427 1.8403113e-38
1315.87 -291.98499 -280.03201 1.8403113e-38
1345.16 128.707 -280.11801 1.8403113e-38
1353.6 191.87 -281.60001 1.8403113e-38
1359.3199 203.46201 -283.384 1.8403113e-38
1351.0699 212.24001 -280.17099 1.8403113e-38
1361.09 235.55099 -283.224 1.8403113e-38
1361.51 257 -282.836 1.8403113e-38
1360.2 267.39899 -282.10199 1.8403113e-38
1359.72 278.04099 -281.66199 1.8403113e-38
1363.71 289.96899 -282.81 1.8403113e-38
1367.58 301.992 -283.914 1.8403113e-38
1367.6899 335.15201 -283.121 1.8403113e-38
1363.6801 356.155 -281.14001 1.8403113e-38
1366.46 379.686 -281.55801 1.8403113e-38
1373.1801 370.71701 -284.22299 1.8403113e-38
1365.01 390.539 -280.76099 1.8403113e-38
1367.02 402.74899 -281.18399 1.8403113e-38
1375.98 429.49399 -283.76599 1.8403113e-38
1371.26 451.125 -281.508 1.8403113e-38
1372.6801 463.629 -281.71301 1.8403113e-38
1373.99 476.194 -281.871 1.8403113e-38
1375.17 488.81799 -281.98401 1.8403113e-38
1376.96 539.021 -281.37399 1.8403113e-38
1386.54 531.21997 -285.05099 1.8403113e-38
1377.52 551.90302 -281.25699 1.8403113e-38
1384.73 568.37799 -283.46201 1.8403113e-38
1379.96 578.71997 -281.47 1.8403113e-38
1378.46 590.849 -280.621 1.8403113e-38
1377.6801 603.46002 -280.021 1.8403113e-38
1091.64 -3231.3799 -272.32401 1.8403113e-38
1108.4301 -2987.8999 -272.31299 1.8403113e-38
1283.4301 -760.25 -279.99701 1.8403113e-38
1286.11 -707.32397 -279.64099 1.8403113e-38
1289.28 -669.77899 -279.85101 1.8403113e-38
1287.39 -655.65601 -278.81 1.8403113e-38
1289.6801 -631.57703 -279.039 1.8403113e-38
1287.37 -617.659 -277.849 1.8403113e-38
1285.73 -604.30701 -276.91901 1.8403113e-38
1290.5699 -594.75201 -278.439 1.8403113e-38
1295.34 -585.15302 -279.92999 1.8403113e-38
1291.67 -571.01703 -278.242 1.8403113e-38
1288.6899 -557.43597 -276.81799 1.8403113e-38
1293.15 -547.85901 -278.198 1.8403113e-38
1295.84 -537.39001 -278.91199 1.8403113e-38
1290.78 -523.151 -276.71799 1.8403113e-38
1295.8101 -513.96802 -278.31601 1.8403113e-38
1300.78 -504.73199 -279.88599 1.8403113e-38
1291.9 -489.138 -276.271 1.8403113e-38
1296.66 -479.92401 -277.76999 1.8403113e-38
1298.75 -469.526 -278.26901 1.8403113e-38
1300.75 -459.12601 -278.73401 1.8403113e-38
1295.67 -445.82999 -276.55701 1.8403113e-38
1300.97 -436.90799 -278.25699 1.8403113e-38
1295.65 -423.776 -275.996 1.8403113e-38
1301.67 -415.16101 -277.96301 1.8403113e-38
1299.65 -403.505 -276.939 1.8403113e-38
1297.52 -391.91901 -275.87601 1.8403113e-38
1299.74 -381.966 -276.431 1.8403113e-38
1305.4399 -373.21899 -278.28101 1.8403113e-38
1309.28 -363.80301 -279.44199 1.8403113e-38
1304.97 -351.75601 -277.57501 1.8403113e-38
1305.95 -341.49301 -277.67099 1.8403113e-38
1310.4399 -332.32101 -279.073 1.8403113e-38
1308.53 -321.25601 -278.103 1.8403113e-38
1309.24 -311.013 -278.104 1.8403113e-38
1310.85 -280.358 -277.91699 1.8403113e-38
1316.7 -271.48599 -279.81799 1.8403113e-38
1312.39 -260.20099 -277.97299 1.8403113e-38
1314.42 -250.437 -278.46301 1.8403113e-38
1310.84 -239.489 -276.88901 1.8403113e-38
1309 -228.99899 -275.95999 1.8403113e-38
1307.08 -218.561 -274.99799 1.8403113e-38
1308.76 -208.851 -275.36499 1.8403113e-38
1307.58 -198.647 -274.68201 1.8403113e-38
1314.67 -189.84399 -277.034 1.8403113e-38
1308.6801 -178.924 -274.586 1.8403113e-38
1315.62 -170.009 -276.88199 1.8403113e-38
1313.1801 -159.724 -275.73801 1.8403113e-38
1315.3999 -145.129 -276.17999 1.8403113e-38
1320.27 -130.813 -277.58899 1.8403113e-38
1314.6899 -120.355 -275.29901 1.8403113e-38
1312.75 -110.34 -274.34601 1.8403113e-38
1321.04 -101.177 -277.12601 1.8403113e-38
1312.39 -90.703598 -273.72 1.8403113e-38
1323.34 -81.575401 -277.46799 1.8403113e-38
1321.08 -71.588303 -276.39801 1.8403113e-38
1330.01 -62.112598 -279.40201 1.8403113e-38
1321.95 -51.938801 -276.22198 1.8403113e-38
1321.33 -42.088699 -275.74799 1.8403113e-38
1331.9 -32.4035 -279.34399 1.8403113e-38
1323.6 -22.450899 -276.07901 1.8403113e-38
1327.4301 -12.59 -277.224 1.8403113e-38
1327.42 -2.7146599 -276.97299 1.8403113e-38
1330.15 7.2268701 -277.716 1.8403113e-38
1329.98 17.125299 -277.40601 1.8403113e-38
1332.55 27.1406 -278.08701 1.8403113e-38
1336.91 37.302101 -279.41599 1.8403113e-38
1336.5 47.2598 -279.01501 1.8403113e-38
1329.4301 56.750401 -276.211 1.8403113e-38
1336.36 67.234299 -278.46301 1.8403113e-38
1335.6899 77.183502 -277.97299 1.8403113e-38
1334.95 87.125504 -277.45401 1.8403113e-38
1337.87 97.462601 -278.254 1.8403113e-38
1334.15 107.094 -276.66299 1.8403113e-38
1338.77 117.727 -278.073 1.8403113e-38
1343.0601 138.59599 -279.108 1.8403113e-38
1342.75 148.743 -278.73901 1.8403113e-38
1341.41 158.743 -278.005 1.8403113e-38
1340.9301 168.89 -277.57501 1.8403113e-38
1346.86 180.23 -279.44199 1.8403113e-38
1347.38 221.901 -278.58701 1.8403113e-38
1346.1899 242.614 -277.63599 1.8403113e-38
1355.9301 309.48499 -279.495 1.8403113e-38
1353.28 319.58801 -278.27899 1.8403113e-38
1352.23 341.203 -277.35699 1.8403113e-38
1360.0699 411.55801 -278.439 1.8403113e-38
1365.3199 436.867 -279.70901 1.8403113e-38
1366.73 497.064 -278.71399 1.8403113e-38
1369.42 510.53601 -279.354 1.8403113e-38
1375.95 615.62799 -279.086 1.8403113e-38
1379.0601 630.69702 -279.84 1.8403113e-38
1376.25 642.44598 -278.52399 1.8403113e-38
1376.61 656.177 -278.30899 1.8403113e-38
1380.9 672.48401 -279.45999 1.8403113e-38
1380.96 686.35999 -279.13199 1.8403113e-38
1381.67 700.80701 -279.03101 1.8403113e-38
1378.22 712.685 -277.48001 1.8403113e-38
1384.25 730.96002 -279.20999 1.8403113e-38
1383.71 745.06897 -278.659 1.8403113e-38
1383.8101 759.77002 -278.32599 1.8403113e-38
1382.96 773.974 -277.66299 1.8403113e-38
1383.53 789.34399 -277.48499 1.8403113e-38
1379.28 801.36102 -275.63901 1.8403113e-38
1385.71 821.44299 -277.47299 1.8403113e-38
1386.54 837.612 -277.366 1.8403113e-38
1385.66 852.67297 -276.668 1.8403113e-38
1388.4 870.77399 -277.20999 1.8403113e-38
1388.67 887.172 -276.89801 1.8403113e-38
1389.51 904.25299 -276.77399 1.8403113e-38
1389.41 920.79498 -276.32199 1.8403113e-38
1389.12 937.40302 -275.802 1.8403113e-38
1390.85 955.97302 -275.96201 1.8403113e-38
1393.8 975.92401 -276.53601 1.8403113e-38
1392.1899 992.12201 -275.543 1.8403113e-38
1391.11 1009.02 -274.72699 1.8403113e-38
1393.39 1029.26 -275.04901 1.8403113e-38
1387.66 1042.3 -272.642 1.8403113e-38
1393.72 1066.74 -274.228 1.8403113e-38
1392.51 1084.58 -273.34 1.8403113e-38
1392.46 1103.84 -272.84201 1.8403113e-38
1392.88 1123.88 -272.48901 1.8403113e-38
1397.12 1148.2 -273.41901 1.8403113e-38
1399.7 1171.27 -273.77701 1.8403113e-38
1400.65 1193.05 -273.577 1.8403113e-38
1398.03 1211.35 -272.16501 1.8403113e-38
1406.33 1241.97 -274.41199 1.8403113e-38
1403.8199 1261.1801 -273.021 1.8403113e-38
1401.73 1281.17 -271.76001 1.8403113e-38
1403.22 1305.66 -271.68799 1.8403113e-38
1403.77 1329.52 -271.28699 1.8403113e-38
1406.51 1356.5 -271.60501 1.8403113e-38
1410.75 1385.9 -272.40799 1.8403113e-38
1412.14 1412.42 -272.24899 1.8403113e-38
1410.76 1436 -271.15601 1.8403113e-38
1415.6801 1468.17 -272.13699 1.8403113e-38
1416.01 1495.08 -271.57901 1.8403113e-38
1417.15 1523.67 -271.27701 1.8403113e-38
1420.23 1555.5601 -271.59799 1.8403113e-38
1425.76 1591.6 -272.70001 1.8403113e-38
1427.9399 1623.85 -272.68301 1.8403113e-38
1428.55 1654.63 -272.133 1.8403113e-38
1428.75 1685.55 -271.42899 1.8403113e-38
1431.27 1720.6801 -271.46301 1.8403113e-38
1438.05 1796.4 -272.02701 1.8403113e-38
1436.41 1827.89 -270.642 1.8403113e-38
1449.35 1919.76 -273.03699 1.8403113e-38
1428.96 1749.4 -269.90601 1.8403113e-38
1434.34 1859.48 -269.10001 1.8403113e-38
1440.6 1942.39 -269.293 1.8403113e-38
1444.09 1986.26 -269.461 1.8403113e-38
1416.8199 1978.1899 -259.76001 1.8403113e-38
1385.38 1962.02 -248.75101 1.8403113e-38
1004.45 -2995.2 -234.74001 1.8403113e-38
1341.34 1922.11 -233.759 1.8403113e-38
973.43903 -2975.1299 -222.97701 1.8403113e-38
1323.5699 1928.42 -227.147 1.8403113e-38
1304.37 1931.9301 -220.089 1.8403113e-38
1358.13 2707.75 -220.153 1.8403113e-38
943.26801 -2956.6399 -211.558 1.8403113e-38
1285.66 1936.11 -213.189 1.8403113e-38
915.83801 -2948.49 -201.394 1.8403113e-38
1271.91 1949.79 -207.856 1.8403113e-38
1254.91 1957.16 -201.498 1.8403113e-38
874.66803 -3125.53 -190.884 1.8403113e-38
890.47101 -2948.8201 -192.19099 1.8403113e-38
1236.5601 1961.6899 -194.71899 1.8403113e-38
1225.9301 1982.11 -190.349 1.8403113e-38
1268.3101 2211.28 -199.99001 1.8403113e-38
871.55902 -2980.0901 -186.10899 1.8403113e-38
1216.3101 2005.17 -186.278 1.8403113e-38
1224.23 2066.9299 -187.605 1.8403113e-38
1212.83 2135.8999 -181.73399 1.8403113e-38
1250.9 2501.03 -186.40401 1.8403113e-38
1267.21 2606.5 -189.67999 1.8403113e-38
832.71503 -3044.22 -173.612 1.8403113e-38
1188.9 2129.8799 -173.19701 1.8403113e-38
1236.3199 2590.3601 -178.87 1.8403113e-38
1174.78 2146.47 -167.653 1.8403113e-38
1161.96 2166.6299 -162.493 1.8403113e-38
778.76801 -2887.8501 -150.10201 1.8403113e-38
1168.38 2470.99 -157.192 1.8403113e-38
755.16302 -2892.74 -141.65401 1.8403113e-38
1147.65 2478.1699 -149.487 1.8403113e-38
1129.8 2493.6201 -142.616 1.8403113e-38
727.68298 -2873.8 -131.201 1.8403113e-38
1117.78 2526.8701 -137.41701 1.8403113e-38
1104.96 2559.1299 -131.955 1.8403113e-38
1083.85 2566.6499 -124.099 1.8403113e-38
1065.3101 2582.55 -116.969 1.8403113e-38
1060.71 2727.8301 -111.658 1.8403113e-38
1071.17 2852.03 -112.34 1.8403113e-38
1044 2589.7 -109.052 1.8403113e-38
929.08899 2424.22 -71.477501 1.8403113e-38
957.40503 2800.9099 -72.313202 1.8403113e-38
951.13501 2877.9399 -68.104897 1.8403113e-38
878.79602 2315.3201 -55.946701 1.8403113e-38
871.75 2368.1499 -52.063301 1.8403113e-38
814.71997 2391.53 -30.7696 1.8403113e-38
772.85303 2295.9199 -17.964701 1.8403113e-38
721.16498 2237.1399 -0.67076498 1.8403113e-38
745.82098 2262.28 -8.9929104 1.8403113e-38
664.97601 2141.8101 17.3414 1.8403113e-38
685.32501 2151.8999 10.2056 1.8403113e-38
618.98499 1985.91 30.131599 1.8403113e-38
606.216 2010.66 35.388699 1.8403113e-38
568.86102 1989.73 48.4277 1.8403113e-38
588.63 2007.7 41.699902 1.8403113e-38
552.67999 1994.3199 54.418098 1.8403113e-38
546.23602 2071.0801 58.682899 1.8403113e-38
334.67899 -653.90399 67.1679 1.8403113e-38
342.789 -533.50299 67.241997 1.8403113e-38
533.00897 2104.22 64.316803 1.8403113e-38
329.67999 -532.685 72.022697 1.8403113e-38
311.314 -520.08099 79.007401 1.8403113e-38
324.854 -528.367 73.883202 1.8403113e-38
332.547 -522.13202 71.2463 1.8403113e-38
314.918 -514.61603 77.8358 1.8403113e-38
335.67801 -514.52698 70.300201 1.8403113e-38
507.23401 2035.99 71.9646 1.8403113e-38
506.95499 2188.0901 75.880096 1.8403113e-38
651.40997 4117.4102 71.808296 1.8403113e-38
279.99301 -581.65198 88.836403 1.8403113e-38
284.84201 -587.42499 86.930801 1.8403113e-38
289.009 -576.18298 85.699799 1.8403113e-38
295.841 -575.21252 83.243401 1.8403113e-38
301.96399 -564.19397 81.296402 1.8403113e-38
304.39203 -511.80048 81.728546 1.8403113e-38
491.806 2218.95 82.1548 1.8403113e-38
619.45001 4143.46 84.066399 1.8403113e-38
252.474 -570.06201 99.119102 1.8403113e-38
263.79401 -570.07446 95.008698 1.8403113e-38
275.28299 -577.83002 90.642403 1.8403113e-38
257.09399 -562.10303 97.641296 1.8403113e-38
270.53299 -565.96698 92.664597 1.8403113e-38
234.63901 -564.49298 105.735 1.8403113e-38
245.83551 -565.422 101.6465 1.8403113e-38
235.50299 -547.99548 105.835 1.8403113e-38
227.54401 -537.02197 109 1.8403113e-38
415.771 2188.49 109 1.8403113e-38
443.80399 2315.77 102.012 1.8403113e-38
