# .PCD v0.7 - Point Cloud Data file format
VERSION 0.7
FIELDS x y z rgb
SIZE 4 4 4 4
TYPE F F F F
COUNT 1 1 1 1
WIDTH 354
HEIGHT 1
VIEWPOINT 0 0 0 1 0 0 0
POINTS 354
DATA ascii
1129.3 -3265.55 -286.853 1.8403113e-38
1128.8101 -3158.5701 -283.992 1.8403113e-38
1140.65 -3006.3799 -284.47601 1.8403113e-38
1155.72 -2966.5801 -288.95001 1.8403113e-38
1159.58 -2892.6599 -288.49899 1.8403113e-38
1164.42 -2825.51 -288.573 1.8403113e-38
1168.85 -2760.3899 -288.54901 1.8403113e-38
1171.01 -2691.6599 -287.60901 1.8403113e-38
1176.03 -2634.3301 -287.992 1.8403113e-38
1179.5 -2575.27 -287.77301 1.8403113e-38
1182.42 -2517.27 -287.38 1.8403113e-38
1187.61 -2467.76 -288.01901 1.8403113e-38
1189.1899 -2410.98 -287.172 1.8403113e-38
1192.11 -2359.8701 -286.94901 1.8403113e-38
1200.2 -2323.55 -288.97699 1.8403113e-38
1192.98 -2251.72 -284.55399 1.8403113e-38
1200.13 -2216.52 -286.26501 1.8403113e-38
1203.22 -2173.22 -286.302 1.8403113e-38
1204.0699 -2126.45 -285.43701 1.8403113e-38
1207.08 -2086.1101 -285.51999 1.8403113e-38
1210.34 -2047.67 -285.73999 1.8403113e-38
1210.92 -2004.89 -284.879 1.8403113e-38
1216.05 -1972.87 -285.93799 1.8403113e-38
1219.41 -1938.28 -286.29099 1.8403113e-38
1221.83 -1902.91 -286.284 1.8403113e-38
1225.5601 -1871.13 -286.84 1.8403113e-38
1223.78 -1829.88 -285.159 1.8403113e-38
1227.47 -1800.05 -285.75101 1.8403113e-38
1231.6899 -1772 -286.58099 1.8403113e-38
1231.2 -1736.33 -285.50699 1.8403113e-38
1235.5699 -1710.16 -286.43701 1.8403113e-38
1241.0699 -1686.58 -287.84201 1.8403113e-38
1239.22 -1651.26 -286.28699 1.8403113e-38
1244 -1627.8199 -287.43399 1.8403113e-38
1245.89 -1600.25 -287.42899 1.8403113e-38
1247.9301 -1573.61 -287.50101 1.8403113e-38
1248.54 -1545.41 -287.017 1.8403113e-38
1249.3101 -1518.14 -286.612 1.8403113e-38
1249.7 -1490.98 -286.07401 1.8403113e-38
1256.33 -1473.6 -288.04199 1.8403113e-38
1252.72 -1441.8 -285.93701 1.8403113e-38
1250.37 -1412.58 -284.34799 1.8403113e-38
1248.17 -1384.3 -282.84201 1.8403113e-38
1249.05 -1360.88 -282.573 1.8403113e-38
1256.61 -1346.9 -284.96701 1.8403113e-38
1260.48 -1328.25 -285.90399 1.8403113e-38
1262.33 -1307.3199 -286.05301 1.8403113e-38
1256.1 -1276.55 -283.01901 1.8403113e-38
1256.73 -1255.09 -282.711 1.8403113e-38
1262.62 -1240.47 -284.48099 1.8403113e-38
1260.9 -1216.89 -283.26501 1.8403113e-38
1260.12 -1194.9301 -282.43201 1.8403113e-38
1264.12 -1178.9399 -283.483 1.8403113e-38
1276.23 -1172.4301 -287.71799 1.8403113e-38
1267.05 -1141.97 -283.61899 1.8403113e-38
1276.3 -1132.53 -286.74301 1.8403113e-38
1271.7 -1108.1 -284.45901 1.8403113e-38
1276.04 -1093.7 -285.67401 1.8403113e-38
1276.89 -1075.8101 -285.53201 1.8403113e-38
1277.51 -1057.99 -285.314 1.8403113e-38
1279.97 -1042.3 -285.811 1.8403113e-38
1284.98 -1029.36 -287.30701 1.8403113e-38
1279.5 -1006.33 -284.73901 1.8403113e-38
1280.6801 -990.13702 -284.76199 1.8403113e-38
1284.48 -976.63397 -285.80399 1.8403113e-38
1288.14 -963.13599 -286.793 1.8403113e-38
1284.53 -943.19098 -284.98199 1.8403113e-38
1285.6899 -927.85999 -285.021 1.8403113e-38
1281.62 -908.15601 -283.04901 1.8403113e-38
1287.51 -897.354 -284.914 1.8403113e-38
1282.29 -877.237 -282.51401 1.8403113e-38
1289.37 -867.68298 -284.84698 1.8403113e-38
1283.74 -847.78601 -282.302 1.8403113e-38
1283.09 -832.24597 -281.67899 1.8403113e-38
1283.03 -817.37402 -281.28201 1.8403113e-38
1288.11 -806.65302 -282.85699 1.8403113e-38
1290.8 -794.16998 -283.521 1.8403113e-38
1287.98 -777.71503 -282.08701 1.8403113e-38
1289.62 -764.74701 -282.354 1.8403113e-38
1289.5601 -750.69897 -281.98099 1.8403113e-38
1285.4399 -733.97302 -280.06699 1.8403113e-38
1290.5601 -723.86603 -281.67401 1.8403113e-38
1290.85 -710.52197 -281.444 1.8403113e-38
1288.62 -695.65198 -280.26001 1.8403113e-38
1294.21 -686.06 -282.05099 1.8403113e-38
1292.24 -658.67499 -280.647 1.8403113e-38
1294.75 -621.98199 -280.63901 1.8403113e-38
1294.72 -597.07599 -280.00101 1.8403113e-38
1298.67 -586.98102 -281.18399 1.8403113e-38
1296.6899 -573.71301 -280.13101 1.8403113e-38
1299.22 -539.09302 -280.185 1.8403113e-38
1301.79 -516.83801 -280.55899 1.8403113e-38
1305.1 -460.97501 -280.36099 1.8403113e-38
1312.16 -354.056 -280.241 1.8403113e-38
1317.24 -281.957 -280.27802 1.8403113e-38
1322.1899 -272.806 -281.845 1.8403113e-38
1325.29 -161.355 -280.17599 1.8403113e-38
1342.55 37.5937 -281.45499 1.8403113e-38
1341.3199 77.684097 -280.00299 1.8403113e-38
1344.38 118.436 -280.091 1.8403113e-38
1349.83 129.341 -281.797 1.8403113e-38
1351.49 181.07899 -281.10501 1.8403113e-38
1349.9 191.15601 -280.272 1.8403113e-38
1359.3199 203.46201 -283.384 1.8403113e-38
1357.54 213.60899 -282.48401 1.8403113e-38
1358.33 234.91299 -282.237 1.8403113e-38
1357.21 245.269 -281.57101 1.8403113e-38
1362.03 267.87601 -282.755 1.8403113e-38
1362.46 278.78101 -282.638 1.8403113e-38
1360.0699 288.948 -281.51199 1.8403113e-38
1363.04 300.67401 -282.297 1.8403113e-38
1364.09 311.93301 -282.396 1.8403113e-38
1364.08 333.99701 -281.84 1.8403113e-38
1372.28 370.40302 -283.90601 1.8403113e-38
1370.03 380.97299 -282.82199 1.8403113e-38
1373.91 393.841 -283.909 1.8403113e-38
1373.23 405.11801 -283.38 1.8403113e-38
1367.15 414.33099 -280.939 1.8403113e-38
1371.47 439.40701 -281.879 1.8403113e-38
1383.03 432.332 -286.25601 1.8403113e-38
1377.04 465.52499 -283.25 1.8403113e-38
1368.77 473.871 -280.035 1.8403113e-38
1377.77 490.00299 -282.89801 1.8403113e-38
1374.58 513.00299 -281.16599 1.8403113e-38
1372.84 524.51398 -280.242 1.8403113e-38
1375.25 538.16699 -280.776 1.8403113e-38
1374.97 550.59802 -280.36401 1.8403113e-38
1377.96 564.836 -281.09299 1.8403113e-38
1381.65 579.62097 -282.06 1.8403113e-38
1380.98 592.224 -281.5 1.8403113e-38
1382.6899 606.25702 -281.771 1.8403113e-38
1379.27 617.52301 -280.246 1.8403113e-38
1384.03 633.58502 -281.57101 1.8403113e-38
1384.9 702.883 -280.151 1.8403113e-38
1388.67 719.53101 -281.10001 1.8403113e-38
1386.65 732.56201 -280.04001 1.8403113e-38
1106.25 -2980.27 -271.332 1.8403113e-38
1288.48 -669.26898 -279.54599 1.8403113e-38
1291.03 -645.08899 -279.86801 1.8403113e-38
1288.87 -631.08899 -278.73001 1.8403113e-38
1289.85 -606.66998 -278.47501 1.8403113e-38
1294.5601 -560.52698 -279.03 1.8403113e-38
1292.3 -547.42499 -277.88101 1.8403113e-38
1295.03 -525.23999 -278.315 1.8403113e-38
1295.63 -502.319 -277.95801 1.8403113e-38
1299.64 -492.68399 -279.172 1.8403113e-38
1301.84 -482.23999 -279.70999 1.8403113e-38
1303.09 -471.41599 -279.89001 1.8403113e-38
1300.91 -448 -278.51401 1.8403113e-38
1298.34 -435.84698 -277.276 1.8403113e-38
1299.17 -425.15799 -277.30801 1.8403113e-38
1299.02 -414.14899 -276.97699 1.8403113e-38
1304.96 -405.479 -278.91699 1.8403113e-38
1303.74 -394.164 -278.189 1.8403113e-38
1304.1899 -383.52899 -278.086 1.8403113e-38
1303.65 -372.60999 -277.61801 1.8403113e-38
1301.22 -361.14001 -276.44901 1.8403113e-38
1305.05 -341.21399 -277.33701 1.8403113e-38
1308.64 -331.78 -278.40399 1.8403113e-38
1312.15 -322.30499 -279.44299 1.8403113e-38
1312.87 -312.02899 -279.44699 1.8403113e-38
1311.6899 -301.27301 -278.746 1.8403113e-38
1311.3101 -290.79999 -278.34799 1.8403113e-38
1312.39 -260.20099 -277.97299 1.8403113e-38
1313.55 -245.1405 -278.01599 1.8403113e-38
1314.54 -230.114 -277.99701 1.8403113e-38
1314.385 -214.91699 -277.56152 1.8403113e-38
1319.63 -200.728 -279.108 1.8403113e-38
1311.88 -189.38901 -276.01199 1.8403113e-38
1314.9399 -174.895 -276.75699 1.8403113e-38
1319.04 -150.548 -277.63599 1.8403113e-38
1323.9 -141.168 -279.16501 1.8403113e-38
1323.08 -131.112 -278.61401 1.8403113e-38
1326.85 -121.536 -279.74399 1.8403113e-38
1325.86 -111.49 -279.134 1.8403113e-38
1318.23 -100.957 -276.10001 1.8403113e-38
1326.45 -91.674698 -278.85101 1.8403113e-38
1328.03 -81.855598 -279.17801 1.8403113e-38
1319.2 -71.493599 -275.71399 1.8403113e-38
1326.25 -61.958199 -278.034 1.8403113e-38
1327.59 -52.118099 -278.27301 1.8403113e-38
1327.91 -42.236801 -278.14001 1.8403113e-38
1329.08 -32.3661 -278.319 1.8403113e-38
1330.1801 -22.4769 -278.46899 1.8403113e-38
1333.0699 -12.56 -279.271 1.8403113e-38
1332.12 -2.6460099 -278.67801 1.8403113e-38
1328.27 7.1819601 -277.034 1.8403113e-38
1336.5601 17.3435 -279.789 1.8403113e-38
1329.73 27.021 -277.06601 1.8403113e-38
1333.6801 47.087898 -277.99701 1.8403113e-38
1335.0601 57.146599 -278.245 1.8403113e-38
1334.48 67.0849 -277.78601 1.8403113e-38
1340.5699 87.6782 -279.48099 1.8403113e-38
1342.55 97.966599 -279.94101 1.8403113e-38
1339.76 107.751 -278.68399 1.8403113e-38
1343.0601 138.59599 -279.108 1.8403113e-38
1341.8101 148.599 -278.40399 1.8403113e-38
1340.48 158.59 -277.67099 1.8403113e-38
1346.5 169.858 -279.57401 1.8403113e-38
1344.61 221.28799 -277.59799 1.8403113e-38
1350.51 254.243 -278.91101 1.8403113e-38
1357.8 320.98999 -279.88599 1.8403113e-38
1359.4301 343.57901 -279.91101 1.8403113e-38
1357.4 354.017 -278.91199 1.8403113e-38
1366.88 449.26901 -279.965 1.8403113e-38
1369.3199 498.27301 -279.62399 1.8403113e-38
1380.37 644.89099 -279.95801 1.8403113e-38
1380.7 658.65997 -279.73499 1.8403113e-38
1376.8199 669.96301 -278.04199 1.8403113e-38
1379.33 685.33698 -278.56799 1.8403113e-38
1381.3199 743.44501 -277.83401 1.8403113e-38
1384.6 760.31897 -278.599 1.8403113e-38
1385.3199 775.64099 -278.47699 1.8403113e-38
1386.66 791.59698 -278.56299 1.8403113e-38
1387.8199 807.63501 -278.58301 1.8403113e-38
1381.86 818.55603 -276.14401 1.8403113e-38
1383.47 835.27301 -276.31 1.8403113e-38
1388.71 855.03998 -277.716 1.8403113e-38
1391.4301 873.16901 -278.25 1.8403113e-38
1385.66 884.75 -275.866 1.8403113e-38
1392.5 906.703 -277.798 1.8403113e-38
1391.64 922.65302 -277.08499 1.8403113e-38
1389.86 938.02899 -276.05399 1.8403113e-38
1393.04 957.87201 -276.71201 1.8403113e-38
1388.71 971.44598 -274.79901 1.8403113e-38
1392.91 992.76898 -275.789 1.8403113e-38
1393.26 1010.98 -275.45901 1.8403113e-38
1396.24 1031.9 -276.017 1.8403113e-38
1395.4301 1049.62 -275.27899 1.8403113e-38
1396.52 1069.4301 -275.17801 1.8403113e-38
1395.29 1087.29 -274.28201 1.8403113e-38
1394.53 1105.9 -273.54199 1.8403113e-38
1395.61 1126.65 -273.41299 1.8403113e-38
1393.05 1144.01 -272.04501 1.8403113e-38
1394.3101 1165.63 -271.96399 1.8403113e-38
1396.65 1188.78 -272.23099 1.8403113e-38
1399.35 1212.78 -272.60999 1.8403113e-38
1402.4 1237.64 -273.09299 1.8403113e-38
1406.42 1264.1 -273.89099 1.8403113e-38
1403.66 1283.38 -272.40601 1.8403113e-38
1399.4 1301.22 -270.41 1.8403113e-38
1399.98 1325.04 -270.02399 1.8403113e-38
1407.76 1358 -272.022 1.8403113e-38
1406.42 1380.6 -270.96701 1.8403113e-38
1407.85 1407.08 -270.82501 1.8403113e-38
1411.97 1437.54 -271.55801 1.8403113e-38
1412.08 1463.52 -270.94501 1.8403113e-38
1417.1899 1496.64 -271.97101 1.8403113e-38
1417.15 1523.67 -271.27701 1.8403113e-38
1416.75 1550.8199 -270.45001 1.8403113e-38
1427.48 1593.99 -273.267 1.8403113e-38
1424.53 1619.04 -271.565 1.8403113e-38
1429.6801 1656.25 -272.50101 1.8403113e-38
1430.41 1687.99 -271.97299 1.8403113e-38
1432.91 1723.13 -271.99899 1.8403113e-38
1435.46 1759.27 -272.01999 1.8403113e-38
1434.84 1791.4399 -270.98499 1.8403113e-38
1445.23 1913.03 -271.711 1.8403113e-38
1075.77 -3169.8101 -265.017 1.8403113e-38
1433.24 1822.9 -269.616 1.8403113e-38
1435.39 1861.15 -269.43701 1.8403113e-38
1441.62 1944.08 -269.61899 1.8403113e-38
1441.59 1982.01 -268.65799 1.8403113e-38
1415.34 1975.62 -259.28699 1.8403113e-38
1383.92 1959.45 -248.285 1.8403113e-38
1007.57 -3007.74 -236.188 1.8403113e-38
1341.8199 1922.97 -233.912 1.8403113e-38
973.20697 -2974.1599 -222.869 1.8403113e-38
1322.62 1926.6801 -226.847 1.8403113e-38
1305.77 1934.55 -220.53101 1.8403113e-38
941.25098 -2947.9199 -210.60699 1.8403113e-38
1286.5699 1937.87 -213.478 1.8403113e-38
1355.9 2702.21 -219.485 1.8403113e-38
1269.21 1944.5 -207.005 1.8403113e-38
1251.8 1950.96 -200.52499 1.8403113e-38
890.888 -2950.76 -192.39101 1.8403113e-38
912.81097 -2934.8999 -199.95399 1.8403113e-38
1238.3 1965.25 -195.26401 1.8403113e-38
1226.36 1983 -190.483 1.8403113e-38
1266.27 2206.76 -199.36301 1.8403113e-38
872.55402 -3114.79 -189.847 1.8403113e-38
871.96002 -2982.04 -186.30299 1.8403113e-38
1218.85 2010.55 -187.063 1.8403113e-38
1227.55 2074.1299 -188.63 1.8403113e-38
1210.42 2130.45 -180.99899 1.8403113e-38
1251.99 2503.8 -186.73 1.8403113e-38
1266.15 2603.72 -189.36301 1.8403113e-38
831.79401 -3039.3301 -173.155 1.8403113e-38
1190.86 2134.4399 -173.79601 1.8403113e-38
1237.72 2594.0901 -179.282 1.8403113e-38
1175.16 2147.3799 -167.77 1.8403113e-38
1164.98 2173.98 -163.407 1.8403113e-38
1167.7 2469.1201 -156.992 1.8403113e-38
757.34802 -2905.51 -142.767 1.8403113e-38
778.23901 -2884.9099 -149.83701 1.8403113e-38
1147.99 2479.1101 -149.584 1.8403113e-38
1133.37 2503.98 -143.653 1.8403113e-38
726.56299 -2866.9199 -130.62199 1.8403113e-38
1116.1899 2522.1499 -136.96001 1.8403113e-38
1102.8 2552.51 -131.336 1.8403113e-38
1083.24 2564.75 -123.928 1.8403113e-38
692.96301 -2805.3101 -116.876 1.8403113e-38
1066.78 2587.3101 -117.383 1.8403113e-38
1068.2 2841.47 -111.526 1.8403113e-38
666.73901 -2786.71 -106.888 1.8403113e-38
1046.28 2597.3401 -109.69 1.8403113e-38
1053.21 2701.97 -109.581 1.8403113e-38
642.62097 -2780.6699 -97.978996 1.8403113e-38
619.401 -2780.3401 -89.539497 1.8403113e-38
574.96899 -2795.8601 -73.795097 1.8403113e-38
592.87701 -2752.05 -79.198799 1.8403113e-38
929.87598 2427.1101 -71.690804 1.8403113e-38
951.20203 2775.72 -70.692703 1.8403113e-38
550.28601 -2780.99 -64.459801 1.8403113e-38
950.67297 2875.99 -67.986099 1.8403113e-38
527.20502 -2779.78 -56.0485 1.8403113e-38
881.59497 2325.9399 -56.6968 1.8403113e-38
871.25702 2366.22 -51.9328 1.8403113e-38
502.51999 -2759.45 -46.5755 1.8403113e-38
479.45001 -2754.8 -38.082199 1.8403113e-38
815.61102 2395.4199 -30.995399 1.8403113e-38
771.99402 2292.02 -17.7507 1.8403113e-38
719.77502 2230.29 -0.33756399 1.8403113e-38
746.23499 2264.24 -9.0940199 1.8403113e-38
664.79401 2140.8301 17.383101 1.8403113e-38
684.75299 2148.95 10.3395 1.8403113e-38
602.71997 1989.97 36.1395 1.8403113e-38
618.63599 1983.9399 30.209 1.8403113e-38
570.81598 2002.58 48.040199 1.8403113e-38
589.89801 2015.59 41.437698 1.8403113e-38
552.67999 1994.3199 54.418098 1.8403113e-38
546.37 2072.0701 58.659 1.8403113e-38
532.75702 2102.23 64.358597 1.8403113e-38
304.94901 -684.20398 77.203102 1.8403113e-38
507.35199 2036.98 71.946701 1.8403113e-38
506.95499 2188.0901 75.880096 1.8403113e-38
652.06299 4124.3799 71.745598 1.8403113e-38
294.40149 -515.20551 85.270752 1.8403113e-38
285.61499 -502.32501 88.784302 1.8403113e-38
490.689 2208.01 82.286102 1.8403113e-38
619.70502 4146.4502 84.0485 1.8403113e-38
266.082 -575.04999 94.053001 1.8403113e-38
254.814 -564.58301 98.407043 1.8403113e-38
261.58301 -554.10199 96.211998 1.8403113e-38
270.45499 -559.96997 92.843399 1.8403113e-38
275.56799 -498.31598 92.532852 1.8403113e-38
281.48999 -498.55499 90.376701 1.8403113e-38
231.48801 -624.409 105.377 1.8403113e-38
227.186 -613.15601 107.221 1.8403113e-38
223.342 -597.87701 109 1.8403113e-38
238.411 -580.68103 103.959 1.8403113e-38
245.84549 -564.922 101.655 1.8403113e-38
417.76901 2217.4199 109 1.8403113e-38
443.88101 2316.77 102.01 1.8403113e-38
