# .PCD v0.7 - Point Cloud Data file format
VERSION 0.7
FIELDS x y z rgb
SIZE 4 4 4 4
TYPE F F F F
COUNT 1 1 1 1
WIDTH 354
HEIGHT 1
VIEWPOINT 0 0 0 1 0 0 0
POINTS 354
DATA ascii
1129.04 -3264.5901 -286.73599 1.8403113e-38
1132.5 -3171.97 -285.66901 1.8403113e-38
1140.37 -3005.4299 -284.35101 1.8403113e-38
1156.01 -2967.53 -289.078 1.8403113e-38
1162.54 -2902.1201 -289.80801 1.8403113e-38
1164.12 -2824.5701 -288.439 1.8403113e-38
1166.99 -2754.74 -287.73001 1.8403113e-38
1174.2 -2701.04 -289 1.8403113e-38
1176.6801 -2636.2 -288.276 1.8403113e-38
1177.5 -2569.6799 -286.90601 1.8403113e-38
1182.77 -2518.2 -287.52701 1.8403113e-38
1188.3 -2469.6101 -288.319 1.8403113e-38
1190.26 -2413.74 -287.63 1.8403113e-38
1192.47 -2360.79 -287.104 1.8403113e-38
1200.2 -2323.55 -288.97699 1.8403113e-38
1196.4 -2259.9199 -285.99899 1.8403113e-38
1200.51 -2217.4199 -286.42899 1.8403113e-38
1200.46 -2166.8999 -285.142 1.8403113e-38
1204.47 -2127.3501 -285.60501 1.8403113e-38
1207.08 -2086.1101 -285.51999 1.8403113e-38
1211.59 -2050.3401 -286.26099 1.8403113e-38
1211.77 -2006.66 -285.23099 1.8403113e-38
1216.05 -1972.87 -285.93799 1.8403113e-38
1216.34 -1932.12 -285.02301 1.8403113e-38
1222.28 -1903.78 -286.46701 1.8403113e-38
1226.01 -1872 -287.026 1.8403113e-38
1223.78 -1829.88 -285.159 1.8403113e-38
1228.41 -1801.77 -286.133 1.8403113e-38
1229.8 -1768.5699 -285.806 1.8403113e-38
1227.83 -1730.35 -284.134 1.8403113e-38
1232.64 -1705.0601 -285.245 1.8403113e-38
1236.11 -1678.13 -285.832 1.8403113e-38
1240.73 -1653.79 -286.897 1.8403113e-38
1241.96 -1624.47 -286.61099 1.8403113e-38
1246.92 -1601.92 -287.84601 1.8403113e-38
1252.63 -1581.04 -289.396 1.8403113e-38
1246.96 -1542.95 -286.379 1.8403113e-38
1248.24 -1516.51 -286.181 1.8403113e-38
1249.16 -1490.17 -285.85599 1.8403113e-38
1252.48 -1467.96 -286.504 1.8403113e-38
1254.95 -1445.01 -286.82599 1.8403113e-38
1247.55 -1408.6 -283.22601 1.8403113e-38
1254.4399 -1392.99 -285.33499 1.8403113e-38
1255.39 -1369.51 -285.09 1.8403113e-38
1257.1899 -1347.6801 -285.198 1.8403113e-38
1262.83 -1331.34 -286.83701 1.8403113e-38
1262.33 -1307.3199 -286.05301 1.8403113e-38
1257.9 -1278.84 -283.73199 1.8403113e-38
1257.95 -1256.6 -283.19 1.8403113e-38
1257.71 -1234.46 -282.547 1.8403113e-38
1262.76 -1219.13 -283.99701 1.8403113e-38
1261.37 -1196.41 -282.92401 1.8403113e-38
1265.38 -1180.41 -283.979 1.8403113e-38
1277.51 -1173.89 -288.21899 1.8403113e-38
1268.34 -1143.41 -284.12299 1.8403113e-38
1279.5601 -1136.11 -288.01401 1.8403113e-38
1273.01 -1109.52 -284.97101 1.8403113e-38
1280.6801 -1098.62 -287.48099 1.8403113e-38
1280.23 -1079.3 -286.83301 1.8403113e-38
1276.84 -1057.3 -285.052 1.8403113e-38
1279.29 -1041.62 -285.547 1.8403113e-38
1289.09 -1033.4301 -288.90201 1.8403113e-38
1279.5 -1006.33 -284.73901 1.8403113e-38
1282.0699 -991.46802 -285.30099 1.8403113e-38
1285.1801 -977.29199 -286.07501 1.8403113e-38
1286.73 -961.83197 -286.24701 1.8403113e-38
1285.24 -943.836 -285.25699 1.8403113e-38
1293.59 -934.88599 -288.065 1.8403113e-38
1283.0699 -909.41998 -283.60599 1.8403113e-38
1291.15 -900.48102 -286.315 1.8403113e-38
1283.75 -878.474 -283.078 1.8403113e-38
1284.2 -863.40198 -282.86301 1.8403113e-38
1278.53 -843.55402 -280.306 1.8403113e-38
1284.59 -833.44098 -282.25299 1.8403113e-38
1283.78 -817.96399 -281.57101 1.8403113e-38
1290.38 -808.40302 -283.72699 1.8403113e-38
1293.85 -796.47601 -284.68701 1.8403113e-38
1288.75 -778.28497 -282.38 1.8403113e-38
1291.11 -751.80902 -282.57401 1.8403113e-38
1294.8199 -740.54401 -283.63901 1.8403113e-38
1296.0699 -727.64801 -283.76801 1.8403113e-38
1290.85 -710.52197 -281.444 1.8403113e-38
1289.41 -696.17798 -280.56201 1.8403113e-38
1295.01 -686.578 -282.354 1.8403113e-38
1295.71 -673.86401 -282.289 1.8403113e-38
1293.05 -659.17798 -280.953 1.8403113e-38
1297.03 -635.96802 -281.81699 1.8403113e-38
1295.5699 -622.46198 -280.94901 1.8403113e-38
1298.09 -611.396 -281.58701 1.8403113e-38
1295.54 -597.54102 -280.314 1.8403113e-38
1300.33 -587.896 -281.81201 1.8403113e-38
1297.52 -574.16199 -280.44601 1.8403113e-38
1300.92 -539.94501 -280.82101 1.8403113e-38
1304.21 -506.34 -281.172 1.8403113e-38
1303.96 -471.79401 -280.215 1.8403113e-38
1305.97 -461.345 -280.686 1.8403113e-38
1307.98 -439.73599 -280.87399 1.8403113e-38
1307.84 -417.521 -280.26501 1.8403113e-38
1314.6899 -312.53699 -280.11801 1.8403113e-38
1319.51 -292.93301 -281.379 1.8403113e-38
1319.0699 -282.414 -280.953 1.8403113e-38
1336.73 7.3840399 -280.10101 1.8403113e-38
1338.4399 17.4058 -280.47 1.8403113e-38
1339.13 27.419901 -280.46799 1.8403113e-38
1344.4301 37.691002 -282.13501 1.8403113e-38
1343.48 98.067398 -280.27802 1.8403113e-38
1345.3101 118.554 -280.427 1.8403113e-38
1345.16 128.707 -280.11801 1.8403113e-38
1347.9301 159.812 -280.34201 1.8403113e-38
1348.71 180.569 -280.10699 1.8403113e-38
1350.8199 191.33501 -280.604 1.8403113e-38
1350.99 201.778 -280.40399 1.8403113e-38
1360.3101 214.196 -283.47501 1.8403113e-38
1365.17 257.91901 -284.14499 1.8403113e-38
1361.55 278.534 -282.31201 1.8403113e-38
1371.1801 270.258 -286.01599 1.8403113e-38
1368.26 291.245 -284.431 1.8403113e-38
1367.58 301.992 -283.914 1.8403113e-38
1368.62 313.293 -284.008 1.8403113e-38
1362.3199 322.392 -281.49301 1.8403113e-38
1362.28 333.42001 -281.19901 1.8403113e-38
1362.13 344.47101 -280.86899 1.8403113e-38
1370.86 358.59799 -283.685 1.8403113e-38
1363.78 378.72 -280.60999 1.8403113e-38
1374.97 371.34399 -284.85699 1.8403113e-38
1371.24 392.85101 -282.965 1.8403113e-38
1373.23 405.11801 -283.38 1.8403113e-38
1369.8 415.371 -281.87601 1.8403113e-38
1369.8101 427.01001 -281.58701 1.8403113e-38
1372.35 439.76999 -282.189 1.8403113e-38
1375.63 452.98001 -283.052 1.8403113e-38
1370.9399 462.871 -281.09799 1.8403113e-38
1378.33 478.13 -283.40201 1.8403113e-38
1385.5699 493.56 -285.64099 1.8403113e-38
1379.6801 503.112 -283.26501 1.8403113e-38
1374.58 513.00299 -281.16599 1.8403113e-38
1380.55 528.28601 -282.94699 1.8403113e-38
1380.37 540.729 -282.57101 1.8403113e-38
1375.8199 551.03302 -280.66199 1.8403113e-38
1383.89 567.935 -283.16599 1.8403113e-38
1382.49 580.07098 -282.354 1.8403113e-38
1379.27 617.52301 -280.246 1.8403113e-38
1381.1899 645.38 -280.245 1.8403113e-38
1383.16 660.15002 -280.591 1.8403113e-38
1387.45 690.45398 -281.38699 1.8403113e-38
1108.16 -2986.95 -272.19 1.8403113e-38
1283.4301 -760.25 -279.99701 1.8403113e-38
1291.03 -645.08899 -279.86801 1.8403113e-38
1295.4 -560.96899 -279.34601 1.8403113e-38
1293.15 -547.85901 -278.198 1.8403113e-38
1295.88 -525.65802 -278.634 1.8403113e-38
1294.11 -513.14801 -277.67499 1.8403113e-38
1298.78 -492.29001 -278.85001 1.8403113e-38
1301.84 -482.23999 -279.70999 1.8403113e-38
1300.91 -448 -278.51401 1.8403113e-38
1300.9301 -425.84799 -277.96399 1.8403113e-38
1305.84 -405.80801 -279.246 1.8403113e-38
1305.51 -394.806 -278.85001 1.8403113e-38
1305.97 -384.15399 -278.74799 1.8403113e-38
1304.54 -372.91501 -277.94901 1.8403113e-38
1309.28 -363.80301 -279.44199 1.8403113e-38
1305.87 -352.04401 -277.90799 1.8403113e-38
1305.95 -341.49301 -277.67099 1.8403113e-38
1307.74 -331.509 -278.07001 1.8403113e-38
1311.25 -322.043 -279.108 1.8403113e-38
1312.59 -301.51801 -279.082 1.8403113e-38
1313.95 -270.82599 -278.80499 1.8403113e-38
1307.8101 -259.14301 -276.28201 1.8403113e-38
1311.66 -249.828 -277.44699 1.8403113e-38
1312.6899 -234.8015 -277.44299 1.8403113e-38
1315.7749 -215.17401 -278.07202 1.8403113e-38
1314.0699 -199.767 -277.065 1.8403113e-38
1314.46 -184.804 -276.8335 1.8403113e-38
1315.62 -170.009 -276.88199 1.8403113e-38
1319.7 -160.60201 -278.12701 1.8403113e-38
1319.97 -150.66499 -277.978 1.8403113e-38
1316.4301 -140.302 -276.431 1.8403113e-38
1313.73 -130.117 -275.19601 1.8403113e-38
1320.3 -120.9 -277.35001 1.8403113e-38
1327.73 -111.654 -279.81799 1.8403113e-38
1319.17 -101.03 -276.44199 1.8403113e-38
1320.8199 -91.286201 -276.79901 1.8403113e-38
1323.34 -81.575401 -277.46799 1.8403113e-38
1330.47 -72.061501 -279.81799 1.8403113e-38
1326.25 -61.958199 -278.034 1.8403113e-38
1331.35 -52.237598 -279.64001 1.8403113e-38
1327.91 -42.236801 -278.14001 1.8403113e-38
1323.4399 -32.2915 -276.26999 1.8403113e-38
1332.0601 -22.4844 -279.151 1.8403113e-38
1327.4301 -12.59 -277.224 1.8403113e-38
1333.0601 -2.6322801 -279.01901 1.8403113e-38
1335.5601 47.202499 -278.67499 1.8403113e-38
1336 57.212601 -278.58401 1.8403113e-38
1335.42 67.159599 -278.12399 1.8403113e-38
1334.76 77.100098 -277.63501 1.8403113e-38
1341.51 87.770302 -279.81799 1.8403113e-38
1342.5699 108.079 -279.69501 1.8403113e-38
1335.6 137.51199 -276.427 1.8403113e-38
1342.75 148.743 -278.73901 1.8403113e-38
1333.5 167.599 -274.909 1.8403113e-38
1345.54 221.492 -277.92801 1.8403113e-38
1351.89 233.424 -279.936 1.8403113e-38
1349.86 243.49899 -278.948 1.8403113e-38
1374.27 588.55798 -279.155 1.8403113e-38
1376.01 602.52802 -279.43799 1.8403113e-38
1375.75 628.771 -278.686 1.8403113e-38
1378.45 670.97101 -278.60901 1.8403113e-38
1378.4399 698.72998 -277.91 1.8403113e-38
1383.04 715.84497 -279.151 1.8403113e-38
1381.0601 728.82397 -278.103 1.8403113e-38
1381.3199 743.44501 -277.83401 1.8403113e-38
1379.85 757.02698 -276.95999 1.8403113e-38
1386.89 776.75299 -279.01999 1.8403113e-38
1381.1899 787.65503 -276.677 1.8403113e-38
1388.6 808.20502 -278.85101 1.8403113e-38
1381.86 818.55603 -276.14401 1.8403113e-38
1391.14 841.12 -278.94901 1.8403113e-38
1390.23 856.22302 -278.23999 1.8403113e-38
1386.13 868.97803 -276.42999 1.8403113e-38
1386.41 885.35498 -276.12399 1.8403113e-38
1392.5 906.703 -277.798 1.8403113e-38
1386.4399 918.31702 -275.306 1.8403113e-38
1392.0699 939.90802 -276.81 1.8403113e-38
1393.78 958.505 -276.96201 1.8403113e-38
1391.62 974.005 -275.79199 1.8403113e-38
1394.35 994.06201 -276.28101 1.8403113e-38
1393.98 1011.63 -275.703 1.8403113e-38
1396.24 1031.9 -276.017 1.8403113e-38
1396.14 1050.29 -275.51901 1.8403113e-38
1397.22 1070.1 -275.41599 1.8403113e-38
1395.98 1087.97 -274.517 1.8403113e-38
1389.71 1101.1 -271.909 1.8403113e-38
1396.98 1128.03 -273.875 1.8403113e-38
1394.4 1145.41 -272.50299 1.8403113e-38
1395.66 1167.04 -272.41699 1.8403113e-38
1402.65 1195.1801 -274.25 1.8403113e-38
1400.67 1214.21 -273.05399 1.8403113e-38
1403.05 1238.36 -273.31299 1.8403113e-38
1400.58 1257.54 -271.93301 1.8403113e-38
1398.51 1277.5 -270.68399 1.8403113e-38
1401.3101 1303.4399 -271.04901 1.8403113e-38
1406.29 1332.51 -272.129 1.8403113e-38
1408.38 1358.76 -272.23001 1.8403113e-38
1407.03 1381.35 -271.173 1.8403113e-38
1408.46 1407.84 -271.02899 1.8403113e-38
1413.1899 1439.0699 -271.95999 1.8403113e-38
1413.88 1465.85 -271.54099 1.8403113e-38
1413.03 1491.1801 -270.59799 1.8403113e-38
1418.91 1526.03 -271.858 1.8403113e-38
1423.14 1559.52 -272.55399 1.8403113e-38
1428.63 1595.58 -273.64401 1.8403113e-38
1419.98 1612.63 -270.07501 1.8403113e-38
1430.8 1657.86 -272.86899 1.8403113e-38
1427.08 1683.12 -270.88599 1.8403113e-38
1429.0699 1717.41 -270.74799 1.8403113e-38
1436.01 1760.09 -272.19601 1.8403113e-38
1435.91 1793.09 -271.332 1.8403113e-38
1443.6899 1910.51 -271.21301 1.8403113e-38
1076.27 -3171.74 -265.245 1.8403113e-38
1433.77 1823.73 -269.78699 1.8403113e-38
1435.91 1861.99 -269.60599 1.8403113e-38
1442.12 1944.9301 -269.78201 1.8403113e-38
1445.6 1988.8199 -269.94199 1.8403113e-38
1415.34 1975.62 -259.28699 1.8403113e-38
1383.92 1959.45 -248.285 1.8403113e-38
1005.65 -3000.03 -235.297 1.8403113e-38
1342.78 1924.7 -234.217 1.8403113e-38
971.34998 -2966.4299 -222 1.8403113e-38
1321.67 1924.95 -226.547 1.8403113e-38
1304.84 1932.8101 -220.237 1.8403113e-38
941.69897 -2949.8501 -210.81799 1.8403113e-38
1287.49 1939.62 -213.767 1.8403113e-38
1356.27 2703.1399 -219.597 1.8403113e-38
913.02802 -2935.8701 -200.05701 1.8403113e-38
1252.25 1951.85 -200.664 1.8403113e-38
1274.17 1954.1899 -208.565 1.8403113e-38
890.888 -2950.76 -192.39101 1.8403113e-38
1236.99 1962.58 -194.855 1.8403113e-38
1226.36 1983 -190.483 1.8403113e-38
1266.27 2206.76 -199.36301 1.8403113e-38
1268.63 2610.22 -190.103 1.8403113e-38
872.16998 -3112.8301 -189.659 1.8403113e-38
871.96002 -2982.04 -186.30299 1.8403113e-38
1214.62 2001.58 -185.754 1.8403113e-38
1228.8 2076.8401 -189.01401 1.8403113e-38
1212.4301 2134.99 -181.61099 1.8403113e-38
1255.98 2513.98 -187.924 1.8403113e-38
1249.1899 2624.8401 -182.67599 1.8403113e-38
833.45099 -3048.1299 -173.978 1.8403113e-38
1190.86 2134.4399 -173.79601 1.8403113e-38
1172.46 2140.97 -166.951 1.8403113e-38
1163.47 2170.3 -162.95 1.8403113e-38
778.59198 -2886.8701 -150.01401 1.8403113e-38
1166.6801 2466.3101 -156.692 1.8403113e-38
1151.64 2489.4299 -150.653 1.8403113e-38
758.52399 -2912.3799 -143.367 1.8403113e-38
1134.02 2505.8601 -143.842 1.8403113e-38
728.16302 -2876.75 -131.44901 1.8403113e-38
1119.6801 2532.54 -137.966 1.8403113e-38
1101.87 2549.6599 -131.07001 1.8403113e-38
1083.54 2565.7 -124.013 1.8403113e-38
693.26599 -2807.28 -117.036 1.8403113e-38
1065.01 2581.6001 -116.886 1.8403113e-38
1047.71 2602.1101 -110.09 1.8403113e-38
1068.47 2842.4299 -111.6 1.8403113e-38
666.59497 -2785.72 -106.811 1.8403113e-38
1052.65 2700.0601 -109.427 1.8403113e-38
643.841 -2789.5701 -98.645302 1.8403113e-38
619.52899 -2781.3301 -89.610603 1.8403113e-38
575.302 -2798.8401 -73.990898 1.8403113e-38
593.11499 -2754.03 -79.335197 1.8403113e-38
927.77698 2419.4099 -71.121902 1.8403113e-38
951.44 2776.6799 -70.754997 1.8403113e-38
549.87402 -2777.02 -64.210503 1.8403113e-38
951.13501 2877.9399 -68.104897 1.8403113e-38
526.82501 -2775.8 -55.810902 1.8403113e-38
878.79602 2315.3201 -55.946701 1.8403113e-38
871.99597 2369.1201 -52.128601 1.8403113e-38
502.69299 -2761.4399 -46.6884 1.8403113e-38
479.05701 -2749.8301 -37.814701 1.8403113e-38
816.27899 2398.3401 -31.1647 1.8403113e-38
434.478 -2758.8101 -21.8528 1.8403113e-38
456.69 -2752.9199 -29.770599 1.8403113e-38
772.42401 2293.97 -17.8577 1.8403113e-38
721.96002 2241.05 -0.86116499 1.8403113e-38
746.44202 2265.22 -9.1445799 1.8403113e-38
665.52399 2144.76 17.2164 1.8403113e-38
685.70599 2153.8601 10.1163 1.8403113e-38
620.55603 1994.76 29.7831 1.8403113e-38
604.71802 2001.79 35.7104 1.8403113e-38
569.763 1995.66 48.248901 1.8403113e-38
589.422 2012.63 41.535999 1.8403113e-38
552.96503 1996.3 54.364399 1.8403113e-38
545.297 2064.1499 58.849899 1.8403113e-38
533.13501 2105.21 64.295898 1.8403113e-38
506.763 2032.02 72.036201 1.8403113e-38
508.05301 2198.03 75.730904 1.8403113e-38
651.03601 4113.4302 71.844101 1.8403113e-38
288.41299 -563.20801 86.241699 1.8403113e-38
282.31799 -520.52301 89.524902 1.8403113e-38
288.66901 -485.10599 88.107201 1.8403113e-38
490.79001 2209 82.2742 1.8403113e-38
619.87598 4148.4399 84.036598 1.8403113e-38
255.16998 -542.58997 98.829147 1.8403113e-38
275.68951 -503.81152 92.351105 1.8403113e-38
265.70535 -494.40164 96.212097 1.8403113e-38
226.761 -620.14301 107.2 1.8403113e-38
222.515 -609.849 109 1.8403113e-38
232.748 -600.44202 105.52 1.8403113e-38
238.588 -576.68597 103.995 1.8403113e-38
243.63901 -563.862 102.483 1.8403113e-38
248.22701 -559.98602 100.914 1.8403113e-38
417.14899 2208.4399 109 1.8403113e-38
443.95801 2317.76 102.007 1.8403113e-38
