# .PCD v0.7 - Point Cloud Data file format
VERSION 0.7
FIELDS x y z rgb
SIZE 4 4 4 4
TYPE F F F F
COUNT 1 1 1 1
WIDTH 356
HEIGHT 1
VIEWPOINT 0 0 0 1 0 0 0
POINTS 356
DATA ascii
1129.04 -3264.5901 -286.73599 1.8403113e-38
1131.4399 -3168.1399 -285.19 1.8403113e-38
1142.89 -3014 -285.479 1.8403113e-38
1155.72 -2966.5801 -288.95001 1.8403113e-38
1160.17 -2894.55 -288.76099 1.8403113e-38
1163.8199 -2823.6201 -288.306 1.8403113e-38
1166.6801 -2753.8 -287.59399 1.8403113e-38
1171.33 -2692.6001 -287.74799 1.8403113e-38
1176.6801 -2636.2 -288.276 1.8403113e-38
1180.51 -2578.0601 -288.207 1.8403113e-38
1182.77 -2518.2 -287.52701 1.8403113e-38
1185.16 -2461.29 -286.97 1.8403113e-38
1187.05 -2405.45 -286.25699 1.8403113e-38
1192.47 -2360.79 -287.104 1.8403113e-38
1200.2 -2323.55 -288.97699 1.8403113e-38
1193.74 -2253.54 -284.875 1.8403113e-38
1197.03 -2209.25 -284.95999 1.8403113e-38
1200.46 -2166.8999 -285.142 1.8403113e-38
1203.66 -2125.55 -285.26801 1.8403113e-38
1207.49 -2087.01 -285.69101 1.8403113e-38
1211.17 -2049.45 -286.08701 1.8403113e-38
1211.77 -2006.66 -285.23099 1.8403113e-38
1212.6 -1965.8 -284.509 1.8403113e-38
1219.85 -1939.16 -286.47198 1.8403113e-38
1221.83 -1902.91 -286.284 1.8403113e-38
1225.11 -1870.25 -286.65399 1.8403113e-38
1224.7 -1831.62 -285.53699 1.8403113e-38
1228.41 -1801.77 -286.133 1.8403113e-38
1231.6899 -1772 -286.58099 1.8403113e-38
1231.6801 -1737.1899 -285.70401 1.8403113e-38
1232.64 -1705.0601 -285.245 1.8403113e-38
1236.11 -1678.13 -285.832 1.8403113e-38
1240.23 -1652.95 -286.694 1.8403113e-38
1241.46 -1623.64 -286.405 1.8403113e-38
1242.8 -1595.27 -286.17999 1.8403113e-38
1244.27 -1567.83 -286.02701 1.8403113e-38
1251.1899 -1549.52 -288.082 1.8403113e-38
1250.38 -1519.78 -287.04199 1.8403113e-38
1248.08 -1488.55 -285.42099 1.8403113e-38
1256.88 -1474.41 -288.26199 1.8403113e-38
1258.85 -1450.61 -288.38 1.8403113e-38
1246.42 -1407.01 -282.77701 1.8403113e-38
1253.87 -1392.2 -285.10901 1.8403113e-38
1250.2 -1362.45 -283.03101 1.8403113e-38
1266.51 -1360.15 -288.89499 1.8403113e-38
1257.53 -1324.38 -284.73801 1.8403113e-38
1261.14 -1305.79 -285.58301 1.8403113e-38
1257.9 -1278.84 -283.73199 1.8403113e-38
1257.95 -1256.6 -283.19 1.8403113e-38
1257.71 -1234.46 -282.547 1.8403113e-38
1262.76 -1219.13 -283.99701 1.8403113e-38
1266.39 -1202.3199 -284.892 1.8403113e-38
1266.02 -1181.14 -284.22699 1.8403113e-38
1280.0699 -1176.8 -289.21899 1.8403113e-38
1270.91 -1146.3 -285.13199 1.8403113e-38
1280.86 -1137.54 -288.52301 1.8403113e-38
1280.89 -1118.04 -288.04501 1.8403113e-38
1282.67 -1100.73 -288.25601 1.8403113e-38
1278.89 -1077.9 -286.31299 1.8403113e-38
1276.84 -1057.3 -285.052 1.8403113e-38
1280.65 -1042.99 -286.07501 1.8403113e-38
1291.15 -1035.47 -289.69901 1.8403113e-38
1289.86 -1016.41 -288.754 1.8403113e-38
1280.6801 -990.13702 -284.76199 1.8403113e-38
1284.48 -976.63397 -285.80399 1.8403113e-38
1288.85 -963.78802 -287.06699 1.8403113e-38
1284.53 -943.19098 -284.98199 1.8403113e-38
1293.59 -934.88599 -288.065 1.8403113e-38
1284.52 -910.68402 -284.16299 1.8403113e-38
1288.24 -897.97998 -285.194 1.8403113e-38
1283.02 -877.85498 -282.79599 1.8403113e-38
1284.2 -863.40198 -282.86301 1.8403113e-38
1284.48 -848.39099 -282.58701 1.8403113e-38
1294.33 -841.21002 -285.98199 1.8403113e-38
1283.78 -817.96399 -281.57101 1.8403113e-38
1289.62 -807.82001 -283.43701 1.8403113e-38
1303.77 -803.96997 -288.478 1.8403113e-38
1289.52 -778.854 -282.673 1.8403113e-38
1287 -735.06799 -280.66199 1.8403113e-38
1292.14 -724.94598 -282.272 1.8403113e-38
1291.65 -711.05499 -281.745 1.8403113e-38
1289.41 -696.17798 -280.56201 1.8403113e-38
1294.21 -686.06 -282.05099 1.8403113e-38
1295.71 -673.86401 -282.289 1.8403113e-38
1293.86 -659.68103 -281.259 1.8403113e-38
1292.66 -646.08002 -280.483 1.8403113e-38
1294.75 -621.98199 -280.63901 1.8403113e-38
1295.54 -597.54102 -280.314 1.8403113e-38
1302.83 -589.26703 -282.75299 1.8403113e-38
1297.52 -574.16199 -280.44601 1.8403113e-38
1299.89 -551.32898 -280.73499 1.8403113e-38
1300.92 -539.94501 -280.82101 1.8403113e-38
1301.79 -516.83801 -280.55899 1.8403113e-38
1302.71 -482.62601 -280.034 1.8403113e-38
1304.8199 -472.172 -280.539 1.8403113e-38
1307.84 -417.521 -280.26501 1.8403113e-38
1314.96 -333.67499 -280.746 1.8403113e-38
1318.15 -282.186 -280.61499 1.8403113e-38
1335.89 -12.545 -280.29401 1.8403113e-38
1336.73 7.3840399 -280.10101 1.8403113e-38
1343.49 37.6423 -281.79501 1.8403113e-38
1343.0699 47.661098 -281.39099 1.8403113e-38
1342.92 67.757401 -280.83401 1.8403113e-38
1342.26 77.767502 -280.341 1.8403113e-38
1344.42 98.168198 -280.61499 1.8403113e-38
1345.3101 118.554 -280.427 1.8403113e-38
1357.29 130.356 -284.483 1.8403113e-38
1348.36 170.181 -280.241 1.8403113e-38
1354.28 181.589 -282.10199 1.8403113e-38
1350.8199 191.33501 -280.604 1.8403113e-38
1360.24 203.649 -283.715 1.8403113e-38
1358.46 213.80499 -282.814 1.8403113e-38
1369.37 237.466 -286.18201 1.8403113e-38
1356.01 255.621 -280.87399 1.8403113e-38
1365.6899 268.82901 -284.05899 1.8403113e-38
1363.71 289.96899 -282.81 1.8403113e-38
1372.13 303.31 -285.53101 1.8403113e-38
1361.37 311.117 -281.42899 1.8403113e-38
1360.47 332.84201 -280.55899 1.8403113e-38
1360.33 343.87601 -280.23099 1.8403113e-38
1368.17 357.68201 -282.73099 1.8403113e-38
1375.86 371.65799 -285.17499 1.8403113e-38
1369.14 380.651 -282.50601 1.8403113e-38
1370.35 392.521 -282.64999 1.8403113e-38
1365.25 402.07199 -280.55701 1.8403113e-38
1369.8 415.371 -281.87601 1.8403113e-38
1382.15 431.978 -285.94501 1.8403113e-38
1373.22 440.133 -282.49899 1.8403113e-38
1374.76 452.60901 -282.74301 1.8403113e-38
1369.1899 462.11301 -280.483 1.8403113e-38
1372.25 475.42001 -281.259 1.8403113e-38
1371.05 499.07999 -280.23099 1.8403113e-38
1385.5699 493.56 -285.64099 1.8403113e-38
1375.4399 513.414 -281.46799 1.8403113e-38
1376.1 538.59399 -281.07501 1.8403113e-38
1375.8199 551.03302 -280.66199 1.8403113e-38
1376.27 563.95001 -280.5 1.8403113e-38
1379.12 578.26898 -281.17499 1.8403113e-38
1384.33 594.05701 -282.673 1.8403113e-38
1379.27 617.52301 -280.246 1.8403113e-38
1381.1899 645.38 -280.245 1.8403113e-38
1381.52 659.15698 -280.021 1.8403113e-38
1384.98 675.005 -280.87799 1.8403113e-38
1387.33 704.44098 -280.992 1.8403113e-38
1107.0699 -2983.1299 -271.70001 1.8403113e-38
1283.4301 -760.25 -279.99701 1.8403113e-38
1282.5601 -745.70502 -279.31601 1.8403113e-38
1289.6801 -631.57703 -279.039 1.8403113e-38
1291.5 -607.61499 -279.09799 1.8403113e-38
1294.5601 -560.52698 -279.03 1.8403113e-38
1296.73 -526.07599 -278.953 1.8403113e-38
1297.35 -503.12299 -278.60101 1.8403113e-38
1298.78 -492.29001 -278.85001 1.8403113e-38
1298.14 -458.01599 -277.758 1.8403113e-38
1301.79 -448.362 -278.84 1.8403113e-38
1300.1 -436.55399 -277.92999 1.8403113e-38
1300.9301 -425.84799 -277.96399 1.8403113e-38
1305.84 -405.80801 -279.246 1.8403113e-38
1299.3 -392.561 -276.53699 1.8403113e-38
1306.86 -384.466 -279.07999 1.8403113e-38
1305.4399 -373.21899 -278.28101 1.8403113e-38
1309.28 -363.80301 -279.44199 1.8403113e-38
1305.87 -352.04401 -277.90799 1.8403113e-38
1305.95 -341.49301 -277.67099 1.8403113e-38
1311.25 -322.043 -279.108 1.8403113e-38
1313.78 -312.28299 -279.78201 1.8403113e-38
1312.59 -301.51801 -279.082 1.8403113e-38
1310.4 -290.56299 -278.01099 1.8403113e-38
1313.04 -270.60599 -278.46701 1.8403113e-38
1316.0601 -261.047 -279.32599 1.8403113e-38
1313.5 -250.23399 -278.12399 1.8403113e-38
1318.2 -241.04401 -279.60199 1.8403113e-38
1315.46 -230.3 -278.336 1.8403113e-38
1315.3149 -215.09 -277.90201 1.8403113e-38
1314.0699 -199.767 -277.065 1.8403113e-38
1313.995 -184.728 -276.66299 1.8403113e-38
1316.55 -170.14301 -277.224 1.8403113e-38
1318.77 -160.47701 -277.78601 1.8403113e-38
1319.97 -150.66499 -277.978 1.8403113e-38
1319.23 -140.627 -277.45599 1.8403113e-38
1314.67 -130.216 -275.53799 1.8403113e-38
1320.3 -120.9 -277.35001 1.8403113e-38
1319.3101 -110.915 -276.73999 1.8403113e-38
1326.66 -101.618 -279.17801 1.8403113e-38
1320.8199 -91.286201 -276.79901 1.8403113e-38
1321.46 -81.463303 -276.784 1.8403113e-38
1321.08 -71.588303 -276.39801 1.8403113e-38
1326.25 -61.958199 -278.034 1.8403113e-38
1329.47 -52.177898 -278.95599 1.8403113e-38
1327.91 -42.236801 -278.14001 1.8403113e-38
1331.9 -32.4035 -279.34399 1.8403113e-38
1332.0601 -22.4844 -279.151 1.8403113e-38
1334 -2.6185501 -279.35999 1.8403113e-38
1330.92 17.156401 -277.746 1.8403113e-38
1331.61 27.1008 -277.746 1.8403113e-38
1335.0601 57.146599 -278.245 1.8403113e-38
1340.5699 87.6782 -279.48099 1.8403113e-38
1342.5699 108.079 -279.69501 1.8403113e-38
1343.0601 138.59599 -279.108 1.8403113e-38
1341.8101 148.599 -278.40399 1.8403113e-38
1340.48 158.59 -277.67099 1.8403113e-38
1346.46 221.696 -278.258 1.8403113e-38
1349.86 243.49899 -278.948 1.8403113e-38
1353.33 276.314 -279.38501 1.8403113e-38
1357.8 320.98999 -279.88599 1.8403113e-38
1371.98 524.09497 -279.94199 1.8403113e-38
1375.17 602.06201 -279.146 1.8403113e-38
1374.92 628.28998 -278.397 1.8403113e-38
1380.14 685.84802 -278.85001 1.8403113e-38
1383.04 715.84497 -279.151 1.8403113e-38
1380.26 728.28998 -277.827 1.8403113e-38
1386.09 746.69299 -279.483 1.8403113e-38
1379.0601 756.47803 -276.68701 1.8403113e-38
1386.11 776.19702 -278.74899 1.8403113e-38
1387.4399 792.15997 -278.83301 1.8403113e-38
1381.61 803.07202 -276.44199 1.8403113e-38
1389.5699 824.33099 -278.802 1.8403113e-38
1385 836.44299 -276.83801 1.8403113e-38
1390.23 856.22302 -278.23999 1.8403113e-38
1386.13 868.97803 -276.42999 1.8403113e-38
1385.66 884.75 -275.866 1.8403113e-38
1393.25 907.31598 -278.05499 1.8403113e-38
1393.12 923.89203 -277.59299 1.8403113e-38
1390.6 938.65601 -276.306 1.8403113e-38
1389.38 954.70697 -275.46201 1.8403113e-38
1391.62 974.005 -275.79199 1.8403113e-38
1394.35 994.06201 -276.28101 1.8403113e-38
1393.98 1011.63 -275.703 1.8403113e-38
1396.24 1031.9 -276.017 1.8403113e-38
1391.2 1045.63 -273.841 1.8403113e-38
1397.22 1070.1 -275.41599 1.8403113e-38
1395.29 1087.29 -274.28201 1.8403113e-38
1395.91 1107.27 -274.008 1.8403113e-38
1396.3 1127.34 -273.64401 1.8403113e-38
1395.76 1146.8 -272.961 1.8403113e-38
1401.04 1172.67 -274.23001 1.8403113e-38
1396.65 1188.78 -272.23099 1.8403113e-38
1400.67 1214.21 -273.05399 1.8403113e-38
1397.15 1231.86 -271.33401 1.8403113e-38
1400.58 1257.54 -271.93301 1.8403113e-38
1404.3101 1284.11 -272.621 1.8403113e-38
1406.41 1309.36 -272.75201 1.8403113e-38
1406.29 1332.51 -272.129 1.8403113e-38
1408.38 1358.76 -272.23001 1.8403113e-38
1412.61 1388.17 -273.026 1.8403113e-38
1414.6 1415.48 -273.06299 1.8403113e-38
1413.79 1439.84 -272.16101 1.8403113e-38
1413.28 1465.0699 -271.34201 1.8403113e-38
1417.79 1497.42 -272.16699 1.8403113e-38
1418.91 1526.03 -271.858 1.8403113e-38
1422.5601 1558.73 -272.36301 1.8403113e-38
1422.3101 1586.8199 -271.56799 1.8403113e-38
1425.1 1619.84 -271.75101 1.8403113e-38
1425.74 1650.6 -271.215 1.8403113e-38
1426.53 1682.3101 -270.70401 1.8403113e-38
1434.5601 1725.58 -272.535 1.8403113e-38
1430.59 1751.87 -270.435 1.8403113e-38
1435.37 1792.27 -271.159 1.8403113e-38
1443.6899 1910.51 -271.21301 1.8403113e-38
1449.1 1994.77 -271.06601 1.8403113e-38
1074.04 -3163.0801 -264.21799 1.8403113e-38
1433.77 1823.73 -269.78699 1.8403113e-38
1434.87 1860.3101 -269.26901 1.8403113e-38
1442.12 1944.9301 -269.78201 1.8403113e-38
1415.34 1975.62 -259.28699 1.8403113e-38
1384.9 1961.16 -248.59599 1.8403113e-38
1005.89 -3000.99 -235.409 1.8403113e-38
1337.5 1915.2 -232.53799 1.8403113e-38
971.58197 -2967.3899 -222.10899 1.8403113e-38
1323.09 1927.55 -226.99699 1.8403113e-38
1305.77 1934.55 -220.53101 1.8403113e-38
941.69897 -2949.8501 -210.81799 1.8403113e-38
1286.5699 1937.87 -213.478 1.8403113e-38
1355.9 2702.21 -219.485 1.8403113e-38
913.24402 -2936.8401 -200.16 1.8403113e-38
1269.21 1944.5 -207.005 1.8403113e-38
1252.25 1951.85 -200.664 1.8403113e-38
891.30402 -2952.71 -192.591 1.8403113e-38
1233.9301 1956.36 -193.901 1.8403113e-38
1226.79 1983.89 -190.616 1.8403113e-38
1266.6801 2207.6599 -199.489 1.8403113e-38
872.55402 -3114.79 -189.847 1.8403113e-38
871.96002 -2982.04 -186.30299 1.8403113e-38
1218.85 2010.55 -187.063 1.8403113e-38
1227.97 2075.03 -188.758 1.8403113e-38
1215.63 2142.26 -182.592 1.8403113e-38
1252.72 2505.6599 -186.94701 1.8403113e-38
1266.15 2603.72 -189.36301 1.8403113e-38
833.08301 -3046.1799 -173.795 1.8403113e-38
1191.26 2135.3501 -173.916 1.8403113e-38
1230.0699 2573.5901 -177.019 1.8403113e-38
1175.16 2147.3799 -167.77 1.8403113e-38
1164.6 2173.0601 -163.293 1.8403113e-38
778.76801 -2887.8501 -150.10201 1.8403113e-38
1168.38 2470.99 -157.192 1.8403113e-38
758.85999 -2914.3401 -143.53799 1.8403113e-38
1148.65 2480.98 -149.77901 1.8403113e-38
1131.1 2497.3899 -142.993 1.8403113e-38
726.72302 -2867.8999 -130.70399 1.8403113e-38
1120.3101 2534.4199 -138.14799 1.8403113e-38
1101.87 2549.6599 -131.07001 1.8403113e-38
1083.54 2565.7 -124.013 1.8403113e-38
693.72198 -2810.24 -117.275 1.8403113e-38
1066.1899 2585.4099 -117.217 1.8403113e-38
1047.71 2602.1101 -110.09 1.8403113e-38
1056.27 2712.51 -110.427 1.8403113e-38
1071.4399 2852.99 -112.414 1.8403113e-38
666.883 -2787.7 -106.965 1.8403113e-38
642.62097 -2780.6699 -97.978996 1.8403113e-38
619.784 -2783.3101 -89.7528 1.8403113e-38
575.414 -2799.8301 -74.056198 1.8403113e-38
593.23499 -2755.02 -79.403397 1.8403113e-38
930.40002 2429.03 -71.833 1.8403113e-38
951.67902 2777.6499 -70.817299 1.8403113e-38
549.97699 -2778.01 -64.272903 1.8403113e-38
952.74902 2884.73 -68.520699 1.8403113e-38
526.06598 -2767.8501 -55.3358 1.8403113e-38
881.086 2324.01 -56.560398 1.8403113e-38
872.98199 2372.99 -52.389599 1.8403113e-38
502.69299 -2761.4399 -46.6884 1.8403113e-38
479.76501 -2758.78 -38.2962 1.8403113e-38
816.05603 2397.3601 -31.108299 1.8403113e-38
434.60199 -2760.8 -21.948 1.8403113e-38
456.19699 -2745.95 -29.4167 1.8403113e-38
772.42401 2293.97 -17.8577 1.8403113e-38
721.76202 2240.0801 -0.81356502 1.8403113e-38
746.44202 2265.22 -9.1445799 1.8403113e-38
686.659 2158.76 9.8931103 1.8403113e-38
663.33301 2132.97 17.7166 1.8403113e-38
620.03302 1991.8101 29.8992 1.8403113e-38
605.71698 2007.71 35.495899 1.8403113e-38
569.763 1995.66 48.248901 1.8403113e-38
588.63 2007.7 41.699902 1.8403113e-38
553.534 2000.26 54.257099 1.8403113e-38
545.70001 2067.1201 58.778301 1.8403113e-38
533.513 2108.1799 64.233299 1.8403113e-38
506.52701 2030.03 72.071999 1.8403113e-38
506.40701 2183.1201 75.954697 1.8403113e-38
652.06299 4124.3799 71.745598 1.8403113e-38
288.73401 -570.19501 85.949898 1.8403113e-38
282.733 -531.50702 89.098999 1.8403113e-38
491.39999 2214.97 82.202499 1.8403113e-38
619.62 4145.46 84.054497 1.8403113e-38
253.422 -522.07898 99.978302 1.8403113e-38
277.72299 -504.73499 91.589302 1.8403113e-38
265.66531 -491.73633 96.293602 1.8403113e-38
273.60199 -498.89001 93.232201 1.8403113e-38
258.10901 -474.12799 99.478699 1.8403113e-38
227.793 -603.17401 107.251 1.8403113e-38
223.342 -597.87701 109 1.8403113e-38
233.274 -590.45599 105.58 1.8403113e-38
239.342 -559.703 104.147 1.8403113e-38
244.218 -547.87402 102.674 1.8403113e-38
248.98199 -532.99902 101.317 1.8403113e-38
417.28699 2210.4299 109 1.8403113e-38
444.035 2318.76 102.004 1.8403113e-38
