# .PCD v0.7 - Point Cloud Data file format
VERSION 0.7
FIELDS x y z rgb
SIZE 4 4 4 4
TYPE F F F F
COUNT 1 1 1 1
WIDTH 356
HEIGHT 1
VIEWPOINT 0 0 0 1 0 0 0
POINTS 356
DATA ascii
1129.55 -3266.51 -286.97 1.8403113e-38
1128.8101 -3158.5701 -283.992 1.8403113e-38
1142.05 -3011.1399 -285.103 1.8403113e-38
1156.58 -2969.4199 -289.33499 1.8403113e-38
1159.88 -2893.6001 -288.63 1.8403113e-38
1164.42 -2825.51 -288.573 1.8403113e-38
1166.6801 -2753.8 -287.59399 1.8403113e-38
1172.29 -2695.4099 -288.16501 1.8403113e-38
1174.4 -2629.6599 -287.28299 1.8403113e-38
1180.51 -2578.0601 -288.207 1.8403113e-38
1183.11 -2519.1299 -287.67401 1.8403113e-38
1186.21 -2464.0601 -287.42001 1.8403113e-38
1187.41 -2406.3701 -286.409 1.8403113e-38
1192.47 -2360.79 -287.104 1.8403113e-38
1197.6 -2317.1399 -287.87201 1.8403113e-38
1193.74 -2253.54 -284.875 1.8403113e-38
1200.9 -2218.3301 -286.59201 1.8403113e-38
1200.85 -2167.8 -285.30701 1.8403113e-38
1205.67 -2130.05 -286.11099 1.8403113e-38
1204.63 -2080.73 -284.49399 1.8403113e-38
1211.17 -2049.45 -286.08701 1.8403113e-38
1212.62 -2008.4399 -285.58401 1.8403113e-38
1216.91 -1974.64 -286.29599 1.8403113e-38
1220.29 -1940.04 -286.65399 1.8403113e-38
1222.73 -1904.66 -286.651 1.8403113e-38
1221.49 -1863.28 -285.16299 1.8403113e-38
1224.7 -1831.62 -285.53699 1.8403113e-38
1228.87 -1802.64 -286.32501 1.8403113e-38
1227.4301 -1764.27 -284.83801 1.8403113e-38
1232.64 -1738.9 -286.09601 1.8403113e-38
1236.54 -1711.86 -286.83401 1.8403113e-38
1236.11 -1678.13 -285.832 1.8403113e-38
1239.72 -1652.1 -286.48999 1.8403113e-38
1246.04 -1631.16 -288.25699 1.8403113e-38
1246.92 -1601.92 -287.84601 1.8403113e-38
1245.84 -1570.3101 -286.65799 1.8403113e-38
1249.0699 -1546.23 -287.23001 1.8403113e-38
1248.77 -1517.33 -286.396 1.8403113e-38
1253.51 -1496.66 -287.59698 1.8403113e-38
1252.48 -1467.96 -286.504 1.8403113e-38
1253.84 -1443.41 -286.38101 1.8403113e-38
1247.55 -1408.6 -283.22601 1.8403113e-38
1249.3101 -1385.88 -283.29501 1.8403113e-38
1250.78 -1363.23 -283.259 1.8403113e-38
1257.1899 -1347.6801 -285.198 1.8403113e-38
1262.83 -1331.34 -286.83701 1.8403113e-38
1261.74 -1306.5601 -285.81799 1.8403113e-38
1253.09 -1272.74 -281.83099 1.8403113e-38
1258.5601 -1257.36 -283.42999 1.8403113e-38
1258.9399 -1235.96 -283.03 1.8403113e-38
1262.76 -1219.13 -283.99701 1.8403113e-38
1262.63 -1197.89 -283.41599 1.8403113e-38
1266.65 -1181.88 -284.47501 1.8403113e-38
1275.59 -1171.7 -287.46799 1.8403113e-38
1265.11 -1139.8101 -282.862 1.8403113e-38
1269.15 -1124.66 -283.948 1.8403113e-38
1270.39 -1106.6801 -283.94601 1.8403113e-38
1276.04 -1093.7 -285.67401 1.8403113e-38
1279.5601 -1078.6 -286.573 1.8403113e-38
1276.17 -1056.61 -284.79001 1.8403113e-38
1281.33 -1043.67 -286.33899 1.8403113e-38
1280.87 -1025.29 -285.71201 1.8403113e-38
1291.9301 -1018.42 -289.55701 1.8403113e-38
1281.38 -990.80298 -285.03201 1.8403113e-38
1286.59 -978.60999 -286.61801 1.8403113e-38
1288.14 -963.13599 -286.793 1.8403113e-38
1286.67 -945.12701 -285.80701 1.8403113e-38
1287.85 -929.776 -285.85101 1.8403113e-38
1284.52 -910.68402 -284.16299 1.8403113e-38
1288.24 -897.97998 -285.194 1.8403113e-38
1285.22 -879.71002 -283.642 1.8403113e-38
1284.2 -863.40198 -282.86301 1.8403113e-38
1278.53 -843.55402 -280.306 1.8403113e-38
1284.59 -833.44098 -282.25299 1.8403113e-38
1285.29 -819.146 -282.147 1.8403113e-38
1291.14 -808.987 -284.017 1.8403113e-38
1294.61 -797.05298 -284.979 1.8403113e-38
1289.52 -778.854 -282.673 1.8403113e-38
1284.21 -760.81201 -280.29099 1.8403113e-38
1291.89 -752.36298 -282.87 1.8403113e-38
1287.79 -735.61603 -280.95999 1.8403113e-38
1292.92 -725.487 -282.57101 1.8403113e-38
1292.4399 -711.58801 -282.04599 1.8403113e-38
1290.21 -696.703 -280.86401 1.8403113e-38
1295.01 -686.578 -282.354 1.8403113e-38
1296.52 -674.375 -282.59399 1.8403113e-38
1293.86 -659.68103 -281.259 1.8403113e-38
1291.84 -645.58398 -280.17499 1.8403113e-38
1297.85 -636.45599 -282.12601 1.8403113e-38
1296.39 -622.94202 -281.259 1.8403113e-38
1298.92 -611.86902 -281.89899 1.8403113e-38
1296.37 -598.00598 -280.62601 1.8403113e-38
1300.33 -587.896 -281.81201 1.8403113e-38
1300.0699 -539.51898 -280.50299 1.8403113e-38
1302.65 -517.24799 -280.879 1.8403113e-38
1305.6899 -472.54901 -280.86401 1.8403113e-38
1314.05 -344.005 -280.67599 1.8403113e-38
1315.86 -333.94601 -281.08099 1.8403113e-38
1319.98 -282.64301 -281.29001 1.8403113e-38
1320.04 -241.433 -280.28 1.8403113e-38
1328.67 -111.736 -280.16 1.8403113e-38
1344.42 98.168198 -280.61499 1.8403113e-38
1350.99 201.778 -280.40399 1.8403113e-38
1358.46 213.80499 -282.814 1.8403113e-38
1362.9301 235.97701 -283.88101 1.8403113e-38
1361.51 257 -282.836 1.8403113e-38
1358.37 266.923 -281.45001 1.8403113e-38
1355.16 276.80701 -280.035 1.8403113e-38
1370.09 291.755 -285.07999 1.8403113e-38
1371.22 303.04599 -285.20801 1.8403113e-38
1363.1801 311.66101 -282.07401 1.8403113e-38
1366.85 323.79401 -283.10001 1.8403113e-38
1364.08 333.99701 -281.84 1.8403113e-38
1361.23 344.17401 -280.54999 1.8403113e-38
1365.48 356.76599 -281.776 1.8403113e-38
1363.78 378.72 -280.60999 1.8403113e-38
1371.39 370.08899 -283.58899 1.8403113e-38
1372.13 393.181 -283.28 1.8403113e-38
1366.13 402.41 -280.871 1.8403113e-38
1368.91 415.02399 -281.564 1.8403113e-38
1373.33 428.42999 -282.832 1.8403113e-38
1366.1899 437.23001 -280.01901 1.8403113e-38
1368.63 450.01099 -280.582 1.8403113e-38
1370.0601 462.492 -280.79001 1.8403113e-38
1371.38 475.03201 -280.953 1.8403113e-38
1375.275 494.94449 -281.86801 1.8403113e-38
1377.16 514.23602 -282.07199 1.8403113e-38
1377.98 527.02899 -282.04599 1.8403113e-38
1380.0699 553.20801 -282.14999 1.8403113e-38
1377.12 564.39301 -280.797 1.8403113e-38
1385.02 581.42297 -283.23801 1.8403113e-38
1383.53 606.72302 -282.06201 1.8403113e-38
1382.84 646.35797 -280.819 1.8403113e-38
1382.34 659.65302 -280.306 1.8403113e-38
1389.04 734.164 -280.87 1.8403113e-38
1109.24 -2990.77 -272.67999 1.8403113e-38
1290.83 -570.56702 -277.927 1.8403113e-38
1289.53 -557.87799 -277.134 1.8403113e-38
1293.15 -547.85901 -278.198 1.8403113e-38
1296.73 -526.07599 -278.953 1.8403113e-38
1298.2 -503.52499 -278.922 1.8403113e-38
1293.62 -489.92599 -276.91599 1.8403113e-38
1295.8 -479.53799 -277.44699 1.8403113e-38
1299.01 -458.38599 -278.08401 1.8403113e-38
1302.66 -448.724 -279.16599 1.8403113e-38
1300.1 -436.55399 -277.92999 1.8403113e-38
1300.9301 -425.84799 -277.96399 1.8403113e-38
1302.55 -415.49799 -278.29199 1.8403113e-38
1305.84 -405.80801 -279.246 1.8403113e-38
1304.62 -394.48499 -278.51901 1.8403113e-38
1307.75 -384.77802 -279.41101 1.8403113e-38
1305.4399 -373.21899 -278.28101 1.8403113e-38
1302.12 -361.436 -276.78101 1.8403113e-38
1305.87 -352.04401 -277.90799 1.8403113e-38
1312.15 -322.30499 -279.44299 1.8403113e-38
1306.52 -310.25201 -277.09698 1.8403113e-38
1312.59 -301.51801 -279.082 1.8403113e-38
1313.13 -291.27399 -279.021 1.8403113e-38
1313.95 -270.82599 -278.80499 1.8403113e-38
1316.0601 -261.047 -279.32599 1.8403113e-38
1312.58 -250.03101 -277.78601 1.8403113e-38
1307.16 -228.627 -275.28101 1.8403113e-38
1316.3101 -220.334 -278.396 1.8403113e-38
1307.83 -208.683 -275.02499 1.8403113e-38
1307.58 -198.647 -274.68201 1.8403113e-38
1312.8101 -189.541 -276.353 1.8403113e-38
1309.61 -179.067 -274.927 1.8403113e-38
1315.62 -170.009 -276.88199 1.8403113e-38
1320.63 -160.728 -278.46899 1.8403113e-38
1320.9 -150.782 -278.319 1.8403113e-38
1318.3 -140.519 -277.11499 1.8403113e-38
1314.67 -130.216 -275.53799 1.8403113e-38
1322.17 -121.082 -278.034 1.8403113e-38
1321.04 -101.177 -277.12601 1.8403113e-38
1322.7 -91.415703 -277.483 1.8403113e-38
1322.4 -81.519402 -277.12601 1.8403113e-38
1321.08 -71.588303 -276.39801 1.8403113e-38
1327.1899 -61.996799 -278.37601 1.8403113e-38
1321.95 -51.938801 -276.22198 1.8403113e-38
1321.33 -42.088699 -275.74799 1.8403113e-38
1332.84 -32.415901 -279.685 1.8403113e-38
1332.0601 -22.4844 -279.151 1.8403113e-38
1327.4301 -12.59 -277.224 1.8403113e-38
1326.48 -2.72839 -276.63199 1.8403113e-38
1329.21 7.2044101 -277.375 1.8403113e-38
1331.86 17.187599 -278.086 1.8403113e-38
1332.55 27.1406 -278.08701 1.8403113e-38
1336.91 37.302101 -279.41599 1.8403113e-38
1335.5601 47.202499 -278.67499 1.8403113e-38
1336 57.212601 -278.58401 1.8403113e-38
1338.23 67.383797 -279.14001 1.8403113e-38
1335.6899 77.183502 -277.97299 1.8403113e-38
1341.51 87.770302 -279.81799 1.8403113e-38
1342.5699 108.079 -279.69501 1.8403113e-38
1338.77 117.727 -278.073 1.8403113e-38
1344.23 128.58099 -279.78201 1.8403113e-38
1337.47 137.783 -277.09698 1.8403113e-38
1341.8101 148.599 -278.40399 1.8403113e-38
1341.41 158.743 -278.005 1.8403113e-38
1340.9301 168.89 -277.57501 1.8403113e-38
1346.86 180.23 -279.44199 1.8403113e-38
1344.34 190.08501 -278.28101 1.8403113e-38
1346.46 221.696 -278.258 1.8403113e-38
1349.86 243.49899 -278.948 1.8403113e-38
1365.86 533.46899 -277.48599 1.8403113e-38
1375.9399 589.474 -279.741 1.8403113e-38
1374.28 614.67999 -278.50601 1.8403113e-38
1376.58 629.25201 -278.974 1.8403113e-38
1379.27 671.47498 -278.89301 1.8403113e-38
1380.96 686.35999 -279.13199 1.8403113e-38
1380.0601 699.76801 -278.47 1.8403113e-38
1383.85 716.37097 -279.42899 1.8403113e-38
1382.12 743.98602 -278.10901 1.8403113e-38
1380.64 757.57599 -277.233 1.8403113e-38
1379.8199 771.75 -276.578 1.8403113e-38
1388.22 792.72302 -279.10199 1.8403113e-38
1389.37 808.776 -279.11801 1.8403113e-38
1382.63 819.133 -276.409 1.8403113e-38
1385 836.44299 -276.83801 1.8403113e-38
1390.99 856.815 -278.50201 1.8403113e-38
1386.13 868.97803 -276.42999 1.8403113e-38
1387.92 886.56702 -276.64001 1.8403113e-38
1388.01 903.02802 -276.26199 1.8403113e-38
1393.12 923.89203 -277.59299 1.8403113e-38
1392.8101 940.534 -277.06299 1.8403113e-38
1395.24 959.771 -277.46301 1.8403113e-38
1390.89 973.36499 -275.54401 1.8403113e-38
1395.08 994.70801 -276.52701 1.8403113e-38
1396.13 1013.59 -276.435 1.8403113e-38
1396.24 1031.9 -276.017 1.8403113e-38
1391.9 1046.29 -274.08099 1.8403113e-38
1392.3199 1065.39 -273.75299 1.8403113e-38
1389.73 1081.86 -272.39801 1.8403113e-38
1391.09 1102.47 -272.375 1.8403113e-38
1390.8199 1121.8101 -271.79599 1.8403113e-38
1395.08 1146.1 -272.73199 1.8403113e-38
1395.66 1167.04 -272.41699 1.8403113e-38
1403.3199 1195.89 -274.47501 1.8403113e-38
1400.67 1214.21 -273.05399 1.8403113e-38
1403.71 1239.08 -273.53299 1.8403113e-38
1401.87 1259 -272.36801 1.8403113e-38
1399.8 1278.97 -271.11401 1.8403113e-38
1401.3101 1303.4399 -271.04901 1.8403113e-38
1407.5601 1334 -272.54999 1.8403113e-38
1409.01 1359.51 -272.43799 1.8403113e-38
1408.27 1382.87 -271.58499 1.8403113e-38
1415.8199 1417 -273.47 1.8403113e-38
1414.4 1440.61 -272.362 1.8403113e-38
1414.48 1466.62 -271.73901 1.8403113e-38
1413.03 1491.1801 -270.59799 1.8403113e-38
1419.5 1526.8199 -272.052 1.8403113e-38
1418.49 1553.1899 -271.02399 1.8403113e-38
1423.46 1588.42 -271.94501 1.8403113e-38
1425.66 1620.64 -271.93799 1.8403113e-38
1426.87 1652.21 -271.582 1.8403113e-38
1427.08 1683.12 -270.88599 1.8403113e-38
1429.0699 1717.41 -270.74799 1.8403113e-38
1431.67 1753.51 -270.78699 1.8403113e-38
1435.91 1793.09 -271.332 1.8403113e-38
1443.17 1909.67 -271.047 1.8403113e-38
1075.77 -3169.8101 -265.017 1.8403113e-38
1434.3 1824.5601 -269.95801 1.8403113e-38
1436.4301 1862.8199 -269.77399 1.8403113e-38
1442.63 1945.77 -269.94601 1.8403113e-38
1417.8101 1979.9 -260.07599 1.8403113e-38
1445.6 1988.8199 -269.94199 1.8403113e-38
1385.87 1962.88 -248.90601 1.8403113e-38
1006.37 -3002.9199 -235.631 1.8403113e-38
1340.38 1920.38 -233.45399 1.8403113e-38
971.34998 -2966.4299 -222 1.8403113e-38
1306.23 1935.42 -220.67799 1.8403113e-38
1327.8199 1936.23 -228.49699 1.8403113e-38
940.354 -2944.04 -210.18401 1.8403113e-38
1287.95 1940.5 -213.911 1.8403113e-38
1357.02 2704.98 -219.819 1.8403113e-38
913.46002 -2937.8101 -200.263 1.8403113e-38
1270.11 1946.26 -207.289 1.8403113e-38
1252.25 1951.85 -200.664 1.8403113e-38
891.51202 -2953.6799 -192.69099 1.8403113e-38
1234.37 1957.25 -194.037 1.8403113e-38
1225.9301 1982.11 -190.349 1.8403113e-38
1267.09 2208.5701 -199.614 1.8403113e-38
1269.34 2612.0801 -190.314 1.8403113e-38
872.74701 -3115.76 -189.942 1.8403113e-38
872.15997 -2983.02 -186.39999 1.8403113e-38
1215.47 2003.37 -186.01601 1.8403113e-38
1228.8 2076.8401 -189.01401 1.8403113e-38
1216.4301 2144.0701 -182.83701 1.8403113e-38
1254.89 2511.21 -187.59801 1.8403113e-38
833.45099 -3048.1299 -173.978 1.8403113e-38
1191.65 2136.26 -174.036 1.8403113e-38
1233.54 2582.9099 -178.048 1.8403113e-38
1176.3199 2150.1299 -168.121 1.8403113e-38
1164.98 2173.98 -163.407 1.8403113e-38
778.94397 -2888.8301 -150.19099 1.8403113e-38
1166.34 2465.3799 -156.592 1.8403113e-38
758.02002 -2909.4299 -143.11 1.8403113e-38
1146.33 2474.4199 -149.099 1.8403113e-38
1130.45 2495.51 -142.80499 1.8403113e-38
727.04303 -2869.8701 -130.87 1.8403113e-38
1117.78 2526.8701 -137.41701 1.8403113e-38
1101.25 2547.77 -130.89301 1.8403113e-38
1081.74 2560.01 -123.499 1.8403113e-38
693.41803 -2808.27 -117.116 1.8403113e-38
1064.4301 2579.6899 -116.721 1.8403113e-38
1061.55 2730.7 -111.889 1.8403113e-38
1071.98 2854.9099 -112.562 1.8403113e-38
665.58899 -2778.8201 -106.272 1.8403113e-38
1046 2596.3799 -109.611 1.8403113e-38
642.62097 -2780.6699 -97.978996 1.8403113e-38
619.784 -2783.3101 -89.7528 1.8403113e-38
574.63501 -2792.8899 -73.599297 1.8403113e-38
593.23499 -2755.02 -79.403397 1.8403113e-38
928.039 2420.3701 -71.1931 1.8403113e-38
948.578 2765.0601 -70.007103 1.8403113e-38
550.08002 -2779 -64.335197 1.8403113e-38
950.67297 2875.99 -67.986099 1.8403113e-38
526.16101 -2768.8501 -55.395199 1.8403113e-38
880.57703 2322.0801 -56.424099 1.8403113e-38
870.51703 2363.3201 -51.737 1.8403113e-38
502.78 -2762.4299 -46.7449 1.8403113e-38
479.13599 -2750.8201 -37.868198 1.8403113e-38
816.27899 2398.3401 -31.1647 1.8403113e-38
456.056 -2743.96 -29.315599 1.8403113e-38
772.20898 2293 -17.804199 1.8403113e-38
720.37097 2233.22 -0.48036399 1.8403113e-38
747.06201 2268.1499 -9.2962399 1.8403113e-38
664.42798 2138.8701 17.466499 1.8403113e-38
685.70599 2153.8601 10.1163 1.8403113e-38
620.73102 1995.75 29.7444 1.8403113e-38
607.04901 2015.59 35.2099 1.8403113e-38
568.26001 1985.78 48.547001 1.8403113e-38
587.99597 2003.75 41.831001 1.8403113e-38
552.67999 1994.3199 54.418098 1.8403113e-38
545.56598 2066.1299 58.8022 1.8403113e-38
532.505 2100.25 64.400299 1.8403113e-38
506.64499 2031.02 72.0541 1.8403113e-38
506.95499 2188.0901 75.880096 1.8403113e-38
652.25 4126.3701 71.727699 1.8403113e-38
298.60001 -582.51703 82.058296 1.8403113e-38
289.05499 -577.18103 85.658096 1.8403113e-38
292.88501 -562.914 84.625099 1.8403113e-38
282.883 -535.50098 88.944099 1.8403113e-38
491.50101 2215.97 82.190598 1.8403113e-38
619.70502 4146.4502 84.0485 1.8403113e-38
278.54901 -532.70502 90.588203 1.8403113e-38
274.11301 -522.87201 92.445396 1.8403113e-38
257.659 -513.117 98.664398 1.8403113e-38
265.80832 -517.72565 95.589935 1.8403113e-38
253.58 -514.08099 100.122 1.8403113e-38
249.90401 -500.01599 101.809 1.8403113e-38
246.386 -487.91699 103.39 1.8403113e-38
236.2395 -435.8725 108.379 1.8403113e-38
243.1855 -434.2525 105.8975 1.8403113e-38
415.22 2180.51 109 1.8403113e-38
443.418 2310.78 102.027 1.8403113e-38
