# .PCD v0.7 - Point Cloud Data file format
VERSION 0.7
FIELDS x y z rgb
SIZE 4 4 4 4
TYPE F F F F
COUNT 1 1 1 1
WIDTH 358
HEIGHT 1
VIEWPOINT 0 0 0 1 0 0 0
POINTS 358
DATA ascii
1130.3199 -3269.3899 -287.32101 1.8403113e-38
1132.24 -3171.01 -285.54901 1.8403113e-38
1140.09 -3004.48 -284.22601 1.8403113e-38
1157.45 -2972.27 -289.71899 1.8403113e-38
1160.76 -2896.4399 -289.02301 1.8403113e-38
1165.9399 -2830.23 -289.241 1.8403113e-38
1166.99 -2754.74 -287.73001 1.8403113e-38
1172.92 -2697.29 -288.444 1.8403113e-38
1174.4 -2629.6599 -287.28299 1.8403113e-38
1177.84 -2570.6101 -287.05099 1.8403113e-38
1183.79 -2520.99 -287.96899 1.8403113e-38
1186.5601 -2464.99 -287.57001 1.8403113e-38
1187.77 -2407.29 -286.56201 1.8403113e-38
1190.29 -2355.28 -286.172 1.8403113e-38
1201.6899 -2327.21 -289.60901 1.8403113e-38
1194.88 -2256.27 -285.35699 1.8403113e-38
1198.58 -2212.8799 -285.61301 1.8403113e-38
1202.04 -2170.51 -285.80499 1.8403113e-38
1202.46 -2122.8501 -284.763 1.8403113e-38
1208.72 -2089.7 -286.20401 1.8403113e-38
1212.01 -2051.24 -286.43399 1.8403113e-38
1213.47 -2010.22 -285.936 1.8403113e-38
1214.33 -1969.34 -285.22299 1.8403113e-38
1218.1 -1935.64 -285.74701 1.8403113e-38
1219.61 -1898.52 -285.36499 1.8403113e-38
1226.92 -1873.74 -287.39899 1.8403113e-38
1226.08 -1834.22 -286.103 1.8403113e-38
1230.27 -1805.23 -286.89801 1.8403113e-38
1233.59 -1775.4399 -287.35599 1.8403113e-38
1233.61 -1740.61 -286.48801 1.8403113e-38
1238.01 -1714.41 -287.42999 1.8403113e-38
1238.09 -1681.51 -286.63599 1.8403113e-38
1241.73 -1655.47 -287.30399 1.8403113e-38
1244.51 -1628.65 -287.64001 1.8403113e-38
1247.4399 -1602.75 -288.05399 1.8403113e-38
1247.41 -1572.78 -287.29001 1.8403113e-38
1247.49 -1543.77 -286.59201 1.8403113e-38
1248.77 -1517.33 -286.396 1.8403113e-38
1251.88 -1494.23 -286.944 1.8403113e-38
1251.38 -1466.35 -286.064 1.8403113e-38
1253.28 -1442.61 -286.159 1.8403113e-38
1248.11 -1409.4 -283.45001 1.8403113e-38
1249.88 -1386.67 -283.522 1.8403113e-38
1251.9301 -1364.8 -283.71701 1.8403113e-38
1253.6899 -1343.01 -283.811 1.8403113e-38
1261.65 -1329.8 -286.371 1.8403113e-38
1262.33 -1307.3199 -286.05301 1.8403113e-38
1254.9 -1275.03 -282.54401 1.8403113e-38
1259.17 -1258.11 -283.67001 1.8403113e-38
1259.55 -1236.71 -283.272 1.8403113e-38
1264 -1220.62 -284.48499 1.8403113e-38
1267.64 -1203.8 -285.384 1.8403113e-38
1267.28 -1182.61 -284.72299 1.8403113e-38
1268.5699 -1163.7 -284.71701 1.8403113e-38
1264.47 -1139.08 -282.60999 1.8403113e-38
1278.91 -1135.39 -287.76001 1.8403113e-38
1272.36 -1108.8101 -284.715 1.8403113e-38
1280.02 -1097.92 -287.22299 1.8403113e-38
1279.5601 -1078.6 -286.573 1.8403113e-38
1279.54 -1060.0699 -286.10001 1.8403113e-38
1288.12 -1050.52 -288.978 1.8403113e-38
1278.8101 -1023.26 -284.91501 1.8403113e-38
1278.12 -1004.99 -284.20401 1.8403113e-38
1284.16 -993.46399 -286.10999 1.8403113e-38
1281.6801 -973.99902 -284.71799 1.8403113e-38
1286.73 -961.83197 -286.24701 1.8403113e-38
1288.8101 -947.06299 -286.63199 1.8403113e-38
1290 -931.69202 -286.681 1.8403113e-38
1284.52 -910.68402 -284.16299 1.8403113e-38
1289.6899 -899.22998 -285.755 1.8403113e-38
1287.42 -881.56598 -284.487 1.8403113e-38
1285.6801 -864.625 -283.42999 1.8403113e-38
1280.76 -845.367 -281.16101 1.8403113e-38
1286.09 -834.63599 -282.82599 1.8403113e-38
1286.8 -820.32703 -282.724 1.8403113e-38
1285.83 -804.90198 -281.987 1.8403113e-38
1293.85 -796.47601 -284.68701 1.8403113e-38
1284.14 -774.86902 -280.621 1.8403113e-38
1285.75 -761.93597 -280.88101 1.8403113e-38
1293.45 -753.47302 -283.46201 1.8403113e-38
1290.13 -737.25897 -281.853 1.8403113e-38
1288.2 -722.245 -280.776 1.8403113e-38
1294.8101 -713.18597 -282.94699 1.8403113e-38
1292.6 -698.28003 -281.76999 1.8403113e-38
1297.41 -688.13202 -283.26501 1.8403113e-38
1296.52 -674.375 -282.59399 1.8403113e-38
1295.47 -660.68701 -281.871 1.8403113e-38
1294.28 -647.07098 -281.09799 1.8403113e-38
1297.21 -623.42297 -281.569 1.8403113e-38
1293.97 -609.03302 -280.03101 1.8403113e-38
1298.86 -599.401 -281.564 1.8403113e-38
1300.03 -575.51099 -281.39099 1.8403113e-38
1297.92 -562.29303 -280.29401 1.8403113e-38
1306.78 -507.54599 -282.13599 1.8403113e-38
1302.22 -493.866 -280.14001 1.8403113e-38
1307.42 -473.30499 -281.51199 1.8403113e-38
1307.71 -462.08401 -281.336 1.8403113e-38
1309.38 -407.12399 -280.565 1.8403113e-38
1309.53 -385.40302 -280.073 1.8403113e-38
1313.96 -322.82999 -280.11401 1.8403113e-38
1315.87 -291.98499 -280.03201 1.8403113e-38
1324.52 -252.66901 -282.189 1.8403113e-38
1331.41 -72.108803 -280.16 1.8403113e-38
1335.8199 -22.4993 -280.517 1.8403113e-38
1335.88 -2.59109 -280.04199 1.8403113e-38
1339.73 37.447899 -280.435 1.8403113e-38
1339.3101 47.431801 -280.03299 1.8403113e-38
1347.03 128.961 -280.79001 1.8403113e-38
1349.64 180.739 -280.439 1.8403113e-38
1357.47 203.088 -282.72198 1.8403113e-38
1357.54 213.60899 -282.48401 1.8403113e-38
1355.37 244.826 -280.91501 1.8403113e-38
1359.67 256.54001 -282.18201 1.8403113e-38
1358.37 266.923 -281.45001 1.8403113e-38
1359.72 278.04099 -281.66199 1.8403113e-38
1366.4399 290.73401 -283.78299 1.8403113e-38
1371.22 303.04599 -285.20801 1.8403113e-38
1369.53 313.565 -284.33099 1.8403113e-38
1361.42 322.112 -281.172 1.8403113e-38
1365.88 334.57501 -282.48099 1.8403113e-38
1362.13 344.47101 -280.86899 1.8403113e-38
1366.02 368.207 -281.686 1.8403113e-38
1365.5699 379.36401 -281.242 1.8403113e-38
1371.24 392.85101 -282.965 1.8403113e-38
1367.02 402.74899 -281.18399 1.8403113e-38
1373.34 416.75699 -283.12601 1.8403113e-38
1366.28 425.591 -280.34201 1.8403113e-38
1367.0699 437.59299 -280.32901 1.8403113e-38
1371.26 451.125 -281.508 1.8403113e-38
1371.8101 463.25 -281.405 1.8403113e-38
1373.12 475.80701 -281.565 1.8403113e-38
1372.5699 487.63199 -281.07001 1.8403113e-38
1372.78 499.88599 -280.83801 1.8403113e-38
1378.02 514.64801 -282.37399 1.8403113e-38
1372.84 524.51398 -280.242 1.8403113e-38
1376.1 538.59399 -281.07501 1.8403113e-38
1383.47 554.94702 -283.341 1.8403113e-38
1381.35 566.60699 -282.27802 1.8403113e-38
1379.12 578.26898 -281.17499 1.8403113e-38
1376.78 589.93298 -280.034 1.8403113e-38
1377.6801 603.46002 -280.021 1.8403113e-38
1385.62 661.64001 -281.44699 1.8403113e-38
1386.26 717.95099 -280.26501 1.8403113e-38
1107.0699 -2983.1299 -271.70001 1.8403113e-38
1292.13 -633.03998 -279.965 1.8403113e-38
1294.51 -584.69598 -279.616 1.8403113e-38
1295.6801 -549.15997 -279.14899 1.8403113e-38
1294.14 -536.53802 -278.276 1.8403113e-38
1299.28 -527.33002 -279.91101 1.8403113e-38
1297.52 -514.78802 -278.957 1.8403113e-38
1297.52 -480.31 -278.09299 1.8403113e-38
1303.53 -449.086 -279.49301 1.8403113e-38
1301.85 -437.26099 -278.58401 1.8403113e-38
1302.6899 -426.539 -278.62 1.8403113e-38
1303.4301 -415.83499 -278.621 1.8403113e-38
1299.3 -392.561 -276.53699 1.8403113e-38
1307.22 -373.827 -278.94501 1.8403113e-38
1305.7 -362.61899 -278.11099 1.8403113e-38
1307.67 -352.61899 -278.57401 1.8403113e-38
1307.75 -342.05099 -278.33899 1.8403113e-38
1308.64 -331.78 -278.40399 1.8403113e-38
1309.24 -311.013 -278.104 1.8403113e-38
1308.05 -300.29099 -277.401 1.8403113e-38
1314.5 -281.272 -279.26599 1.8403113e-38
1315.78 -271.26599 -279.48099 1.8403113e-38
1309.64 -259.56601 -276.95801 1.8403113e-38
1313.6 -240.07201 -277.90601 1.8403113e-38
1319.15 -231.043 -279.694 1.8403113e-38
1316.3101 -220.334 -278.396 1.8403113e-38
1313.265 -204.63849 -276.896 1.8403113e-38
1317.25 -185.241 -277.85602 1.8403113e-38
1317.48 -170.278 -277.565 1.8403113e-38
1321.5601 -160.853 -278.81 1.8403113e-38
1321.84 -150.899 -278.66101 1.8403113e-38
1320.16 -140.735 -277.798 1.8403113e-38
1317.47 -130.515 -276.564 1.8403113e-38
1324.04 -121.264 -278.71799 1.8403113e-38
1323.05 -111.243 -278.108 1.8403113e-38
1321.04 -101.177 -277.12601 1.8403113e-38
1323.64 -91.480499 -277.82501 1.8403113e-38
1325.21 -81.6875 -278.15201 1.8403113e-38
1328.13 -62.0354 -278.71799 1.8403113e-38
1324.77 -52.0284 -277.24701 1.8403113e-38
1323.21 -42.131001 -276.431 1.8403113e-38
1325.3199 -32.316399 -276.953 1.8403113e-38
1329.3101 -12.58 -277.90601 1.8403113e-38
1332.03 7.27177 -278.397 1.8403113e-38
1331.86 17.187599 -278.086 1.8403113e-38
1335.37 27.2603 -279.10699 1.8403113e-38
1330.37 56.816399 -276.54999 1.8403113e-38
1339.17 67.458504 -279.479 1.8403113e-38
1337.5699 77.350403 -278.64999 1.8403113e-38
1336.8199 87.3097 -278.129 1.8403113e-38
1339.74 97.6642 -278.92899 1.8403113e-38
1342.5699 108.079 -279.69501 1.8403113e-38
1341.5699 118.082 -279.082 1.8403113e-38
1344.9301 138.867 -279.77899 1.8403113e-38
1344.61 149.032 -279.40799 1.8403113e-38
1343.27 159.048 -278.673 1.8403113e-38
1342.79 169.213 -278.241 1.8403113e-38
1347.12 190.621 -279.27701 1.8403113e-38
1349.22 222.30901 -279.246 1.8403113e-38
1349.13 232.786 -278.94901 1.8403113e-38
1359.1899 354.62799 -279.548 1.8403113e-38
1375.95 615.62799 -279.086 1.8403113e-38
1379.0601 630.69702 -279.84 1.8403113e-38
1377.0699 642.935 -278.811 1.8403113e-38
1380.09 671.979 -279.177 1.8403113e-38
1374.46 682.26599 -276.87701 1.8403113e-38
1381.67 700.80701 -279.03101 1.8403113e-38
1382.65 729.89203 -278.65701 1.8403113e-38
1383.71 745.06897 -278.659 1.8403113e-38
1381.4399 758.12402 -277.50601 1.8403113e-38
1387.6801 777.30902 -279.29199 1.8403113e-38
1382.75 788.78101 -277.216 1.8403113e-38
1384.71 805.354 -277.51199 1.8403113e-38
1391.89 826.06403 -279.599 1.8403113e-38
1386.54 837.612 -277.366 1.8403113e-38
1384.13 851.48999 -276.14401 1.8403113e-38
1387.64 870.17603 -276.95001 1.8403113e-38
1387.17 885.961 -276.38199 1.8403113e-38
1388.76 903.64001 -276.51801 1.8403113e-38
1387.92 919.55603 -275.814 1.8403113e-38
1394.29 941.78699 -277.56699 1.8403113e-38
1390.85 955.97302 -275.96201 1.8403113e-38
1391.62 974.005 -275.79199 1.8403113e-38
1389.3 989.53601 -274.55899 1.8403113e-38
1396.84 1014.24 -276.67899 1.8403113e-38
1392.6801 1028.6 -274.80801 1.8403113e-38
1393.3101 1047.63 -274.56 1.8403113e-38
1393.72 1066.74 -274.228 1.8403113e-38
1391.12 1083.22 -272.86899 1.8403113e-38
1392.46 1103.84 -272.84201 1.8403113e-38
1392.1899 1123.1899 -272.258 1.8403113e-38
1396.4399 1147.5 -273.19 1.8403113e-38
1396.33 1167.74 -272.64401 1.8403113e-38
1398.65 1190.91 -272.90399 1.8403113e-38
1403.3199 1217.08 -273.94199 1.8403113e-38
1399.12 1234.02 -271.99399 1.8403113e-38
1403.17 1260.45 -272.80301 1.8403113e-38
1400.4399 1279.7 -271.32999 1.8403113e-38
1407.6899 1310.84 -273.17801 1.8403113e-38
1402.51 1328.03 -270.866 1.8403113e-38
1404.63 1354.24 -270.98099 1.8403113e-38
1409.51 1384.38 -271.99701 1.8403113e-38
1410.3 1410.13 -271.63901 1.8403113e-38
1410.15 1435.23 -270.95499 1.8403113e-38
1414.48 1466.62 -271.73901 1.8403113e-38
1414.8199 1493.52 -271.18701 1.8403113e-38
1419.5 1526.8199 -272.052 1.8403113e-38
1419.65 1554.77 -271.40701 1.8403113e-38
1424.61 1590.01 -272.323 1.8403113e-38
1426.23 1621.4399 -272.12399 1.8403113e-38
1427.99 1653.83 -271.95001 1.8403113e-38
1427.64 1683.9301 -271.06699 1.8403113e-38
1429.62 1718.23 -270.927 1.8403113e-38
1432.21 1754.33 -270.96301 1.8403113e-38
1437.51 1795.5699 -271.853 1.8403113e-38
1434.83 1825.39 -270.129 1.8403113e-38
1447.29 1916.4 -272.37399 1.8403113e-38
1444.16 1948.3101 -270.435 1.8403113e-38
1075.28 -3167.8899 -264.789 1.8403113e-38
1432.78 1856.97 -268.595 1.8403113e-38
1442.09 1982.86 -268.81799 1.8403113e-38
1416.8199 1978.1899 -259.76001 1.8403113e-38
1383.4399 1958.59 -248.13 1.8403113e-38
1006.37 -3002.9199 -235.631 1.8403113e-38
1341.34 1922.11 -233.759 1.8403113e-38
972.27802 -2970.29 -222.43401 1.8403113e-38
1308.1 1938.91 -221.267 1.8403113e-38
1324.98 1931.02 -227.597 1.8403113e-38
942.37097 -2952.76 -211.13499 1.8403113e-38
1288.87 1942.25 -214.2 1.8403113e-38
1354.05 2697.6001 -218.929 1.8403113e-38
913.46002 -2937.8101 -200.263 1.8403113e-38
1250.92 1949.1899 -200.246 1.8403113e-38
1271.46 1948.91 -207.714 1.8403113e-38
874.09198 -3122.6001 -190.60201 1.8403113e-38
891.72101 -2954.6499 -192.791 1.8403113e-38
1236.12 1960.8 -194.58299 1.8403113e-38
1228.9399 1988.36 -191.285 1.8403113e-38
1267.49 2209.47 -199.739 1.8403113e-38
1271.12 2616.72 -190.843 1.8403113e-38
872.961 -2986.9199 -186.789 1.8403113e-38
1219.6899 2012.34 -187.325 1.8403113e-38
1227.14 2073.23 -188.502 1.8403113e-38
1214.03 2138.6201 -182.10201 1.8403113e-38
1255.26 2512.1299 -187.707 1.8403113e-38
832.34698 -3042.26 -173.429 1.8403113e-38
1192.04 2137.1699 -174.155 1.8403113e-38
1235.63 2588.5 -178.66499 1.8403113e-38
1174 2144.6399 -167.41901 1.8403113e-38
1165.36 2174.8899 -163.521 1.8403113e-38
779.64801 -2892.75 -150.545 1.8403113e-38
1168.04 2470.05 -157.092 1.8403113e-38
756.84302 -2902.5601 -142.50999 1.8403113e-38
1147.3199 2477.23 -149.39 1.8403113e-38
1131.1 2497.3899 -142.993 1.8403113e-38
727.52301 -2872.8201 -131.118 1.8403113e-38
1119.04 2530.6499 -137.783 1.8403113e-38
1099.4 2542.0901 -130.362 1.8403113e-38
1086.26 2574.25 -124.784 1.8403113e-38
693.57001 -2809.25 -117.196 1.8403113e-38
1066.48 2586.3601 -117.3 1.8403113e-38
1060.71 2727.8301 -111.658 1.8403113e-38
1072.52 2856.8301 -112.71 1.8403113e-38
666.30798 -2783.75 -106.657 1.8403113e-38
1046.5699 2598.29 -109.77 1.8403113e-38
643.435 -2786.6001 -98.423203 1.8403113e-38
619.01898 -2777.3701 -89.326103 1.8403113e-38
574.96899 -2795.8601 -73.795097 1.8403113e-38
593.59302 -2757.99 -79.608002 1.8403113e-38
928.56403 2422.29 -71.335297 1.8403113e-38
949.29303 2767.96 -70.194 1.8403113e-38
549.97699 -2778.01 -64.272903 1.8403113e-38
951.59601 2879.8799 -68.223701 1.8403113e-38
526.255 -2769.8401 -55.454601 1.8403113e-38
882.35797 2328.8301 -56.901402 1.8403113e-38
871.25702 2366.22 -51.9328 1.8403113e-38
503.04099 -2765.4199 -46.9142 1.8403113e-38
479.37201 -2753.8101 -38.028702 1.8403113e-38
816.724 2400.28 -31.277599 1.8403113e-38
434.97601 -2766.78 -22.233601 1.8403113e-38
456.478 -2749.9299 -29.6189 1.8403113e-38
417.48499 -2862.24 -18.276501 1.8403113e-38
773.06799 2296.8999 -18.0182 1.8403113e-38
383.353 -2629.23 -0.0399267 1.8403113e-38
720.76801 2235.1799 -0.57556403 1.8403113e-38
746.85498 2267.1699 -9.2456799 1.8403113e-38
360.785 -2600.48 8.8754101 1.8403113e-38
686.27802 2156.8 9.9823904 1.8403113e-38
666.07202 2147.71 17.091299 1.8403113e-38
619.50897 1988.86 30.0154 1.8403113e-38
606.383 2011.65 35.352901 1.8403113e-38
569.46198 1993.6899 48.308498 1.8403113e-38
588.63 2007.7 41.699902 1.8403113e-38
552.25403 1991.35 54.4986 1.8403113e-38
545.70001 2067.1201 58.778301 1.8403113e-38
533.513 2108.1799 64.233299 1.8403113e-38
507.116 2034.99 71.982498 1.8403113e-38
508.711 2203.99 75.641403 1.8403113e-38
651.59601 4119.3999 71.790398 1.8403113e-38
278.793 -742.70398 85.233498 1.8403113e-38
271.84 -665.914 89.683601 1.8403113e-38
282.056 -651.57703 86.3339 1.8403113e-38
491.50101 2215.97 82.190598 1.8403113e-38
619.36401 4142.4702 84.072403 1.8403113e-38
261.03299 -719.05402 92.275299 1.8403113e-38
266.54901 -671.01501 91.476898 1.8403113e-38
255.963 -660.07501 95.595001 1.8403113e-38
251.33 -628.04102 98.080902 1.8403113e-38
246.56799 -542.43604 101.9565 1.8403113e-38
236.89799 -521.55298 105.991 1.8403113e-38
240.98199 -522.74103 104.479 1.8403113e-38
229.405 -510.086 109 1.8403113e-38
233.864 -503.35901 107.549 1.8403113e-38
417.01099 2206.4399 109 1.8403113e-38
443.495 2311.78 102.024 1.8403113e-38
