# .PCD v0.7 - Point Cloud Data file format
VERSION 0.7
FIELDS x y z rgb
SIZE 4 4 4 4
TYPE F F F F
COUNT 1 1 1 1
WIDTH 358
HEIGHT 1
VIEWPOINT 0 0 0 1 0 0 0
POINTS 358
DATA ascii
1138.51 -3300.1001 -291.064 1.8403113e-38
1143.58 -3212.1599 -290.69901 1.8403113e-38
1146.46 -3121.54 -289.47198 1.8403113e-38
1143.73 -3016.8501 -285.85501 1.8403113e-38
1151.41 -2952.3401 -287.02802 1.8403113e-38
1160.76 -2896.4399 -289.02301 1.8403113e-38
1164.42 -2825.51 -288.573 1.8403113e-38
1166.6801 -2753.8 -287.59399 1.8403113e-38
1171.33 -2692.6001 -287.74799 1.8403113e-38
1176.35 -2635.27 -288.134 1.8403113e-38
1180.51 -2578.0601 -288.207 1.8403113e-38
1182.77 -2518.2 -287.52701 1.8403113e-38
1185.51 -2462.21 -287.12 1.8403113e-38
1189.91 -2412.8201 -287.47699 1.8403113e-38
1192.11 -2359.8701 -286.94901 1.8403113e-38
1201.3199 -2326.29 -289.45099 1.8403113e-38
1194.12 -2254.45 -285.03601 1.8403113e-38
1197.42 -2210.1599 -285.12299 1.8403113e-38
1201.25 -2168.7 -285.47299 1.8403113e-38
1204.87 -2128.25 -285.77399 1.8403113e-38
1207.08 -2086.1101 -285.51999 1.8403113e-38
1211.17 -2049.45 -286.08701 1.8403113e-38
1212.2 -2007.55 -285.40799 1.8403113e-38
1213.47 -1967.5699 -284.866 1.8403113e-38
1220.73 -1940.92 -286.83499 1.8403113e-38
1222.28 -1903.78 -286.46701 1.8403113e-38
1222.39 -1865.02 -285.53601 1.8403113e-38
1224.24 -1830.75 -285.34799 1.8403113e-38
1228.87 -1802.64 -286.32501 1.8403113e-38
1232.17 -1772.86 -286.77499 1.8403113e-38
1231.6801 -1737.1899 -285.70401 1.8403113e-38
1232.15 -1704.21 -285.04599 1.8403113e-38
1236.61 -1678.97 -286.03299 1.8403113e-38
1240.23 -1652.95 -286.694 1.8403113e-38
1244.51 -1628.65 -287.64001 1.8403113e-38
1246.92 -1601.92 -287.84601 1.8403113e-38
1246.88 -1571.96 -287.07999 1.8403113e-38
1251.1899 -1549.52 -288.082 1.8403113e-38
1248.77 -1517.33 -286.396 1.8403113e-38
1249.7 -1490.98 -286.07401 1.8403113e-38
1254.6801 -1471.1899 -287.383 1.8403113e-38
1254.39 -1444.21 -286.603 1.8403113e-38
1251.49 -1414.17 -284.79599 1.8403113e-38
1249.88 -1386.67 -283.522 1.8403113e-38
1254.23 -1367.9399 -284.633 1.8403113e-38
1263.01 -1355.47 -287.508 1.8403113e-38
1260.48 -1328.25 -285.90399 1.8403113e-38
1262.33 -1307.3199 -286.05301 1.8403113e-38
1253.6899 -1273.5 -282.06799 1.8403113e-38
1257.95 -1256.6 -283.19 1.8403113e-38
1262.62 -1240.47 -284.48099 1.8403113e-38
1262.14 -1218.38 -283.75299 1.8403113e-38
1266.39 -1202.3199 -284.892 1.8403113e-38
1266.02 -1181.14 -284.22699 1.8403113e-38
1274.96 -1170.98 -287.21799 1.8403113e-38
1269.63 -1144.86 -284.62701 1.8403113e-38
1276.3 -1132.53 -286.74301 1.8403113e-38
1272.36 -1108.8101 -284.715 1.8403113e-38
1276.04 -1093.7 -285.67401 1.8403113e-38
1278.89 -1077.9 -286.31299 1.8403113e-38
1279.54 -1060.0699 -286.10001 1.8403113e-38
1284.72 -1047.1 -287.65799 1.8403113e-38
1283.61 -1028.01 -286.776 1.8403113e-38
1275.36 -1002.3 -283.133 1.8403113e-38
1283.47 -992.79797 -285.84 1.8403113e-38
1286.59 -978.60999 -286.61801 1.8403113e-38
1284.6 -959.875 -285.42801 1.8403113e-38
1284.53 -943.19098 -284.98199 1.8403113e-38
1287.13 -929.13702 -285.57401 1.8403113e-38
1283.79 -910.052 -283.884 1.8403113e-38
1287.51 -897.354 -284.914 1.8403113e-38
1285.22 -879.71002 -283.642 1.8403113e-38
1285.6801 -864.625 -283.42999 1.8403113e-38
1285.97 -849.59998 -283.15799 1.8403113e-38
1284.59 -833.44098 -282.25299 1.8403113e-38
1286.04 -819.73602 -282.436 1.8403113e-38
1291.9 -809.57001 -284.30701 1.8403113e-38
1286.98 -791.28802 -282.06201 1.8403113e-38
1284.14 -774.86902 -280.621 1.8403113e-38
1284.89 -747.37 -280.20401 1.8403113e-38
1288.5699 -736.16302 -281.25699 1.8403113e-38
1292.92 -725.487 -282.57101 1.8403113e-38
1293.23 -712.12097 -282.34601 1.8403113e-38
1291.01 -697.229 -281.16599 1.8403113e-38
1290.22 -683.46997 -280.534 1.8403113e-38
1293.86 -659.68103 -281.259 1.8403113e-38
1291.84 -645.58398 -280.17499 1.8403113e-38
1296.39 -622.94202 -281.259 1.8403113e-38
1297.2 -598.47101 -280.939 1.8403113e-38
1298.36 -574.612 -280.76099 1.8403113e-38
1301.77 -540.37097 -281.14001 1.8403113e-38
1304.21 -506.34 -281.172 1.8403113e-38
1303.5699 -483.01199 -280.35699 1.8403113e-38
1306.84 -461.71399 -281.01099 1.8403113e-38
1308.86 -440.09 -281.20099 1.8403113e-38
1313.95 -354.63101 -280.90701 1.8403113e-38
1319.9301 -251.655 -280.495 1.8403113e-38
1329.47 -101.838 -280.20401 1.8403113e-38
1335.89 -12.545 -280.29401 1.8403113e-38
1337.67 7.4064898 -280.44101 1.8403113e-38
1339.38 17.437 -280.81 1.8403113e-38
1343.1899 77.850998 -280.67899 1.8403113e-38
1344.42 98.168198 -280.61499 1.8403113e-38
1345.3101 118.554 -280.427 1.8403113e-38
1345.16 128.707 -280.11801 1.8403113e-38
1350.2 149.896 -281.41501 1.8403113e-38
1349.29 170.342 -280.57401 1.8403113e-38
1356.13 181.929 -282.767 1.8403113e-38
1353.6 191.87 -281.60001 1.8403113e-38
1354.77 213.022 -281.49301 1.8403113e-38
1358.33 234.91299 -282.237 1.8403113e-38
1358.76 256.31 -281.85501 1.8403113e-38
1361.12 267.63699 -282.42801 1.8403113e-38
1364.74 295.6915 -283.0415 1.8403113e-38
1366.8101 312.74899 -283.36401 1.8403113e-38
1360.51 321.83099 -280.85101 1.8403113e-38
1366.37 357.07101 -282.09399 1.8403113e-38
1369.6 369.46201 -282.95499 1.8403113e-38
1371.8101 381.617 -283.45401 1.8403113e-38
1373.02 393.51099 -283.59399 1.8403113e-38
1367.91 403.08701 -281.49799 1.8403113e-38
1372.45 416.41101 -282.81299 1.8403113e-38
1375.1 429.13901 -283.45499 1.8403113e-38
1371.47 439.40701 -281.879 1.8403113e-38
1369.5 450.38199 -280.89099 1.8403113e-38
1370.9399 462.871 -281.09799 1.8403113e-38
1373.12 475.80701 -281.565 1.8403113e-38
1372.78 499.88599 -280.83801 1.8403113e-38
1381.23 491.58401 -284.117 1.8403113e-38
1376.3 513.82501 -281.76999 1.8403113e-38
1376.26 526.19098 -281.444 1.8403113e-38
1379.52 540.302 -282.272 1.8403113e-38
1379.22 552.77301 -281.853 1.8403113e-38
1386.4301 569.263 -284.05499 1.8403113e-38
1378.28 577.81897 -280.88101 1.8403113e-38
1377.62 590.39099 -280.328 1.8403113e-38
1380.9301 618.46997 -280.82599 1.8403113e-38
1383.16 660.15002 -280.591 1.8403113e-38
1386.61 676.013 -281.44501 1.8403113e-38
1093.13 -3237.1499 -273.009 1.8403113e-38
1283.4301 -760.25 -279.99701 1.8403113e-38
1289.28 -669.77899 -279.85101 1.8403113e-38
1289.6801 -631.57703 -279.039 1.8403113e-38
1292.3199 -608.08801 -279.409 1.8403113e-38
1292.84 -583.78101 -278.98901 1.8403113e-38
1296.24 -561.40997 -279.66199 1.8403113e-38
1293.15 -547.85901 -278.198 1.8403113e-38
1296.73 -526.07599 -278.953 1.8403113e-38
1294.96 -513.55798 -277.996 1.8403113e-38
1301.36 -493.47198 -279.81699 1.8403113e-38
1297.89 -469.14801 -277.944 1.8403113e-38
1303.53 -449.086 -279.49301 1.8403113e-38
1303.5699 -426.88501 -278.948 1.8403113e-38
1302.55 -415.49799 -278.29199 1.8403113e-38
1307.61 -406.466 -279.905 1.8403113e-38
1303.74 -394.164 -278.189 1.8403113e-38
1306.86 -384.466 -279.07999 1.8403113e-38
1306.33 -373.52301 -278.61301 1.8403113e-38
1310.1801 -364.099 -279.77399 1.8403113e-38
1306.85 -341.772 -278.005 1.8403113e-38
1309.54 -332.04999 -278.73901 1.8403113e-38
1312.15 -322.30499 -279.44299 1.8403113e-38
1308.34 -310.759 -277.76801 1.8403113e-38
1312.59 -301.51801 -279.082 1.8403113e-38
1313.13 -291.27399 -279.021 1.8403113e-38
1312.67 -280.815 -278.59201 1.8403113e-38
1314.87 -271.04599 -279.14301 1.8403113e-38
1316.0601 -261.047 -279.32599 1.8403113e-38
1314.0701 -235.08499 -277.95148 1.8403113e-38
1315.39 -220.15601 -278.05701 1.8403113e-38
1314.3101 -209.86301 -277.40601 1.8403113e-38
1314.0699 -199.767 -277.065 1.8403113e-38
1314.46 -184.804 -276.8335 1.8403113e-38
1317.48 -170.278 -277.565 1.8403113e-38
1319.7 -160.60201 -278.12701 1.8403113e-38
1320.9 -150.782 -278.319 1.8403113e-38
1319.23 -140.627 -277.45599 1.8403113e-38
1324.01 -131.211 -278.95599 1.8403113e-38
1322.17 -121.082 -278.034 1.8403113e-38
1320.24 -110.997 -277.082 1.8403113e-38
1321.76 -91.350998 -277.14099 1.8403113e-38
1322.4 -81.519402 -277.12601 1.8403113e-38
1329.53 -72.014198 -279.47601 1.8403113e-38
1329.0699 -62.074001 -279.06 1.8403113e-38
1331.35 -52.237598 -279.64001 1.8403113e-38
1329.79 -42.279099 -278.823 1.8403113e-38
1330.96 -32.390999 -279.00201 1.8403113e-38
1332.0601 -22.4844 -279.151 1.8403113e-38
1326.48 -2.72839 -276.63199 1.8403113e-38
1332.55 27.1406 -278.08701 1.8403113e-38
1336.91 37.302101 -279.41599 1.8403113e-38
1335.5601 47.202499 -278.67499 1.8403113e-38
1336.9399 57.278599 -278.92401 1.8403113e-38
1336.36 67.234299 -278.46301 1.8403113e-38
1334.01 87.033401 -277.116 1.8403113e-38
1342.5699 108.079 -279.69501 1.8403113e-38
1343.99 138.731 -279.44299 1.8403113e-38
1341.41 158.743 -278.005 1.8403113e-38
1349.14 201.40401 -279.742 1.8403113e-38
1347.38 221.901 -278.58701 1.8403113e-38
1352.62 244.162 -279.93201 1.8403113e-38
1354.25 276.56 -279.70999 1.8403113e-38
1355.0601 331.10999 -278.63599 1.8403113e-38
1353.13 341.5 -277.67599 1.8403113e-38
1376.84 602.99402 -279.73001 1.8403113e-38
1377.41 629.73401 -279.263 1.8403113e-38
1375.42 641.95697 -278.237 1.8403113e-38
1380.96 686.35999 -279.13199 1.8403113e-38
1380.0601 699.76801 -278.47 1.8403113e-38
1383.85 716.37097 -279.42899 1.8403113e-38
1381.0601 728.82397 -278.103 1.8403113e-38
1386.89 747.23401 -279.758 1.8403113e-38
1381.4399 758.12402 -277.50601 1.8403113e-38
1379.8199 771.75 -276.578 1.8403113e-38
1387.4399 792.15997 -278.83301 1.8403113e-38
1382.38 803.64203 -276.70901 1.8403113e-38
1383.4 819.711 -276.67499 1.8403113e-38
1385 836.44299 -276.83801 1.8403113e-38
1390.23 856.22302 -278.23999 1.8403113e-38
1386.13 868.97803 -276.42999 1.8403113e-38
1387.17 885.961 -276.38199 1.8403113e-38
1388.01 903.02802 -276.26199 1.8403113e-38
1386.4399 918.31702 -275.306 1.8403113e-38
1392.8101 940.534 -277.06299 1.8403113e-38
1389.38 954.70697 -275.46201 1.8403113e-38
1390.89 973.36499 -275.54401 1.8403113e-38
1395.08 994.70801 -276.52701 1.8403113e-38
1395.41 1012.93 -276.19101 1.8403113e-38
1390.55 1026.62 -274.082 1.8403113e-38
1396.85 1050.96 -275.759 1.8403113e-38
1396.52 1069.4301 -275.17801 1.8403113e-38
1395.98 1087.97 -274.517 1.8403113e-38
1396.6 1107.96 -274.242 1.8403113e-38
1394.9301 1125.96 -273.18201 1.8403113e-38
1395.76 1146.8 -272.961 1.8403113e-38
1396.33 1167.74 -272.64401 1.8403113e-38
1402.65 1195.1801 -274.25 1.8403113e-38
1401.33 1214.9301 -273.276 1.8403113e-38
1404.36 1239.8 -273.75201 1.8403113e-38
1401.87 1259 -272.36801 1.8403113e-38
1405.59 1285.58 -273.05099 1.8403113e-38
1407.6899 1310.84 -273.17801 1.8403113e-38
1406.9301 1333.25 -272.34 1.8403113e-38
1409.01 1359.51 -272.43799 1.8403113e-38
1408.27 1382.87 -271.58499 1.8403113e-38
1409.6899 1409.37 -271.435 1.8403113e-38
1413.79 1439.84 -272.16101 1.8403113e-38
1414.48 1466.62 -271.73901 1.8403113e-38
1418.98 1498.98 -272.56 1.8403113e-38
1419.5 1526.8199 -272.052 1.8403113e-38
1417.91 1552.4 -270.83301 1.8403113e-38
1423.46 1588.42 -271.94501 1.8403113e-38
1426.23 1621.4399 -272.12399 1.8403113e-38
1425.74 1650.6 -271.215 1.8403113e-38
1426.53 1682.3101 -270.70401 1.8403113e-38
1434.5601 1725.58 -272.535 1.8403113e-38
1436.55 1760.91 -272.37201 1.8403113e-38
1435.91 1793.09 -271.332 1.8403113e-38
1439.05 1832.04 -271.49799 1.8403113e-38
1437.47 1864.49 -270.11099 1.8403113e-38
1445.75 1913.87 -271.87601 1.8403113e-38
1444.16 1948.3101 -270.435 1.8403113e-38
1445.6 1988.8199 -269.94199 1.8403113e-38
1415.83 1976.48 -259.44501 1.8403113e-38
1381.49 1955.15 -247.509 1.8403113e-38
1005.17 -2998.1001 -235.07401 1.8403113e-38
1340.86 1921.24 -233.60699 1.8403113e-38
972.51001 -2971.26 -222.543 1.8403113e-38
1322.62 1926.6801 -226.847 1.8403113e-38
942.59601 -2953.73 -211.241 1.8403113e-38
1301.58 1926.7 -219.20599 1.8403113e-38
1287.03 1938.74 -213.62199 1.8403113e-38
1356.64 2704.0601 -219.70799 1.8403113e-38
895.61499 -3232 -201.16 1.8403113e-38
914.75702 -2943.6399 -200.88 1.8403113e-38
1269.66 1945.38 -207.147 1.8403113e-38
1253.14 1953.62 -200.942 1.8403113e-38
894.21899 -2966.3301 -193.991 1.8403113e-38
1234.37 1957.25 -194.037 1.8403113e-38
1225.9301 1982.11 -190.349 1.8403113e-38
1266.6801 2207.6599 -199.489 1.8403113e-38
873.56097 -2989.8401 -187.08 1.8403113e-38
1218.42 2009.65 -186.93201 1.8403113e-38
1229.21 2077.74 -189.142 1.8403113e-38
1216.4301 2144.0701 -182.83701 1.8403113e-38
1254.53 2510.28 -187.489 1.8403113e-38
1266.15 2603.72 -189.36301 1.8403113e-38
1245.36 2614.5901 -181.54401 1.8403113e-38
833.45099 -3048.1299 -173.978 1.8403113e-38
1191.26 2135.3501 -173.916 1.8403113e-38
1172.46 2140.97 -166.951 1.8403113e-38
1164.23 2172.1399 -163.17799 1.8403113e-38
1166.34 2465.3799 -156.592 1.8403113e-38
758.02002 -2909.4299 -143.11 1.8403113e-38
778.41498 -2885.8899 -149.925 1.8403113e-38
1149.3199 2482.8601 -149.97301 1.8403113e-38
1130.77 2496.45 -142.899 1.8403113e-38
726.883 -2868.8799 -130.787 1.8403113e-38
1118.73 2529.7 -137.69099 1.8403113e-38
1101.5601 2548.72 -130.98199 1.8403113e-38
1084.45 2568.55 -124.27 1.8403113e-38
693.11401 -2806.3 -116.956 1.8403113e-38
1064.72 2580.6399 -116.804 1.8403113e-38
1071.71 2853.95 -112.488 1.8403113e-38
666.73901 -2786.71 -106.888 1.8403113e-38
1045.71 2595.4299 -109.531 1.8403113e-38
1053.76 2703.8899 -109.735 1.8403113e-38
642.48499 -2779.6899 -97.904999 1.8403113e-38
619.65601 -2782.3201 -89.681702 1.8403113e-38
574.52399 -2791.8999 -73.534103 1.8403113e-38
592.99597 -2753.04 -79.266998 1.8403113e-38
930.40002 2429.03 -71.833 1.8403113e-38
953.11102 2783.47 -71.191299 1.8403113e-38
549.97699 -2778.01 -64.272903 1.8403113e-38
950.44299 2875.02 -67.926697 1.8403113e-38
526.06598 -2767.8501 -55.3358 1.8403113e-38
879.30499 2317.25 -56.083099 1.8403113e-38
873.47498 2374.9199 -52.5201 1.8403113e-38
502.69299 -2761.4399 -46.6884 1.8403113e-38
479.05701 -2749.8301 -37.814701 1.8403113e-38
816.05603 2397.3601 -31.108299 1.8403113e-38
434.104 -2752.8201 -21.5672 1.8403113e-38
456.267 -2746.95 -29.4673 1.8403113e-38
417.26901 -2858.25 -18.0979 1.8403113e-38
772.42401 2293.97 -17.8577 1.8403113e-38
383.67401 -2636.22 -0.3317 1.8403113e-38
720.172 2232.24 -0.43276399 1.8403113e-38
746.64801 2266.1899 -9.1951303 1.8403113e-38
360.672 -2597.49 8.99156 1.8403113e-38
664.06299 2136.8999 17.549801 1.8403113e-38
685.13397 2150.9099 10.2503 1.8403113e-38
620.38202 1993.78 29.8218 1.8403113e-38
608.04797 2021.5 34.995399 1.8403113e-38
587.04602 1997.83 42.027699 1.8403113e-38
570.81598 2002.58 48.040199 1.8403113e-38
553.961 2003.23 54.176601 1.8403113e-38
545.56598 2066.1299 58.8022 1.8403113e-38
533.63898 2109.1799 64.212402 1.8403113e-38
506.52701 2030.03 72.071999 1.8403113e-38
508.92999 2205.98 75.611504 1.8403113e-38
651.69 4120.3999 71.781403 1.8403113e-38
491.19601 2212.98 82.226402 1.8403113e-38
619.70502 4146.4502 84.0485 1.8403113e-38
271.409 -632.93201 90.667297 1.8403113e-38
265.819 -521.07098 95.502098 1.8403113e-38
278.048 -515.72302 91.195999 1.8403113e-38
273.70901 -503.88599 93.068298 1.8403113e-38
257.879 -494.12201 99.061096 1.8403113e-38
261.77301 -497.11899 97.571899 1.8403113e-38
219.759 -649.75403 109 1.8403113e-38
226.761 -620.14301 107.2 1.8403113e-38
234.48199 -567.48901 105.717 1.8403113e-38
239.963 -545.71698 104.273 1.8403113e-38
245.37399 -515.89697 103.056 1.8403113e-38
249.90401 -500.01599 101.809 1.8403113e-38
253.97501 -494.08899 100.48 1.8403113e-38
417.35599 2211.4299 109 1.8403113e-38
443.418 2310.78 102.027 1.8403113e-38
