# .PCD v0.7 - Point Cloud Data file format
VERSION 0.7
FIELDS x y z rgb
SIZE 4 4 4 4
TYPE F F F F
COUNT 1 1 1 1
WIDTH 358
HEIGHT 1
VIEWPOINT 0 0 0 1 0 0 0
POINTS 358
DATA ascii
1163.72 -2905.9099 -290.332 1.8403113e-38
1130.3199 -3269.3899 -287.32101 1.8403113e-38
1129.86 -3162.3899 -284.47101 1.8403113e-38
1143.73 -3016.8501 -285.85501 1.8403113e-38
1157.45 -2972.27 -289.71899 1.8403113e-38
1165.33 -2828.3401 -288.974 1.8403113e-38
1167.61 -2756.6299 -288.00299 1.8403113e-38
1172.6 -2696.3501 -288.30399 1.8403113e-38
1174.4 -2629.6599 -287.28299 1.8403113e-38
1180.84 -2578.99 -288.35199 1.8403113e-38
1183.45 -2520.0601 -287.82101 1.8403113e-38
1186.5601 -2464.99 -287.57001 1.8403113e-38
1191.33 -2416.51 -288.08801 1.8403113e-38
1189.92 -2354.3701 -286.017 1.8403113e-38
1198.72 -2319.8899 -288.345 1.8403113e-38
1194.5 -2255.3601 -285.19601 1.8403113e-38
1198.97 -2213.79 -285.776 1.8403113e-38
1201.25 -2168.7 -285.47299 1.8403113e-38
1205.27 -2129.1499 -285.94199 1.8403113e-38
1209.13 -2090.5901 -286.375 1.8403113e-38
1212.42 -2052.1299 -286.608 1.8403113e-38
1213.04 -2009.33 -285.76001 1.8403113e-38
1213.9 -1968.45 -285.04501 1.8403113e-38
1221.6 -1942.6801 -287.19699 1.8403113e-38
1219.61 -1898.52 -285.36499 1.8403113e-38
1226.47 -1872.87 -287.21201 1.8403113e-38
1225.62 -1833.36 -285.914 1.8403113e-38
1229.34 -1803.5 -286.51599 1.8403113e-38
1229.3199 -1767.71 -285.612 1.8403113e-38
1233.61 -1740.61 -286.48801 1.8403113e-38
1233.61 -1706.76 -285.642 1.8403113e-38
1237.6 -1680.66 -286.435 1.8403113e-38
1241.73 -1655.47 -287.30399 1.8403113e-38
1249.6 -1637.01 -289.698 1.8403113e-38
1244.34 -1597.76 -286.80499 1.8403113e-38
1247.9301 -1573.61 -287.50101 1.8403113e-38
1250.66 -1548.7 -287.86899 1.8403113e-38
1246.63 -1514.0601 -285.535 1.8403113e-38
1251.33 -1493.42 -286.72601 1.8403113e-38
1251.9301 -1467.16 -286.284 1.8403113e-38
1254.95 -1445.01 -286.82599 1.8403113e-38
1248.11 -1409.4 -283.45001 1.8403113e-38
1249.3101 -1385.88 -283.29501 1.8403113e-38
1251.35 -1364.02 -283.48801 1.8403113e-38
1258.9399 -1350.02 -285.89099 1.8403113e-38
1259.89 -1327.48 -285.67099 1.8403113e-38
1262.33 -1307.3199 -286.05301 1.8403113e-38
1254.3 -1274.27 -282.306 1.8403113e-38
1258.5601 -1257.36 -283.42999 1.8403113e-38
1258.9399 -1235.96 -283.03 1.8403113e-38
1258.42 -1213.91 -282.289 1.8403113e-38
1262.63 -1197.89 -283.41599 1.8403113e-38
1267.91 -1183.34 -284.97101 1.8403113e-38
1268.5699 -1163.7 -284.71701 1.8403113e-38
1271.5601 -1147.02 -285.384 1.8403113e-38
1270.45 -1126.09 -284.45599 1.8403113e-38
1272.36 -1108.8101 -284.715 1.8403113e-38
1276.04 -1093.7 -285.67401 1.8403113e-38
1280.23 -1079.3 -286.83301 1.8403113e-38
1272.8 -1053.16 -283.48001 1.8403113e-38
1282.01 -1044.36 -286.603 1.8403113e-38
1274.7 -1019.19 -283.32001 1.8403113e-38
1276.05 -1002.97 -283.401 1.8403113e-38
1282.0699 -991.46802 -285.30099 1.8403113e-38
1282.38 -974.65802 -284.98999 1.8403113e-38
1288.85 -963.78802 -287.06699 1.8403113e-38
1280.25 -939.31799 -283.33301 1.8403113e-38
1285.6899 -927.85999 -285.021 1.8403113e-38
1284.52 -910.68402 -284.16299 1.8403113e-38
1289.6899 -899.22998 -285.755 1.8403113e-38
1285.96 -880.32898 -283.92401 1.8403113e-38
1279.77 -859.73297 -281.16101 1.8403113e-38
1287.46 -850.80902 -283.728 1.8403113e-38
1286.09 -834.63599 -282.82599 1.8403113e-38
1280.77 -815.60199 -280.41699 1.8403113e-38
1285.0699 -804.31799 -281.69699 1.8403113e-38
1295.38 -797.62903 -285.26999 1.8403113e-38
1284.91 -775.43799 -280.914 1.8403113e-38
1291.9301 -766.43298 -283.23801 1.8403113e-38
1292.67 -752.91803 -283.16599 1.8403113e-38
1290.13 -737.25897 -281.853 1.8403113e-38
1288.2 -722.245 -280.776 1.8403113e-38
1294.02 -712.65399 -282.647 1.8403113e-38
1291.8 -697.75403 -281.46799 1.8403113e-38
1290.22 -683.46997 -280.534 1.8403113e-38
1290.08 -670.28998 -280.15601 1.8403113e-38
1295.47 -660.68701 -281.871 1.8403113e-38
1296.39 -622.94202 -281.259 1.8403113e-38
1293.97 -609.03302 -280.03101 1.8403113e-38
1297.92 -562.29303 -280.29401 1.8403113e-38
1306.5601 -472.927 -281.18799 1.8403113e-38
1315.87 -291.98499 -280.03201 1.8403113e-38
1317.61 -271.70599 -280.15601 1.8403113e-38
1320.96 -241.62801 -280.61899 1.8403113e-38
1333.78 -32.428299 -280.02701 1.8403113e-38
1334.88 -22.495501 -280.17599 1.8403113e-38
1336.83 -12.5399 -280.63501 1.8403113e-38
1341.26 17.499399 -281.491 1.8403113e-38
1339.73 37.447899 -280.435 1.8403113e-38
1339.3101 47.431801 -280.03299 1.8403113e-38
1345.0699 78.017799 -281.35599 1.8403113e-38
1344.3199 88.0467 -280.832 1.8403113e-38
1347.03 128.961 -280.79001 1.8403113e-38
1348.71 180.569 -280.10699 1.8403113e-38
1358.39 203.27499 -283.05301 1.8403113e-38
1362.15 214.588 -284.13599 1.8403113e-38
1356.49 234.48801 -281.57999 1.8403113e-38
1364.26 257.689 -283.81799 1.8403113e-38
1361.12 267.63699 -282.42801 1.8403113e-38
1366.4399 290.73401 -283.78299 1.8403113e-38
1366.67 301.728 -283.591 1.8403113e-38
1368.62 313.293 -284.008 1.8403113e-38
1363.23 322.672 -281.815 1.8403113e-38
1366.79 334.86301 -282.80099 1.8403113e-38
1365.5699 379.36401 -281.242 1.8403113e-38
1371.39 370.08899 -283.58899 1.8403113e-38
1368.5699 391.85999 -282.01999 1.8403113e-38
1368.8 403.42499 -281.81201 1.8403113e-38
1371.5699 416.064 -282.50101 1.8403113e-38
1366.28 425.591 -280.34201 1.8403113e-38
1374.98 440.85901 -283.11899 1.8403113e-38
1371.26 451.125 -281.508 1.8403113e-38
1372.6801 463.629 -281.71301 1.8403113e-38
1374.86 476.58099 -282.177 1.8403113e-38
1375.17 488.81799 -281.98401 1.8403113e-38
1373.64 500.289 -281.14099 1.8403113e-38
1378.02 514.64801 -282.37399 1.8403113e-38
1384.83 530.38202 -284.45001 1.8403113e-38
1383.89 567.935 -283.16599 1.8403113e-38
1379.12 578.26898 -281.17499 1.8403113e-38
1385.17 594.51599 -282.966 1.8403113e-38
1377.6801 603.46002 -280.021 1.8403113e-38
1383.16 660.15002 -280.591 1.8403113e-38
1389.84 734.698 -281.147 1.8403113e-38
1107.0699 -2983.1299 -271.70001 1.8403113e-38
1286.97 -642.61102 -278.33099 1.8403113e-38
1291.3101 -632.55298 -279.65601 1.8403113e-38
1292.23 -595.68103 -279.064 1.8403113e-38
1295.34 -585.15302 -279.92999 1.8403113e-38
1292.51 -571.466 -278.55701 1.8403113e-38
1295.6801 -549.15997 -279.14899 1.8403113e-38
1294.14 -536.53802 -278.276 1.8403113e-38
1298.4301 -526.91199 -279.59201 1.8403113e-38
1296.67 -514.37799 -278.63599 1.8403113e-38
1299.0601 -503.92801 -279.24399 1.8403113e-38
1301.36 -493.47198 -279.81699 1.8403113e-38
1297.52 -480.31 -278.09299 1.8403113e-38
1299.88 -458.75601 -278.409 1.8403113e-38
1303.53 -449.086 -279.49301 1.8403113e-38
1301.85 -437.26099 -278.58401 1.8403113e-38
1303.5699 -426.88501 -278.948 1.8403113e-38
1304.3101 -416.172 -278.94901 1.8403113e-38
1301.42 -404.16299 -277.59799 1.8403113e-38
1299.3 -392.561 -276.53699 1.8403113e-38
1302.41 -382.90399 -277.42401 1.8403113e-38
1299.1899 -371.09 -275.95801 1.8403113e-38
1303.91 -362.02802 -277.44601 1.8403113e-38
1306.77 -352.33099 -278.241 1.8403113e-38
1305.95 -341.49301 -277.67099 1.8403113e-38
1309.54 -332.04999 -278.73901 1.8403113e-38
1308.53 -321.25601 -278.103 1.8403113e-38
1311.0601 -311.521 -278.77499 1.8403113e-38
1309.87 -300.78201 -278.073 1.8403113e-38
1314.5 -281.272 -279.26599 1.8403113e-38
1313.41 -255.31052 -278.21851 1.8403113e-38
1318.22 -230.85699 -279.354 1.8403113e-38
1319.08 -220.86501 -279.41599 1.8403113e-38
1313.73 -204.71851 -277.06598 1.8403113e-38
1317.71 -185.3165 -278.02649 1.8403113e-38
1317.48 -170.278 -277.565 1.8403113e-38
1315.04 -159.97501 -276.42001 1.8403113e-38
1323.7 -151.133 -279.34399 1.8403113e-38
1320.16 -140.735 -277.798 1.8403113e-38
1317.47 -130.515 -276.564 1.8403113e-38
1324.98 -121.354 -279.06 1.8403113e-38
1322.12 -111.161 -277.76599 1.8403113e-38
1321.04 -101.177 -277.12601 1.8403113e-38
1323.64 -91.480499 -277.82501 1.8403113e-38
1325.21 -81.6875 -278.15201 1.8403113e-38
1322.96 -71.682899 -277.082 1.8403113e-38
1330.95 -62.151199 -279.74399 1.8403113e-38
1325.71 -52.0583 -277.58899 1.8403113e-38
1331.66 -42.321499 -279.50699 1.8403113e-38
1329.3 -2.6872001 -277.655 1.8403113e-38
1332.03 7.27177 -278.397 1.8403113e-38
1334.4301 27.2204 -278.767 1.8403113e-38
1339.75 57.4767 -279.94101 1.8403113e-38
1338.23 67.383797 -279.14001 1.8403113e-38
1338.8 97.5634 -278.59201 1.8403113e-38
1336.02 107.313 -277.33701 1.8403113e-38
1340.64 117.963 -278.746 1.8403113e-38
1344.9301 138.867 -279.77899 1.8403113e-38
1344.61 149.032 -279.40799 1.8403113e-38
1345.13 159.354 -279.341 1.8403113e-38
1342.79 169.213 -278.241 1.8403113e-38
1346.1899 190.442 -278.94501 1.8403113e-38
1350.14 222.513 -279.57599 1.8403113e-38
1352.62 244.162 -279.93201 1.8403113e-38
1352.42 276.06699 -279.06 1.8403113e-38
1354.03 341.797 -277.996 1.8403113e-38
1358.3 354.32199 -279.23001 1.8403113e-38
1372.6899 536.88501 -279.879 1.8403113e-38
1372.42 549.29303 -279.47101 1.8403113e-38
1375.95 615.62799 -279.086 1.8403113e-38
1378.23 630.21503 -279.55099 1.8403113e-38
1376.25 642.44598 -278.52399 1.8403113e-38
1380.09 671.979 -279.177 1.8403113e-38
1382.58 687.383 -279.69601 1.8403113e-38
1381.67 700.80701 -279.03101 1.8403113e-38
1377.42 712.15802 -277.202 1.8403113e-38
1382.91 744.52698 -278.384 1.8403113e-38
1381.4399 758.12402 -277.50601 1.8403113e-38
1381.39 772.862 -277.121 1.8403113e-38
1382.75 788.78101 -277.216 1.8403113e-38
1383.9399 804.78302 -277.245 1.8403113e-38
1384.9399 820.86603 -277.207 1.8403113e-38
1386.54 837.612 -277.366 1.8403113e-38
1385.66 852.67297 -276.668 1.8403113e-38
1386.88 869.57703 -276.69 1.8403113e-38
1387.92 886.56702 -276.64001 1.8403113e-38
1389.51 904.25299 -276.77399 1.8403113e-38
1389.41 920.79498 -276.32199 1.8403113e-38
1394.29 941.78699 -277.56699 1.8403113e-38
1390.85 955.97302 -275.96201 1.8403113e-38
1391.62 974.005 -275.79199 1.8403113e-38
1395.8 995.354 -276.77301 1.8403113e-38
1396.84 1014.24 -276.67899 1.8403113e-38
1391.97 1027.9399 -274.56601 1.8403113e-38
1392.61 1046.96 -274.32001 1.8403113e-38
1393.72 1066.74 -274.228 1.8403113e-38
1390.42 1082.54 -272.634 1.8403113e-38
1391.78 1103.16 -272.60901 1.8403113e-38
1392.1899 1123.1899 -272.258 1.8403113e-38
1396.4399 1147.5 -273.19 1.8403113e-38
1396.33 1167.74 -272.64401 1.8403113e-38
1397.3101 1189.49 -272.45499 1.8403113e-38
1396.7 1209.91 -271.72101 1.8403113e-38
1398.46 1233.3 -271.77399 1.8403113e-38
1402.52 1259.72 -272.58499 1.8403113e-38
1401.73 1281.17 -271.76001 1.8403113e-38
1407.6899 1310.84 -273.17801 1.8403113e-38
1401.87 1327.28 -270.655 1.8403113e-38
1410.26 1361.01 -272.85501 1.8403113e-38
1409.51 1384.38 -271.99701 1.8403113e-38
1410.3 1410.13 -271.63901 1.8403113e-38
1415.61 1442.15 -272.76401 1.8403113e-38
1414.48 1466.62 -271.73901 1.8403113e-38
1414.22 1492.74 -270.98999 1.8403113e-38
1419.5 1526.8199 -272.052 1.8403113e-38
1419.65 1554.77 -271.40701 1.8403113e-38
1424.03 1589.21 -272.134 1.8403113e-38
1426.8 1622.24 -272.31 1.8403113e-38
1427.99 1653.83 -271.95001 1.8403113e-38
1428.1899 1684.74 -271.24799 1.8403113e-38
1429.62 1718.23 -270.927 1.8403113e-38
1432.21 1754.33 -270.96301 1.8403113e-38
1436.98 1794.75 -271.67899 1.8403113e-38
1448.84 1918.92 -272.871 1.8403113e-38
1444.16 1948.3101 -270.435 1.8403113e-38
1077.01 -3174.6201 -265.58801 1.8403113e-38
1429.54 1817.08 -268.41901 1.8403113e-38
1432.78 1856.97 -268.595 1.8403113e-38
1444.59 1987.12 -269.621 1.8403113e-38
1415.83 1976.48 -259.44501 1.8403113e-38
1381.98 1956.01 -247.664 1.8403113e-38
1006.37 -3002.9199 -235.631 1.8403113e-38
1340.86 1921.24 -233.60699 1.8403113e-38
972.04602 -2969.3301 -222.326 1.8403113e-38
1308.1 1938.91 -221.267 1.8403113e-38
1324.98 1931.02 -227.597 1.8403113e-38
940.13 -2943.0701 -210.07899 1.8403113e-38
1289.78 1944.01 -214.49001 1.8403113e-38
1357.39 2705.8999 -219.931 1.8403113e-38
913.89203 -2939.75 -200.468 1.8403113e-38
1271.01 1948.02 -207.57201 1.8403113e-38
1254.91 1957.16 -201.498 1.8403113e-38
890.05499 -2946.8701 -191.991 1.8403113e-38
1236.99 1962.58 -194.855 1.8403113e-38
1225.0699 1980.3199 -190.082 1.8403113e-38
1267.49 2209.47 -199.739 1.8403113e-38
1268.63 2610.22 -190.103 1.8403113e-38
872.16998 -3112.8301 -189.659 1.8403113e-38
872.76099 -2985.9399 -186.69099 1.8403113e-38
1216.73 2006.0601 -186.409 1.8403113e-38
1227.97 2075.03 -188.758 1.8403113e-38
1212.83 2135.8999 -181.73399 1.8403113e-38
1253.4399 2507.51 -187.164 1.8403113e-38
832.34698 -3042.26 -173.429 1.8403113e-38
1188.51 2128.97 -173.077 1.8403113e-38
1239.11 2597.8201 -179.69299 1.8403113e-38
1173.23 2142.8 -167.185 1.8403113e-38
1165.74 2175.8101 -163.63499 1.8403113e-38
779.29602 -2890.79 -150.368 1.8403113e-38
1166.34 2465.3799 -156.592 1.8403113e-38
756.33899 -2899.6101 -142.25301 1.8403113e-38
1147.3199 2477.23 -149.39 1.8403113e-38
1132.4 2501.1499 -143.371 1.8403113e-38
727.203 -2870.8501 -130.953 1.8403113e-38
1118.09 2527.8201 -137.509 1.8403113e-38
1100.9399 2546.8201 -130.80499 1.8403113e-38
1082.34 2561.9099 -123.671 1.8403113e-38
692.35498 -2801.3701 -116.557 1.8403113e-38
1065.3101 2582.55 -116.969 1.8403113e-38
1060.71 2727.8301 -111.658 1.8403113e-38
1072.52 2856.8301 -112.71 1.8403113e-38
666.45099 -2784.74 -106.734 1.8403113e-38
1046.5699 2598.29 -109.77 1.8403113e-38
643.435 -2786.6001 -98.423203 1.8403113e-38
619.146 -2778.3601 -89.397202 1.8403113e-38
574.63501 -2792.8899 -73.599297 1.8403113e-38
593.474 -2757 -79.539803 1.8403113e-38
928.56403 2422.29 -71.335297 1.8403113e-38
954.78101 2790.25 -71.627602 1.8403113e-38
550.08002 -2779 -64.335197 1.8403113e-38
951.59601 2879.8799 -68.223701 1.8403113e-38
526.44501 -2771.8301 -55.573299 1.8403113e-38
878.03302 2312.4299 -55.742199 1.8403113e-38
871.99597 2369.1201 -52.128601 1.8403113e-38
503.04099 -2765.4199 -46.9142 1.8403113e-38
479.37201 -2753.8101 -38.028702 1.8403113e-38
816.50201 2399.3101 -31.221201 1.8403113e-38
434.29099 -2755.8101 -21.709999 1.8403113e-38
456.478 -2749.9299 -29.6189 1.8403113e-38
417.59299 -2864.24 -18.3657 1.8403113e-38
773.06799 2296.8999 -18.0182 1.8403113e-38
383.44501 -2631.22 -0.123291 1.8403113e-38
720.76801 2235.1799 -0.57556403 1.8403113e-38
747.26801 2269.1201 -9.3467903 1.8403113e-38
361.12399 -2609.47 8.5269403 1.8403113e-38
686.27802 2156.8 9.9823904 1.8403113e-38
338.90799 -2578.51 17.370199 1.8403113e-38
664.97601 2141.8101 17.3414 1.8403113e-38
317.785 -2574.3 25.1453 1.8403113e-38
620.20697 1992.8 29.8605 1.8403113e-38
296.466 -2548.9199 33.523102 1.8403113e-38
606.716 2013.62 35.281399 1.8403113e-38
275.62399 -2534.3201 41.456902 1.8403113e-38
569.01099 1990.72 48.3979 1.8403113e-38
586.09497 1991.91 42.2244 1.8403113e-38
552.53802 1993.33 54.444901 1.8403113e-38
545.83398 2068.1101 58.754398 1.8403113e-38
534.01703 2112.1499 64.149803 1.8403113e-38
506.763 2032.02 72.036201 1.8403113e-38
507.065 2189.0801 75.865196 1.8403113e-38
651.78302 4121.3901 71.772499 1.8403113e-38
155.287 -2453.76 87.171997 1.8403113e-38
491.50101 2215.97 82.190598 1.8403113e-38
619.36401 4142.4702 84.072403 1.8403113e-38
136.418 -2431.8799 94.572304 1.8403113e-38
255.006 -743.05103 93.862 1.8403113e-38
250.461 -672.02502 97.293297 1.8403113e-38
245.35001 -662.93402 99.377296 1.8403113e-38
261.263 -650.07397 93.9216 1.8403113e-38
117.174 -2421.8 101.813 1.8403113e-38
236.52 -760.71899 100.131 1.8403113e-38
222.722 -606.85602 109 1.8403113e-38
417.14899 2208.4399 109 1.8403113e-38
444.26599 2321.75 101.995 1.8403113e-38
