# .PCD v0.7 - Point Cloud Data file format
VERSION 0.7
FIELDS x y z rgb
SIZE 4 4 4 4
TYPE F F F F
COUNT 1 1 1 1
WIDTH 360
HEIGHT 1
VIEWPOINT 0 0 0 1 0 0 0
POINTS 360
DATA ascii
1128.27 -3261.71 -286.38501 1.8403113e-38
1127.75 -3154.74 -283.513 1.8403113e-38
1139.8101 -3003.52 -284.10001 1.8403113e-38
1154.5699 -2962.78 -288.43799 1.8403113e-38
1160.76 -2896.4399 -289.02301 1.8403113e-38
1163.21 -2821.73 -288.039 1.8403113e-38
1167.61 -2756.6299 -288.00299 1.8403113e-38
1172.29 -2695.4099 -288.16501 1.8403113e-38
1175.05 -2631.53 -287.56699 1.8403113e-38
1181.84 -2581.79 -288.785 1.8403113e-38
1184.13 -2521.9199 -288.116 1.8403113e-38
1187.26 -2466.8401 -287.87 1.8403113e-38
1188.84 -2410.0601 -287.01999 1.8403113e-38
1190.65 -2356.2 -286.328 1.8403113e-38
1201.6899 -2327.21 -289.60901 1.8403113e-38
1191.47 -2248.0701 -283.91199 1.8403113e-38
1198.58 -2212.8799 -285.61301 1.8403113e-38
1201.64 -2169.6101 -285.63901 1.8403113e-38
1202.46 -2122.8501 -284.763 1.8403113e-38
1209.13 -2090.5901 -286.375 1.8403113e-38
1208.67 -2044.1 -285.04599 1.8403113e-38
1213.47 -2010.22 -285.936 1.8403113e-38
1213.9 -1968.45 -285.04501 1.8403113e-38
1217.22 -1933.88 -285.38501 1.8403113e-38
1220.05 -1899.4 -285.548 1.8403113e-38
1222.84 -1865.9 -285.72198 1.8403113e-38
1226.54 -1835.09 -286.29199 1.8403113e-38
1230.27 -1805.23 -286.89801 1.8403113e-38
1234.54 -1777.16 -287.74301 1.8403113e-38
1234.09 -1741.46 -286.68399 1.8403113e-38
1233.13 -1705.91 -285.444 1.8403113e-38
1237.6 -1680.66 -286.435 1.8403113e-38
1238.72 -1650.42 -286.08301 1.8403113e-38
1246.55 -1631.99 -288.46301 1.8403113e-38
1251.5699 -1609.39 -289.72 1.8403113e-38
1248.97 -1575.26 -287.922 1.8403113e-38
1250.66 -1548.7 -287.86899 1.8403113e-38
1248.24 -1516.51 -286.181 1.8403113e-38
1251.33 -1493.42 -286.72601 1.8403113e-38
1257.98 -1476.02 -288.702 1.8403113e-38
1259.96 -1452.21 -288.82501 1.8403113e-38
1250.37 -1412.58 -284.34799 1.8403113e-38
1248.74 -1385.09 -283.069 1.8403113e-38
1252.5 -1365.59 -283.94601 1.8403113e-38
1261.27 -1353.14 -286.815 1.8403113e-38
1259.89 -1327.48 -285.67099 1.8403113e-38
1262.9301 -1308.09 -286.289 1.8403113e-38
1254.3 -1274.27 -282.306 1.8403113e-38
1260.99 -1260.39 -284.38901 1.8403113e-38
1259.55 -1236.71 -283.272 1.8403113e-38
1259.66 -1215.4 -282.77701 1.8403113e-38
1263.25 -1198.63 -283.66199 1.8403113e-38
1268.55 -1184.08 -285.21899 1.8403113e-38
1275.59 -1171.7 -287.46799 1.8403113e-38
1267.6899 -1142.6899 -283.871 1.8403113e-38
1273.05 -1128.95 -285.47299 1.8403113e-38
1278.26 -1115.2 -287.01999 1.8403113e-38
1282 -1100.03 -287.99799 1.8403113e-38
1273.55 -1072.33 -284.23199 1.8403113e-38
1273.47 -1053.85 -283.742 1.8403113e-38
1288.12 -1050.52 -288.978 1.8403113e-38
1280.87 -1025.29 -285.71201 1.8403113e-38
1277.4301 -1004.32 -283.936 1.8403113e-38
1278.59 -988.14203 -283.95401 1.8403113e-38
1283.78 -975.97498 -285.53201 1.8403113e-38
1286.73 -961.83197 -286.24701 1.8403113e-38
1285.24 -943.836 -285.25699 1.8403113e-38
1289.28 -931.05402 -286.40399 1.8403113e-38
1283.0699 -909.41998 -283.60599 1.8403113e-38
1292.61 -901.73102 -286.875 1.8403113e-38
1280.09 -875.38098 -281.66901 1.8403113e-38
1281.25 -860.95599 -281.728 1.8403113e-38
1281.51 -845.97198 -281.44699 1.8403113e-38
1286.84 -835.23401 -283.11301 1.8403113e-38
1287.55 -820.91699 -283.013 1.8403113e-38
1294.9301 -811.90503 -285.46701 1.8403113e-38
1296.14 -798.20599 -285.56201 1.8403113e-38
1284.91 -775.43799 -280.914 1.8403113e-38
1292.71 -766.995 -283.53299 1.8403113e-38
1285.67 -747.92401 -280.5 1.8403113e-38
1289.35 -736.711 -281.55499 1.8403113e-38
1289.78 -723.32501 -281.37399 1.8403113e-38
1294.8101 -713.18597 -282.94699 1.8403113e-38
1292.6 -698.28003 -281.76999 1.8403113e-38
1291.02 -683.98798 -280.83801 1.8403113e-38
1290.89 -670.79999 -280.45999 1.8403113e-38
1296.28 -661.19 -282.177 1.8403113e-38
1295.09 -647.56598 -281.405 1.8403113e-38
1297.21 -623.42297 -281.569 1.8403113e-38
1294.8 -609.505 -280.34201 1.8403113e-38
1300.87 -575.96002 -281.70499 1.8403113e-38
1300.98 -528.16602 -280.54999 1.8403113e-38
1304.8101 -495.048 -281.10699 1.8403113e-38
1307.42 -473.30499 -281.51199 1.8403113e-38
1309.0601 -396.08899 -280.17099 1.8403113e-38
1314.87 -323.09201 -280.44901 1.8403113e-38
1315.59 -312.79099 -280.45401 1.8403113e-38
1317.14 -302.746 -280.763 1.8403113e-38
1318.8101 -261.681 -280.341 1.8403113e-38
1328.6801 -131.709 -280.66501 1.8403113e-38
1333.54 -42.3638 -280.19 1.8403113e-38
1337.76 -2.5636301 -280.724 1.8403113e-38
1342.2 17.5305 -281.83099 1.8403113e-38
1340.67 37.496498 -280.77499 1.8403113e-38
1339.3101 47.431801 -280.03299 1.8403113e-38
1341.63 57.608799 -280.61899 1.8403113e-38
1345.36 98.268997 -280.953 1.8403113e-38
1345.38 108.408 -280.70499 1.8403113e-38
1349.05 119.027 -281.772 1.8403113e-38
1351.6899 129.595 -282.46799 1.8403113e-38
1349.64 180.739 -280.439 1.8403113e-38
1360.09 193.12 -283.923 1.8403113e-38
1353.77 202.34 -281.397 1.8403113e-38
1373.24 216.936 -288.10001 1.8403113e-38
1362.9301 235.97701 -283.88101 1.8403113e-38
1354.46 244.605 -280.58701 1.8403113e-38
1366.09 258.14899 -284.47198 1.8403113e-38
1362.03 267.87601 -282.755 1.8403113e-38
1373.42 281.741 -286.54099 1.8403113e-38
1372.8199 292.521 -286.05301 1.8403113e-38
1362.13 300.41101 -281.974 1.8403113e-38
1368.62 313.293 -284.008 1.8403113e-38
1362.28 333.42001 -281.19901 1.8403113e-38
1360.99 355.23901 -280.185 1.8403113e-38
1379.4399 372.91199 -286.44299 1.8403113e-38
1365.9 390.86899 -281.07599 1.8403113e-38
1367.91 403.08701 -281.49799 1.8403113e-38
1372.45 416.41101 -282.81299 1.8403113e-38
1369.71 438.681 -281.259 1.8403113e-38
1382.15 431.978 -285.94501 1.8403113e-38
1372.13 451.496 -281.81699 1.8403113e-38
1373.12 475.80701 -281.565 1.8403113e-38
1382.1 491.98001 -284.422 1.8403113e-38
1373.64 500.289 -281.14099 1.8403113e-38
1375.41 525.771 -281.14401 1.8403113e-38
1378.66 539.875 -281.97299 1.8403113e-38
1379.22 552.77301 -281.853 1.8403113e-38
1377.12 564.39301 -280.797 1.8403113e-38
1377.4301 577.36798 -280.586 1.8403113e-38
1378.46 590.849 -280.621 1.8403113e-38
1377.6801 603.46002 -280.021 1.8403113e-38
1379.89 631.17798 -280.12799 1.8403113e-38
1109.24 -2990.77 -272.67999 1.8403113e-38
1292.13 -633.03998 -279.965 1.8403113e-38
1292.23 -595.68103 -279.064 1.8403113e-38
1295.34 -585.15302 -279.92999 1.8403113e-38
1292.04 -559.20203 -278.082 1.8403113e-38
1296.52 -549.59399 -279.466 1.8403113e-38
1297.53 -538.24103 -279.548 1.8403113e-38
1297.52 -514.78802 -278.957 1.8403113e-38
1300.78 -504.73199 -279.88599 1.8403113e-38
1298.39 -480.69601 -278.41699 1.8403113e-38
1301.62 -459.495 -279.06 1.8403113e-38
1297.42 -446.55399 -277.20901 1.8403113e-38
1304.48 -438.32199 -279.56601 1.8403113e-38
1304.45 -427.23001 -279.276 1.8403113e-38
1305.1899 -416.51001 -279.27802 1.8403113e-38
1300.54 -403.83401 -277.26901 1.8403113e-38
1301.52 -382.591 -277.09299 1.8403113e-38
1308.12 -374.13101 -279.27701 1.8403113e-38
1304.8101 -362.32401 -277.77899 1.8403113e-38
1308.5699 -352.90601 -278.90799 1.8403113e-38
1306.85 -341.772 -278.005 1.8403113e-38
1309.54 -332.04999 -278.73901 1.8403113e-38
1307.67 -289.85199 -277 1.8403113e-38
1314.5 -281.272 -279.26599 1.8403113e-38
1316.7 -271.48599 -279.81799 1.8403113e-38
1316.26 -250.843 -279.14001 1.8403113e-38
1316.36 -240.65601 -278.92401 1.8403113e-38
1309.9301 -229.185 -276.29901 1.8403113e-38
1318.16 -220.688 -279.07599 1.8403113e-38
1314.1899 -204.80249 -277.23599 1.8403113e-38
1316.52 -190.146 -277.716 1.8403113e-38
1320.76 -180.78101 -279.01901 1.8403113e-38
1320.27 -170.67999 -278.58801 1.8403113e-38
1315.04 -159.97501 -276.42001 1.8403113e-38
1324.63 -151.24899 -279.685 1.8403113e-38
1321.1 -140.843 -278.14001 1.8403113e-38
1324.98 -121.354 -279.06 1.8403113e-38
1323.05 -111.243 -278.108 1.8403113e-38
1322.92 -101.324 -277.81 1.8403113e-38
1323.64 -91.480499 -277.82501 1.8403113e-38
1326.15 -81.7435 -278.49399 1.8403113e-38
1323.9 -71.730202 -277.42401 1.8403113e-38
1322.5 -61.803799 -276.66599 1.8403113e-38
1325.71 -52.0583 -277.58899 1.8403113e-38
1332.84 -32.415901 -279.685 1.8403113e-38
1326.42 -22.462099 -277.103 1.8403113e-38
1330.25 -12.575 -278.24701 1.8403113e-38
1332.03 7.27177 -278.397 1.8403113e-38
1336.3101 27.3002 -279.44699 1.8403113e-38
1339.17 67.458504 -279.479 1.8403113e-38
1338.51 77.4338 -278.98801 1.8403113e-38
1337.76 87.401802 -278.46701 1.8403113e-38
1340.26 138.19 -278.103 1.8403113e-38
1344.61 149.032 -279.40799 1.8403113e-38
1345.13 159.354 -279.341 1.8403113e-38
1343.72 169.37399 -278.57401 1.8403113e-38
1350.14 222.513 -279.57599 1.8403113e-38
1357.8 320.98999 -279.88599 1.8403113e-38
1354.9301 342.09399 -278.315 1.8403113e-38
1356.64 376.14401 -278.082 1.8403113e-38
1365.7 460.59601 -279.25299 1.8403113e-38
1371.14 511.358 -279.95801 1.8403113e-38
1375.95 615.62799 -279.086 1.8403113e-38
1377.0699 642.935 -278.811 1.8403113e-38
1375.79 655.67999 -278.02399 1.8403113e-38
1380.9 672.48401 -279.45999 1.8403113e-38
1380.96 686.35999 -279.13199 1.8403113e-38
1383.29 701.84497 -279.591 1.8403113e-38
1378.22 712.685 -277.48001 1.8403113e-38
1384.25 730.96002 -279.20999 1.8403113e-38
1382.91 744.52698 -278.384 1.8403113e-38
1381.4399 758.12402 -277.50601 1.8403113e-38
1381.39 772.862 -277.121 1.8403113e-38
1383.53 789.34399 -277.48499 1.8403113e-38
1384.71 805.354 -277.51199 1.8403113e-38
1391.12 825.48602 -279.33301 1.8403113e-38
1386.54 837.612 -277.366 1.8403113e-38
1392.52 857.99799 -279.026 1.8403113e-38
1388.4 870.77399 -277.20999 1.8403113e-38
1382.65 882.32703 -274.83301 1.8403113e-38
1389.51 904.25299 -276.77399 1.8403113e-38
1390.15 921.41498 -276.577 1.8403113e-38
1388.38 936.77698 -275.54999 1.8403113e-38
1391.58 956.60602 -276.21201 1.8403113e-38
1392.35 974.64502 -276.04001 1.8403113e-38
1390.74 990.82898 -275.05099 1.8403113e-38
1390.39 1008.36 -274.483 1.8403113e-38
1392.6801 1028.6 -274.80801 1.8403113e-38
1393.3101 1047.63 -274.56 1.8403113e-38
1394.42 1067.41 -274.466 1.8403113e-38
1391.8101 1083.9 -273.10501 1.8403113e-38
1392.46 1103.84 -272.84201 1.8403113e-38
1391.51 1122.5 -272.02701 1.8403113e-38
1397.79 1148.9 -273.647 1.8403113e-38
1397.01 1168.45 -272.871 1.8403113e-38
1398.65 1190.91 -272.90399 1.8403113e-38
1402.65 1216.36 -273.72 1.8403113e-38
1399.12 1234.02 -271.99399 1.8403113e-38
1403.17 1260.45 -272.80301 1.8403113e-38
1401.73 1281.17 -271.76001 1.8403113e-38
1401.95 1304.1801 -271.26199 1.8403113e-38
1408.1899 1334.75 -272.76099 1.8403113e-38
1411.51 1362.52 -273.271 1.8403113e-38
1409.51 1384.38 -271.99701 1.8403113e-38
1410.3 1410.13 -271.63901 1.8403113e-38
1410.15 1435.23 -270.95499 1.8403113e-38
1410.28 1461.2 -270.349 1.8403113e-38
1414.8199 1493.52 -271.18701 1.8403113e-38
1420.09 1527.6 -272.246 1.8403113e-38
1419.65 1554.77 -271.40701 1.8403113e-38
1425.76 1591.6 -272.70001 1.8403113e-38
1422.25 1615.83 -270.82001 1.8403113e-38
1427.4301 1653.02 -271.76599 1.8403113e-38
1428.75 1685.55 -271.42899 1.8403113e-38
1431.27 1720.6801 -271.46301 1.8403113e-38
1432.76 1755.16 -271.13901 1.8403113e-38
1438.05 1796.4 -272.02701 1.8403113e-38
1435.35 1826.22 -270.29999 1.8403113e-38
1443.17 1909.67 -271.047 1.8403113e-38
1443.65 1947.47 -270.272 1.8403113e-38
1448.1 1993.0699 -270.745 1.8403113e-38
1074.78 -3165.96 -264.56 1.8403113e-38
1432.78 1856.97 -268.595 1.8403113e-38
1420.77 1985.03 -261.02399 1.8403113e-38
1381.98 1956.01 -247.664 1.8403113e-38
1007.09 -3005.8101 -235.965 1.8403113e-38
1342.78 1924.7 -234.217 1.8403113e-38
972.51001 -2971.26 -222.543 1.8403113e-38
1304.37 1931.9301 -220.089 1.8403113e-38
1326.88 1934.5 -228.19701 1.8403113e-38
1357.76 2706.8301 -220.04201 1.8403113e-38
940.13 -2943.0701 -210.07899 1.8403113e-38
1289.3199 1943.13 -214.345 1.8403113e-38
913.89203 -2939.75 -200.468 1.8403113e-38
1271.91 1949.79 -207.856 1.8403113e-38
1254.91 1957.16 -201.498 1.8403113e-38
874.284 -3123.5801 -190.696 1.8403113e-38
890.05499 -2946.8701 -191.991 1.8403113e-38
1237.87 1964.36 -195.12801 1.8403113e-38
1229.8 1990.15 -191.552 1.8403113e-38
1265.05 2204.05 -198.987 1.8403113e-38
1269.34 2612.0801 -190.314 1.8403113e-38
870.95898 -2977.1699 -185.817 1.8403113e-38
1216.73 2006.0601 -186.409 1.8403113e-38
1227.55 2074.1299 -188.63 1.8403113e-38
1213.23 2136.8101 -181.85699 1.8403113e-38
1252.36 2504.73 -186.838 1.8403113e-38
832.71503 -3044.22 -173.612 1.8403113e-38
1188.9 2129.8799 -173.19701 1.8403113e-38
1235.63 2588.5 -178.66499 1.8403113e-38
1174.39 2145.55 -167.536 1.8403113e-38
1166.12 2176.73 -163.74899 1.8403113e-38
779.82397 -2893.73 -150.633 1.8403113e-38
1166 2464.4399 -156.492 1.8403113e-38
756.84302 -2902.5601 -142.50999 1.8403113e-38
1147.99 2479.1101 -149.584 1.8403113e-38
1132.0699 2500.21 -143.276 1.8403113e-38
727.52301 -2872.8201 -131.118 1.8403113e-38
1117.78 2526.8701 -137.41701 1.8403113e-38
1100.33 2544.9299 -130.62801 1.8403113e-38
1084.15 2567.6001 -124.184 1.8403113e-38
692.50702 -2802.3601 -116.637 1.8403113e-38
1066.1899 2585.4099 -117.217 1.8403113e-38
1060.71 2727.8301 -111.658 1.8403113e-38
1068.2 2841.47 -111.526 1.8403113e-38
666.73901 -2786.71 -106.888 1.8403113e-38
1045.4301 2594.47 -109.451 1.8403113e-38
643.70599 -2788.5801 -98.571297 1.8403113e-38
619.27399 -2779.3501 -89.468399 1.8403113e-38
575.08002 -2796.8501 -73.860397 1.8403113e-38
593.59302 -2757.99 -79.608002 1.8403113e-38
928.56403 2422.29 -71.335297 1.8403113e-38
952.39502 2780.5601 -71.004303 1.8403113e-38
550.18298 -2780 -64.397499 1.8403113e-38
952.05701 2881.8201 -68.342499 1.8403113e-38
526.44501 -2771.8301 -55.573299 1.8403113e-38
878.79602 2315.3201 -55.946701 1.8403113e-38
873.72198 2375.8899 -52.5854 1.8403113e-38
503.21399 -2767.4099 -47.0271 1.8403113e-38
479.52899 -2755.8 -38.1357 1.8403113e-38
816.50201 2399.3101 -31.221201 1.8403113e-38
434.54001 -2759.8 -21.9004 1.8403113e-38
456.61899 -2751.9299 -29.719999 1.8403113e-38
417.59299 -2864.24 -18.3657 1.8403113e-38
773.06799 2296.8999 -18.0182 1.8403113e-38
383.491 -2632.22 -0.16497201 1.8403113e-38
720.96698 2236.1599 -0.62316501 1.8403113e-38
747.26801 2269.1201 -9.3467903 1.8403113e-38
360.823 -2601.48 8.8366899 1.8403113e-38
686.46899 2157.78 9.9377499 1.8403113e-38
339.23199 -2589.49 16.9769 1.8403113e-38
665.159 2142.8 17.299801 1.8403113e-38
317.80701 -2575.3 25.112499 1.8403113e-38
296.492 -2550.9099 33.463501 1.8403113e-38
618.461 1982.96 30.2477 1.8403113e-38
606.383 2011.65 35.352901 1.8403113e-38
275.63901 -2537.3201 41.3764 1.8403113e-38
255.00101 -2527.53 49.1157 1.8403113e-38
568.56 1987.76 48.487301 1.8403113e-38
588.63 2007.7 41.699902 1.8403113e-38
234.562 -2514.55 56.862598 1.8403113e-38
553.24902 1998.28 54.310799 1.8403113e-38
544.76099 2060.1799 58.945301 1.8403113e-38
214.418 -2497.3799 64.607697 1.8403113e-38
533.38702 2107.1899 64.254204 1.8403113e-38
194.584 -2479.02 72.269699 1.8403113e-38
175.05099 -2460.49 79.827202 1.8403113e-38
507.23401 2035.99 71.9646 1.8403113e-38
507.39401 2192.0701 75.820396 1.8403113e-38
651.87701 4122.3901 71.763496 1.8403113e-38
155.509 -2448.77 87.216797 1.8403113e-38
491.19601 2212.98 82.226402 1.8403113e-38
620.13202 4151.4302 84.0186 1.8403113e-38
216.561 -787.83197 106.699 1.8403113e-38
230.595 -641.38501 105.275 1.8403113e-38
220.655 -636.784 109 1.8403113e-38
417.49301 2213.4299 109 1.8403113e-38
443.64899 2313.77 102.018 1.8403113e-38
