# .PCD v0.7 - Point Cloud Data file format
VERSION 0.7
FIELDS x y z rgb
SIZE 4 4 4 4
TYPE F F F F
COUNT 1 1 1 1
WIDTH 358
HEIGHT 1
VIEWPOINT 0 0 0 1 0 0 0
POINTS 358
DATA ascii
1130.83 -3271.3101 -287.55499 1.8403113e-38
1130.92 -3166.22 -284.95001 1.8403113e-38
1142.61 -3013.04 -285.354 1.8403113e-38
1157.45 -2972.27 -289.71899 1.8403113e-38
1161.0601 -2897.3899 -289.15399 1.8403113e-38
1166.54 -2832.1101 -289.509 1.8403113e-38
1168.23 -2758.51 -288.276 1.8403113e-38
1170.38 -2689.79 -287.33099 1.8403113e-38
1175.37 -2632.46 -287.70801 1.8403113e-38
1178.84 -2573.3999 -287.48401 1.8403113e-38
1181.74 -2515.4199 -287.08499 1.8403113e-38
1187.61 -2467.76 -288.01901 1.8403113e-38
1189.1899 -2410.98 -287.172 1.8403113e-38
1190.65 -2356.2 -286.328 1.8403113e-38
1202.0601 -2328.1201 -289.767 1.8403113e-38
1195.26 -2257.1799 -285.51801 1.8403113e-38
1198.58 -2212.8799 -285.61301 1.8403113e-38
1202.8199 -2172.3201 -286.13599 1.8403113e-38
1202.46 -2122.8501 -284.763 1.8403113e-38
1209.54 -2091.49 -286.54599 1.8403113e-38
1209.09 -2044.99 -285.21899 1.8403113e-38
1213.89 -2011.11 -286.112 1.8403113e-38
1214.76 -1970.22 -285.40201 1.8403113e-38
1217.66 -1934.76 -285.56601 1.8403113e-38
1220.9399 -1901.15 -285.91599 1.8403113e-38
1226.92 -1873.74 -287.39899 1.8403113e-38
1225.62 -1833.36 -285.914 1.8403113e-38
1226.0699 -1797.46 -285.177 1.8403113e-38
1228.85 -1766.85 -285.41901 1.8403113e-38
1229.76 -1733.77 -284.91901 1.8403113e-38
1234.1 -1707.61 -285.841 1.8403113e-38
1233.14 -1673.0601 -284.625 1.8403113e-38
1237.72 -1648.74 -285.67599 1.8403113e-38
1240.4399 -1621.97 -285.99301 1.8403113e-38
1242.8 -1595.27 -286.17999 1.8403113e-38
1246.36 -1571.13 -286.86899 1.8403113e-38
1248.01 -1544.59 -286.80399 1.8403113e-38
1244.48 -1510.8 -284.67401 1.8403113e-38
1252.96 -1495.85 -287.379 1.8403113e-38
1260.73 -1480.05 -289.80099 1.8403113e-38
1262.74 -1456.22 -289.935 1.8403113e-38
1249.8 -1411.78 -284.12299 1.8403113e-38
1259.5601 -1400.1 -287.375 1.8403113e-38
1252.5 -1365.59 -283.94601 1.8403113e-38
1262.4301 -1354.7 -287.27701 1.8403113e-38
1268.13 -1338.3101 -288.93701 1.8403113e-38
1262.33 -1307.3199 -286.05301 1.8403113e-38
1254.9 -1275.03 -282.54401 1.8403113e-38
1260.38 -1259.63 -284.14899 1.8403113e-38
1259.55 -1236.71 -283.272 1.8403113e-38
1259.66 -1215.4 -282.77701 1.8403113e-38
1268.89 -1205.28 -285.87601 1.8403113e-38
1267.91 -1183.34 -284.97101 1.8403113e-38
1278.15 -1174.62 -288.46899 1.8403113e-38
1278.65 -1154.96 -288.15799 1.8403113e-38
1275.65 -1131.8101 -286.48901 1.8403113e-38
1283.51 -1120.87 -289.069 1.8403113e-38
1284.65 -1102.84 -289.03 1.8403113e-38
1273.55 -1072.33 -284.23199 1.8403113e-38
1273.47 -1053.85 -283.742 1.8403113e-38
1281.33 -1043.67 -286.33899 1.8403113e-38
1277.4399 -1021.9 -284.383 1.8403113e-38
1280.1899 -1007 -285.00699 1.8403113e-38
1278.59 -988.14203 -283.95401 1.8403113e-38
1287.99 -979.927 -287.16 1.8403113e-38
1285.3101 -960.52698 -285.70099 1.8403113e-38
1286.67 -945.12701 -285.80701 1.8403113e-38
1290.72 -932.33099 -286.95801 1.8403113e-38
1278.01 -904.99597 -281.65701 1.8403113e-38
1291.88 -901.10602 -286.595 1.8403113e-38
1280.8199 -876 -281.95099 1.8403113e-38
1287.16 -865.84802 -283.99701 1.8403113e-38
1280.02 -844.763 -280.87601 1.8403113e-38
1286.09 -834.63599 -282.82599 1.8403113e-38
1286.8 -820.32703 -282.724 1.8403113e-38
1292.66 -810.15399 -284.59698 1.8403113e-38
1290.03 -793.59399 -283.229 1.8403113e-38
1284.91 -775.43799 -280.914 1.8403113e-38
1285.75 -761.93597 -280.88101 1.8403113e-38
1286.45 -748.479 -280.797 1.8403113e-38
1290.13 -737.25897 -281.853 1.8403113e-38
1288.99 -722.78497 -281.07501 1.8403113e-38
1294.8101 -713.18597 -282.94699 1.8403113e-38
1293.39 -698.80499 -282.07199 1.8403113e-38
1298.21 -688.65002 -283.56799 1.8403113e-38
1291.6899 -671.31097 -280.76501 1.8403113e-38
1297.09 -661.69299 -282.483 1.8403113e-38
1293.47 -646.57501 -280.79001 1.8403113e-38
1297.21 -623.42297 -281.569 1.8403113e-38
1293.97 -609.03302 -280.03101 1.8403113e-38
1298.86 -599.401 -281.564 1.8403113e-38
1300.03 -575.51099 -281.39099 1.8403113e-38
1297.92 -562.29303 -280.29401 1.8403113e-38
1306.5601 -472.927 -281.18799 1.8403113e-38
1317.14 -302.746 -280.763 1.8403113e-38
1335.88 -2.59109 -280.04199 1.8403113e-38
1340.49 7.4738498 -281.46301 1.8403113e-38
1345.0699 78.017799 -281.35599 1.8403113e-38
1343.5 108.189 -280.03201 1.8403113e-38
1357.29 130.356 -284.483 1.8403113e-38
1350.5699 180.909 -280.772 1.8403113e-38
1355.62 202.714 -282.06 1.8403113e-38
1364.92 215.175 -285.12701 1.8403113e-38
1359.25 235.12601 -282.56601 1.8403113e-38
1356.01 255.621 -280.87399 1.8403113e-38
1362.03 267.87601 -282.755 1.8403113e-38
1377.0699 282.728 -287.84201 1.8403113e-38
1371 292.01001 -285.40399 1.8403113e-38
1368.49 302.25601 -284.23801 1.8403113e-38
1362.27 311.38901 -281.75201 1.8403113e-38
1374.08 326.03699 -285.67099 1.8403113e-38
1362.28 333.42001 -281.19901 1.8403113e-38
1362.78 355.849 -280.82101 1.8403113e-38
1365.5699 379.36401 -281.242 1.8403113e-38
1381.23 373.54001 -287.077 1.8403113e-38
1379.25 395.823 -285.798 1.8403113e-38
1368.8 403.42499 -281.81201 1.8403113e-38
1379.53 419.18399 -285.31299 1.8403113e-38
1380.39 431.26801 -285.32199 1.8403113e-38
1375.86 441.22198 -283.42899 1.8403113e-38
1370.38 450.75299 -281.20001 1.8403113e-38
1372.6801 463.629 -281.71301 1.8403113e-38
1373.12 475.80701 -281.565 1.8403113e-38
1374.3 488.423 -281.67899 1.8403113e-38
1373.64 500.289 -281.14099 1.8403113e-38
1378.02 514.64801 -282.37399 1.8403113e-38
1376.26 526.19098 -281.444 1.8403113e-38
1380.0699 553.20801 -282.14999 1.8403113e-38
1383.04 567.492 -282.87 1.8403113e-38
1385.86 581.87299 -283.53299 1.8403113e-38
1377.62 590.39099 -280.328 1.8403113e-38
1379.35 604.39203 -280.604 1.8403113e-38
1386.26 717.95099 -280.26501 1.8403113e-38
1390.8199 779.53302 -280.37701 1.8403113e-38
1108.16 -2986.95 -272.19 1.8403113e-38
1291.3101 -632.55298 -279.65601 1.8403113e-38
1294.51 -584.69598 -279.616 1.8403113e-38
1295.6801 -549.15997 -279.14899 1.8403113e-38
1294.99 -536.96399 -278.59399 1.8403113e-38
1298.4301 -526.91199 -279.59201 1.8403113e-38
1295.8101 -513.96802 -278.31601 1.8403113e-38
1298.2 -503.52499 -278.922 1.8403113e-38
1295.34 -490.71399 -277.56 1.8403113e-38
1299.25 -481.082 -278.73999 1.8403113e-38
1300.75 -459.12601 -278.73401 1.8403113e-38
1303.53 -449.086 -279.49301 1.8403113e-38
1302.73 -437.61499 -278.91101 1.8403113e-38
1303.5699 -426.88501 -278.948 1.8403113e-38
1304.3101 -416.172 -278.94901 1.8403113e-38
1300.54 -403.83401 -277.26901 1.8403113e-38
1299.3 -392.561 -276.53699 1.8403113e-38
1308.64 -385.091 -279.742 1.8403113e-38
1308.12 -374.13101 -279.27701 1.8403113e-38
1304.8101 -362.32401 -277.77899 1.8403113e-38
1307.67 -352.61899 -278.57401 1.8403113e-38
1306.85 -341.772 -278.005 1.8403113e-38
1310.4399 -332.32101 -279.073 1.8403113e-38
1313.0601 -322.56699 -279.77899 1.8403113e-38
1309.24 -311.013 -278.104 1.8403113e-38
1310.4 -290.56299 -278.01099 1.8403113e-38
1312.67 -280.815 -278.59201 1.8403113e-38
1315.78 -271.26599 -279.48099 1.8403113e-38
1312.49 -255.10751 -277.88 1.8403113e-38
1315.915 -235.46051 -278.63049 1.8403113e-38
1317.24 -220.511 -278.73599 1.8403113e-38
1318.9399 -210.707 -279.10699 1.8403113e-38
1316.85 -200.248 -278.086 1.8403113e-38
1316.3201 -185.09351 -277.51501 1.8403113e-38
1318.41 -170.412 -277.90601 1.8403113e-38
1319.7 -160.60201 -278.12701 1.8403113e-38
1324.63 -151.24899 -279.685 1.8403113e-38
1319.23 -140.627 -277.45599 1.8403113e-38
1319.34 -130.714 -277.24701 1.8403113e-38
1323.1 -121.173 -278.37601 1.8403113e-38
1321.1801 -111.079 -277.42401 1.8403113e-38
1321.04 -101.177 -277.12601 1.8403113e-38
1322.7 -91.415703 -277.483 1.8403113e-38
1324.28 -81.631401 -277.81 1.8403113e-38
1322.96 -71.682899 -277.082 1.8403113e-38
1330.01 -62.112598 -279.40201 1.8403113e-38
1324.77 -52.0284 -277.24701 1.8403113e-38
1331.66 -42.321499 -279.50699 1.8403113e-38
1325.3199 -32.316399 -276.953 1.8403113e-38
1325.48 -22.458401 -276.76199 1.8403113e-38
1329.3101 -12.58 -277.90601 1.8403113e-38
1332.8 17.2188 -278.427 1.8403113e-38
1333.49 27.1805 -278.427 1.8403113e-38
1331.28 37.010399 -277.37701 1.8403113e-38
1338.37 47.3745 -279.694 1.8403113e-38
1339.75 57.4767 -279.94101 1.8403113e-38
1338.23 67.383797 -279.14001 1.8403113e-38
1336.8199 87.3097 -278.129 1.8403113e-38
1339.74 97.6642 -278.92899 1.8403113e-38
1340.64 117.963 -278.746 1.8403113e-38
1337.47 137.783 -277.09698 1.8403113e-38
1344.61 149.032 -279.40799 1.8403113e-38
1343.27 159.048 -278.673 1.8403113e-38
1341.86 169.05099 -277.90799 1.8403113e-38
1346.1899 190.442 -278.94501 1.8403113e-38
1350.14 222.513 -279.57599 1.8403113e-38
1352.62 244.162 -279.93201 1.8403113e-38
1354.03 341.797 -277.996 1.8403113e-38
1371.84 536.45801 -279.57999 1.8403113e-38
1377.61 616.57501 -279.66599 1.8403113e-38
1379.0601 630.69702 -279.84 1.8403113e-38
1377.0699 642.935 -278.811 1.8403113e-38
1376.61 656.177 -278.30899 1.8403113e-38
1380.09 671.979 -279.177 1.8403113e-38
1383.39 687.89502 -279.97699 1.8403113e-38
1382.48 701.32599 -279.311 1.8403113e-38
1383.45 730.42603 -278.93301 1.8403113e-38
1383.71 745.06897 -278.659 1.8403113e-38
1383.02 759.22198 -278.05301 1.8403113e-38
1384.3101 789.90698 -277.755 1.8403113e-38
1385.49 805.92401 -277.78 1.8403113e-38
1385.71 821.44299 -277.47299 1.8403113e-38
1388.0699 838.78101 -277.89401 1.8403113e-38
1386.42 853.26501 -276.92999 1.8403113e-38
1388.4 870.77399 -277.20999 1.8403113e-38
1390.1801 888.38397 -277.414 1.8403113e-38
1391 905.47803 -277.28601 1.8403113e-38
1389.41 920.79498 -276.32199 1.8403113e-38
1388.38 936.77698 -275.54999 1.8403113e-38
1391.58 956.60602 -276.21201 1.8403113e-38
1393.8 975.92401 -276.53601 1.8403113e-38
1391.47 991.47601 -275.297 1.8403113e-38
1391.11 1009.02 -274.72699 1.8403113e-38
1393.39 1029.26 -275.04901 1.8403113e-38
1394.02 1048.29 -274.79999 1.8403113e-38
1400.73 1073.46 -276.604 1.8403113e-38
1398.76 1090.6899 -275.45901 1.8403113e-38
1393.84 1105.21 -273.30899 1.8403113e-38
1392.88 1123.88 -272.48901 1.8403113e-38
1398.47 1149.59 -273.87601 1.8403113e-38
1397.6801 1169.15 -273.09698 1.8403113e-38
1399.98 1192.33 -273.353 1.8403113e-38
1398.03 1211.35 -272.16501 1.8403113e-38
1400.4301 1235.47 -272.43301 1.8403113e-38
1405.12 1262.64 -273.45599 1.8403113e-38
1403.02 1282.64 -272.19101 1.8403113e-38
1403.22 1305.66 -271.68799 1.8403113e-38
1404.4 1330.27 -271.49799 1.8403113e-38
1411.51 1362.52 -273.271 1.8403113e-38
1410.13 1385.14 -272.202 1.8403113e-38
1412.14 1412.42 -272.24899 1.8403113e-38
1410.76 1436 -271.15601 1.8403113e-38
1415.6801 1468.17 -272.13699 1.8403113e-38
1416.6 1495.86 -271.77499 1.8403113e-38
1421.85 1529.96 -272.827 1.8403113e-38
1420.23 1555.5601 -271.59799 1.8403113e-38
1420.59 1584.4301 -271.00101 1.8403113e-38
1423.39 1617.4301 -271.19199 1.8403113e-38
1427.99 1653.83 -271.95001 1.8403113e-38
1429.3 1686.36 -271.61099 1.8403113e-38
1431.8199 1721.5 -271.642 1.8403113e-38
1433.3 1755.98 -271.315 1.8403113e-38
1439.12 1798.05 -272.37399 1.8403113e-38
1436.9399 1828.72 -270.81299 1.8403113e-38
1438 1865.33 -270.27899 1.8403113e-38
1443.6899 1910.51 -271.21301 1.8403113e-38
1077.26 -3175.5801 -265.702 1.8403113e-38
1441.11 1943.24 -269.45599 1.8403113e-38
1421.27 1985.88 -261.18201 1.8403113e-38
1445.1 1987.97 -269.78201 1.8403113e-38
1382.46 1956.87 -247.82001 1.8403113e-38
1007.09 -3005.8101 -235.965 1.8403113e-38
1343.26 1925.5601 -234.37 1.8403113e-38
972.27802 -2970.29 -222.43401 1.8403113e-38
1304.84 1932.8101 -220.237 1.8403113e-38
1330.66 1941.4399 -229.396 1.8403113e-38
1358.5 2708.6699 -220.265 1.8403113e-38
941.026 -2946.95 -210.50101 1.8403113e-38
1290.24 1944.88 -214.634 1.8403113e-38
914.54102 -2942.6699 -200.77699 1.8403113e-38
1271.91 1949.79 -207.856 1.8403113e-38
1254.47 1956.27 -201.35899 1.8403113e-38
874.47601 -3124.55 -190.78999 1.8403113e-38
890.263 -2947.8401 -192.091 1.8403113e-38
1237.4301 1963.47 -194.992 1.8403113e-38
1230.23 1991.04 -191.686 1.8403113e-38
1268.3101 2211.28 -199.99001 1.8403113e-38
1268.63 2610.22 -190.103 1.8403113e-38
871.159 -2978.1399 -185.914 1.8403113e-38
1217.16 2006.96 -186.53999 1.8403113e-38
1225.0601 2068.73 -187.86099 1.8403113e-38
1214.83 2140.4399 -182.347 1.8403113e-38
1250.54 2500.1001 -186.29601 1.8403113e-38
834.92499 -3055.96 -174.709 1.8403113e-38
1190.08 2132.6201 -173.556 1.8403113e-38
1236.67 2591.29 -178.97301 1.8403113e-38
1174 2144.6399 -167.41901 1.8403113e-38
1165.36 2174.8899 -163.521 1.8403113e-38
780 -2894.71 -150.722 1.8403113e-38
1166.34 2465.3799 -156.592 1.8403113e-38
758.18799 -2910.4199 -143.19501 1.8403113e-38
1145.99 2473.48 -149.00101 1.8403113e-38
1133.7 2504.9199 -143.748 1.8403113e-38
727.52301 -2872.8201 -131.118 1.8403113e-38
1116.51 2523.1001 -137.052 1.8403113e-38
1102.8 2552.51 -131.336 1.8403113e-38
1087.16 2577.1001 -125.041 1.8403113e-38
692.659 -2803.3401 -116.717 1.8403113e-38
1066.48 2586.3601 -117.3 1.8403113e-38
1055.99 2711.55 -110.35 1.8403113e-38
1070.09 2848.1899 -112.044 1.8403113e-38
666.59497 -2785.72 -106.811 1.8403113e-38
1046.5699 2598.29 -109.77 1.8403113e-38
643.57001 -2787.5901 -98.4972 1.8403113e-38
619.146 -2778.3601 -89.397202 1.8403113e-38
574.96899 -2795.8601 -73.795097 1.8403113e-38
592.638 -2750.0701 -79.0625 1.8403113e-38
931.18701 2431.9199 -72.046402 1.8403113e-38
952.633 2781.53 -71.066597 1.8403113e-38
551.11102 -2788.9299 -64.958504 1.8403113e-38
950.90399 2876.96 -68.045502 1.8403113e-38
526.44501 -2771.8301 -55.573299 1.8403113e-38
878.79602 2315.3201 -55.946701 1.8403113e-38
872.98199 2372.99 -52.389599 1.8403113e-38
502.34601 -2757.46 -46.462601 1.8403113e-38
479.45001 -2754.8 -38.082199 1.8403113e-38
816.94702 2401.26 -31.334101 1.8403113e-38
434.54001 -2759.8 -21.9004 1.8403113e-38
456.61899 -2751.9299 -29.719999 1.8403113e-38
417.16 -2856.26 -18.0086 1.8403113e-38
773.06799 2296.8999 -18.0182 1.8403113e-38
383.491 -2632.22 -0.16497201 1.8403113e-38
721.16498 2237.1399 -0.67076498 1.8403113e-38
747.68201 2271.0801 -9.4478998 1.8403113e-38
360.785 -2600.48 8.8754101 1.8403113e-38
339.17401 -2587.5 17.048401 1.8403113e-38
664.79401 2140.8301 17.383101 1.8403113e-38
685.70599 2153.8601 10.1163 1.8403113e-38
317.785 -2574.3 25.1453 1.8403113e-38
619.68298 1989.85 29.9767 1.8403113e-38
296.62299 -2560.9099 33.165401 1.8403113e-38
605.883 2008.6899 35.460201 1.8403113e-38
275.673 -2544.3201 41.188599 1.8403113e-38
255.00101 -2527.53 49.1157 1.8403113e-38
569.61298 1994.67 48.278702 1.8403113e-38
587.99597 2003.75 41.831001 1.8403113e-38
234.689 -2503.55 57.0923 1.8403113e-38
553.10699 1997.29 54.337601 1.8403113e-38
545.96802 2069.1001 58.730598 1.8403113e-38
214.438 -2496.3799 64.625603 1.8403113e-38
533.00897 2104.22 64.316803 1.8403113e-38
194.584 -2479.02 72.269699 1.8403113e-38
174.942 -2463.48 79.791397 1.8403113e-38
507.35199 2036.98 71.946701 1.8403113e-38
508.38199 2201.01 75.686096 1.8403113e-38
651.69 4120.3999 71.781403 1.8403113e-38
155.42 -2450.77 87.198898 1.8403113e-38
491.298 2213.98 82.2145 1.8403113e-38
619.62 4145.46 84.054497 1.8403113e-38
136.733 -2425.8899 94.608101 1.8403113e-38
117.478 -2416.8101 101.827 1.8403113e-38
98.363998 -2407.5701 109 1.8403113e-38
416.59799 2200.46 109 1.8403113e-38
443.57199 2312.78 102.021 1.8403113e-38
