# .PCD v0.7 - Point Cloud Data file format
VERSION 0.7
FIELDS x y z rgb
SIZE 4 4 4 4
TYPE F F F F
COUNT 1 1 1 1
WIDTH 360
HEIGHT 1
VIEWPOINT 0 0 0 1 0 0 0
POINTS 360
DATA ascii
1129.55 -3266.51 -286.97 1.8403113e-38
1130.65 -3165.27 -284.82999 1.8403113e-38
1141.77 -3010.1899 -284.978 1.8403113e-38
1157.73 -2973.22 -289.84698 1.8403113e-38
1161.65 -2899.28 -289.41599 1.8403113e-38
1163.52 -2822.6799 -288.172 1.8403113e-38
1165.4399 -2750.04 -287.048 1.8403113e-38
1170.38 -2689.79 -287.33099 1.8403113e-38
1178.3101 -2640.8799 -288.98499 1.8403113e-38
1179.17 -2574.3401 -287.629 1.8403113e-38
1184.13 -2521.9199 -288.116 1.8403113e-38
1187.61 -2467.76 -288.01901 1.8403113e-38
1188.84 -2410.0601 -287.01999 1.8403113e-38
1191.38 -2358.04 -286.638 1.8403113e-38
1199.46 -2321.72 -288.66101 1.8403113e-38
1195.26 -2257.1799 -285.51801 1.8403113e-38
1199.35 -2214.7 -285.939 1.8403113e-38
1202.04 -2170.51 -285.80499 1.8403113e-38
1202.86 -2123.75 -284.93201 1.8403113e-38
1206.26 -2084.3201 -285.17801 1.8403113e-38
1209.09 -2044.99 -285.21899 1.8403113e-38
1213.89 -2011.11 -286.112 1.8403113e-38
1214.76 -1970.22 -285.40201 1.8403113e-38
1218.1 -1935.64 -285.74701 1.8403113e-38
1220.9399 -1901.15 -285.91599 1.8403113e-38
1227.83 -1875.49 -287.771 1.8403113e-38
1226.54 -1835.09 -286.29199 1.8403113e-38
1229.34 -1803.5 -286.51599 1.8403113e-38
1229.8 -1768.5699 -285.806 1.8403113e-38
1233.61 -1740.61 -286.48801 1.8403113e-38
1233.13 -1705.91 -285.444 1.8403113e-38
1237.6 -1680.66 -286.435 1.8403113e-38
1235.71 -1645.38 -284.86301 1.8403113e-38
1245.02 -1629.49 -287.84601 1.8403113e-38
1242.8 -1595.27 -286.17999 1.8403113e-38
1246.36 -1571.13 -286.86899 1.8403113e-38
1247.49 -1543.77 -286.59201 1.8403113e-38
1246.63 -1514.0601 -285.535 1.8403113e-38
1251.33 -1493.42 -286.72601 1.8403113e-38
1253.58 -1469.5699 -286.94299 1.8403113e-38
1253.28 -1442.61 -286.159 1.8403113e-38
1248.6801 -1410.1899 -283.67401 1.8403113e-38
1250.45 -1387.46 -283.74899 1.8403113e-38
1253.66 -1367.16 -284.40399 1.8403113e-38
1258.35 -1349.24 -285.66 1.8403113e-38
1260.48 -1328.25 -285.90399 1.8403113e-38
1258.17 -1301.95 -284.405 1.8403113e-38
1254.3 -1274.27 -282.306 1.8403113e-38
1259.77 -1258.87 -283.909 1.8403113e-38
1259.55 -1236.71 -283.272 1.8403113e-38
1264.62 -1221.37 -284.729 1.8403113e-38
1263.88 -1199.36 -283.90799 1.8403113e-38
1267.28 -1182.61 -284.72299 1.8403113e-38
1268.5699 -1163.7 -284.71701 1.8403113e-38
1264.47 -1139.08 -282.60999 1.8403113e-38
1271.1 -1126.8 -284.70999 1.8403113e-38
1273.01 -1109.52 -284.97101 1.8403113e-38
1279.35 -1097.21 -286.965 1.8403113e-38
1274.88 -1073.72 -284.75201 1.8403113e-38
1273.47 -1053.85 -283.742 1.8403113e-38
1282.01 -1044.36 -286.603 1.8403113e-38
1280.87 -1025.29 -285.71201 1.8403113e-38
1279.5 -1006.33 -284.73901 1.8403113e-38
1275.8101 -985.48102 -282.87601 1.8403113e-38
1280.97 -973.34003 -284.44699 1.8403113e-38
1281.78 -957.26703 -284.33499 1.8403113e-38
1280.25 -939.31799 -283.33301 1.8403113e-38
1287.13 -929.13702 -285.57401 1.8403113e-38
1284.52 -910.68402 -284.16299 1.8403113e-38
1289.6899 -899.22998 -285.755 1.8403113e-38
1285.96 -880.32898 -283.92401 1.8403113e-38
1286.42 -865.237 -283.71301 1.8403113e-38
1280.76 -845.367 -281.16101 1.8403113e-38
1286.84 -835.23401 -283.11301 1.8403113e-38
1286.04 -819.73602 -282.436 1.8403113e-38
1285.83 -804.90198 -281.987 1.8403113e-38
1285.45 -790.13501 -281.479 1.8403113e-38
1284.14 -774.86902 -280.621 1.8403113e-38
1284.98 -761.37402 -280.586 1.8403113e-38
1286.45 -748.479 -280.797 1.8403113e-38
1290.13 -737.25897 -281.853 1.8403113e-38
1287.42 -721.70502 -280.47699 1.8403113e-38
1293.39 -698.80499 -282.07199 1.8403113e-38
1290.22 -683.46997 -280.534 1.8403113e-38
1291.6899 -671.31097 -280.76501 1.8403113e-38
1294.28 -647.07098 -281.09799 1.8403113e-38
1293.97 -609.03302 -280.03101 1.8403113e-38
1306.5601 -472.927 -281.18799 1.8403113e-38
1317.9 -261.47 -280.00299 1.8403113e-38
1335.89 -12.545 -280.29401 1.8403113e-38
1339.73 37.447899 -280.435 1.8403113e-38
1347.96 129.088 -281.125 1.8403113e-38
1359.38 214.00101 -283.14401 1.8403113e-38
1357.41 234.7 -281.90799 1.8403113e-38
1354.17 255.162 -280.22 1.8403113e-38
1360.2 267.39899 -282.10199 1.8403113e-38
1361.89 289.45901 -282.16101 1.8403113e-38
1361.22 300.147 -281.651 1.8403113e-38
1367.71 313.021 -283.686 1.8403113e-38
1368.65 324.35501 -283.74301 1.8403113e-38
1366.46 379.686 -281.55801 1.8403113e-38
1377.65 372.285 -285.80899 1.8403113e-38
1368.5699 391.85999 -282.01999 1.8403113e-38
1367.91 403.08701 -281.49799 1.8403113e-38
1368.04 426.30099 -280.965 1.8403113e-38
1367.0699 437.59299 -280.32901 1.8403113e-38
1371.8101 463.25 -281.405 1.8403113e-38
1374.3 488.423 -281.67899 1.8403113e-38
1373.64 500.289 -281.14099 1.8403113e-38
1383.97 529.96301 -284.14999 1.8403113e-38
1374.4 537.73901 -280.47699 1.8403113e-38
1380.0699 553.20801 -282.14999 1.8403113e-38
1378.8101 565.27899 -281.38901 1.8403113e-38
1381.65 579.62097 -282.06 1.8403113e-38
1379.3 591.30701 -280.914 1.8403113e-38
1377.6801 603.46002 -280.021 1.8403113e-38
1386.26 717.95099 -280.26501 1.8403113e-38
1390.8199 779.53302 -280.37701 1.8403113e-38
1108.16 -2986.95 -272.19 1.8403113e-38
1286.9 -707.85699 -279.94199 1.8403113e-38
1288.2 -656.159 -279.116 1.8403113e-38
1291.3101 -632.55298 -279.65601 1.8403113e-38
1289.01 -618.62 -278.46899 1.8403113e-38
1291.4 -595.21698 -278.75201 1.8403113e-38
1294.51 -584.69598 -279.616 1.8403113e-38
1292.51 -571.466 -278.55701 1.8403113e-38
1290.37 -558.31897 -277.45001 1.8403113e-38
1296.52 -549.59399 -279.466 1.8403113e-38
1294.99 -536.96399 -278.59399 1.8403113e-38
1298.4301 -526.91199 -279.59201 1.8403113e-38
1295.8101 -513.96802 -278.31601 1.8403113e-38
1298.2 -503.52499 -278.922 1.8403113e-38
1295.34 -490.71399 -277.56 1.8403113e-38
1299.25 -481.082 -278.73999 1.8403113e-38
1301.62 -459.495 -279.06 1.8403113e-38
1296.55 -446.19199 -276.883 1.8403113e-38
1302.73 -437.61499 -278.91101 1.8403113e-38
1295.65 -423.776 -275.996 1.8403113e-38
1303.4301 -415.83499 -278.621 1.8403113e-38
1299.65 -403.505 -276.939 1.8403113e-38
1297.52 -391.91901 -275.87601 1.8403113e-38
1308.64 -385.091 -279.742 1.8403113e-38
1308.12 -374.13101 -279.27701 1.8403113e-38
1303.91 -362.02802 -277.44601 1.8403113e-38
1306.77 -352.33099 -278.241 1.8403113e-38
1306.85 -341.772 -278.005 1.8403113e-38
1308.64 -331.78 -278.40399 1.8403113e-38
1308.53 -321.25601 -278.103 1.8403113e-38
1309.24 -311.013 -278.104 1.8403113e-38
1308.96 -300.53699 -277.737 1.8403113e-38
1308.58 -290.08899 -277.33701 1.8403113e-38
1313.59 -281.043 -278.92899 1.8403113e-38
1315.78 -271.26599 -279.48099 1.8403113e-38
1314.42 -250.437 -278.46301 1.8403113e-38
1313.6 -240.07201 -277.90601 1.8403113e-38
1309 -228.99899 -275.95999 1.8403113e-38
1317.24 -220.511 -278.73599 1.8403113e-38
1314.1899 -204.79849 -277.23651 1.8403113e-38
1314.67 -189.84399 -277.034 1.8403113e-38
1320.76 -180.78101 -279.01901 1.8403113e-38
1308.1801 -168.936 -274.15302 1.8403113e-38
1319.7 -160.60201 -278.12701 1.8403113e-38
1322.77 -151.01601 -279.00201 1.8403113e-38
1320.16 -140.735 -277.798 1.8403113e-38
1317.47 -130.515 -276.564 1.8403113e-38
1323.1 -121.173 -278.37601 1.8403113e-38
1323.05 -111.243 -278.108 1.8403113e-38
1321.04 -101.177 -277.12601 1.8403113e-38
1322.7 -91.415703 -277.483 1.8403113e-38
1324.28 -81.631401 -277.81 1.8403113e-38
1322.96 -71.682899 -277.082 1.8403113e-38
1330.01 -62.112598 -279.40201 1.8403113e-38
1324.77 -52.0284 -277.24701 1.8403113e-38
1331.66 -42.321499 -279.50699 1.8403113e-38
1326.26 -32.3288 -277.29501 1.8403113e-38
1333.9399 -22.4918 -279.83401 1.8403113e-38
1328.36 -2.7009301 -277.314 1.8403113e-38
1332.03 7.27177 -278.397 1.8403113e-38
1332.8 17.2188 -278.427 1.8403113e-38
1333.49 27.1805 -278.427 1.8403113e-38
1338.37 47.3745 -279.694 1.8403113e-38
1330.37 56.816399 -276.54999 1.8403113e-38
1339.17 67.458504 -279.479 1.8403113e-38
1337.5699 77.350403 -278.64999 1.8403113e-38
1336.8199 87.3097 -278.129 1.8403113e-38
1337.87 97.462601 -278.254 1.8403113e-38
1336.02 107.313 -277.33701 1.8403113e-38
1341.5699 118.082 -279.082 1.8403113e-38
1337.47 137.783 -277.09698 1.8403113e-38
1344.61 149.032 -279.40799 1.8403113e-38
1336.76 157.979 -276.33499 1.8403113e-38
1335.36 167.922 -275.57501 1.8403113e-38
1341.29 179.21001 -277.44601 1.8403113e-38
1348.05 190.799 -279.60901 1.8403113e-38
1343.59 200.282 -277.755 1.8403113e-38
1340.01 220.267 -275.95099 1.8403113e-38
1352.62 244.162 -279.93201 1.8403113e-38
1354.25 276.56 -279.70999 1.8403113e-38
1358.67 332.26501 -279.918 1.8403113e-38
1354.03 341.797 -277.996 1.8403113e-38
1359.1899 354.62799 -279.548 1.8403113e-38
1362.72 412.59799 -279.37601 1.8403113e-38
1363.37 447.785 -278.73001 1.8403113e-38
1367.03 473.09601 -279.422 1.8403113e-38
1371.14 511.358 -279.95801 1.8403113e-38
1375.95 615.62799 -279.086 1.8403113e-38
1379.0601 630.69702 -279.84 1.8403113e-38
1377.9 643.42401 -279.09698 1.8403113e-38
1377.4301 656.67401 -278.595 1.8403113e-38
1380.9 672.48401 -279.45999 1.8403113e-38
1383.39 687.89502 -279.97699 1.8403113e-38
1382.48 701.32599 -279.311 1.8403113e-38
1383.45 730.42603 -278.93301 1.8403113e-38
1385.3 746.151 -279.20801 1.8403113e-38
1383.02 759.22198 -278.05301 1.8403113e-38
1385.1 790.47101 -278.02399 1.8403113e-38
1385.49 805.92401 -277.78 1.8403113e-38
1380.3101 817.401 -275.612 1.8403113e-38
1380.4 832.935 -275.255 1.8403113e-38
1386.42 853.26501 -276.92999 1.8403113e-38
1383.1 866.58398 -275.39001 1.8403113e-38
1388.67 887.172 -276.89801 1.8403113e-38
1383.53 899.35199 -274.72501 1.8403113e-38
1389.41 920.79498 -276.32199 1.8403113e-38
1388.38 936.77698 -275.54999 1.8403113e-38
1391.58 956.60602 -276.21201 1.8403113e-38
1393.8 975.92401 -276.53601 1.8403113e-38
1392.1899 992.12201 -275.543 1.8403113e-38
1391.11 1009.02 -274.72699 1.8403113e-38
1392.6801 1028.6 -274.80801 1.8403113e-38
1394.02 1048.29 -274.79999 1.8403113e-38
1393.72 1066.74 -274.228 1.8403113e-38
1393.2 1085.26 -273.57599 1.8403113e-38
1393.84 1105.21 -273.30899 1.8403113e-38
1399.72 1130.8 -274.79999 1.8403113e-38
1398.47 1149.59 -273.87601 1.8403113e-38
1392.97 1164.22 -271.51099 1.8403113e-38
1399.98 1192.33 -273.353 1.8403113e-38
1398.6899 1212.0601 -272.38699 1.8403113e-38
1400.4301 1235.47 -272.43301 1.8403113e-38
1403.8199 1261.1801 -273.021 1.8403113e-38
1402.38 1281.91 -271.97501 1.8403113e-38
1409.6 1313.0601 -273.81699 1.8403113e-38
1404.4 1330.27 -271.49799 1.8403113e-38
1405.26 1355 -271.189 1.8403113e-38
1410.75 1385.9 -272.40799 1.8403113e-38
1411.53 1411.66 -272.04599 1.8403113e-38
1411.37 1436.77 -271.35699 1.8403113e-38
1410.28 1461.2 -270.349 1.8403113e-38
1416.01 1495.08 -271.57901 1.8403113e-38
1421.85 1529.96 -272.827 1.8403113e-38
1420.8199 1556.35 -271.789 1.8403113e-38
1421.16 1585.23 -271.19 1.8403113e-38
1422.8199 1616.63 -271.00601 1.8403113e-38
1428.55 1654.63 -272.133 1.8403113e-38
1429.3 1686.36 -271.61099 1.8403113e-38
1431.8199 1721.5 -271.642 1.8403113e-38
1433.3 1755.98 -271.315 1.8403113e-38
1433.77 1789.78 -270.638 1.8403113e-38
1435.88 1827.0601 -270.47101 1.8403113e-38
1438 1865.33 -270.27899 1.8403113e-38
1446.26 1914.71 -272.04199 1.8403113e-38
1075.28 -3167.8899 -264.789 1.8403113e-38
1440.6 1942.39 -269.293 1.8403113e-38
1443.09 1984.5601 -269.14001 1.8403113e-38
1411.88 1969.64 -258.181 1.8403113e-38
1383.92 1959.45 -248.285 1.8403113e-38
1004.93 -2997.1299 -234.963 1.8403113e-38
1338.9399 1917.79 -232.996 1.8403113e-38
972.74298 -2972.23 -222.651 1.8403113e-38
1327.35 1935.37 -228.347 1.8403113e-38
943.04401 -2955.6699 -211.453 1.8403113e-38
1286.5699 1937.87 -213.478 1.8403113e-38
1303.91 1931.0601 -219.942 1.8403113e-38
1355.16 2700.3701 -219.263 1.8403113e-38
914.32501 -2941.6899 -200.674 1.8403113e-38
1268.75 1943.62 -206.86301 1.8403113e-38
1254.47 1956.27 -201.35899 1.8403113e-38
890.47101 -2948.8201 -192.19099 1.8403113e-38
1236.99 1962.58 -194.855 1.8403113e-38
1226.36 1983 -190.483 1.8403113e-38
1268.3101 2211.28 -199.99001 1.8403113e-38
872.55402 -3114.79 -189.847 1.8403113e-38
872.961 -2986.9199 -186.789 1.8403113e-38
1220.54 2014.14 -187.58701 1.8403113e-38
1227.14 2073.23 -188.502 1.8403113e-38
1214.03 2138.6201 -182.10201 1.8403113e-38
1253.8101 2508.4299 -187.272 1.8403113e-38
1267.5699 2607.4299 -189.786 1.8403113e-38
832.71503 -3044.22 -173.612 1.8403113e-38
1189.29 2130.79 -173.317 1.8403113e-38
1237.02 2592.23 -179.076 1.8403113e-38
1174.78 2146.47 -167.653 1.8403113e-38
1162.71 2168.46 -162.722 1.8403113e-38
779.82397 -2893.73 -150.633 1.8403113e-38
1167.02 2467.25 -156.79201 1.8403113e-38
756.00299 -2897.6499 -142.082 1.8403113e-38
1146.99 2476.29 -149.293 1.8403113e-38
1130.77 2496.45 -142.899 1.8403113e-38
726.24298 -2864.95 -130.45599 1.8403113e-38
1117.14 2524.98 -137.23399 1.8403113e-38
1101.87 2549.6599 -131.07001 1.8403113e-38
1083.54 2565.7 -124.013 1.8403113e-38
692.50702 -2802.3601 -116.637 1.8403113e-38
1068.54 2593.02 -117.879 1.8403113e-38
1057.9301 2718.25 -110.889 1.8403113e-38
1072.25 2855.8701 -112.636 1.8403113e-38
666.45099 -2784.74 -106.734 1.8403113e-38
1046.86 2599.25 -109.85 1.8403113e-38
643.841 -2789.5701 -98.645302 1.8403113e-38
619.27399 -2779.3501 -89.468399 1.8403113e-38
574.96899 -2795.8601 -73.795097 1.8403113e-38
593.83197 -2759.97 -79.7444 1.8403113e-38
927.25299 2417.48 -70.979698 1.8403113e-38
955.974 2795.1001 -71.939201 1.8403113e-38
550.28601 -2780.99 -64.459801 1.8403113e-38
951.13501 2877.9399 -68.104897 1.8403113e-38
526.34998 -2770.8301 -55.514 1.8403113e-38
878.03302 2312.4299 -55.742199 1.8403113e-38
873.229 2373.95 -52.454899 1.8403113e-38
502.26001 -2756.47 -46.4062 1.8403113e-38
478.74301 -2745.8401 -37.6007 1.8403113e-38
815.16602 2393.47 -30.8825 1.8403113e-38
434.54001 -2759.8 -21.9004 1.8403113e-38
456.61899 -2751.9299 -29.719999 1.8403113e-38
417.10599 -2855.26 -17.964001 1.8403113e-38
771.565 2290.0701 -17.6437 1.8403113e-38
383.491 -2632.22 -0.16497201 1.8403113e-38
719.57599 2229.3101 -0.28996399 1.8403113e-38
745.82098 2262.28 -8.9929104 1.8403113e-38
360.823 -2601.48 8.8366899 1.8403113e-38
338.96701 -2580.5 17.2987 1.8403113e-38
665.52399 2144.76 17.2164 1.8403113e-38
684.94299 2149.9299 10.2949 1.8403113e-38
317.59399 -2565.3101 25.440399 1.8403113e-38
620.38202 1993.78 29.8218 1.8403113e-38
296.62299 -2560.9099 33.165401 1.8403113e-38
606.54901 2012.63 35.3172 1.8403113e-38
275.63901 -2537.3201 41.3764 1.8403113e-38
255.03101 -2518.53 49.330399 1.8403113e-38
569.914 1996.65 48.219101 1.8403113e-38
587.20398 1998.8101 41.9949 1.8403113e-38
234.58501 -2512.55 56.9044 1.8403113e-38
551.54199 1986.41 54.632801 1.8403113e-38
546.10199 2070.0901 58.706699 1.8403113e-38
214.59599 -2488.3799 64.768799 1.8403113e-38
533.00897 2104.22 64.316803 1.8403113e-38
194.612 -2478.02 72.284599 1.8403113e-38
174.978 -2462.49 79.803299 1.8403113e-38
507.35199 2036.98 71.946701 1.8403113e-38
506.95499 2188.0901 75.880096 1.8403113e-38
651.96997 4123.3799 71.754601 1.8403113e-38
155.42 -2450.77 87.198898 1.8403113e-38
492.21201 2222.9299 82.107002 1.8403113e-38
619.79102 4147.4502 84.042503 1.8403113e-38
136.25999 -2434.8701 94.554398 1.8403113e-38
117.417 -2417.8101 101.824 1.8403113e-38
98.295197 -2408.5601 109 1.8403113e-38
417.56201 2214.4199 109 1.8403113e-38
443.57199 2312.78 102.021 1.8403113e-38
