# .PCD v0.7 - Point Cloud Data file format
VERSION 0.7
FIELDS x y z rgb
SIZE 4 4 4 4
TYPE F F F F
COUNT 1 1 1 1
WIDTH 358
HEIGHT 1
VIEWPOINT 0 0 0 1 0 0 0
POINTS 358
DATA ascii
1129.04 -3264.5901 -286.73599 1.8403113e-38
1128.54 -3157.6101 -283.87201 1.8403113e-38
1143.73 -3016.8501 -285.85501 1.8403113e-38
1155.72 -2966.5801 -288.95001 1.8403113e-38
1160.17 -2894.55 -288.76099 1.8403113e-38
1164.12 -2824.5701 -288.439 1.8403113e-38
1166.37 -2752.8601 -287.45801 1.8403113e-38
1171.01 -2691.6599 -287.60901 1.8403113e-38
1176.03 -2634.3301 -287.992 1.8403113e-38
1182.84 -2584.5801 -289.21899 1.8403113e-38
1182.77 -2518.2 -287.52701 1.8403113e-38
1185.16 -2461.29 -286.97 1.8403113e-38
1189.91 -2412.8201 -287.47699 1.8403113e-38
1192.11 -2359.8701 -286.94901 1.8403113e-38
1199.83 -2322.6299 -288.819 1.8403113e-38
1192.6 -2250.8 -284.39401 1.8403113e-38
1200.13 -2216.52 -286.26501 1.8403113e-38
1200.0601 -2165.99 -284.97601 1.8403113e-38
1204.47 -2127.3501 -285.60501 1.8403113e-38
1207.08 -2086.1101 -285.51999 1.8403113e-38
1209.92 -2046.77 -285.56601 1.8403113e-38
1211.35 -2005.78 -285.05499 1.8403113e-38
1216.05 -1972.87 -285.93799 1.8403113e-38
1219.85 -1939.16 -286.47198 1.8403113e-38
1220.9399 -1901.15 -285.91599 1.8403113e-38
1224.66 -1869.38 -286.46701 1.8403113e-38
1227.46 -1836.83 -286.66901 1.8403113e-38
1231.6801 -1807.8199 -287.47198 1.8403113e-38
1230.27 -1769.4301 -286 1.8403113e-38
1230.72 -1735.48 -285.311 1.8403113e-38
1236.0601 -1711.01 -286.63501 1.8403113e-38
1240.08 -1684.89 -287.44 1.8403113e-38
1238.72 -1650.42 -286.08301 1.8403113e-38
1248.0699 -1634.5 -289.08099 1.8403113e-38
1246.92 -1601.92 -287.84601 1.8403113e-38
1243.22 -1566.1801 -285.60599 1.8403113e-38
1249.0699 -1546.23 -287.23001 1.8403113e-38
1249.3101 -1518.14 -286.612 1.8403113e-38
1249.16 -1490.17 -285.85599 1.8403113e-38
1257.98 -1476.02 -288.702 1.8403113e-38
1254.95 -1445.01 -286.82599 1.8403113e-38
1250.37 -1412.58 -284.34799 1.8403113e-38
1253.3 -1391.41 -284.88199 1.8403113e-38
1249.62 -1361.66 -282.802 1.8403113e-38
1256.02 -1346.12 -284.73599 1.8403113e-38
1258.12 -1325.15 -284.97101 1.8403113e-38
1260.55 -1305.02 -285.34698 1.8403113e-38
1256.7 -1277.3199 -283.25601 1.8403113e-38
1257.34 -1255.84 -282.95001 1.8403113e-38
1261.39 -1238.97 -283.99799 1.8403113e-38
1261.52 -1217.64 -283.509 1.8403113e-38
1260.12 -1194.9301 -282.43201 1.8403113e-38
1264.12 -1178.9399 -283.483 1.8403113e-38
1272.4 -1168.0699 -286.21799 1.8403113e-38
1268.34 -1143.41 -284.12299 1.8403113e-38
1273.05 -1128.95 -285.47299 1.8403113e-38
1268.42 -1104.55 -283.17801 1.8403113e-38
1275.38 -1092.99 -285.41599 1.8403113e-38
1274.88 -1073.72 -284.75201 1.8403113e-38
1276.17 -1056.61 -284.79001 1.8403113e-38
1283.37 -1045.73 -287.13101 1.8403113e-38
1282.9301 -1027.33 -286.51001 1.8403113e-38
1280.88 -1007.68 -285.27499 1.8403113e-38
1280.6801 -990.13702 -284.76199 1.8403113e-38
1285.89 -977.95099 -286.34601 1.8403113e-38
1293.8 -968.35199 -288.979 1.8403113e-38
1283.8199 -942.54498 -284.707 1.8403113e-38
1292.16 -933.60901 -287.51099 1.8403113e-38
1280.9 -907.52399 -282.771 1.8403113e-38
1291.88 -901.10602 -286.595 1.8403113e-38
1282.29 -877.237 -282.51401 1.8403113e-38
1283.46 -862.79102 -282.57901 1.8403113e-38
1283.74 -847.78601 -282.302 1.8403113e-38
1290.58 -838.22198 -284.547 1.8403113e-38
1282.27 -816.78302 -280.99399 1.8403113e-38
1288.11 -806.65302 -282.85699 1.8403113e-38
1290.8 -794.16998 -283.521 1.8403113e-38
1286.45 -776.57703 -281.5 1.8403113e-38
1289.62 -764.74701 -282.354 1.8403113e-38
1288.78 -750.14398 -281.685 1.8403113e-38
1285.4399 -733.97302 -280.06699 1.8403113e-38
1289.78 -723.32501 -281.37399 1.8403113e-38
1290.0601 -709.98901 -281.14401 1.8403113e-38
1294.98 -699.85602 -282.67599 1.8403113e-38
1293.41 -685.54199 -281.74799 1.8403113e-38
1294.91 -673.35303 -281.98401 1.8403113e-38
1298.7 -662.69897 -283.09601 1.8403113e-38
1294.58 -634.50403 -280.89099 1.8403113e-38
1294.75 -621.98199 -280.63901 1.8403113e-38
1297.27 -610.92297 -281.276 1.8403113e-38
1298.67 -586.98102 -281.18399 1.8403113e-38
1302.54 -576.85901 -282.33499 1.8403113e-38
1298.21 -550.461 -280.10101 1.8403113e-38
1300.0699 -539.51898 -280.50299 1.8403113e-38
1300.98 -528.16602 -280.54999 1.8403113e-38
1302.49 -505.53601 -280.52899 1.8403113e-38
1302.71 -482.62601 -280.034 1.8403113e-38
1307.11 -439.383 -280.547 1.8403113e-38
1313.15 -333.133 -280.077 1.8403113e-38
1320.9301 -221.22 -280.09601 1.8403113e-38
1333.76 -62.266998 -280.76901 1.8403113e-38
1341.1899 47.546398 -280.71201 1.8403113e-38
1341.05 67.608002 -280.15701 1.8403113e-38
1345.3101 118.554 -280.427 1.8403113e-38
1345.16 128.707 -280.11801 1.8403113e-38
1347.4 149.464 -280.41199 1.8403113e-38
1347.9301 159.812 -280.34201 1.8403113e-38
1350.5699 180.909 -280.772 1.8403113e-38
1351.75 191.513 -280.936 1.8403113e-38
1356.54 202.901 -282.39099 1.8403113e-38
1364 214.979 -284.79599 1.8403113e-38
1358.33 234.91299 -282.237 1.8403113e-38
1358.76 256.31 -281.85501 1.8403113e-38
1362.95 268.11401 -283.08099 1.8403113e-38
1359.72 278.04099 -281.66199 1.8403113e-38
1357.33 288.18301 -280.539 1.8403113e-38
1370.3101 302.78299 -284.88501 1.8403113e-38
1362.27 311.38901 -281.75201 1.8403113e-38
1360.51 321.83099 -280.85101 1.8403113e-38
1364.08 333.99701 -281.84 1.8403113e-38
1361.89 355.54401 -280.50299 1.8403113e-38
1369.6 369.46201 -282.95499 1.8403113e-38
1367.35 380.00699 -281.87399 1.8403113e-38
1370.35 392.521 -282.64999 1.8403113e-38
1374.22 417.104 -283.43799 1.8403113e-38
1374.165 434.62402 -282.97852 1.8403113e-38
1372.13 451.496 -281.81699 1.8403113e-38
1375.3 464.767 -282.63501 1.8403113e-38
1369.64 474.258 -280.341 1.8403113e-38
1371.05 499.07999 -280.23099 1.8403113e-38
1381.23 491.58401 -284.117 1.8403113e-38
1373.72 512.59198 -280.86401 1.8403113e-38
1376.26 526.19098 -281.444 1.8403113e-38
1377.52 551.90302 -281.25699 1.8403113e-38
1376.27 563.95001 -280.5 1.8403113e-38
1383.33 580.52197 -282.64899 1.8403113e-38
1380.1899 604.85901 -280.896 1.8403113e-38
1379.27 617.52301 -280.246 1.8403113e-38
1381.54 632.14099 -280.70499 1.8403113e-38
1383.35 673.99597 -280.311 1.8403113e-38
1384.2 688.40698 -280.259 1.8403113e-38
1385.71 703.40302 -280.431 1.8403113e-38
1387.45 733.09601 -280.31699 1.8403113e-38
1107.61 -2985.04 -271.94501 1.8403113e-38
1290.22 -644.59302 -279.561 1.8403113e-38
1293.89 -596.61102 -279.689 1.8403113e-38
1293.72 -560.08502 -278.71399 1.8403113e-38
1299.23 -515.60797 -279.59698 1.8403113e-38
1298.78 -492.29001 -278.85001 1.8403113e-38
1302.22 -471.03799 -279.56601 1.8403113e-38
1299.01 -458.38599 -278.08401 1.8403113e-38
1300.91 -448 -278.51401 1.8403113e-38
1299.17 -425.15799 -277.30801 1.8403113e-38
1306.96 -417.18399 -279.936 1.8403113e-38
1302.3101 -404.492 -277.92801 1.8403113e-38
1301.96 -393.52301 -277.52802 1.8403113e-38
1305.08 -383.841 -278.41699 1.8403113e-38
1303.65 -372.60999 -277.61801 1.8403113e-38
1307.49 -363.211 -278.77701 1.8403113e-38
1304.08 -351.46899 -277.241 1.8403113e-38
1309.55 -342.60901 -279.00699 1.8403113e-38
1309.4399 -321.51801 -278.43799 1.8403113e-38
1305.62 -309.99799 -276.76099 1.8403113e-38
1312.59 -301.51801 -279.082 1.8403113e-38
1311.3101 -290.79999 -278.34799 1.8403113e-38
1309.02 -279.901 -277.242 1.8403113e-38
1311.21 -270.16599 -277.79199 1.8403113e-38
1313.3101 -260.41199 -278.311 1.8403113e-38
1318.09 -251.24899 -279.81799 1.8403113e-38
1315.4399 -240.461 -278.58401 1.8403113e-38
1311.77 -229.556 -276.978 1.8403113e-38
1312.46 -209.526 -276.72601 1.8403113e-38
1315.76 -195.0325 -277.56049 1.8403113e-38
1314.26 -179.78101 -276.63199 1.8403113e-38
1315.33 -164.979 -276.65201 1.8403113e-38
1319.04 -150.548 -277.63599 1.8403113e-38
1316.4301 -140.302 -276.431 1.8403113e-38
1314.67 -130.216 -275.53799 1.8403113e-38
1319.36 -120.809 -277.008 1.8403113e-38
1317.4399 -110.75 -276.056 1.8403113e-38
1324.79 -101.471 -278.49399 1.8403113e-38
1326.45 -91.674698 -278.85101 1.8403113e-38
1328.97 -81.911598 -279.51999 1.8403113e-38
1325.77 -71.824898 -278.108 1.8403113e-38
1328.53 -52.147999 -278.61401 1.8403113e-38
1326.03 -42.1945 -277.45599 1.8403113e-38
1329.08 -32.3661 -278.319 1.8403113e-38
1328.3 -22.4695 -277.78601 1.8403113e-38
1333.0699 -12.56 -279.271 1.8403113e-38
1332.12 -2.6460099 -278.67801 1.8403113e-38
1326.39 7.1370502 -276.353 1.8403113e-38
1328.1 17.062901 -276.72501 1.8403113e-38
1329.73 27.021 -277.06601 1.8403113e-38
1334.1 37.1563 -278.396 1.8403113e-38
1336 57.212601 -278.58401 1.8403113e-38
1340.38 77.6007 -279.664 1.8403113e-38
1339.63 87.586098 -279.14301 1.8403113e-38
1335.0601 97.160202 -277.242 1.8403113e-38
1339.76 107.751 -278.68399 1.8403113e-38
1343.0601 138.59599 -279.108 1.8403113e-38
1346.5 169.858 -279.57401 1.8403113e-38
1344.61 221.28799 -277.59799 1.8403113e-38
1348.95 243.27699 -278.62 1.8403113e-38
1358.53 343.28201 -279.59201 1.8403113e-38
1362.59 401.056 -279.616 1.8403113e-38
1371.84 536.45801 -279.57999 1.8403113e-38
1372.59 587.64099 -278.569 1.8403113e-38
1379.54 644.40198 -279.67099 1.8403113e-38
1380.7 658.65997 -279.73499 1.8403113e-38
1380.63 714.26501 -278.315 1.8403113e-38
1385.3 746.151 -279.20801 1.8403113e-38
1379.0601 756.47803 -276.68701 1.8403113e-38
1385.3199 775.64099 -278.47699 1.8403113e-38
1386.66 791.59698 -278.56299 1.8403113e-38
1380.05 801.93103 -275.90601 1.8403113e-38
1381.86 818.55603 -276.14401 1.8403113e-38
1383.47 835.27301 -276.31 1.8403113e-38
1388.71 855.03998 -277.716 1.8403113e-38
1385.37 868.38 -276.17001 1.8403113e-38
1385.66 884.75 -275.866 1.8403113e-38
1392.5 906.703 -277.798 1.8403113e-38
1390.89 922.034 -276.83099 1.8403113e-38
1389.86 938.02899 -276.05399 1.8403113e-38
1388.65 954.07397 -275.211 1.8403113e-38
1390.17 972.72601 -275.29501 1.8403113e-38
1394.35 994.06201 -276.28101 1.8403113e-38
1392.54 1010.32 -275.215 1.8403113e-38
1394.8199 1030.58 -275.53299 1.8403113e-38
1394.73 1048.96 -275.04001 1.8403113e-38
1395.8199 1068.76 -274.94101 1.8403113e-38
1394.59 1086.61 -274.04599 1.8403113e-38
1389.71 1101.1 -271.909 1.8403113e-38
1394.9301 1125.96 -273.18201 1.8403113e-38
1399.83 1150.99 -274.33401 1.8403113e-38
1399.02 1170.5601 -273.54999 1.8403113e-38
1401.3199 1193.76 -273.802 1.8403113e-38
1405.3 1219.23 -274.60901 1.8403113e-38
1402.4 1237.64 -273.09299 1.8403113e-38
1405.77 1263.37 -273.673 1.8403113e-38
1403.66 1283.38 -272.40601 1.8403113e-38
1399.4 1301.22 -270.41 1.8403113e-38
1406.29 1332.51 -272.129 1.8403113e-38
1412.76 1364.02 -273.68799 1.8403113e-38
1411.99 1387.42 -272.82001 1.8403113e-38
1407.85 1407.08 -270.82501 1.8403113e-38
1412.58 1438.3 -271.759 1.8403113e-38
1412.08 1463.52 -270.94501 1.8403113e-38
1411.85 1489.62 -270.20599 1.8403113e-38
1418.3199 1525.25 -271.664 1.8403113e-38
1417.91 1552.4 -270.83301 1.8403113e-38
1422.3101 1586.8199 -271.56799 1.8403113e-38
1424.53 1619.04 -271.565 1.8403113e-38
1430.24 1657.05 -272.685 1.8403113e-38
1425.42 1680.6801 -270.34201 1.8403113e-38
1432.91 1723.13 -271.99899 1.8403113e-38
1434.38 1757.62 -271.668 1.8403113e-38
1435.37 1792.27 -271.159 1.8403113e-38
1442.66 1908.83 -270.88199 1.8403113e-38
1448.6 1993.92 -270.90601 1.8403113e-38
1075.77 -3169.8101 -265.017 1.8403113e-38
1433.24 1822.9 -269.616 1.8403113e-38
1433.3 1857.8 -268.763 1.8403113e-38
1441.62 1944.08 -269.61899 1.8403113e-38
1413.36 1972.2 -258.655 1.8403113e-38
1384.41 1960.3 -248.44099 1.8403113e-38
1005.89 -3000.99 -235.409 1.8403113e-38
1345.1801 1929.02 -234.98 1.8403113e-38
971.11798 -2965.46 -221.892 1.8403113e-38
1323.09 1927.55 -226.99699 1.8403113e-38
1304.37 1931.9301 -220.089 1.8403113e-38
1359.24 2710.51 -220.48801 1.8403113e-38
941.69897 -2949.8501 -210.81799 1.8403113e-38
1291.16 1946.64 -214.923 1.8403113e-38
913.24402 -2936.8401 -200.16 1.8403113e-38
1252.25 1951.85 -200.664 1.8403113e-38
1272.8199 1951.55 -208.14 1.8403113e-38
890.67999 -2949.79 -192.291 1.8403113e-38
1237.87 1964.36 -195.12801 1.8403113e-38
1226.36 1983 -190.483 1.8403113e-38
1266.27 2206.76 -199.36301 1.8403113e-38
1269.34 2612.0801 -190.314 1.8403113e-38
872.55402 -3114.79 -189.847 1.8403113e-38
869.95801 -2972.29 -185.33099 1.8403113e-38
1218.42 2009.65 -186.93201 1.8403113e-38
1229.21 2077.74 -189.142 1.8403113e-38
1214.83 2140.4399 -182.347 1.8403113e-38
1249.45 2497.3301 -185.97 1.8403113e-38
1240.5 2601.54 -180.104 1.8403113e-38
831.97803 -3040.3 -173.246 1.8403113e-38
1190.47 2133.53 -173.67599 1.8403113e-38
1175.55 2148.3 -167.88699 1.8403113e-38
1164.6 2173.0601 -163.293 1.8403113e-38
1169.0601 2472.8601 -157.392 1.8403113e-38
756.33899 -2899.6101 -142.25301 1.8403113e-38
778.41498 -2885.8899 -149.925 1.8403113e-38
1147.65 2478.1699 -149.487 1.8403113e-38
1128.1801 2488.9199 -142.145 1.8403113e-38
726.56299 -2866.9199 -130.62199 1.8403113e-38
1116.51 2523.1001 -137.052 1.8403113e-38
1102.8 2552.51 -131.336 1.8403113e-38
1085.35 2571.3999 -124.527 1.8403113e-38
693.41803 -2808.27 -117.116 1.8403113e-38
1067.0699 2588.26 -117.466 1.8403113e-38
1070.63 2850.1101 -112.192 1.8403113e-38
666.73901 -2786.71 -106.888 1.8403113e-38
1046 2596.3799 -109.611 1.8403113e-38
1054.04 2704.8501 -109.811 1.8403113e-38
642.62097 -2780.6699 -97.978996 1.8403113e-38
619.65601 -2782.3201 -89.681702 1.8403113e-38
574.19 -2788.9199 -73.338303 1.8403113e-38
592.99597 -2753.04 -79.266998 1.8403113e-38
927.77698 2419.4099 -71.121902 1.8403113e-38
953.58801 2785.4099 -71.316002 1.8403113e-38
549.771 -2776.02 -64.148201 1.8403113e-38
950.21198 2874.05 -67.867401 1.8403113e-38
525.87598 -2765.8701 -55.216999 1.8403113e-38
879.30499 2317.25 -56.083099 1.8403113e-38
871.99597 2369.1201 -52.128601 1.8403113e-38
502.60699 -2760.45 -46.632 1.8403113e-38
479.686 -2757.79 -38.242699 1.8403113e-38
817.39203 2403.2 -31.447001 1.8403113e-38
434.16599 -2753.8201 -21.614799 1.8403113e-38
456.19699 -2745.95 -29.4167 1.8403113e-38
417.215 -2857.25 -18.0532 1.8403113e-38
773.927 2300.8 -18.232201 1.8403113e-38
719.97302 2231.27 -0.38516399 1.8403113e-38
746.44202 2265.22 -9.1445799 1.8403113e-38
383.17001 -2625.24 0.126801 1.8403113e-38
360.74799 -2599.48 8.9141197 1.8403113e-38
338.849 -2576.51 17.4417 1.8403113e-38
664.97601 2141.8101 17.3414 1.8403113e-38
686.08698 2155.8201 10.027 1.8403113e-38
317.70001 -2570.3101 25.2764 1.8403113e-38
620.20697 1992.8 29.8605 1.8403113e-38
296.53101 -2553.9099 33.3741 1.8403113e-38
607.38202 2017.5601 35.138401 1.8403113e-38
275.65302 -2540.3201 41.295898 1.8403113e-38
255.01801 -2522.53 49.235001 1.8403113e-38
570.06403 1997.64 48.189301 1.8403113e-38
587.36298 1999.8 41.9622 1.8403113e-38
234.55099 -2515.55 56.841702 1.8403113e-38
551.258 1984.4301 54.686401 1.8403113e-38
546.37 2072.0701 58.659 1.8403113e-38
214.576 -2489.3799 64.7509 1.8403113e-38
533.13501 2105.21 64.295898 1.8403113e-38
194.528 -2481.02 72.239899 1.8403113e-38
174.90601 -2464.48 79.779404 1.8403113e-38
507.35199 2036.98 71.946701 1.8403113e-38
506.62601 2185.1101 75.924797 1.8403113e-38
652.15698 4125.3799 71.736702 1.8403113e-38
155.287 -2453.76 87.171997 1.8403113e-38
491.39999 2214.97 82.202499 1.8403113e-38
619.87598 4148.4399 84.036598 1.8403113e-38
136.155 -2436.8701 94.542503 1.8403113e-38
117.295 -2419.8101 101.818 1.8403113e-38
98.777397 -2401.5801 109 1.8403113e-38
416.66699 2201.46 109 1.8403113e-38
443.88101 2316.77 102.01 1.8403113e-38
