# .PCD v0.7 - Point Cloud Data file format
VERSION 0.7
FIELDS x y z rgb
SIZE 4 4 4 4
TYPE F F F F
COUNT 1 1 1 1
WIDTH 357
HEIGHT 1
VIEWPOINT 0 0 0 1 0 0 0
POINTS 357
DATA ascii
1129.8101 -3267.47 -287.08701 1.8403113e-38
1130.92 -3166.22 -284.95001 1.8403113e-38
1141.77 -3010.1899 -284.978 1.8403113e-38
1156.3 -2968.47 -289.207 1.8403113e-38
1162.83 -2903.0701 -289.939 1.8403113e-38
1162.3 -2818.8999 -287.638 1.8403113e-38
1164.51 -2747.22 -286.63901 1.8403113e-38
1171.97 -2694.47 -288.026 1.8403113e-38
1174.0699 -2628.73 -287.14099 1.8403113e-38
1177.5 -2569.6799 -286.90601 1.8403113e-38
1180.03 -2510.78 -286.349 1.8403113e-38
1186.21 -2464.0601 -287.42001 1.8403113e-38
1187.77 -2407.29 -286.56201 1.8403113e-38
1193.2 -2362.6299 -287.414 1.8403113e-38
1197.6 -2317.1399 -287.87201 1.8403113e-38
1196.4 -2259.9199 -285.99899 1.8403113e-38
1201.29 -2219.24 -286.755 1.8403113e-38
1201.25 -2168.7 -285.47299 1.8403113e-38
1204.87 -2128.25 -285.77399 1.8403113e-38
1207.49 -2087.01 -285.69101 1.8403113e-38
1210.76 -2048.5601 -285.914 1.8403113e-38
1211.35 -2005.78 -285.05499 1.8403113e-38
1212.17 -1964.91 -284.32999 1.8403113e-38
1220.29 -1940.04 -286.65399 1.8403113e-38
1221.83 -1902.91 -286.284 1.8403113e-38
1225.11 -1870.25 -286.65399 1.8403113e-38
1228.38 -1838.5601 -287.047 1.8403113e-38
1227.47 -1800.05 -285.75101 1.8403113e-38
1230.75 -1770.29 -286.194 1.8403113e-38
1231.6801 -1737.1899 -285.70401 1.8403113e-38
1235.08 -1709.3101 -286.23801 1.8403113e-38
1233.64 -1673.9 -284.82599 1.8403113e-38
1239.22 -1651.26 -286.28699 1.8403113e-38
1242.98 -1626.14 -287.022 1.8403113e-38
1242.8 -1595.27 -286.17999 1.8403113e-38
1248.45 -1574.4399 -287.711 1.8403113e-38
1246.96 -1542.95 -286.379 1.8403113e-38
1251.99 -1522.22 -287.68799 1.8403113e-38
1252.42 -1495.04 -287.16101 1.8403113e-38
1256.88 -1474.41 -288.26199 1.8403113e-38
1248.83 -1436.2 -284.38199 1.8403113e-38
1245.86 -1406.21 -282.55301 1.8403113e-38
1247.03 -1382.72 -282.38901 1.8403113e-38
1248.47 -1360.09 -282.34399 1.8403113e-38
1255.4399 -1345.34 -284.504 1.8403113e-38
1255.1801 -1321.29 -283.80499 1.8403113e-38
1261.14 -1305.79 -285.58301 1.8403113e-38
1251.29 -1270.45 -281.11801 1.8403113e-38
1256.13 -1254.33 -282.47101 1.8403113e-38
1255.86 -1232.21 -281.82101 1.8403113e-38
1260.9 -1216.89 -283.26501 1.8403113e-38
1259.49 -1194.1899 -282.186 1.8403113e-38
1262.85 -1177.47 -282.98599 1.8403113e-38
1265.38 -1160.0601 -283.466 1.8403113e-38
1269.63 -1144.86 -284.62701 1.8403113e-38
1271.75 -1127.52 -284.96399 1.8403113e-38
1267.76 -1103.84 -282.922 1.8403113e-38
1278.6899 -1096.51 -286.707 1.8403113e-38
1269.54 -1068.14 -282.672 1.8403113e-38
1276.17 -1056.61 -284.79001 1.8403113e-38
1276.5699 -1038.88 -284.491 1.8403113e-38
1277.4399 -1021.9 -284.383 1.8403113e-38
1277.4301 -1004.32 -283.936 1.8403113e-38
1279.29 -988.80701 -284.22299 1.8403113e-38
1283.08 -975.31598 -285.26099 1.8403113e-38
1281.0699 -956.61499 -284.06201 1.8403113e-38
1283.1 -941.90002 -284.43201 1.8403113e-38
1284.26 -926.58197 -284.46701 1.8403113e-38
1284.52 -910.68402 -284.16299 1.8403113e-38
1291.88 -901.10602 -286.595 1.8403113e-38
1281.55 -876.61798 -282.23199 1.8403113e-38
1281.99 -861.56799 -282.01199 1.8403113e-38
1282.25 -846.57703 -281.73199 1.8403113e-38
1289.08 -837.02698 -283.974 1.8403113e-38
1281.52 -816.19202 -280.70499 1.8403113e-38
1287.35 -806.06897 -282.56699 1.8403113e-38
1288.51 -792.44098 -282.646 1.8403113e-38
1287.22 -777.146 -281.79401 1.8403113e-38
1286.52 -762.49902 -281.17499 1.8403113e-38
1288.99 -722.78497 -281.07501 1.8403113e-38
1288.48 -708.92297 -280.543 1.8403113e-38
1294.1899 -699.33099 -282.37399 1.8403113e-38
1291.8199 -684.50598 -281.14099 1.8403113e-38
1290.62 -657.66803 -280.035 1.8403113e-38
1295.91 -648.06201 -281.71301 1.8403113e-38
1293.76 -634.01599 -280.582 1.8403113e-38
1293.11 -621.021 -280.01901 1.8403113e-38
1297.01 -586.06702 -280.55701 1.8403113e-38
1299.05 -550.89502 -280.418 1.8403113e-38
1302.49 -505.53601 -280.52899 1.8403113e-38
1304.23 -460.60501 -280.035 1.8403113e-38
1320.99 -231.41499 -280.37299 1.8403113e-38
1340.67 37.496498 -280.77499 1.8403113e-38
1339.3101 47.431801 -280.03299 1.8403113e-38
1341.98 67.682701 -280.495 1.8403113e-38
1346.3101 108.517 -281.04199 1.8403113e-38
1346.47 149.32001 -280.077 1.8403113e-38
1350.0699 201.591 -280.073 1.8403113e-38
1352.92 212.631 -280.832 1.8403113e-38
1359.25 235.12601 -282.56601 1.8403113e-38
1354.17 255.162 -280.22 1.8403113e-38
1365.6899 268.82901 -284.05899 1.8403113e-38
1358.8101 277.79401 -281.336 1.8403113e-38
1356.42 287.92801 -280.215 1.8403113e-38
1367.58 301.992 -283.914 1.8403113e-38
1362.27 311.38901 -281.75201 1.8403113e-38
1361.89 355.54401 -280.50299 1.8403113e-38
1365.12 367.89301 -281.36899 1.8403113e-38
1371.46 404.44101 -282.75299 1.8403113e-38
1367.15 414.33099 -280.939 1.8403113e-38
1375.05 434.97852 -283.28998 1.8403113e-38
1368.3199 461.733 -280.17499 1.8403113e-38
1370.51 474.64499 -280.647 1.8403113e-38
1378.63 490.39899 -283.203 1.8403113e-38
1374.58 513.00299 -281.16599 1.8403113e-38
1375.41 525.771 -281.14401 1.8403113e-38
1374.97 550.59802 -280.36401 1.8403113e-38
1376.27 563.95001 -280.5 1.8403113e-38
1381.02 605.32501 -281.18799 1.8403113e-38
1379.27 617.52301 -280.246 1.8403113e-38
1381.54 632.14099 -280.70499 1.8403113e-38
1384.9 702.883 -280.151 1.8403113e-38
1108.4301 -2987.8999 -272.31299 1.8403113e-38
1281.01 -744.59497 -278.72299 1.8403113e-38
1283.88 -732.87799 -279.47101 1.8403113e-38
1286.87 -668.24701 -278.93701 1.8403113e-38
1289.85 -606.66998 -278.47501 1.8403113e-38
1284.77 -591.49701 -276.25201 1.8403113e-38
1294.1801 -572.36499 -279.18701 1.8403113e-38
1293.72 -560.08502 -278.71399 1.8403113e-38
1291.6 -535.26001 -277.32101 1.8403113e-38
1295.03 -525.23999 -278.315 1.8403113e-38
1299.23 -515.60797 -279.59698 1.8403113e-38
1297.0601 -491.50201 -278.20499 1.8403113e-38
1300.98 -481.854 -279.38699 1.8403113e-38
1294.42 -467.63599 -276.647 1.8403113e-38
1300.04 -447.63901 -278.18799 1.8403113e-38
1304.48 -438.32199 -279.56601 1.8403113e-38
1299.17 -425.15799 -277.30801 1.8403113e-38
1306.08 -416.84698 -279.60699 1.8403113e-38
1302.3101 -404.492 -277.92801 1.8403113e-38
1295.75 -391.27802 -275.216 1.8403113e-38
1305.08 -383.841 -278.41699 1.8403113e-38
1301.87 -372.00201 -276.95401 1.8403113e-38
1301.22 -361.14001 -276.44901 1.8403113e-38
1304.08 -351.46899 -277.241 1.8403113e-38
1310.45 -342.888 -279.341 1.8403113e-38
1306.83 -331.23801 -277.73499 1.8403113e-38
1311.25 -322.043 -279.108 1.8403113e-38
1305.62 -309.99799 -276.76099 1.8403113e-38
1312.59 -301.51801 -279.082 1.8403113e-38
1310.4 -290.56299 -278.01099 1.8403113e-38
1309.02 -279.901 -277.242 1.8403113e-38
1313.04 -270.60599 -278.46701 1.8403113e-38
1313.3101 -260.41199 -278.311 1.8403113e-38
1308.91 -249.21899 -276.431 1.8403113e-38
1317.28 -240.85001 -279.263 1.8403113e-38
1313.54 -219.802 -277.37701 1.8403113e-38
1316.04 -205.1355 -277.9165 1.8403113e-38
1310.96 -189.23801 -275.67099 1.8403113e-38
1315.1801 -179.924 -276.97299 1.8403113e-38
1314.4 -164.849 -276.31049 1.8403113e-38
1318.11 -150.431 -277.29501 1.8403113e-38
1323.9 -141.168 -279.16501 1.8403113e-38
1313.73 -130.117 -275.19601 1.8403113e-38
1319.36 -120.809 -277.008 1.8403113e-38
1316.5 -110.668 -275.71399 1.8403113e-38
1316.36 -100.81 -275.41599 1.8403113e-38
1324.5699 -91.545197 -278.16699 1.8403113e-38
1328.03 -81.855598 -279.17801 1.8403113e-38
1318.27 -71.446297 -275.37201 1.8403113e-38
1326.25 -61.958199 -278.034 1.8403113e-38
1326.65 -52.0882 -277.931 1.8403113e-38
1325.09 -42.173302 -277.11499 1.8403113e-38
1328.14 -32.353699 -277.978 1.8403113e-38
1328.3 -22.4695 -277.78601 1.8403113e-38
1334.01 -12.555 -279.612 1.8403113e-38
1332.12 -2.6460099 -278.67801 1.8403113e-38
1325.45 7.1146002 -276.01199 1.8403113e-38
1333.74 17.25 -278.767 1.8403113e-38
1337.25 27.340099 -279.78699 1.8403113e-38
1334.12 57.080502 -277.90601 1.8403113e-38
1339.4399 77.517197 -279.32599 1.8403113e-38
1337.76 87.401802 -278.46701 1.8403113e-38
1334.12 97.059402 -276.905 1.8403113e-38
1335.03 117.255 -276.728 1.8403113e-38
1341.4301 128.2 -278.77499 1.8403113e-38
1332.8101 137.106 -275.422 1.8403113e-38
1340.48 158.59 -277.67099 1.8403113e-38
1344.825 174.69949 -278.84351 1.8403113e-38
1347.12 190.621 -279.27701 1.8403113e-38
1342.77 220.88 -276.939 1.8403113e-38
1347.11 242.83501 -277.96399 1.8403113e-38
1354.1801 319.86899 -278.60101 1.8403113e-38
1351.45 329.95499 -277.35501 1.8403113e-38
1357.63 342.98499 -279.27301 1.8403113e-38
1361.1 377.754 -279.66199 1.8403113e-38
1361.45 389.21799 -279.50201 1.8403113e-38
1366 448.89801 -279.65601 1.8403113e-38
1370.1801 498.67599 -279.927 1.8403113e-38
1370.98 536.03101 -279.28 1.8403113e-38
1374.91 576.01599 -279.702 1.8403113e-38
1372.59 587.64099 -278.569 1.8403113e-38
1379.54 644.40198 -279.67099 1.8403113e-38
1380.7 658.65997 -279.73499 1.8403113e-38
1376.8199 669.96301 -278.04199 1.8403113e-38
1377.71 684.31299 -278.004 1.8403113e-38
1383.85 716.37097 -279.42899 1.8403113e-38
1380.26 728.28998 -277.827 1.8403113e-38
1381.3199 743.44501 -277.83401 1.8403113e-38
1380.64 757.57599 -277.233 1.8403113e-38
1386.89 776.75299 -279.01999 1.8403113e-38
1388.22 792.72302 -279.10199 1.8403113e-38
1380.83 802.50201 -276.17401 1.8403113e-38
1388.8 823.75403 -278.53601 1.8403113e-38
1390.37 840.53497 -278.685 1.8403113e-38
1382.61 850.30701 -275.62 1.8403113e-38
1385.37 868.38 -276.17001 1.8403113e-38
1387.17 885.961 -276.38199 1.8403113e-38
1386.52 901.80298 -275.74899 1.8403113e-38
1385.6899 917.698 -275.052 1.8403113e-38
1385.4301 934.27197 -274.54099 1.8403113e-38
1388.65 954.07397 -275.211 1.8403113e-38
1390.89 973.36499 -275.54401 1.8403113e-38
1395.08 994.70801 -276.52701 1.8403113e-38
1394.6899 1012.28 -275.94699 1.8403113e-38
1394.8199 1030.58 -275.53299 1.8403113e-38
1397.55 1051.62 -275.99799 1.8403113e-38
1392.3199 1065.39 -273.75299 1.8403113e-38
1395.29 1087.29 -274.28201 1.8403113e-38
1390.4 1101.79 -272.142 1.8403113e-38
1396.3 1127.34 -273.64401 1.8403113e-38
1400.51 1151.6899 -274.56299 1.8403113e-38
1395.66 1167.04 -272.41699 1.8403113e-38
1397.3101 1189.49 -272.45499 1.8403113e-38
1401.33 1214.9301 -273.276 1.8403113e-38
1403.05 1238.36 -273.31299 1.8403113e-38
1401.87 1259 -272.36801 1.8403113e-38
1399.16 1278.23 -270.89899 1.8403113e-38
1405.14 1307.88 -272.32599 1.8403113e-38
1406.9301 1333.25 -272.34 1.8403113e-38
1402.76 1351.99 -270.35599 1.8403113e-38
1407.65 1382.11 -271.379 1.8403113e-38
1409.6899 1409.37 -271.435 1.8403113e-38
1413.79 1439.84 -272.16101 1.8403113e-38
1419.29 1472.8199 -273.328 1.8403113e-38
1412.4399 1490.4 -270.40201 1.8403113e-38
1418.91 1526.03 -271.858 1.8403113e-38
1418.49 1553.1899 -271.02399 1.8403113e-38
1418.29 1581.25 -270.246 1.8403113e-38
1425.66 1620.64 -271.93799 1.8403113e-38
1431.92 1659.47 -273.23599 1.8403113e-38
1427.64 1683.9301 -271.06699 1.8403113e-38
1432.91 1723.13 -271.99899 1.8403113e-38
1431.67 1753.51 -270.78699 1.8403113e-38
1435.91 1793.09 -271.332 1.8403113e-38
1443.17 1909.67 -271.047 1.8403113e-38
1075.77 -3169.8101 -265.017 1.8403113e-38
1433.24 1822.9 -269.616 1.8403113e-38
1430.17 1852.78 -267.75299 1.8403113e-38
1442.63 1945.77 -269.94601 1.8403113e-38
1444.09 1986.26 -269.461 1.8403113e-38
1413.36 1972.2 -258.655 1.8403113e-38
1386.85 1964.6 -249.217 1.8403113e-38
1006.13 -3001.96 -235.52 1.8403113e-38
1343.26 1925.5601 -234.37 1.8403113e-38
971.58197 -2967.3899 -222.10899 1.8403113e-38
1321.67 1924.95 -226.547 1.8403113e-38
1305.77 1934.55 -220.53101 1.8403113e-38
941.92297 -2950.8201 -210.924 1.8403113e-38
1287.03 1938.74 -213.62199 1.8403113e-38
1356.64 2704.0601 -219.70799 1.8403113e-38
913.67603 -2938.78 -200.36501 1.8403113e-38
1270.11 1946.26 -207.289 1.8403113e-38
1253.14 1953.62 -200.942 1.8403113e-38
889.63898 -2944.9199 -191.791 1.8403113e-38
1234.8101 1958.13 -194.173 1.8403113e-38
1226.79 1983.89 -190.616 1.8403113e-38
1267.09 2208.5701 -199.614 1.8403113e-38
1268.99 2611.1499 -190.209 1.8403113e-38
871.401 -3108.9199 -189.282 1.8403113e-38
870.55798 -2975.22 -185.623 1.8403113e-38
1214.2 2000.6801 -185.623 1.8403113e-38
1224.23 2066.9299 -187.605 1.8403113e-38
1213.63 2137.72 -181.979 1.8403113e-38
1254.17 2509.3601 -187.381 1.8403113e-38
833.63599 -3049.1101 -174.069 1.8403113e-38
1191.65 2136.26 -174.036 1.8403113e-38
1231.8101 2578.25 -177.533 1.8403113e-38
1172.46 2140.97 -166.951 1.8403113e-38
1164.23 2172.1399 -163.17799 1.8403113e-38
778.76801 -2887.8501 -150.10201 1.8403113e-38
1168.38 2470.99 -157.192 1.8403113e-38
756.33899 -2899.6101 -142.25301 1.8403113e-38
1148.98 2481.9199 -149.87601 1.8403113e-38
1133.37 2503.98 -143.653 1.8403113e-38
726.883 -2868.8799 -130.787 1.8403113e-38
1121.26 2537.26 -138.423 1.8403113e-38
1099.71 2543.04 -130.451 1.8403113e-38
1082.9399 2563.8101 -123.842 1.8403113e-38
692.81097 -2804.3301 -116.796 1.8403113e-38
1061.78 2571.1201 -115.976 1.8403113e-38
1047.4301 2601.1599 -110.01 1.8403113e-38
1058.49 2720.1699 -111.042 1.8403113e-38
1071.71 2853.95 -112.488 1.8403113e-38
667.16998 -2789.6699 -107.119 1.8403113e-38
642.75598 -2781.6599 -98.053101 1.8403113e-38
618.508 -2773.4099 -89.041702 1.8403113e-38
575.414 -2799.8301 -74.056198 1.8403113e-38
593.23499 -2755.02 -79.403397 1.8403113e-38
930.138 2428.0701 -71.761902 1.8403113e-38
951.67902 2777.6499 -70.817299 1.8403113e-38
550.49298 -2782.97 -64.584503 1.8403113e-38
950.21198 2874.05 -67.867401 1.8403113e-38
525.87598 -2765.8701 -55.216999 1.8403113e-38
877.77899 2311.47 -55.674 1.8403113e-38
869.53101 2359.45 -51.476002 1.8403113e-38
501.73901 -2750.5 -46.067501 1.8403113e-38
479.05701 -2749.8301 -37.814701 1.8403113e-38
815.83398 2396.3899 -31.0518 1.8403113e-38
434.229 -2754.8201 -21.662399 1.8403113e-38
456.19699 -2745.95 -29.4167 1.8403113e-38
417.37701 -2860.25 -18.187201 1.8403113e-38
772.42401 2293.97 -17.8577 1.8403113e-38
719.97302 2231.27 -0.38516399 1.8403113e-38
746.64801 2266.1899 -9.1951303 1.8403113e-38
383.215 -2626.23 0.085119098 1.8403113e-38
360.672 -2597.49 8.99156 1.8403113e-38
339.08499 -2584.5 17.155701 1.8403113e-38
665.159 2142.8 17.299801 1.8403113e-38
686.08698 2155.8201 10.027 1.8403113e-38
317.70001 -2570.3101 25.2764 1.8403113e-38
620.73102 1995.75 29.7444 1.8403113e-38
296.55801 -2555.9099 33.314499 1.8403113e-38
607.71503 2019.53 35.066898 1.8403113e-38
275.60999 -2531.3201 41.537399 1.8403113e-38
255.021 -2521.53 49.258801 1.8403113e-38
568.56 1987.76 48.487301 1.8403113e-38
588.789 2008.6801 41.667099 1.8403113e-38
234.539 -2516.55 56.8209 1.8403113e-38
552.25403 1991.35 54.4986 1.8403113e-38
545.02899 2062.1599 58.897598 1.8403113e-38
214.517 -2492.3799 64.697197 1.8403113e-38
533.13501 2105.21 64.295898 1.8403113e-38
194.752 -2473.03 72.3592 1.8403113e-38
174.90601 -2464.48 79.779404 1.8403113e-38
506.763 2032.02 72.036201 1.8403113e-38
506.84601 2187.1001 75.894997 1.8403113e-38
651.22302 4115.4199 71.826202 1.8403113e-38
155.287 -2453.76 87.171997 1.8403113e-38
491.90701 2219.9399 82.142799 1.8403113e-38
619.10901 4139.48 84.090302 1.8403113e-38
136.576 -2428.8799 94.590202 1.8403113e-38
117.235 -2420.8101 101.815 1.8403113e-38
98.777397 -2401.5801 109 1.8403113e-38
415.564 2185.49 109 1.8403113e-38
443.95801 2317.76 102.007 1.8403113e-38
