# .PCD v0.7 - Point Cloud Data file format
VERSION 0.7
FIELDS x y z rgb
SIZE 4 4 4 4
TYPE F F F F
COUNT 1 1 1 1
WIDTH 360
HEIGHT 1
VIEWPOINT 0 0 0 1 0 0 0
POINTS 360
DATA ascii
1134.42 -3284.74 -289.19299 1.8403113e-38
1129.6 -3161.4399 -284.35101 1.8403113e-38
1139.53 -3002.5701 -283.97501 1.8403113e-38
1156.58 -2969.4199 -289.33499 1.8403113e-38
1161.0601 -2897.3899 -289.15399 1.8403113e-38
1165.33 -2828.3401 -288.974 1.8403113e-38
1170.1 -2764.1499 -289.09399 1.8403113e-38
1172.29 -2695.4099 -288.16501 1.8403113e-38
1177.33 -2638.0701 -288.55899 1.8403113e-38
1180.84 -2578.99 -288.35199 1.8403113e-38
1183.45 -2520.0601 -287.82101 1.8403113e-38
1186.21 -2464.0601 -287.42001 1.8403113e-38
1188.12 -2408.21 -286.71399 1.8403113e-38
1193.2 -2362.6299 -287.414 1.8403113e-38
1200.95 -2325.3799 -289.293 1.8403113e-38
1197.15 -2261.74 -286.32001 1.8403113e-38
1198.97 -2213.79 -285.776 1.8403113e-38
1201.64 -2169.6101 -285.63901 1.8403113e-38
1201.66 -2121.05 -284.42599 1.8403113e-38
1208.3101 -2088.8 -286.03299 1.8403113e-38
1211.17 -2049.45 -286.08701 1.8403113e-38
1212.62 -2008.4399 -285.58401 1.8403113e-38
1212.6 -1965.8 -284.509 1.8403113e-38
1216.34 -1932.12 -285.02301 1.8403113e-38
1218.72 -1896.77 -284.99701 1.8403113e-38
1221.49 -1863.28 -285.16299 1.8403113e-38
1224.7 -1831.62 -285.53699 1.8403113e-38
1227.47 -1800.05 -285.75101 1.8403113e-38
1230.75 -1770.29 -286.194 1.8403113e-38
1232.64 -1738.9 -286.09601 1.8403113e-38
1232.15 -1704.21 -285.04599 1.8403113e-38
1234.13 -1674.75 -285.02701 1.8403113e-38
1238.72 -1650.42 -286.08301 1.8403113e-38
1241.96 -1624.47 -286.61099 1.8403113e-38
1244.86 -1598.59 -287.013 1.8403113e-38
1248.45 -1574.4399 -287.711 1.8403113e-38
1250.13 -1547.88 -287.65601 1.8403113e-38
1245.02 -1511.62 -284.89001 1.8403113e-38
1248.08 -1488.55 -285.42099 1.8403113e-38
1250.28 -1464.74 -285.62399 1.8403113e-38
1249.9399 -1437.8 -284.82599 1.8403113e-38
1245.86 -1406.21 -282.55301 1.8403113e-38
1252.16 -1389.83 -284.42899 1.8403113e-38
1249.62 -1361.66 -282.802 1.8403113e-38
1259.52 -1350.8 -286.12201 1.8403113e-38
1252.8199 -1318.1899 -282.87201 1.8403113e-38
1266.5 -1312.7 -287.70099 1.8403113e-38
1251.29 -1270.45 -281.11801 1.8403113e-38
1257.34 -1255.84 -282.95001 1.8403113e-38
1262.01 -1239.72 -284.23999 1.8403113e-38
1260.9 -1216.89 -283.26501 1.8403113e-38
1260.12 -1194.9301 -282.43201 1.8403113e-38
1264.12 -1178.9399 -283.483 1.8403113e-38
1265.38 -1160.0601 -283.466 1.8403113e-38
1261.25 -1135.48 -281.349 1.8403113e-38
1266.55 -1121.79 -282.931 1.8403113e-38
1269.0699 -1105.26 -283.43399 1.8403113e-38
1279.35 -1097.21 -286.965 1.8403113e-38
1276.89 -1075.8101 -285.53201 1.8403113e-38
1276.84 -1057.3 -285.052 1.8403113e-38
1281.33 -1043.67 -286.33899 1.8403113e-38
1281.5601 -1025.97 -285.978 1.8403113e-38
1281.5699 -1008.35 -285.54199 1.8403113e-38
1279.99 -989.47198 -284.49301 1.8403113e-38
1278.17 -970.70599 -283.362 1.8403113e-38
1282.48 -957.91901 -284.608 1.8403113e-38
1283.1 -941.90002 -284.43201 1.8403113e-38
1288.5699 -930.41498 -286.12799 1.8403113e-38
1282.35 -908.78802 -283.327 1.8403113e-38
1291.15 -900.48102 -286.315 1.8403113e-38
1281.55 -876.61798 -282.23199 1.8403113e-38
1281.99 -861.56799 -282.01199 1.8403113e-38
1280.85 -830.453 -280.819 1.8403113e-38
1283.03 -817.37402 -281.28201 1.8403113e-38
1288.86 -807.23602 -283.147 1.8403113e-38
1288.51 -792.44098 -282.646 1.8403113e-38
1287.22 -777.146 -281.79401 1.8403113e-38
1287.23 -749.034 -281.09299 1.8403113e-38
1286.22 -734.521 -280.36401 1.8403113e-38
1291.35 -724.40601 -281.97299 1.8403113e-38
1291.4301 -658.172 -280.341 1.8403113e-38
1294.58 -634.50403 -280.89099 1.8403113e-38
1293.11 -621.021 -280.01901 1.8403113e-38
1300.0699 -539.51898 -280.50299 1.8403113e-38
1301.79 -516.83801 -280.55899 1.8403113e-38
1307.84 -417.521 -280.26501 1.8403113e-38
1350.0699 201.591 -280.073 1.8403113e-38
1358.33 234.91299 -282.237 1.8403113e-38
1354.17 255.162 -280.22 1.8403113e-38
1362.95 268.11401 -283.08099 1.8403113e-38
1356.42 287.92801 -280.215 1.8403113e-38
1368.49 302.25601 -284.23801 1.8403113e-38
1366.8101 312.74899 -283.36401 1.8403113e-38
1370.49 369.776 -283.272 1.8403113e-38
1362.89 378.39801 -280.29401 1.8403113e-38
1373.02 393.51099 -283.59399 1.8403113e-38
1366.13 402.41 -280.871 1.8403113e-38
1369.8 415.371 -281.87601 1.8403113e-38
1367.75 449.64001 -280.27399 1.8403113e-38
1368.3199 461.733 -280.17499 1.8403113e-38
1370.51 474.64499 -280.647 1.8403113e-38
1376.9 489.608 -282.59399 1.8403113e-38
1377.09 501.90201 -282.354 1.8403113e-38
1373.72 512.59198 -280.86401 1.8403113e-38
1389.97 532.89697 -286.254 1.8403113e-38
1375.8199 551.03302 -280.66199 1.8403113e-38
1380.5 566.164 -281.98099 1.8403113e-38
1379.12 578.26898 -281.17499 1.8403113e-38
1382.37 632.62201 -280.99399 1.8403113e-38
1388.9 663.62701 -282.58701 1.8403113e-38
1384.98 675.005 -280.87799 1.8403113e-38
1385.71 703.40302 -280.431 1.8403113e-38
1387.45 733.09601 -280.31699 1.8403113e-38
1106.8 -2982.1799 -271.577 1.8403113e-38
1275.5601 -841.13501 -279.16501 1.8403113e-38
1281.12 -758.56403 -279.11301 1.8403113e-38
1282.15 -704.65997 -278.138 1.8403113e-38
1287.03 -694.60101 -279.65601 1.8403113e-38
1286.22 -680.87903 -279.017 1.8403113e-38
1286.87 -668.24701 -278.93701 1.8403113e-38
1290.22 -644.59302 -279.561 1.8403113e-38
1289.85 -606.66998 -278.47501 1.8403113e-38
1293.89 -596.61102 -279.689 1.8403113e-38
1291.1801 -582.867 -278.36099 1.8403113e-38
1295.85 -573.26398 -279.81601 1.8403113e-38
1294.5601 -560.52698 -279.03 1.8403113e-38
1292.3 -547.42499 -277.88101 1.8403113e-38
1294.1801 -524.823 -277.996 1.8403113e-38
1294.77 -501.91699 -277.63699 1.8403113e-38
1297.92 -491.896 -278.52802 1.8403113e-38
1300.98 -481.854 -279.38699 1.8403113e-38
1302.22 -471.03799 -279.56601 1.8403113e-38
1298.14 -458.01599 -277.758 1.8403113e-38
1300.91 -448 -278.51401 1.8403113e-38
1297.47 -435.49301 -276.94901 1.8403113e-38
1298.29 -424.81201 -276.98001 1.8403113e-38
1304.08 -405.14999 -278.58701 1.8403113e-38
1297.52 -391.91901 -275.87601 1.8403113e-38
1306.86 -384.466 -279.07999 1.8403113e-38
1301.87 -372.00201 -276.95401 1.8403113e-38
1307.49 -363.211 -278.77701 1.8403113e-38
1303.1801 -351.181 -276.90799 1.8403113e-38
1305.95 -341.49301 -277.67099 1.8403113e-38
1307.74 -331.509 -278.07001 1.8403113e-38
1312.15 -322.30499 -279.44299 1.8403113e-38
1312.87 -312.02899 -279.44699 1.8403113e-38
1314.41 -302.009 -279.755 1.8403113e-38
1313.13 -291.27399 -279.021 1.8403113e-38
1309.9301 -280.129 -277.57999 1.8403113e-38
1312.12 -270.38599 -278.129 1.8403113e-38
1316.0601 -261.047 -279.32599 1.8403113e-38
1309.8199 -249.422 -276.76999 1.8403113e-38
1309 -239.10001 -276.211 1.8403113e-38
1313.61 -229.92799 -277.65701 1.8403113e-38
1313.54 -219.802 -277.37701 1.8403113e-38
1309.6801 -209.02 -275.70599 1.8403113e-38
1312.21 -199.44701 -276.384 1.8403113e-38
1312.8101 -189.541 -276.353 1.8403113e-38
1314.26 -179.78101 -276.63199 1.8403113e-38
1316.265 -165.10901 -276.99301 1.8403113e-38
1319.04 -150.548 -277.63599 1.8403113e-38
1322.03 -140.952 -278.48199 1.8403113e-38
1323.08 -131.112 -278.61401 1.8403113e-38
1321.23 -120.991 -277.69199 1.8403113e-38
1318.37 -110.833 -276.39801 1.8403113e-38
1324.79 -101.471 -278.49399 1.8403113e-38
1319.89 -91.221497 -276.457 1.8403113e-38
1322.4 -81.519402 -277.12601 1.8403113e-38
1319.2 -71.493599 -275.71399 1.8403113e-38
1327.1899 -61.996799 -278.37601 1.8403113e-38
1320.08 -51.879002 -275.53799 1.8403113e-38
1326.03 -42.1945 -277.45599 1.8403113e-38
1329.08 -32.3661 -278.319 1.8403113e-38
1331.12 -22.4807 -278.81 1.8403113e-38
1334.01 -12.555 -279.612 1.8403113e-38
1334 -2.6185501 -279.35999 1.8403113e-38
1333.91 7.31668 -279.078 1.8403113e-38
1335.62 17.3123 -279.448 1.8403113e-38
1329.73 27.021 -277.06601 1.8403113e-38
1333.16 37.1077 -278.05701 1.8403113e-38
1332.74 47.030602 -277.65701 1.8403113e-38
1336.9399 57.278599 -278.92401 1.8403113e-38
1333.54 67.010101 -277.44699 1.8403113e-38
1340.38 77.6007 -279.664 1.8403113e-38
1338.7 87.493896 -278.80499 1.8403113e-38
1341.61 97.865799 -279.604 1.8403113e-38
1339.76 107.751 -278.68399 1.8403113e-38
1335.97 117.373 -277.064 1.8403113e-38
1342.36 128.327 -279.11099 1.8403113e-38
1334.67 137.377 -276.09201 1.8403113e-38
1340.88 148.455 -278.07001 1.8403113e-38
1340.48 158.59 -277.67099 1.8403113e-38
1339.0699 168.567 -276.90799 1.8403113e-38
1344.0699 179.72 -278.444 1.8403113e-38
1348.97 190.978 -279.94101 1.8403113e-38
1348.3 211.653 -279.17999 1.8403113e-38
1343.6899 221.084 -277.26901 1.8403113e-38
1347.11 242.83501 -277.96399 1.8403113e-38
1353.33 276.314 -279.38501 1.8403113e-38
1355.09 320.14899 -278.922 1.8403113e-38
1354.16 330.82101 -278.31601 1.8403113e-38
1349.53 340.31201 -276.39899 1.8403113e-38
1357.4 354.017 -278.91199 1.8403113e-38
1360.99 423.46301 -278.47501 1.8403113e-38
1364.4399 436.504 -279.39899 1.8403113e-38
1371.84 536.45801 -279.57999 1.8403113e-38
1375.1 589.01599 -279.448 1.8403113e-38
1373.5 601.13 -278.56299 1.8403113e-38
1373.45 614.20599 -278.216 1.8403113e-38
1380.37 644.89099 -279.95801 1.8403113e-38
1380.96 686.35999 -279.13199 1.8403113e-38
1383.04 715.84497 -279.151 1.8403113e-38
1381.3199 743.44501 -277.83401 1.8403113e-38
1387.76 762.51398 -279.69199 1.8403113e-38
1387.6801 777.30902 -279.29199 1.8403113e-38
1381.1899 787.65503 -276.677 1.8403113e-38
1382.38 803.64203 -276.70901 1.8403113e-38
1390.35 824.909 -279.06699 1.8403113e-38
1391.14 841.12 -278.94901 1.8403113e-38
1383.37 850.89801 -275.88199 1.8403113e-38
1386.13 868.97803 -276.42999 1.8403113e-38
1387.17 885.961 -276.38199 1.8403113e-38
1387.27 902.41498 -276.005 1.8403113e-38
1387.1801 918.93701 -275.56 1.8403113e-38
1392.0699 939.90802 -276.81 1.8403113e-38
1389.38 954.70697 -275.46201 1.8403113e-38
1391.62 974.005 -275.79199 1.8403113e-38
1395.08 994.70801 -276.52701 1.8403113e-38
1388.96 1007.06 -273.995 1.8403113e-38
1396.24 1031.9 -276.017 1.8403113e-38
1397.55 1051.62 -275.99799 1.8403113e-38
1391.62 1064.72 -273.51501 1.8403113e-38
1396.6801 1088.65 -274.75299 1.8403113e-38
1397.29 1108.64 -274.47501 1.8403113e-38
1396.98 1128.03 -273.875 1.8403113e-38
1395.76 1146.8 -272.961 1.8403113e-38
1394.99 1166.34 -272.19101 1.8403113e-38
1398.65 1190.91 -272.90399 1.8403113e-38
1401.33 1214.9301 -273.276 1.8403113e-38
1398.46 1233.3 -271.77399 1.8403113e-38
1402.52 1259.72 -272.58499 1.8403113e-38
1400.4399 1279.7 -271.32999 1.8403113e-38
1405.77 1308.62 -272.539 1.8403113e-38
1406.29 1332.51 -272.129 1.8403113e-38
1408.38 1358.76 -272.23001 1.8403113e-38
1413.23 1388.9301 -273.23199 1.8403113e-38
1409.6899 1409.37 -271.435 1.8403113e-38
1414.4 1440.61 -272.362 1.8403113e-38
1413.88 1465.85 -271.54099 1.8403113e-38
1418.38 1498.2 -272.36401 1.8403113e-38
1423.61 1532.3101 -273.40799 1.8403113e-38
1418.49 1553.1899 -271.02399 1.8403113e-38
1423.46 1588.42 -271.94501 1.8403113e-38
1425.66 1620.64 -271.93799 1.8403113e-38
1426.3 1651.41 -271.39801 1.8403113e-38
1428.1899 1684.74 -271.24799 1.8403113e-38
1434.5601 1725.58 -272.535 1.8403113e-38
1432.21 1754.33 -270.96301 1.8403113e-38
1436.4399 1793.92 -271.50601 1.8403113e-38
1447.29 1916.4 -272.37399 1.8403113e-38
1443.65 1947.47 -270.272 1.8403113e-38
1447.1 1991.37 -270.42401 1.8403113e-38
1080.48 -3188.0901 -267.186 1.8403113e-38
1434.3 1824.5601 -269.95801 1.8403113e-38
1431.22 1854.46 -268.09 1.8403113e-38
1413.86 1973.0601 -258.81299 1.8403113e-38
1385.87 1962.88 -248.90601 1.8403113e-38
1006.37 -3002.9199 -235.631 1.8403113e-38
1343.74 1926.4301 -234.522 1.8403113e-38
972.27802 -2970.29 -222.43401 1.8403113e-38
1323.5699 1928.42 -227.147 1.8403113e-38
1306.7 1936.3 -220.826 1.8403113e-38
942.14697 -2951.79 -211.03 1.8403113e-38
1288.87 1942.25 -214.2 1.8403113e-38
1353.6801 2696.6799 -218.817 1.8403113e-38
913.46002 -2937.8101 -200.263 1.8403113e-38
1269.66 1945.38 -207.147 1.8403113e-38
1253.58 1954.5 -201.08099 1.8403113e-38
875.05298 -3127.48 -191.073 1.8403113e-38
889.84698 -2945.8999 -191.89101 1.8403113e-38
1234.8101 1958.13 -194.173 1.8403113e-38
1228.08 1986.5699 -191.017 1.8403113e-38
1264.23 2202.24 -198.73599 1.8403113e-38
1269.34 2612.0801 -190.314 1.8403113e-38
870.35797 -2974.24 -185.526 1.8403113e-38
1215.04 2002.48 -185.88499 1.8403113e-38
1226.3101 2071.4299 -188.246 1.8403113e-38
1210.42 2130.45 -180.99899 1.8403113e-38
1253.4399 2507.51 -187.164 1.8403113e-38
833.82001 -3050.0901 -174.16 1.8403113e-38
1188.11 2128.0601 -172.95799 1.8403113e-38
1232.15 2579.1799 -177.636 1.8403113e-38
1172.85 2141.8899 -167.06799 1.8403113e-38
1164.23 2172.1399 -163.17799 1.8403113e-38
779.12 -2889.8101 -150.27901 1.8403113e-38
1165.66 2463.51 -156.392 1.8403113e-38
755.49902 -2894.7 -141.825 1.8403113e-38
1149.3199 2482.8601 -149.97301 1.8403113e-38
1130.77 2496.45 -142.899 1.8403113e-38
727.203 -2870.8501 -130.953 1.8403113e-38
1120 2533.48 -138.05701 1.8403113e-38
1102.8 2552.51 -131.336 1.8403113e-38
1083.24 2564.75 -123.928 1.8403113e-38
693.26599 -2807.28 -117.036 1.8403113e-38
1064.72 2580.6399 -116.804 1.8403113e-38
1060.16 2725.9099 -111.504 1.8403113e-38
1073.33 2859.71 -112.932 1.8403113e-38
666.164 -2782.76 -106.58 1.8403113e-38
1046 2596.3799 -109.611 1.8403113e-38
643.16302 -2784.6299 -98.2752 1.8403113e-38
620.039 -2785.28 -89.894997 1.8403113e-38
574.63501 -2792.8899 -73.599297 1.8403113e-38
593.474 -2757 -79.539803 1.8403113e-38
930.66199 2429.99 -71.904198 1.8403113e-38
954.78101 2790.25 -71.627602 1.8403113e-38
550.69897 -2784.96 -64.709099 1.8403113e-38
950.67297 2875.99 -67.986099 1.8403113e-38
525.97101 -2766.8601 -55.276402 1.8403113e-38
879.81403 2319.1799 -56.219501 1.8403113e-38
870.51703 2363.3201 -51.737 1.8403113e-38
502.60699 -2760.45 -46.632 1.8403113e-38
479.13599 -2750.8201 -37.868198 1.8403113e-38
816.27899 2398.3401 -31.1647 1.8403113e-38
434.29099 -2755.8101 -21.709999 1.8403113e-38
456.267 -2746.95 -29.4673 1.8403113e-38
417.37701 -2860.25 -18.187201 1.8403113e-38
772.638 2294.95 -17.9112 1.8403113e-38
383.72 -2637.21 -0.373382 1.8403113e-38
720.37097 2233.22 -0.48036399 1.8403113e-38
746.85498 2267.1699 -9.2456799 1.8403113e-38
360.70999 -2598.48 8.9528399 1.8403113e-38
339.14401 -2586.5 17.0842 1.8403113e-38
663.88098 2135.9199 17.591499 1.8403113e-38
685.51501 2152.8799 10.161 1.8403113e-38
317.70001 -2570.3101 25.2764 1.8403113e-38
621.08002 1997.72 29.666901 1.8403113e-38
296.453 -2547.9199 33.552898 1.8403113e-38
606.216 2010.66 35.388699 1.8403113e-38
275.66299 -2542.3201 41.242199 1.8403113e-38
255.01401 -2523.53 49.211102 1.8403113e-38
569.31201 1992.7 48.338299 1.8403113e-38
587.99597 2003.75 41.831001 1.8403113e-38
234.631 -2508.55 56.9879 1.8403113e-38
553.81799 2002.24 54.2034 1.8403113e-38
545.297 2064.1499 58.849899 1.8403113e-38
214.49699 -2493.3799 64.679298 1.8403113e-38
533.513 2108.1799 64.233299 1.8403113e-38
194.668 -2476.02 72.314499 1.8403113e-38
175.123 -2458.49 79.850998 1.8403113e-38
505.93799 2025.0699 72.161499 1.8403113e-38
506.84601 2187.1001 75.894997 1.8403113e-38
651.50299 4118.4102 71.799301 1.8403113e-38
155.509 -2448.77 87.216797 1.8403113e-38
491.70401 2217.96 82.166702 1.8403113e-38
619.961 4149.4399 84.030602 1.8403113e-38
136.52299 -2429.8799 94.584198 1.8403113e-38
117.113 -2422.8 101.81 1.8403113e-38
98.708504 -2402.5801 109 1.8403113e-38
416.18399 2194.47 109 1.8403113e-38
443.341 2309.79 102.03 1.8403113e-38
