# .PCD v0.7 - Point Cloud Data file format
VERSION 0.7
FIELDS x y z rgb
SIZE 4 4 4 4
TYPE F F F F
COUNT 1 1 1 1
WIDTH 361
HEIGHT 1
VIEWPOINT 0 0 0 1 0 0 0
POINTS 361
DATA ascii
1134.16 -3283.79 -289.07599 1.8403113e-38
1129.0699 -3159.52 -284.112 1.8403113e-38
1139.53 -3002.5701 -283.97501 1.8403113e-38
1157.45 -2972.27 -289.71899 1.8403113e-38
1160.17 -2894.55 -288.76099 1.8403113e-38
1165.33 -2828.3401 -288.974 1.8403113e-38
1167.3 -2755.6799 -287.867 1.8403113e-38
1171.97 -2694.47 -288.026 1.8403113e-38
1177.66 -2639.01 -288.70099 1.8403113e-38
1180.51 -2578.0601 -288.207 1.8403113e-38
1183.11 -2519.1299 -287.67401 1.8403113e-38
1186.5601 -2464.99 -287.57001 1.8403113e-38
1190.98 -2415.5901 -287.935 1.8403113e-38
1189.92 -2354.3701 -286.017 1.8403113e-38
1201.6899 -2327.21 -289.60901 1.8403113e-38
1194.12 -2254.45 -285.03601 1.8403113e-38
1201.67 -2220.1499 -286.918 1.8403113e-38
1200.85 -2167.8 -285.30701 1.8403113e-38
1205.27 -2129.1499 -285.94199 1.8403113e-38
1205.04 -2081.6299 -284.66501 1.8403113e-38
1212.01 -2051.24 -286.43399 1.8403113e-38
1213.04 -2009.33 -285.76001 1.8403113e-38
1213.47 -1967.5699 -284.866 1.8403113e-38
1216.34 -1932.12 -285.02301 1.8403113e-38
1222.28 -1903.78 -286.46701 1.8403113e-38
1221.49 -1863.28 -285.16299 1.8403113e-38
1224.7 -1831.62 -285.53699 1.8403113e-38
1228.41 -1801.77 -286.133 1.8403113e-38
1227.4301 -1764.27 -284.83801 1.8403113e-38
1232.64 -1738.9 -286.09601 1.8403113e-38
1232.64 -1705.0601 -285.245 1.8403113e-38
1235.12 -1676.4399 -285.42999 1.8403113e-38
1240.73 -1653.79 -286.897 1.8403113e-38
1244 -1627.8199 -287.43399 1.8403113e-38
1246.92 -1601.92 -287.84601 1.8403113e-38
1245.3101 -1569.48 -286.448 1.8403113e-38
1247.49 -1543.77 -286.59201 1.8403113e-38
1249.85 -1518.96 -286.827 1.8403113e-38
1252.96 -1495.85 -287.379 1.8403113e-38
1256.33 -1473.6 -288.04199 1.8403113e-38
1257.1801 -1448.21 -287.71399 1.8403113e-38
1246.99 -1407.8 -283.00101 1.8403113e-38
1253.87 -1392.2 -285.10901 1.8403113e-38
1250.2 -1362.45 -283.03101 1.8403113e-38
1258.35 -1349.24 -285.66 1.8403113e-38
1254.59 -1320.51 -283.57199 1.8403113e-38
1256.97 -1300.41 -283.935 1.8403113e-38
1257.9 -1278.84 -283.73199 1.8403113e-38
1258.5601 -1257.36 -283.42999 1.8403113e-38
1257.71 -1234.46 -282.547 1.8403113e-38
1258.42 -1213.91 -282.289 1.8403113e-38
1262 -1197.15 -283.17001 1.8403113e-38
1265.38 -1180.41 -283.979 1.8403113e-38
1268.5699 -1163.7 -284.71701 1.8403113e-38
1264.47 -1139.08 -282.60999 1.8403113e-38
1273.7 -1129.67 -285.72699 1.8403113e-38
1270.39 -1106.6801 -283.94601 1.8403113e-38
1281.34 -1099.3199 -287.73901 1.8403113e-38
1274.21 -1073.02 -284.492 1.8403113e-38
1282.91 -1063.52 -287.41 1.8403113e-38
1286.08 -1048.46 -288.186 1.8403113e-38
1286.35 -1030.72 -287.83899 1.8403113e-38
1275.36 -1002.3 -283.133 1.8403113e-38
1281.38 -990.80298 -285.03201 1.8403113e-38
1286.59 -978.60999 -286.61801 1.8403113e-38
1283.1899 -958.57098 -284.88101 1.8403113e-38
1288.09 -946.41803 -286.35699 1.8403113e-38
1288.5699 -930.41498 -286.12799 1.8403113e-38
1284.52 -910.68402 -284.16299 1.8403113e-38
1291.15 -900.48102 -286.315 1.8403113e-38
1283.75 -878.474 -283.078 1.8403113e-38
1284.9399 -864.01398 -283.146 1.8403113e-38
1285.22 -848.995 -282.87299 1.8403113e-38
1284.59 -833.44098 -282.25299 1.8403113e-38
1284.54 -818.55499 -281.85901 1.8403113e-38
1291.14 -808.987 -284.017 1.8403113e-38
1290.8 -794.16998 -283.521 1.8403113e-38
1282.61 -773.72998 -280.034 1.8403113e-38
1289.62 -764.74701 -282.354 1.8403113e-38
1294.04 -739.99701 -283.341 1.8403113e-38
1292.14 -724.94598 -282.272 1.8403113e-38
1290.85 -710.52197 -281.444 1.8403113e-38
1290.21 -696.703 -280.86401 1.8403113e-38
1295.01 -686.578 -282.354 1.8403113e-38
1291.84 -645.58398 -280.17499 1.8403113e-38
1296.21 -635.47998 -281.508 1.8403113e-38
1295.5699 -622.46198 -280.94901 1.8403113e-38
1296.37 -598.00598 -280.62601 1.8403113e-38
1298.36 -574.612 -280.76099 1.8403113e-38
1301.58 -552.19598 -281.36899 1.8403113e-38
1303.96 -471.79401 -280.215 1.8403113e-38
1318.15 -282.186 -280.61499 1.8403113e-38
1336.73 7.3840399 -280.10101 1.8403113e-38
1338.4399 17.4058 -280.47 1.8403113e-38
1343.86 67.832199 -281.173 1.8403113e-38
1342.26 77.767502 -280.341 1.8403113e-38
1345.3101 118.554 -280.427 1.8403113e-38
1350.2 149.896 -281.41501 1.8403113e-38
1348.36 170.181 -280.241 1.8403113e-38
1360.3101 214.196 -283.47501 1.8403113e-38
1362.9301 235.97701 -283.88101 1.8403113e-38
1360.59 256.76999 -282.509 1.8403113e-38
1359.72 278.04099 -281.66199 1.8403113e-38
1373.01 270.73499 -286.66901 1.8403113e-38
1360.98 289.20401 -281.83701 1.8403113e-38
1360.3101 299.883 -281.327 1.8403113e-38
1365.9 312.47699 -283.04099 1.8403113e-38
1360.51 321.83099 -280.85101 1.8403113e-38
1364.08 333.99701 -281.84 1.8403113e-38
1364.58 356.45999 -281.45801 1.8403113e-38
1363.78 378.72 -280.60999 1.8403113e-38
1376.76 371.97101 -285.492 1.8403113e-38
1363.23 389.879 -280.13101 1.8403113e-38
1366.13 402.41 -280.871 1.8403113e-38
1373.34 416.75699 -283.12601 1.8403113e-38
1373.33 428.42999 -282.832 1.8403113e-38
1368.63 450.01099 -280.582 1.8403113e-38
1370.0601 462.492 -280.79001 1.8403113e-38
1372.25 475.42001 -281.259 1.8403113e-38
1376.9 489.608 -282.59399 1.8403113e-38
1371.91 499.483 -280.534 1.8403113e-38
1376.3 513.82501 -281.76999 1.8403113e-38
1375.41 525.771 -281.14401 1.8403113e-38
1378.66 539.875 -281.97299 1.8403113e-38
1380.0699 553.20801 -282.14999 1.8403113e-38
1379.66 565.72101 -281.685 1.8403113e-38
1378.28 577.81897 -280.88101 1.8403113e-38
1382.6899 606.25702 -281.771 1.8403113e-38
1380.9301 618.46997 -280.82599 1.8403113e-38
1383.2 633.104 -281.28201 1.8403113e-38
1381.1899 645.38 -280.245 1.8403113e-38
1381.52 659.15698 -280.021 1.8403113e-38
1386.61 676.013 -281.44501 1.8403113e-38
1386.52 703.922 -280.71201 1.8403113e-38
1108.7 -2988.8601 -272.435 1.8403113e-38
1283.34 -746.26001 -279.612 1.8403113e-38
1288.48 -669.26898 -279.54599 1.8403113e-38
1286.58 -655.15302 -278.504 1.8403113e-38
1291.5 -607.61499 -279.09799 1.8403113e-38
1292.84 -583.78101 -278.98901 1.8403113e-38
1295.4 -560.96899 -279.34601 1.8403113e-38
1293.3 -536.112 -277.957 1.8403113e-38
1296.73 -526.07599 -278.953 1.8403113e-38
1294.11 -513.14801 -277.67499 1.8403113e-38
1296.49 -502.72101 -278.27899 1.8403113e-38
1298.78 -492.29001 -278.85001 1.8403113e-38
1295.8 -479.53799 -277.44699 1.8403113e-38
1298.14 -458.01599 -277.758 1.8403113e-38
1301.79 -448.362 -278.84 1.8403113e-38
1300.97 -436.90799 -278.25699 1.8403113e-38
1300.05 -425.50299 -277.63599 1.8403113e-38
1301.67 -415.16101 -277.96301 1.8403113e-38
1304.96 -405.479 -278.91699 1.8403113e-38
1305.51 -394.806 -278.85001 1.8403113e-38
1307.75 -384.77802 -279.41101 1.8403113e-38
1304.54 -372.91501 -277.94901 1.8403113e-38
1310.1801 -364.099 -279.77399 1.8403113e-38
1304.97 -351.75601 -277.57501 1.8403113e-38
1305.95 -341.49301 -277.67099 1.8403113e-38
1308.64 -331.78 -278.40399 1.8403113e-38
1311.25 -322.043 -279.108 1.8403113e-38
1305.62 -309.99799 -276.76099 1.8403113e-38
1312.59 -301.51801 -279.082 1.8403113e-38
1304.9301 -289.14099 -275.98999 1.8403113e-38
1313.04 -270.60599 -278.46701 1.8403113e-38
1316.0601 -261.047 -279.32599 1.8403113e-38
1309.8199 -249.422 -276.76999 1.8403113e-38
1309.92 -239.295 -276.54999 1.8403113e-38
1314.54 -230.114 -277.99701 1.8403113e-38
1314.47 -219.979 -277.71701 1.8403113e-38
1307.83 -208.683 -275.02499 1.8403113e-38
1313.14 -199.60699 -276.72501 1.8403113e-38
1312.8101 -189.541 -276.353 1.8403113e-38
1305.89 -178.496 -273.564 1.8403113e-38
1315.62 -170.009 -276.88199 1.8403113e-38
1318.77 -160.47701 -277.78601 1.8403113e-38
1319.97 -150.66499 -277.978 1.8403113e-38
1316.4301 -140.302 -276.431 1.8403113e-38
1315.6 -130.31599 -275.88 1.8403113e-38
1320.3 -120.9 -277.35001 1.8403113e-38
1320.24 -110.997 -277.082 1.8403113e-38
1319.17 -101.03 -276.44199 1.8403113e-38
1319.89 -91.221497 -276.457 1.8403113e-38
1321.46 -81.463303 -276.784 1.8403113e-38
1321.08 -71.588303 -276.39801 1.8403113e-38
1325.3101 -61.919601 -277.69199 1.8403113e-38
1321.95 -51.938801 -276.22198 1.8403113e-38
1327.91 -42.236801 -278.14001 1.8403113e-38
1329.08 -32.3661 -278.319 1.8403113e-38
1330.1801 -22.4769 -278.46899 1.8403113e-38
1333.0699 -12.56 -279.271 1.8403113e-38
1325.54 -2.74212 -276.29099 1.8403113e-38
1330.67 27.0609 -277.40601 1.8403113e-38
1335.04 37.204899 -278.73599 1.8403113e-38
1334.62 47.145199 -278.336 1.8403113e-38
1336.9399 57.278599 -278.92401 1.8403113e-38
1341.51 87.770302 -279.81799 1.8403113e-38
1342.55 97.966599 -279.94101 1.8403113e-38
1340.7 107.86 -279.021 1.8403113e-38
1344.23 128.58099 -279.78201 1.8403113e-38
1336.53 137.64799 -276.76199 1.8403113e-38
1342.34 158.895 -278.33899 1.8403113e-38
1347.78 180.39999 -279.77399 1.8403113e-38
1346.1899 190.442 -278.94501 1.8403113e-38
1349.14 201.40401 -279.742 1.8403113e-38
1345.54 221.492 -277.92801 1.8403113e-38
1349.86 243.49899 -278.948 1.8403113e-38
1359.4301 343.57901 -279.91101 1.8403113e-38
1365.3199 436.867 -279.70901 1.8403113e-38
1375.9399 589.474 -279.741 1.8403113e-38
1379.33 685.33698 -278.56799 1.8403113e-38
1384.65 716.89801 -279.70801 1.8403113e-38
1381.85 729.35797 -278.38 1.8403113e-38
1386.89 747.23401 -279.758 1.8403113e-38
1381.4399 758.12402 -277.50601 1.8403113e-38
1387.6801 777.30902 -279.29199 1.8403113e-38
1388.22 792.72302 -279.10199 1.8403113e-38
1383.9399 804.78302 -277.245 1.8403113e-38
1383.4 819.711 -276.67499 1.8403113e-38
1391.91 841.70398 -279.21301 1.8403113e-38
1390.99 856.815 -278.50201 1.8403113e-38
1386.88 869.57703 -276.69 1.8403113e-38
1387.92 886.56702 -276.64001 1.8403113e-38
1388.76 903.64001 -276.51801 1.8403113e-38
1387.92 919.55603 -275.814 1.8403113e-38
1386.91 935.52399 -275.04501 1.8403113e-38
1389.38 954.70697 -275.46201 1.8403113e-38
1393.08 975.28497 -276.28799 1.8403113e-38
1395.8 995.354 -276.77301 1.8403113e-38
1395.41 1012.93 -276.19101 1.8403113e-38
1397.66 1033.22 -276.50101 1.8403113e-38
1391.2 1045.63 -273.841 1.8403113e-38
1398.63 1071.45 -275.89099 1.8403113e-38
1391.12 1083.22 -272.86899 1.8403113e-38
1397.29 1108.64 -274.47501 1.8403113e-38
1392.1899 1123.1899 -272.258 1.8403113e-38
1396.4399 1147.5 -273.19 1.8403113e-38
1395.66 1167.04 -272.41699 1.8403113e-38
1392.65 1184.52 -270.884 1.8403113e-38
1401.99 1215.65 -273.49799 1.8403113e-38
1404.36 1239.8 -273.75201 1.8403113e-38
1397.33 1253.9 -270.845 1.8403113e-38
1400.4399 1279.7 -271.32999 1.8403113e-38
1400.67 1302.7 -270.836 1.8403113e-38
1403.14 1328.78 -271.07599 1.8403113e-38
1409.63 1360.26 -272.647 1.8403113e-38
1408.89 1383.63 -271.79099 1.8403113e-38
1410.3 1410.13 -271.63901 1.8403113e-38
1415.01 1441.38 -272.56299 1.8403113e-38
1414.48 1466.62 -271.73901 1.8403113e-38
1414.22 1492.74 -270.98999 1.8403113e-38
1420.09 1527.6 -272.246 1.8403113e-38
1418.49 1553.1899 -271.02399 1.8403113e-38
1424.61 1590.01 -272.323 1.8403113e-38
1421.6899 1615.03 -270.634 1.8403113e-38
1426.3 1651.41 -271.39801 1.8403113e-38
1428.1899 1684.74 -271.24799 1.8403113e-38
1435.66 1727.22 -272.89301 1.8403113e-38
1432.76 1755.16 -271.13901 1.8403113e-38
1436.98 1794.75 -271.67899 1.8403113e-38
1434.83 1825.39 -270.129 1.8403113e-38
1444.72 1912.1899 -271.54501 1.8403113e-38
1444.66 1949.16 -270.59799 1.8403113e-38
1083.71 -3200.6001 -268.67001 1.8403113e-38
1431.74 1855.29 -268.258 1.8403113e-38
1442.09 1982.86 -268.81799 1.8403113e-38
1415.83 1976.48 -259.44501 1.8403113e-38
1386.36 1963.74 -249.062 1.8403113e-38
1007.81 -3008.71 -236.299 1.8403113e-38
1340.86 1921.24 -233.60699 1.8403113e-38
975.76001 -2984.79 -224.062 1.8403113e-38
1323.09 1927.55 -226.99699 1.8403113e-38
1305.77 1934.55 -220.53101 1.8403113e-38
947.07898 -2973.1101 -213.355 1.8403113e-38
1287.49 1939.62 -213.767 1.8403113e-38
1354.05 2697.6001 -218.929 1.8403113e-38
918.64899 -2961.1101 -202.731 1.8403113e-38
1270.5601 1947.14 -207.431 1.8403113e-38
1253.14 1953.62 -200.942 1.8403113e-38
893.59399 -2963.4099 -193.69099 1.8403113e-38
1233.5 1955.47 -193.76401 1.8403113e-38
1267.9 2210.3799 -199.86501 1.8403113e-38
1269.34 2612.0801 -190.314 1.8403113e-38
858.14099 -3041.52 -182.77699 1.8403113e-38
871.55902 -2980.0901 -186.10899 1.8403113e-38
1222.0601 1974.0699 -189.146 1.8403113e-38
1215.04 2002.48 -185.88499 1.8403113e-38
1227.55 2074.1299 -188.63 1.8403113e-38
1213.63 2137.72 -181.979 1.8403113e-38
1253.8101 2508.4299 -187.272 1.8403113e-38
833.82001 -3050.0901 -174.16 1.8403113e-38
1188.11 2128.0601 -172.95799 1.8403113e-38
1233.54 2582.9099 -178.048 1.8403113e-38
1172.46 2140.97 -166.951 1.8403113e-38
1164.98 2173.98 -163.407 1.8403113e-38
778.59198 -2886.8701 -150.01401 1.8403113e-38
1166.6801 2466.3101 -156.692 1.8403113e-38
756.17102 -2898.6299 -142.168 1.8403113e-38
1146.33 2474.4199 -149.099 1.8403113e-38
1131.1 2497.3899 -142.993 1.8403113e-38
727.36298 -2871.8301 -131.035 1.8403113e-38
1120 2533.48 -138.05701 1.8403113e-38
1098.78 2540.2 -130.185 1.8403113e-38
1082.9399 2563.8101 -123.842 1.8403113e-38
693.41803 -2808.27 -117.116 1.8403113e-38
1067.0699 2588.26 -117.466 1.8403113e-38
1061.55 2730.7 -111.889 1.8403113e-38
1070.09 2848.1899 -112.044 1.8403113e-38
665.73297 -2779.8 -106.349 1.8403113e-38
1045.14 2593.52 -109.371 1.8403113e-38
642.89203 -2782.6499 -98.127098 1.8403113e-38
619.784 -2783.3101 -89.7528 1.8403113e-38
574.63501 -2792.8899 -73.599297 1.8403113e-38
593.354 -2756.01 -79.471603 1.8403113e-38
930.92499 2430.96 -71.975304 1.8403113e-38
953.58801 2785.4099 -71.316002 1.8403113e-38
549.97699 -2778.01 -64.272903 1.8403113e-38
950.90399 2876.96 -68.045502 1.8403113e-38
526.16101 -2768.8501 -55.395199 1.8403113e-38
876.50702 2306.6399 -55.333099 1.8403113e-38
870.271 2362.3501 -51.6717 1.8403113e-38
502.867 -2763.4299 -46.8013 1.8403113e-38
479.293 -2752.8101 -37.975201 1.8403113e-38
814.27502 2389.5801 -30.6567 1.8403113e-38
434.29099 -2755.8101 -21.709999 1.8403113e-38
456.901 -2755.9099 -29.922199 1.8403113e-38
417.37701 -2860.25 -18.187201 1.8403113e-38
772.85303 2295.9199 -17.964701 1.8403113e-38
720.56897 2234.2 -0.527964 1.8403113e-38
747.06201 2268.1499 -9.2962399 1.8403113e-38
383.26099 -2627.23 0.043437202 1.8403113e-38
360.672 -2597.49 8.99156 1.8403113e-38
338.90799 -2578.51 17.370199 1.8403113e-38
664.97601 2141.8101 17.3414 1.8403113e-38
686.08698 2155.8201 10.027 1.8403113e-38
317.67899 -2569.3101 25.3092 1.8403113e-38
620.03302 1991.8101 29.8992 1.8403113e-38
296.55801 -2555.9099 33.314499 1.8403113e-38
607.04901 2015.59 35.2099 1.8403113e-38
275.66299 -2542.3201 41.242199 1.8403113e-38
255.011 -2524.53 49.187302 1.8403113e-38
568.86102 1989.73 48.4277 1.8403113e-38
586.729 1995.85 42.0933 1.8403113e-38
234.631 -2508.55 56.9879 1.8403113e-38
552.823 1995.3101 54.3913 1.8403113e-38
546.90698 2076.03 58.563599 1.8403113e-38
214.517 -2492.3799 64.697197 1.8403113e-38
532.37903 2099.26 64.421204 1.8403113e-38
194.724 -2474.02 72.344299 1.8403113e-38
175.123 -2458.49 79.850998 1.8403113e-38
506.52701 2030.03 72.071999 1.8403113e-38
506.51599 2184.1101 75.939697 1.8403113e-38
651.59601 4119.3999 71.790398 1.8403113e-38
155.59801 -2446.77 87.234703 1.8403113e-38
491.298 2213.98 82.2145 1.8403113e-38
619.02301 4138.48 84.096298 1.8403113e-38
136.576 -2428.8799 94.590202 1.8403113e-38
117.66 -2413.8201 101.836 1.8403113e-38
98.708504 -2402.5801 109 1.8403113e-38
416.87299 2204.45 109 1.8403113e-38
443.57199 2312.78 102.021 1.8403113e-38
