# .PCD v0.7 - Point Cloud Data file format
VERSION 0.7
FIELDS x y z rgb
SIZE 4 4 4 4
TYPE F F F F
COUNT 1 1 1 1
WIDTH 361
HEIGHT 1
VIEWPOINT 0 0 0 1 0 0 0
POINTS 361
DATA ascii
1133.9 -3282.8301 -288.95901 1.8403113e-38
1132.24 -3171.01 -285.54901 1.8403113e-38
1140.65 -3006.3799 -284.47601 1.8403113e-38
1156.87 -2970.3701 -289.46301 1.8403113e-38
1160.47 -2895.49 -288.892 1.8403113e-38
1165.03 -2827.3999 -288.84 1.8403113e-38
1167.61 -2756.6299 -288.00299 1.8403113e-38
1171.97 -2694.47 -288.026 1.8403113e-38
1174.72 -2630.6001 -287.42499 1.8403113e-38
1180.51 -2578.0601 -288.207 1.8403113e-38
1183.45 -2520.0601 -287.82101 1.8403113e-38
1186.21 -2464.0601 -287.42001 1.8403113e-38
1190.62 -2414.6699 -287.78299 1.8403113e-38
1190.29 -2355.28 -286.172 1.8403113e-38
1197.6 -2317.1399 -287.87201 1.8403113e-38
1193.74 -2253.54 -284.875 1.8403113e-38
1201.29 -2219.24 -286.755 1.8403113e-38
1200.85 -2167.8 -285.30701 1.8403113e-38
1201.66 -2121.05 -284.42599 1.8403113e-38
1207.49 -2087.01 -285.69101 1.8403113e-38
1211.59 -2050.3401 -286.26099 1.8403113e-38
1212.62 -2008.4399 -285.58401 1.8403113e-38
1213.47 -1967.5699 -284.866 1.8403113e-38
1216.78 -1933 -285.20401 1.8403113e-38
1221.83 -1902.91 -286.284 1.8403113e-38
1221.03 -1862.41 -284.97699 1.8403113e-38
1224.7 -1831.62 -285.53699 1.8403113e-38
1224.67 -1794.87 -284.603 1.8403113e-38
1230.75 -1770.29 -286.194 1.8403113e-38
1231.2 -1736.33 -285.50699 1.8403113e-38
1232.15 -1704.21 -285.04599 1.8403113e-38
1234.13 -1674.75 -285.02701 1.8403113e-38
1237.72 -1648.74 -285.67599 1.8403113e-38
1246.55 -1631.99 -288.46301 1.8403113e-38
1246.41 -1601.08 -287.638 1.8403113e-38
1242.7 -1565.35 -285.39499 1.8403113e-38
1241.66 -1534.74 -284.24899 1.8403113e-38
1243.41 -1509.17 -284.24399 1.8403113e-38
1251.88 -1494.23 -286.944 1.8403113e-38
1255.78 -1472.8 -287.823 1.8403113e-38
1257.1801 -1448.21 -287.71399 1.8403113e-38
1241.36 -1399.85 -280.75699 1.8403113e-38
1249.3101 -1385.88 -283.29501 1.8403113e-38
1249.05 -1360.88 -282.573 1.8403113e-38
1264.1801 -1357.03 -287.97 1.8403113e-38
1265.78 -1335.21 -288.004 1.8403113e-38
1262.33 -1307.3199 -286.05301 1.8403113e-38
1253.6899 -1273.5 -282.06799 1.8403113e-38
1257.34 -1255.84 -282.95001 1.8403113e-38
1257.09 -1233.71 -282.30499 1.8403113e-38
1262.14 -1218.38 -283.75299 1.8403113e-38
1260.75 -1195.67 -282.67801 1.8403113e-38
1265.38 -1180.41 -283.979 1.8403113e-38
1276.87 -1173.16 -287.96799 1.8403113e-38
1278.01 -1154.24 -287.90601 1.8403113e-38
1275 -1131.1 -286.23499 1.8403113e-38
1268.42 -1104.55 -283.17801 1.8403113e-38
1282.67 -1100.73 -288.25601 1.8403113e-38
1270.87 -1069.54 -283.19199 1.8403113e-38
1276.17 -1056.61 -284.79001 1.8403113e-38
1280.65 -1042.99 -286.07501 1.8403113e-38
1286.35 -1030.72 -287.83899 1.8403113e-38
1286.41 -1013.05 -287.41599 1.8403113e-38
1279.99 -989.47198 -284.49301 1.8403113e-38
1285.1801 -977.29199 -286.07501 1.8403113e-38
1284.6 -959.875 -285.42801 1.8403113e-38
1284.53 -943.19098 -284.98199 1.8403113e-38
1288.5699 -930.41498 -286.12799 1.8403113e-38
1289.58 -915.10797 -286.112 1.8403113e-38
1291.88 -901.10602 -286.595 1.8403113e-38
1277.15 -872.90802 -280.54099 1.8403113e-38
1276.8199 -857.28699 -280.02701 1.8403113e-38
1278.53 -843.55402 -280.306 1.8403113e-38
1286.84 -835.23401 -283.11301 1.8403113e-38
1283.78 -817.96399 -281.57101 1.8403113e-38
1287.35 -806.06897 -282.56699 1.8403113e-38
1298.4301 -799.935 -286.43701 1.8403113e-38
1289.52 -778.854 -282.673 1.8403113e-38
1286.22 -734.521 -280.36401 1.8403113e-38
1288.2 -722.245 -280.776 1.8403113e-38
1289.41 -696.17798 -280.56201 1.8403113e-38
1291.4301 -658.172 -280.341 1.8403113e-38
1291.84 -645.58398 -280.17499 1.8403113e-38
1293.9301 -621.50201 -280.32901 1.8403113e-38
1300.9399 -516.42798 -280.23801 1.8403113e-38
1314.95 -344.284 -281.01001 1.8403113e-38
1320.96 -241.62801 -280.61899 1.8403113e-38
1339.3101 47.431801 -280.03299 1.8403113e-38
1372.83 184.98801 -288.754 1.8403113e-38
1360.24 203.649 -283.715 1.8403113e-38
1364 214.979 -284.79599 1.8403113e-38
1368.45 237.25301 -285.854 1.8403113e-38
1365.17 257.91901 -284.14499 1.8403113e-38
1366.61 269.06699 -284.38599 1.8403113e-38
1369.77 280.754 -285.23999 1.8403113e-38
1370.09 291.755 -285.07999 1.8403113e-38
1364.86 301.20099 -282.944 1.8403113e-38
1370.4301 313.83701 -284.65302 1.8403113e-38
1367.75 324.07401 -283.422 1.8403113e-38
1369.49 335.729 -283.76199 1.8403113e-38
1379.4399 372.91199 -286.44299 1.8403113e-38
1370.35 392.521 -282.64999 1.8403113e-38
1367.02 402.74899 -281.18399 1.8403113e-38
1364.49 413.29099 -280.00101 1.8403113e-38
1378.62 430.55801 -284.70001 1.8403113e-38
1367.75 449.64001 -280.27399 1.8403113e-38
1369.1899 462.11301 -280.483 1.8403113e-38
1372.25 475.42001 -281.259 1.8403113e-38
1376.9 489.608 -282.59399 1.8403113e-38
1371.91 499.483 -280.534 1.8403113e-38
1375.4399 513.414 -281.46799 1.8403113e-38
1376.26 526.19098 -281.444 1.8403113e-38
1376.96 539.021 -281.37399 1.8403113e-38
1380.5 566.164 -281.98099 1.8403113e-38
1376.78 589.93298 -280.034 1.8403113e-38
1383.33 580.52197 -282.64899 1.8403113e-38
1382.01 645.86902 -280.53201 1.8403113e-38
1092.88 -3236.1899 -272.89499 1.8403113e-38
1108.16 -2986.95 -272.19 1.8403113e-38
1281.12 -758.56403 -279.11301 1.8403113e-38
1284.12 -746.815 -279.90799 1.8403113e-38
1284.53 -706.258 -279.04001 1.8403113e-38
1288.62 -682.43298 -279.927 1.8403113e-38
1286.0601 -667.737 -278.63199 1.8403113e-38
1288.05 -630.60101 -278.42099 1.8403113e-38
1290.67 -607.14203 -278.78601 1.8403113e-38
1288.09 -593.35699 -277.50201 1.8403113e-38
1292.01 -583.32397 -278.67499 1.8403113e-38
1289.16 -569.66803 -277.298 1.8403113e-38
1287.01 -556.55298 -276.186 1.8403113e-38
1292.3 -547.42499 -277.88101 1.8403113e-38
1292.45 -535.68597 -277.63901 1.8403113e-38
1295.88 -525.65802 -278.634 1.8403113e-38
1296.49 -502.72101 -278.27899 1.8403113e-38
1298.78 -492.29001 -278.85001 1.8403113e-38
1294.9301 -479.15201 -277.12299 1.8403113e-38
1296.15 -468.392 -277.29599 1.8403113e-38
1299.88 -458.75601 -278.409 1.8403113e-38
1300.91 -448 -278.51401 1.8403113e-38
1300.97 -436.90799 -278.25699 1.8403113e-38
1301.8101 -426.194 -278.29199 1.8403113e-38
1301.67 -415.16101 -277.96301 1.8403113e-38
1306.73 -406.13699 -279.57599 1.8403113e-38
1305.51 -394.806 -278.85001 1.8403113e-38
1305.08 -383.841 -278.41699 1.8403113e-38
1303.65 -372.60999 -277.61801 1.8403113e-38
1308.39 -363.50699 -279.10901 1.8403113e-38
1304.08 -351.46899 -277.241 1.8403113e-38
1308.64 -331.78 -278.40399 1.8403113e-38
1312.15 -322.30499 -279.44299 1.8403113e-38
1306.52 -310.25201 -277.09698 1.8403113e-38
1314.41 -302.009 -279.755 1.8403113e-38
1314.96 -291.74799 -279.69501 1.8403113e-38
1310.85 -280.358 -277.91699 1.8403113e-38
1314.87 -271.04599 -279.14301 1.8403113e-38
1315.15 -260.83499 -278.98801 1.8403113e-38
1310.74 -249.625 -277.108 1.8403113e-38
1318.22 -230.85699 -279.354 1.8403113e-38
1316.3101 -220.334 -278.396 1.8403113e-38
1318.01 -210.53799 -278.767 1.8403113e-38
1315.92 -200.088 -277.746 1.8403113e-38
1312.8101 -189.541 -276.353 1.8403113e-38
1315.1801 -179.924 -276.97299 1.8403113e-38
1314.6899 -169.875 -276.54099 1.8403113e-38
1312.25 -159.59801 -275.396 1.8403113e-38
1321.84 -150.899 -278.66101 1.8403113e-38
1314.5601 -140.086 -275.74799 1.8403113e-38
1316.53 -130.41499 -276.22198 1.8403113e-38
1313.75 -120.264 -274.957 1.8403113e-38
1318.37 -110.833 -276.39801 1.8403113e-38
1317.3 -100.883 -275.758 1.8403113e-38
1319.89 -91.221497 -276.457 1.8403113e-38
1323.34 -81.575401 -277.46799 1.8403113e-38
1327.65 -71.919502 -278.79199 1.8403113e-38
1320.62 -61.726601 -275.983 1.8403113e-38
1328.53 -52.147999 -278.61401 1.8403113e-38
1327.91 -42.236801 -278.14001 1.8403113e-38
1330.02 -32.378601 -278.66101 1.8403113e-38
1331.12 -22.4807 -278.81 1.8403113e-38
1327.4301 -12.59 -277.224 1.8403113e-38
1334.9399 -2.60482 -279.70099 1.8403113e-38
1327.33 7.1595101 -276.69299 1.8403113e-38
1328.1 17.062901 -276.72501 1.8403113e-38
1330.67 27.0609 -277.40601 1.8403113e-38
1335.04 37.204899 -278.73599 1.8403113e-38
1336 57.212601 -278.58401 1.8403113e-38
1335.42 67.159599 -278.12399 1.8403113e-38
1340.38 77.6007 -279.664 1.8403113e-38
1333.08 86.9412 -276.77802 1.8403113e-38
1335.0601 97.160202 -277.242 1.8403113e-38
1339.76 107.751 -278.68399 1.8403113e-38
1336.9 117.491 -277.401 1.8403113e-38
1339.5601 127.947 -278.104 1.8403113e-38
1343.0601 138.59599 -279.108 1.8403113e-38
1342.75 148.743 -278.73901 1.8403113e-38
1341.41 158.743 -278.005 1.8403113e-38
1340 168.729 -277.241 1.8403113e-38
1343.41 189.90601 -277.94901 1.8403113e-38
1345.54 221.492 -277.92801 1.8403113e-38
1351.7 243.94099 -279.604 1.8403113e-38
1352.23 341.203 -277.35699 1.8403113e-38
1360.09 354.93301 -279.867 1.8403113e-38
1362 378.07599 -279.978 1.8403113e-38
1362.6801 435.77802 -278.77899 1.8403113e-38
1373.27 549.72803 -279.76901 1.8403113e-38
1376.01 602.52802 -279.43799 1.8403113e-38
1373.45 614.20599 -278.216 1.8403113e-38
1377.41 629.73401 -279.263 1.8403113e-38
1375.79 655.67999 -278.02399 1.8403113e-38
1377.64 670.46698 -278.32599 1.8403113e-38
1380.14 685.84802 -278.85001 1.8403113e-38
1380.0601 699.76801 -278.47 1.8403113e-38
1384.65 716.89801 -279.70801 1.8403113e-38
1381.0601 728.82397 -278.103 1.8403113e-38
1382.12 743.98602 -278.10901 1.8403113e-38
1380.64 757.57599 -277.233 1.8403113e-38
1381.39 772.862 -277.121 1.8403113e-38
1388.22 792.72302 -279.10199 1.8403113e-38
1382.38 803.64203 -276.70901 1.8403113e-38
1383.4 819.711 -276.67499 1.8403113e-38
1385 836.44299 -276.83801 1.8403113e-38
1384.13 851.48999 -276.14401 1.8403113e-38
1386.88 869.57703 -276.69 1.8403113e-38
1387.92 886.56702 -276.64001 1.8403113e-38
1388.76 903.64001 -276.51801 1.8403113e-38
1387.1801 918.93701 -275.56 1.8403113e-38
1386.91 935.52399 -275.04501 1.8403113e-38
1390.11 955.34003 -275.71201 1.8403113e-38
1398.17 979.763 -278.02399 1.8403113e-38
1390.74 990.82898 -275.05099 1.8403113e-38
1396.13 1013.59 -276.435 1.8403113e-38
1389.84 1025.96 -273.84 1.8403113e-38
1392.61 1046.96 -274.32001 1.8403113e-38
1397.22 1070.1 -275.41599 1.8403113e-38
1396.6801 1088.65 -274.75299 1.8403113e-38
1391.09 1102.47 -272.375 1.8403113e-38
1396.3 1127.34 -273.64401 1.8403113e-38
1395.76 1146.8 -272.961 1.8403113e-38
1402.39 1174.08 -274.68399 1.8403113e-38
1397.98 1190.2 -272.67999 1.8403113e-38
1401.33 1214.9301 -273.276 1.8403113e-38
1404.36 1239.8 -273.75201 1.8403113e-38
1403.17 1260.45 -272.80301 1.8403113e-38
1406.24 1286.3101 -273.267 1.8403113e-38
1402.59 1304.92 -271.47501 1.8403113e-38
1402.51 1328.03 -270.866 1.8403113e-38
1410.26 1361.01 -272.85501 1.8403113e-38
1408.27 1382.87 -271.58499 1.8403113e-38
1410.92 1410.9 -271.84201 1.8403113e-38
1410.15 1435.23 -270.95499 1.8403113e-38
1414.48 1466.62 -271.73901 1.8403113e-38
1415.41 1494.3 -271.383 1.8403113e-38
1420.6801 1528.39 -272.439 1.8403113e-38
1419.0699 1553.98 -271.215 1.8403113e-38
1424.61 1590.01 -272.323 1.8403113e-38
1426.8 1622.24 -272.31 1.8403113e-38
1426.87 1652.21 -271.582 1.8403113e-38
1433.1899 1692.05 -272.879 1.8403113e-38
1429.62 1718.23 -270.927 1.8403113e-38
1432.76 1755.16 -271.13901 1.8403113e-38
1436.4399 1793.92 -271.50601 1.8403113e-38
1434.83 1825.39 -270.129 1.8403113e-38
1441.11 1906.3 -270.384 1.8403113e-38
1444.66 1949.16 -270.59799 1.8403113e-38
1436.95 1863.66 -269.94199 1.8403113e-38
1418.3 1980.75 -260.23401 1.8403113e-38
1445.6 1988.8199 -269.94199 1.8403113e-38
1381.49 1955.15 -247.509 1.8403113e-38
1008.29 -3010.6299 -236.522 1.8403113e-38
1337.02 1914.33 -232.386 1.8403113e-38
973.20697 -2974.1599 -222.869 1.8403113e-38
1323.5699 1928.42 -227.147 1.8403113e-38
1307.17 1937.17 -220.97301 1.8403113e-38
942.59601 -2953.73 -211.241 1.8403113e-38
1289.3199 1943.13 -214.345 1.8403113e-38
1357.02 2704.98 -219.819 1.8403113e-38
916.703 -2952.3701 -201.80499 1.8403113e-38
1271.01 1948.02 -207.57201 1.8403113e-38
1254.47 1956.27 -201.35899 1.8403113e-38
889.84698 -2945.8999 -191.89101 1.8403113e-38
1235.6801 1959.91 -194.446 1.8403113e-38
1266.6801 2207.6599 -199.489 1.8403113e-38
865.828 -3080.6001 -186.548 1.8403113e-38
872.56 -2984.97 -186.59399 1.8403113e-38
1224.21 1978.54 -189.815 1.8403113e-38
1215.89 2004.27 -186.147 1.8403113e-38
1230.87 2081.3401 -189.655 1.8403113e-38
1212.4301 2134.99 -181.61099 1.8403113e-38
1257.4301 2517.6899 -188.358 1.8403113e-38
1267.5699 2607.4299 -189.786 1.8403113e-38
831.97803 -3040.3 -173.246 1.8403113e-38
1188.51 2128.97 -173.077 1.8403113e-38
1234.24 2584.77 -178.25301 1.8403113e-38
1173.62 2143.72 -167.302 1.8403113e-38
1164.23 2172.1399 -163.17799 1.8403113e-38
778.94397 -2888.8301 -150.19099 1.8403113e-38
1164.98 2461.6399 -156.192 1.8403113e-38
755.49902 -2894.7 -141.825 1.8403113e-38
1148.3199 2480.05 -149.681 1.8403113e-38
1132.0699 2500.21 -143.276 1.8403113e-38
727.04303 -2869.8701 -130.87 1.8403113e-38
1119.6801 2532.54 -137.966 1.8403113e-38
1102.1801 2550.6101 -131.159 1.8403113e-38
1082.04 2560.96 -123.585 1.8403113e-38
691.74799 -2797.4299 -116.238 1.8403113e-38
1066.1899 2585.4099 -117.217 1.8403113e-38
1047.71 2602.1101 -110.09 1.8403113e-38
1055.4301 2709.6299 -110.196 1.8403113e-38
1072.52 2856.8301 -112.71 1.8403113e-38
666.164 -2782.76 -106.58 1.8403113e-38
643.16302 -2784.6299 -98.2752 1.8403113e-38
619.784 -2783.3101 -89.7528 1.8403113e-38
575.414 -2799.8301 -74.056198 1.8403113e-38
593.23499 -2755.02 -79.403397 1.8403113e-38
930.40002 2429.03 -71.833 1.8403113e-38
953.11102 2783.47 -71.191299 1.8403113e-38
549.46198 -2773.05 -63.961201 1.8403113e-38
950.21198 2874.05 -67.867401 1.8403113e-38
525.87598 -2765.8701 -55.216999 1.8403113e-38
878.03302 2312.4299 -55.742199 1.8403113e-38
870.51703 2363.3201 -51.737 1.8403113e-38
502.60699 -2760.45 -46.632 1.8403113e-38
479.13599 -2750.8201 -37.868198 1.8403113e-38
816.05603 2397.3601 -31.108299 1.8403113e-38
434.85101 -2764.79 -22.138399 1.8403113e-38
456.19699 -2745.95 -29.4167 1.8403113e-38
417.323 -2859.25 -18.1425 1.8403113e-38
774.57098 2303.73 -18.392799 1.8403113e-38
720.76801 2235.1799 -0.57556403 1.8403113e-38
746.85498 2267.1699 -9.2456799 1.8403113e-38
383.30701 -2628.23 0.00175525 1.8403113e-38
360.63501 -2596.49 9.0302801 1.8403113e-38
686.84998 2159.74 9.8484697 1.8403113e-38
665.70697 2145.74 17.1747 1.8403113e-38
619.15997 1986.89 30.0928 1.8403113e-38
606.88202 2014.6 35.245701 1.8403113e-38
569.31201 1992.7 48.338299 1.8403113e-38
587.36298 1999.8 41.9622 1.8403113e-38
553.10699 1997.29 54.337601 1.8403113e-38
545.43103 2065.1399 58.826 1.8403113e-38
533.63898 2109.1799 64.212402 1.8403113e-38
506.88101 2033.01 72.018303 1.8403113e-38
509.14999 2207.97 75.581703 1.8403113e-38
651.31598 4116.4199 71.817299 1.8403113e-38
491.19601 2212.98 82.226402 1.8403113e-38
619.961 4149.4399 84.030602 1.8403113e-38
271.31699 -625.935 90.875999 1.8403113e-38
265.84299 -526.06897 95.367897 1.8403113e-38
274.04901 -519.87402 92.5438 1.8403113e-38
257.82101 -499.121 98.956703 1.8403113e-38
261.76599 -499.11801 97.5242 1.8403113e-38
277.311 -490.75 92.089798 1.8403113e-38
220.655 -636.784 109 1.8403113e-38
226.27499 -628.12799 107.176 1.8403113e-38
234.21899 -572.48199 105.687 1.8403113e-38
239.963 -545.71698 104.273 1.8403113e-38
245.302 -517.89502 103.032 1.8403113e-38
253.856 -500.086 100.372 1.8403113e-38
250.071 -494.01901 101.899 1.8403113e-38
416.66699 2201.46 109 1.8403113e-38
443.57199 2312.78 102.021 1.8403113e-38
