# .PCD v0.7 - Point Cloud Data file format
VERSION 0.7
FIELDS x y z rgb
SIZE 4 4 4 4
TYPE F F F F
COUNT 1 1 1 1
WIDTH 356
HEIGHT 1
VIEWPOINT 0 0 0 1 0 0 0
POINTS 356
DATA ascii
1135.95 -3290.5 -289.89499 1.8403113e-38
1133.8199 -3176.75 -286.26801 1.8403113e-38
1144.28 -3018.76 -286.10599 1.8403113e-38
1156.87 -2970.3701 -289.46301 1.8403113e-38
1161.0601 -2897.3899 -289.15399 1.8403113e-38
1165.33 -2828.3401 -288.974 1.8403113e-38
1167.3 -2755.6799 -287.867 1.8403113e-38
1171.97 -2694.47 -288.026 1.8403113e-38
1174.4 -2629.6599 -287.28299 1.8403113e-38
1177.84 -2570.6101 -287.05099 1.8403113e-38
1183.79 -2520.99 -287.96899 1.8403113e-38
1186.21 -2464.0601 -287.42001 1.8403113e-38
1190.62 -2414.6699 -287.78299 1.8403113e-38
1189.5601 -2353.45 -285.862 1.8403113e-38
1197.97 -2318.0601 -288.02899 1.8403113e-38
1194.12 -2254.45 -285.03601 1.8403113e-38
1197.8101 -2211.0701 -285.28601 1.8403113e-38
1201.25 -2168.7 -285.47299 1.8403113e-38
1204.87 -2128.25 -285.77399 1.8403113e-38
1207.49 -2087.01 -285.69101 1.8403113e-38
1212.01 -2051.24 -286.43399 1.8403113e-38
1212.2 -2007.55 -285.40799 1.8403113e-38
1213.03 -1966.6801 -284.68701 1.8403113e-38
1216.78 -1933 -285.20401 1.8403113e-38
1222.28 -1903.78 -286.46701 1.8403113e-38
1221.03 -1862.41 -284.97699 1.8403113e-38
1224.24 -1830.75 -285.34799 1.8403113e-38
1227.9399 -1800.91 -285.94199 1.8403113e-38
1230.75 -1770.29 -286.194 1.8403113e-38
1232.16 -1738.04 -285.89999 1.8403113e-38
1232.15 -1704.21 -285.04599 1.8403113e-38
1234.63 -1675.59 -285.228 1.8403113e-38
1234.7 -1643.7 -284.45599 1.8403113e-38
1237.38 -1616.95 -284.758 1.8403113e-38
1247.4399 -1602.75 -288.05399 1.8403113e-38
1244.79 -1568.65 -286.237 1.8403113e-38
1249.0699 -1546.23 -287.23001 1.8403113e-38
1246.09 -1513.25 -285.32001 1.8403113e-38
1249.7 -1490.98 -286.07401 1.8403113e-38
1249.1801 -1463.13 -285.18399 1.8403113e-38
1257.1801 -1448.21 -287.71399 1.8403113e-38
1245.86 -1406.21 -282.55301 1.8403113e-38
1249.3101 -1385.88 -283.29501 1.8403113e-38
1249.05 -1360.88 -282.573 1.8403113e-38
1255.4399 -1345.34 -284.504 1.8403113e-38
1258.71 -1325.9301 -285.20499 1.8403113e-38
1257.5699 -1301.1801 -284.17001 1.8403113e-38
1251.89 -1271.22 -281.35599 1.8403113e-38
1256.73 -1255.09 -282.711 1.8403113e-38
1255.86 -1232.21 -281.82101 1.8403113e-38
1261.52 -1217.64 -283.509 1.8403113e-38
1260.12 -1194.9301 -282.43201 1.8403113e-38
1264.75 -1179.67 -283.73099 1.8403113e-38
1266.02 -1160.79 -283.716 1.8403113e-38
1268.34 -1143.41 -284.12299 1.8403113e-38
1268.5 -1123.9399 -283.69299 1.8403113e-38
1269.0699 -1105.26 -283.43399 1.8403113e-38
1266.77 -1083.85 -282.061 1.8403113e-38
1277.55 -1076.51 -285.793 1.8403113e-38
1276.84 -1057.3 -285.052 1.8403113e-38
1280.65 -1042.99 -286.07501 1.8403113e-38
1277.4399 -1021.9 -284.383 1.8403113e-38
1289.17 -1015.74 -288.487 1.8403113e-38
1274.41 -984.151 -282.33701 1.8403113e-38
1277.46 -970.047 -283.09 1.8403113e-38
1288.85 -963.78802 -287.06699 1.8403113e-38
1285.95 -944.48199 -285.53201 1.8403113e-38
1279.23 -922.11102 -282.53101 1.8403113e-38
1281.62 -908.15601 -283.04901 1.8403113e-38
1288.96 -898.60498 -285.474 1.8403113e-38
1283.75 -878.474 -283.078 1.8403113e-38
1284.2 -863.40198 -282.86301 1.8403113e-38
1284.59 -833.44098 -282.25299 1.8403113e-38
1283.78 -817.96399 -281.57101 1.8403113e-38
1283.55 -803.151 -281.117 1.8403113e-38
1283.16 -788.40601 -280.604 1.8403113e-38
1287 -735.06799 -280.66199 1.8403113e-38
1291.35 -724.40601 -281.97299 1.8403113e-38
1289.41 -696.17798 -280.56201 1.8403113e-38
1292.24 -658.67499 -280.647 1.8403113e-38
1304.21 -506.34 -281.172 1.8403113e-38
1310.8 -375.04401 -280.272 1.8403113e-38
1341.3199 77.684097 -280.00299 1.8403113e-38
1357.84 256.08099 -281.52802 1.8403113e-38
1359.29 267.16101 -281.776 1.8403113e-38
1359.15 288.69299 -281.18799 1.8403113e-38
1370.3101 302.78299 -284.88501 1.8403113e-38
1364.99 312.20499 -282.71899 1.8403113e-38
1360.51 321.83099 -280.85101 1.8403113e-38
1362.89 378.39801 -280.29401 1.8403113e-38
1372.28 370.40302 -283.90601 1.8403113e-38
1364.12 390.20901 -280.44601 1.8403113e-38
1365.25 402.07199 -280.55701 1.8403113e-38
1367.15 414.33099 -280.939 1.8403113e-38
1370.38 450.75299 -281.20001 1.8403113e-38
1369.1899 462.11301 -280.483 1.8403113e-38
1372.25 475.42001 -281.259 1.8403113e-38
1375.7051 495.14249 -282.02051 1.8403113e-38
1376.3 513.82501 -281.76999 1.8403113e-38
1376.26 526.19098 -281.444 1.8403113e-38
1380.37 540.729 -282.57101 1.8403113e-38
1383.33 580.52197 -282.64899 1.8403113e-38
1382.84 646.35797 -280.819 1.8403113e-38
1382.34 659.65302 -280.306 1.8403113e-38
1386.61 676.013 -281.44501 1.8403113e-38
1094.87 -3243.8899 -273.80801 1.8403113e-38
1107.34 -2984.0901 -271.82199 1.8403113e-38
1277.04 -842.34399 -279.73499 1.8403113e-38
1281.84 -773.16101 -279.741 1.8403113e-38
1281.89 -759.12598 -279.40701 1.8403113e-38
1282.5601 -745.70502 -279.31601 1.8403113e-38
1283.74 -705.72601 -278.73901 1.8403113e-38
1287.8199 -681.91498 -279.62399 1.8403113e-38
1287.67 -668.758 -279.241 1.8403113e-38
1291.03 -645.08899 -279.86801 1.8403113e-38
1288.05 -630.60101 -278.42099 1.8403113e-38
1288.1899 -618.14001 -278.159 1.8403113e-38
1290.67 -607.14203 -278.78601 1.8403113e-38
1287.26 -592.89203 -277.189 1.8403113e-38
1291.1801 -582.867 -278.36099 1.8403113e-38
1289.16 -569.66803 -277.298 1.8403113e-38
1287.01 -556.55298 -276.186 1.8403113e-38
1291.46 -546.99103 -277.564 1.8403113e-38
1291.6 -535.26001 -277.32101 1.8403113e-38
1296.73 -526.07599 -278.953 1.8403113e-38
1293.25 -512.73798 -277.35501 1.8403113e-38
1298.78 -492.29001 -278.85001 1.8403113e-38
1301.84 -482.23999 -279.70999 1.8403113e-38
1303.09 -471.41599 -279.89001 1.8403113e-38
1299.01 -458.38599 -278.08401 1.8403113e-38
1300.91 -448 -278.51401 1.8403113e-38
1299.22 -436.20099 -277.603 1.8403113e-38
1300.05 -425.50299 -277.63599 1.8403113e-38
1299.9 -414.48599 -277.306 1.8403113e-38
1304.96 -405.479 -278.91699 1.8403113e-38
1305.51 -394.806 -278.85001 1.8403113e-38
1299.74 -381.966 -276.431 1.8403113e-38
1300.33 -360.84399 -276.116 1.8403113e-38
1311.26 -353.76901 -279.90799 1.8403113e-38
1306.85 -341.772 -278.005 1.8403113e-38
1308.64 -331.78 -278.40399 1.8403113e-38
1312.15 -322.30499 -279.44299 1.8403113e-38
1307.4301 -310.505 -277.43201 1.8403113e-38
1314.41 -302.009 -279.755 1.8403113e-38
1314.96 -291.74799 -279.69501 1.8403113e-38
1310.85 -280.358 -277.91699 1.8403113e-38
1314.87 -271.04599 -279.14301 1.8403113e-38
1309.64 -259.56601 -276.95801 1.8403113e-38
1312.58 -250.03101 -277.78601 1.8403113e-38
1311.76 -239.68401 -277.228 1.8403113e-38
1307.16 -228.627 -275.28101 1.8403113e-38
1314.47 -219.979 -277.71701 1.8403113e-38
1307.83 -208.683 -275.02499 1.8403113e-38
1314.99 -199.92799 -277.40601 1.8403113e-38
1313.995 -184.728 -276.66299 1.8403113e-38
1309.11 -169.07001 -274.49399 1.8403113e-38
1314.71 -154.94751 -276.1745 1.8403113e-38
1318.3 -140.519 -277.11499 1.8403113e-38
1315.6 -130.31599 -275.88 1.8403113e-38
1322.17 -121.082 -278.034 1.8403113e-38
1319.3101 -110.915 -276.73999 1.8403113e-38
1317.3 -100.883 -275.758 1.8403113e-38
1319.89 -91.221497 -276.457 1.8403113e-38
1321.46 -81.463303 -276.784 1.8403113e-38
1319.2 -71.493599 -275.71399 1.8403113e-38
1327.1899 -61.996799 -278.37601 1.8403113e-38
1319.14 -51.849098 -275.19601 1.8403113e-38
1318.51 -42.0252 -274.72299 1.8403113e-38
1323.4399 -32.2915 -276.26999 1.8403113e-38
1331.12 -22.4807 -278.81 1.8403113e-38
1326.49 -12.595 -276.88199 1.8403113e-38
1334 -2.6185501 -279.35999 1.8403113e-38
1335.79 7.3615899 -279.76001 1.8403113e-38
1328.1 17.062901 -276.72501 1.8403113e-38
1330.67 27.0609 -277.40601 1.8403113e-38
1335.04 37.204899 -278.73599 1.8403113e-38
1334.62 47.145199 -278.336 1.8403113e-38
1336.9399 57.278599 -278.92401 1.8403113e-38
1335.42 67.159599 -278.12399 1.8403113e-38
1339.63 87.586098 -279.14301 1.8403113e-38
1336 97.261002 -277.57999 1.8403113e-38
1333.22 106.985 -276.327 1.8403113e-38
1336.9 117.491 -277.401 1.8403113e-38
1344.23 128.58099 -279.78201 1.8403113e-38
1335.6 137.51199 -276.427 1.8403113e-38
1341.8101 148.599 -278.40399 1.8403113e-38
1340.48 158.59 -277.67099 1.8403113e-38
1339.0699 168.567 -276.90799 1.8403113e-38
1344.0699 179.72 -278.444 1.8403113e-38
1341.5601 189.549 -277.28601 1.8403113e-38
1348.22 201.217 -279.41101 1.8403113e-38
1349.23 211.84801 -279.51001 1.8403113e-38
1344.61 221.28799 -277.59799 1.8403113e-38
1351.89 233.424 -279.936 1.8403113e-38
1348.95 243.27699 -278.62 1.8403113e-38
1351.51 275.82001 -278.73401 1.8403113e-38
1355.96 331.39801 -278.957 1.8403113e-38
1358.53 343.28201 -279.59201 1.8403113e-38
1356.5 353.71201 -278.59399 1.8403113e-38
1361.87 423.81699 -278.78601 1.8403113e-38
1363.5601 436.14099 -279.08899 1.8403113e-38
1373.27 549.72803 -279.76901 1.8403113e-38
1372.89 562.17902 -279.31601 1.8403113e-38
1375.9399 589.474 -279.741 1.8403113e-38
1376.01 602.52802 -279.43799 1.8403113e-38
1374.28 614.67999 -278.50601 1.8403113e-38
1378.23 630.21503 -279.55099 1.8403113e-38
1380.96 686.35999 -279.13199 1.8403113e-38
1380.0601 699.76801 -278.47 1.8403113e-38
1384.65 716.89801 -279.70801 1.8403113e-38
1382.65 729.89203 -278.65701 1.8403113e-38
1382.12 743.98602 -278.10901 1.8403113e-38
1388.55 763.06201 -279.965 1.8403113e-38
1381.39 772.862 -277.121 1.8403113e-38
1381.1899 787.65503 -276.677 1.8403113e-38
1382.38 803.64203 -276.70901 1.8403113e-38
1383.4 819.711 -276.67499 1.8403113e-38
1385 836.44299 -276.83801 1.8403113e-38
1383.37 850.89801 -275.88199 1.8403113e-38
1387.64 870.17603 -276.95001 1.8403113e-38
1387.92 886.56702 -276.64001 1.8403113e-38
1388.01 903.02802 -276.26199 1.8403113e-38
1387.1801 918.93701 -275.56 1.8403113e-38
1386.17 934.89801 -274.793 1.8403113e-38
1390.11 955.34003 -275.71201 1.8403113e-38
1392.35 974.64502 -276.04001 1.8403113e-38
1390.02 990.18298 -274.80499 1.8403113e-38
1389.67 1007.71 -274.23901 1.8403113e-38
1389.12 1025.3 -273.59799 1.8403113e-38
1391.9 1046.29 -274.08099 1.8403113e-38
1392.3199 1065.39 -273.75299 1.8403113e-38
1396.6801 1088.65 -274.75299 1.8403113e-38
1391.78 1103.16 -272.60901 1.8403113e-38
1392.1899 1123.1899 -272.258 1.8403113e-38
1395.76 1146.8 -272.961 1.8403113e-38
1397.01 1168.45 -272.871 1.8403113e-38
1403.98 1196.6 -274.69901 1.8403113e-38
1400.67 1214.21 -273.05399 1.8403113e-38
1405.02 1240.53 -273.97198 1.8403113e-38
1402.52 1259.72 -272.58499 1.8403113e-38
1399.8 1278.97 -271.11401 1.8403113e-38
1401.3101 1303.4399 -271.04901 1.8403113e-38
1403.14 1328.78 -271.07599 1.8403113e-38
1404.01 1353.49 -270.77301 1.8403113e-38
1408.27 1382.87 -271.58499 1.8403113e-38
1410.3 1410.13 -271.63901 1.8403113e-38
1415.01 1441.38 -272.56299 1.8403113e-38
1415.08 1467.4 -271.93799 1.8403113e-38
1419.5699 1499.76 -272.75601 1.8403113e-38
1420.6801 1528.39 -272.439 1.8403113e-38
1419.0699 1553.98 -271.215 1.8403113e-38
1425.1801 1590.8 -272.51099 1.8403113e-38
1426.8 1622.24 -272.31 1.8403113e-38
1426.87 1652.21 -271.582 1.8403113e-38
1428.1899 1684.74 -271.24799 1.8403113e-38
1430.17 1719.05 -271.10599 1.8403113e-38
1432.21 1754.33 -270.96301 1.8403113e-38
1436.98 1794.75 -271.67899 1.8403113e-38
1435.35 1826.22 -270.29999 1.8403113e-38
1445.75 1913.87 -271.87601 1.8403113e-38
1432.26 1856.13 -268.427 1.8403113e-38
1442.63 1945.77 -269.94601 1.8403113e-38
1440.09 1979.46 -268.17599 1.8403113e-38
1410.4 1967.0699 -257.707 1.8403113e-38
1385.87 1962.88 -248.90601 1.8403113e-38
1006.13 -3001.96 -235.52 1.8403113e-38
1341.34 1922.11 -233.759 1.8403113e-38
975.29602 -2982.8601 -223.845 1.8403113e-38
1323.5699 1928.42 -227.147 1.8403113e-38
942.82001 -2954.7 -211.347 1.8403113e-38
1303.4399 1930.1899 -219.795 1.8403113e-38
1289.3199 1943.13 -214.345 1.8403113e-38
1353.6801 2696.6799 -218.817 1.8403113e-38
913.02802 -2935.8701 -200.05701 1.8403113e-38
1271.01 1948.02 -207.57201 1.8403113e-38
1254.03 1955.39 -201.22 1.8403113e-38
889.84698 -2945.8999 -191.89101 1.8403113e-38
1235.6801 1959.91 -194.446 1.8403113e-38
1225.5 1981.22 -190.215 1.8403113e-38
1267.49 2209.47 -199.739 1.8403113e-38
872.74701 -3115.76 -189.942 1.8403113e-38
870.75897 -2976.1899 -185.72 1.8403113e-38
1215.47 2003.37 -186.01601 1.8403113e-38
1228.38 2075.9299 -188.886 1.8403113e-38
1210.02 2129.54 -180.87601 1.8403113e-38
1254.17 2509.3601 -187.381 1.8403113e-38
1267.5699 2607.4299 -189.786 1.8403113e-38
834.00403 -3051.0701 -174.252 1.8403113e-38
1188.51 2128.97 -173.077 1.8403113e-38
1231.8101 2578.25 -177.533 1.8403113e-38
1173.23 2142.8 -167.185 1.8403113e-38
1161.96 2166.6299 -162.493 1.8403113e-38
778.76801 -2887.8501 -150.10201 1.8403113e-38
1164.98 2461.6399 -156.192 1.8403113e-38
755.83502 -2896.6699 -141.99699 1.8403113e-38
1146.66 2475.3501 -149.196 1.8403113e-38
1129.8 2493.6201 -142.616 1.8403113e-38
727.04303 -2869.8701 -130.87 1.8403113e-38
1115.5601 2520.26 -136.77699 1.8403113e-38
1103.11 2553.45 -131.424 1.8403113e-38
1083.54 2565.7 -124.013 1.8403113e-38
692.81097 -2804.3301 -116.796 1.8403113e-38
1065.3101 2582.55 -116.969 1.8403113e-38
1059.05 2722.0801 -111.196 1.8403113e-38
1073.33 2859.71 -112.932 1.8403113e-38
665.87598 -2780.79 -106.426 1.8403113e-38
1046.86 2599.25 -109.85 1.8403113e-38
642.89203 -2782.6499 -98.127098 1.8403113e-38
619.65601 -2782.3201 -89.681702 1.8403113e-38
574.41199 -2790.9099 -73.468803 1.8403113e-38
592.28003 -2747.0901 -78.857903 1.8403113e-38
930.40002 2429.03 -71.833 1.8403113e-38
954.78101 2790.25 -71.627602 1.8403113e-38
549.565 -2774.04 -64.023499 1.8403113e-38
950.21198 2874.05 -67.867401 1.8403113e-38
525.78101 -2764.8701 -55.1576 1.8403113e-38
879.05103 2316.29 -56.0149 1.8403113e-38
873.72198 2375.8899 -52.5854 1.8403113e-38
502.43301 -2758.46 -46.5191 1.8403113e-38
479.05701 -2749.8301 -37.814701 1.8403113e-38
813.83002 2387.6299 -30.5438 1.8403113e-38
434.41501 -2757.8101 -21.805201 1.8403113e-38
456.19699 -2745.95 -29.4167 1.8403113e-38
417.323 -2859.25 -18.1425 1.8403113e-38
772.42401 2293.97 -17.8577 1.8403113e-38
720.56897 2234.2 -0.527964 1.8403113e-38
747.06201 2268.1499 -9.2962399 1.8403113e-38
383.26099 -2627.23 0.043437202 1.8403113e-38
360.63501 -2596.49 9.0302801 1.8403113e-38
665.70697 2145.74 17.1747 1.8403113e-38
685.70599 2153.8601 10.1163 1.8403113e-38
619.15997 1986.89 30.0928 1.8403113e-38
606.88202 2014.6 35.245701 1.8403113e-38
569.31201 1992.7 48.338299 1.8403113e-38
588.94702 2009.67 41.6343 1.8403113e-38
553.534 2000.26 54.257099 1.8403113e-38
545.70001 2067.1201 58.778301 1.8403113e-38
533.13501 2105.21 64.295898 1.8403113e-38
507.116 2034.99 71.982498 1.8403113e-38
507.17499 2190.0801 75.850197 1.8403113e-38
651.59601 4119.3999 71.790398 1.8403113e-38
491.19601 2212.98 82.226402 1.8403113e-38
620.04602 4150.4399 84.024597 1.8403113e-38
271.435 -634.93103 90.607697 1.8403113e-38
265.86801 -531.06702 95.233803 1.8403113e-38
274.00699 -517.87598 92.609299 1.8403113e-38
257.867 -495.12201 99.040199 1.8403113e-38
261.78 -495.11899 97.619598 1.8403113e-38
277.42899 -494.745 91.9468 1.8403113e-38
220.92999 -632.79401 109 1.8403113e-38
226.7 -621.14099 107.197 1.8403113e-38
237.233 -557.104 104.9785 1.8403113e-38
245.338 -516.896 103.044 1.8403113e-38
251.993 -495.55353 101.16251 1.8403113e-38
416.94199 2205.45 109 1.8403113e-38
444.26599 2321.75 101.995 1.8403113e-38
