# .PCD v0.7 - Point Cloud Data file format
VERSION 0.7
FIELDS x y z rgb
SIZE 4 4 4 4
TYPE F F F F
COUNT 1 1 1 1
WIDTH 358
HEIGHT 1
VIEWPOINT 0 0 0 1 0 0 0
POINTS 358
DATA ascii
1136.21 -3291.46 -290.01199 1.8403113e-38
1132.76 -3172.9199 -285.789 1.8403113e-38
1140.9301 -3007.3301 -284.60199 1.8403113e-38
1156.87 -2970.3701 -289.46301 1.8403113e-38
1160.76 -2896.4399 -289.02301 1.8403113e-38
1165.64 -2829.28 -289.108 1.8403113e-38
1167.3 -2755.6799 -287.867 1.8403113e-38
1172.92 -2697.29 -288.444 1.8403113e-38
1175.05 -2631.53 -287.56699 1.8403113e-38
1178.5 -2572.47 -287.34 1.8403113e-38
1183.79 -2520.99 -287.96899 1.8403113e-38
1186.5601 -2464.99 -287.57001 1.8403113e-38
1188.48 -2409.1399 -286.867 1.8403113e-38
1193.5601 -2363.55 -287.57001 1.8403113e-38
1201.6899 -2327.21 -289.60901 1.8403113e-38
1194.5 -2255.3601 -285.19601 1.8403113e-38
1198.58 -2212.8799 -285.61301 1.8403113e-38
1201.25 -2168.7 -285.47299 1.8403113e-38
1205.27 -2129.1499 -285.94199 1.8403113e-38
1205.04 -2081.6299 -284.66501 1.8403113e-38
1211.59 -2050.3401 -286.26099 1.8403113e-38
1213.47 -2010.22 -285.936 1.8403113e-38
1213.47 -1967.5699 -284.866 1.8403113e-38
1221.17 -1941.8 -287.01599 1.8403113e-38
1218.27 -1895.9 -284.81299 1.8403113e-38
1226.01 -1872 -287.026 1.8403113e-38
1224.7 -1831.62 -285.53699 1.8403113e-38
1228.41 -1801.77 -286.133 1.8403113e-38
1226.95 -1763.42 -284.64401 1.8403113e-38
1231.6801 -1737.1899 -285.70401 1.8403113e-38
1232.64 -1705.0601 -285.245 1.8403113e-38
1236.61 -1678.97 -286.03299 1.8403113e-38
1235.71 -1645.38 -284.86301 1.8403113e-38
1244.51 -1628.65 -287.64001 1.8403113e-38
1243.3101 -1596.1 -286.388 1.8403113e-38
1244.27 -1567.83 -286.02701 1.8403113e-38
1248.01 -1544.59 -286.80399 1.8403113e-38
1246.63 -1514.0601 -285.535 1.8403113e-38
1251.33 -1493.42 -286.72601 1.8403113e-38
1256.88 -1474.41 -288.26199 1.8403113e-38
1258.29 -1449.8101 -288.15799 1.8403113e-38
1246.99 -1407.8 -283.00101 1.8403113e-38
1248.17 -1384.3 -282.84201 1.8403113e-38
1249.62 -1361.66 -282.802 1.8403113e-38
1265.34 -1358.59 -288.43301 1.8403113e-38
1254 -1319.74 -283.33899 1.8403113e-38
1265.9 -1311.9301 -287.466 1.8403113e-38
1253.09 -1272.74 -281.83099 1.8403113e-38
1257.34 -1255.84 -282.95001 1.8403113e-38
1257.09 -1233.71 -282.30499 1.8403113e-38
1262.14 -1218.38 -283.75299 1.8403113e-38
1260.75 -1195.67 -282.67801 1.8403113e-38
1259.6899 -1173.8 -281.746 1.8403113e-38
1275.59 -1171.7 -287.46799 1.8403113e-38
1281.23 -1157.85 -289.16599 1.8403113e-38
1271.1 -1126.8 -284.70999 1.8403113e-38
1274.3199 -1110.9399 -285.483 1.8403113e-38
1276.04 -1093.7 -285.67401 1.8403113e-38
1272.88 -1071.63 -283.97198 1.8403113e-38
1276.84 -1057.3 -285.052 1.8403113e-38
1279.97 -1042.3 -285.811 1.8403113e-38
1280.1899 -1024.62 -285.44699 1.8403113e-38
1281.5699 -1008.35 -285.54199 1.8403113e-38
1281.38 -990.80298 -285.03201 1.8403113e-38
1278.17 -970.70599 -283.362 1.8403113e-38
1288.85 -963.78802 -287.06699 1.8403113e-38
1285.95 -944.48199 -285.53201 1.8403113e-38
1287.85 -929.776 -285.85101 1.8403113e-38
1279.46 -906.26001 -282.21399 1.8403113e-38
1286.05 -896.104 -284.354 1.8403113e-38
1283.75 -878.474 -283.078 1.8403113e-38
1284.9399 -864.01398 -283.146 1.8403113e-38
1278.53 -843.55402 -280.306 1.8403113e-38
1288.34 -836.42902 -283.68701 1.8403113e-38
1284.54 -818.55499 -281.85901 1.8403113e-38
1283.55 -803.151 -281.117 1.8403113e-38
1296.9 -798.78198 -285.854 1.8403113e-38
1283.37 -774.29901 -280.328 1.8403113e-38
1287 -735.06799 -280.66199 1.8403113e-38
1286.63 -721.164 -280.17801 1.8403113e-38
1289.41 -696.17798 -280.56201 1.8403113e-38
1290.22 -683.46997 -280.534 1.8403113e-38
1294.91 -673.35303 -281.98401 1.8403113e-38
1291.84 -645.58398 -280.17499 1.8403113e-38
1296.37 -598.00598 -280.62601 1.8403113e-38
1303.96 -471.79401 -280.215 1.8403113e-38
1305.28 -449.80899 -280.14499 1.8403113e-38
1314.95 -344.284 -281.01001 1.8403113e-38
1313.96 -322.82999 -280.11401 1.8403113e-38
1320.96 -241.62801 -280.61899 1.8403113e-38
1335.88 -2.59109 -280.04199 1.8403113e-38
1343.1899 77.850998 -280.67899 1.8403113e-38
1342.4399 87.862396 -280.15601 1.8403113e-38
1345.16 128.707 -280.11801 1.8403113e-38
1363.55 183.28799 -285.42801 1.8403113e-38
1350.8199 191.33501 -280.604 1.8403113e-38
1360.24 203.649 -283.715 1.8403113e-38
1364 214.979 -284.79599 1.8403113e-38
1364.77 236.40199 -284.539 1.8403113e-38
1365.17 257.91901 -284.14499 1.8403113e-38
1358.37 266.923 -281.45001 1.8403113e-38
1357.9 277.547 -281.01099 1.8403113e-38
1363.71 289.96899 -282.81 1.8403113e-38
1363.95 300.93799 -282.621 1.8403113e-38
1365.9399 323.513 -282.77899 1.8403113e-38
1374.97 371.34399 -284.85699 1.8403113e-38
1372.7 381.939 -283.76999 1.8403113e-38
1371.24 392.85101 -282.965 1.8403113e-38
1365.25 402.07199 -280.55701 1.8403113e-38
1372.45 416.41101 -282.81299 1.8403113e-38
1371.5699 427.72 -282.20999 1.8403113e-38
1372.35 439.76999 -282.189 1.8403113e-38
1368.63 450.01099 -280.582 1.8403113e-38
1370.9399 462.871 -281.09799 1.8403113e-38
1373.12 475.80701 -281.565 1.8403113e-38
1371.7 487.237 -280.76501 1.8403113e-38
1372.78 499.88599 -280.83801 1.8403113e-38
1376.3 513.82501 -281.76999 1.8403113e-38
1387.4 531.63898 -285.35199 1.8403113e-38
1386.02 556.25201 -284.23401 1.8403113e-38
1385.58 568.82098 -283.759 1.8403113e-38
1384.1801 580.97198 -282.944 1.8403113e-38
1377.62 590.39099 -280.328 1.8403113e-38
1382.6 619.41803 -281.40701 1.8403113e-38
1383.66 646.84698 -281.10501 1.8403113e-38
1383.98 660.64697 -280.87601 1.8403113e-38
1386.61 676.013 -281.44501 1.8403113e-38
1388.26 690.96503 -281.66901 1.8403113e-38
1093.13 -3237.1499 -273.009 1.8403113e-38
1107.61 -2985.04 -271.94501 1.8403113e-38
1282.66 -759.68799 -279.702 1.8403113e-38
1284.12 -746.815 -279.90799 1.8403113e-38
1286.9 -707.85699 -279.94199 1.8403113e-38
1285.77 -654.65002 -278.198 1.8403113e-38
1288.05 -630.60101 -278.42099 1.8403113e-38
1288.1899 -618.14001 -278.159 1.8403113e-38
1291.5 -607.61499 -279.09799 1.8403113e-38
1292.84 -583.78101 -278.98901 1.8403113e-38
1290 -570.11798 -277.61301 1.8403113e-38
1294.5601 -560.52698 -279.03 1.8403113e-38
1293.99 -548.29303 -278.51501 1.8403113e-38
1292.45 -535.68597 -277.63901 1.8403113e-38
1296.73 -526.07599 -278.953 1.8403113e-38
1295.8101 -513.96802 -278.31601 1.8403113e-38
1297.35 -503.12299 -278.60101 1.8403113e-38
1299.64 -492.68399 -279.172 1.8403113e-38
1294.9301 -479.15201 -277.12299 1.8403113e-38
1292.92 -455.797 -275.80701 1.8403113e-38
1300.97 -436.90799 -278.25699 1.8403113e-38
1300.9301 -425.84799 -277.96399 1.8403113e-38
1302.55 -415.49799 -278.29199 1.8403113e-38
1305.84 -405.80801 -279.246 1.8403113e-38
1297.52 -391.91901 -275.87601 1.8403113e-38
1306.86 -384.466 -279.07999 1.8403113e-38
1304.54 -372.91501 -277.94901 1.8403113e-38
1310.1801 -364.099 -279.77399 1.8403113e-38
1304.97 -351.75601 -277.57501 1.8403113e-38
1308.64 -331.78 -278.40399 1.8403113e-38
1310.15 -311.267 -278.44 1.8403113e-38
1309.87 -300.78201 -278.073 1.8403113e-38
1307.67 -289.85199 -277 1.8403113e-38
1311.76 -280.586 -278.254 1.8403113e-38
1313.95 -270.82599 -278.80499 1.8403113e-38
1316.0601 -261.047 -279.32599 1.8403113e-38
1305.23 -248.407 -275.07599 1.8403113e-38
1316.38 -230.48599 -278.67499 1.8403113e-38
1317.24 -220.511 -278.73599 1.8403113e-38
1318.01 -210.53799 -278.767 1.8403113e-38
1314.0699 -199.767 -277.065 1.8403113e-38
1315.39 -184.9465 -277.1745 1.8403113e-38
1318.41 -170.412 -277.90601 1.8403113e-38
1311.3101 -159.47301 -275.05499 1.8403113e-38
1322.77 -151.01601 -279.00201 1.8403113e-38
1320.16 -140.735 -277.798 1.8403113e-38
1316.53 -130.41499 -276.22198 1.8403113e-38
1322.17 -121.082 -278.034 1.8403113e-38
1320.24 -110.997 -277.082 1.8403113e-38
1325.73 -101.544 -278.836 1.8403113e-38
1322.7 -91.415703 -277.483 1.8403113e-38
1322.4 -81.519402 -277.12601 1.8403113e-38
1319.2 -71.493599 -275.71399 1.8403113e-38
1330.01 -62.112598 -279.40201 1.8403113e-38
1322.89 -51.9687 -276.564 1.8403113e-38
1327.91 -42.236801 -278.14001 1.8403113e-38
1323.4399 -32.2915 -276.26999 1.8403113e-38
1332.0601 -22.4844 -279.151 1.8403113e-38
1329.3101 -12.58 -277.90601 1.8403113e-38
1328.27 7.1819601 -277.034 1.8403113e-38
1330.92 17.156401 -277.746 1.8403113e-38
1330.67 27.0609 -277.40601 1.8403113e-38
1335.97 37.253502 -279.07599 1.8403113e-38
1334.62 47.145199 -278.336 1.8403113e-38
1336 57.212601 -278.58401 1.8403113e-38
1335.42 67.159599 -278.12399 1.8403113e-38
1336 97.261002 -277.57999 1.8403113e-38
1342.5699 108.079 -279.69501 1.8403113e-38
1338.77 117.727 -278.073 1.8403113e-38
1343.99 138.731 -279.44299 1.8403113e-38
1342.75 148.743 -278.73901 1.8403113e-38
1340.48 158.59 -277.67099 1.8403113e-38
1339.0699 168.567 -276.90799 1.8403113e-38
1346.46 221.696 -278.258 1.8403113e-38
1343.4399 241.95 -276.65201 1.8403113e-38
1356.83 309.75699 -279.81699 1.8403113e-38
1357.76 331.97601 -279.59698 1.8403113e-38
1352.23 341.203 -277.35699 1.8403113e-38
1357.4 354.017 -278.91199 1.8403113e-38
1369.28 535.177 -278.68201 1.8403113e-38
1376.01 602.52802 -279.43799 1.8403113e-38
1378.23 630.21503 -279.55099 1.8403113e-38
1380.87 700.28802 -278.75 1.8403113e-38
1378.22 712.685 -277.48001 1.8403113e-38
1382.65 729.89203 -278.65701 1.8403113e-38
1382.91 744.52698 -278.384 1.8403113e-38
1383.02 759.22198 -278.05301 1.8403113e-38
1382.96 773.974 -277.66299 1.8403113e-38
1383.53 789.34399 -277.48499 1.8403113e-38
1384.71 805.354 -277.51199 1.8403113e-38
1384.9399 820.86603 -277.207 1.8403113e-38
1385.77 837.02698 -277.10199 1.8403113e-38
1384.89 852.08197 -276.40601 1.8403113e-38
1387.64 870.17603 -276.95001 1.8403113e-38
1389.42 887.77802 -277.15601 1.8403113e-38
1388.76 903.64001 -276.51801 1.8403113e-38
1388.67 920.17603 -276.06799 1.8403113e-38
1387.65 936.151 -275.297 1.8403113e-38
1390.11 955.34003 -275.71201 1.8403113e-38
1392.35 974.64502 -276.04001 1.8403113e-38
1390.74 990.82898 -275.05099 1.8403113e-38
1396.13 1013.59 -276.435 1.8403113e-38
1391.26 1027.28 -274.32401 1.8403113e-38
1392.61 1046.96 -274.32001 1.8403113e-38
1392.3199 1065.39 -273.75299 1.8403113e-38
1391.8101 1083.9 -273.10501 1.8403113e-38
1392.46 1103.84 -272.84201 1.8403113e-38
1397.67 1128.72 -274.10699 1.8403113e-38
1395.76 1146.8 -272.961 1.8403113e-38
1397.6801 1169.15 -273.09698 1.8403113e-38
1404.65 1197.3101 -274.923 1.8403113e-38
1401.99 1215.65 -273.49799 1.8403113e-38
1399.12 1234.02 -271.99399 1.8403113e-38
1402.52 1259.72 -272.58499 1.8403113e-38
1401.73 1281.17 -271.76001 1.8403113e-38
1402.59 1304.92 -271.47501 1.8403113e-38
1403.77 1329.52 -271.28699 1.8403113e-38
1411.51 1362.52 -273.271 1.8403113e-38
1410.13 1385.14 -272.202 1.8403113e-38
1410.92 1410.9 -271.84201 1.8403113e-38
1410.15 1435.23 -270.95499 1.8403113e-38
1415.6801 1468.17 -272.13699 1.8403113e-38
1414.8199 1493.52 -271.18701 1.8403113e-38
1421.26 1529.17 -272.633 1.8403113e-38
1419.65 1554.77 -271.40701 1.8403113e-38
1425.1801 1590.8 -272.51099 1.8403113e-38
1427.9399 1623.85 -272.68301 1.8403113e-38
1427.4301 1653.02 -271.76599 1.8403113e-38
1428.1899 1684.74 -271.24799 1.8403113e-38
1430.72 1719.86 -271.284 1.8403113e-38
1433.3 1755.98 -271.315 1.8403113e-38
1437.51 1795.5699 -271.853 1.8403113e-38
1434.83 1825.39 -270.129 1.8403113e-38
1441.11 1906.3 -270.384 1.8403113e-38
1444.16 1948.3101 -270.435 1.8403113e-38
1433.3 1857.8 -268.763 1.8403113e-38
1445.6 1988.8199 -269.94199 1.8403113e-38
1415.34 1975.62 -259.28699 1.8403113e-38
1388.3101 1967.1801 -249.683 1.8403113e-38
1003.97 -2993.28 -234.51801 1.8403113e-38
1339.9 1919.52 -233.30099 1.8403113e-38
972.97498 -2973.1899 -222.75999 1.8403113e-38
1307.63 1938.04 -221.12 1.8403113e-38
1325.46 1931.89 -227.74699 1.8403113e-38
942.82001 -2954.7 -211.347 1.8403113e-38
1285.66 1936.11 -213.189 1.8403113e-38
1357.02 2704.98 -219.819 1.8403113e-38
915.40601 -2946.55 -201.188 1.8403113e-38
1250.47 1948.3101 -200.10699 1.8403113e-38
1271.46 1948.91 -207.714 1.8403113e-38
874.66803 -3125.53 -190.884 1.8403113e-38
890.05499 -2946.8701 -191.991 1.8403113e-38
1237.4301 1963.47 -194.992 1.8403113e-38
1225.0699 1980.3199 -190.082 1.8403113e-38
1267.9 2210.3799 -199.86501 1.8403113e-38
871.159 -2978.1399 -185.914 1.8403113e-38
1216.3101 2005.17 -186.278 1.8403113e-38
1227.14 2073.23 -188.502 1.8403113e-38
1210.02 2129.54 -180.87601 1.8403113e-38
1254.53 2510.28 -187.489 1.8403113e-38
1240.15 2600.6101 -180.002 1.8403113e-38
1267.92 2608.3601 -189.892 1.8403113e-38
832.16199 -3041.28 -173.338 1.8403113e-38
1188.9 2129.8799 -173.19701 1.8403113e-38
1174 2144.6399 -167.41901 1.8403113e-38
1161.2 2164.79 -162.265 1.8403113e-38
779.12 -2889.8101 -150.27901 1.8403113e-38
1165.66 2463.51 -156.392 1.8403113e-38
758.02002 -2909.4299 -143.11 1.8403113e-38
1147.65 2478.1699 -149.487 1.8403113e-38
1131.75 2499.27 -143.18201 1.8403113e-38
727.04303 -2869.8701 -130.87 1.8403113e-38
1117.78 2526.8701 -137.41701 1.8403113e-38
1104.04 2556.29 -131.69 1.8403113e-38
1081.4301 2559.0601 -123.414 1.8403113e-38
694.177 -2813.1899 -117.515 1.8403113e-38
1064.4301 2579.6899 -116.721 1.8403113e-38
1062.1 2732.6101 -112.043 1.8403113e-38
1074.14 2862.5901 -113.155 1.8403113e-38
665.87598 -2780.79 -106.426 1.8403113e-38
1047.14 2600.2 -109.93 1.8403113e-38
643.435 -2786.6001 -98.423203 1.8403113e-38
618.763 -2775.3899 -89.183899 1.8403113e-38
574.52399 -2791.8999 -73.534103 1.8403113e-38
593.354 -2756.01 -79.471603 1.8403113e-38
930.66199 2429.99 -71.904198 1.8403113e-38
954.78101 2790.25 -71.627602 1.8403113e-38
549.87402 -2777.02 -64.210503 1.8403113e-38
952.51801 2883.76 -68.461304 1.8403113e-38
525.97101 -2766.8601 -55.276402 1.8403113e-38
877.27002 2309.54 -55.537601 1.8403113e-38
870.271 2362.3501 -51.6717 1.8403113e-38
502.78 -2762.4299 -46.7449 1.8403113e-38
479.13599 -2750.8201 -37.868198 1.8403113e-38
816.27899 2398.3401 -31.1647 1.8403113e-38
434.478 -2758.8101 -21.8528 1.8403113e-38
456.267 -2746.95 -29.4673 1.8403113e-38
417.48499 -2862.24 -18.276501 1.8403113e-38
772.85303 2295.9199 -17.964701 1.8403113e-38
720.56897 2234.2 -0.527964 1.8403113e-38
747.47498 2270.1001 -9.3973503 1.8403113e-38
383.215 -2626.23 0.085119098 1.8403113e-38
360.70999 -2598.48 8.9528399 1.8403113e-38
339.08499 -2584.5 17.155701 1.8403113e-38
664.61102 2139.8501 17.424801 1.8403113e-38
685.51501 2152.8799 10.161 1.8403113e-38
620.20697 1992.8 29.8605 1.8403113e-38
605.38397 2005.74 35.567402 1.8403113e-38
569.46198 1993.6899 48.308498 1.8403113e-38
588.15503 2004.73 41.798199 1.8403113e-38
552.53802 1993.33 54.444901 1.8403113e-38
545.70001 2067.1201 58.778301 1.8403113e-38
532.883 2103.23 64.3377 1.8403113e-38
507.23401 2035.99 71.9646 1.8403113e-38
507.504 2193.0601 75.805496 1.8403113e-38
651.50299 4118.4102 71.799301 1.8403113e-38
491.50101 2215.97 82.190598 1.8403113e-38
619.19397 4140.4702 84.084297 1.8403113e-38
261.67599 -526.10999 96.879997 1.8403113e-38
257.798 -501.12 98.915001 1.8403113e-38
273.815 -508.883 92.904404 1.8403113e-38
267.67151 -498.0415 95.406952 1.8403113e-38
219.897 -647.758 109 1.8403113e-38
229.79601 -570.23499 107.349 1.8403113e-38
235.58501 -546.51801 105.842 1.8403113e-38
244.1015 -496.83899 103.995 1.8403113e-38
253.97501 -494.08899 100.48 1.8403113e-38
250.46201 -480.026 102.107 1.8403113e-38
416.80399 2203.45 109 1.8403113e-38
443.57199 2312.78 102.021 1.8403113e-38
