# .PCD v0.7 - Point Cloud Data file format
VERSION 0.7
FIELDS x y z rgb
SIZE 4 4 4 4
TYPE F F F F
COUNT 1 1 1 1
WIDTH 1234
HEIGHT 1
VIEWPOINT 0 0 0 1 0 0 0
POINTS 1234
DATA ascii
-705.19287 -414.77759 740 1.4841664e-38
-742.64526 -370.0863 750 1.2533181e-38
-745.77393 -350.33252 750 1.2719363e-38
-666.26807 -276.99207 730 1.400435e-38
-585.198 -213.52844 720 1.4656914e-38
-494.25098 -148.50049 700 1.465942e-38
-317.54077 -49.639526 670 1.4382483e-38
-292.60303 -15.315796 670 1.4012982e-38
-259.35303 30.449097 660 1.2902669e-38
-252.60474 51.767212 660 1.4754944e-39
-189.72412 102.22522 650 1.0586576e-38
-184.54028 133.42029 640 2.0742121e-38
-207.42285 150.04529 650 2.1116639e-38
-182.48511 184.36902 640 5.6351746e-39
-177.30127 215.56409 640 1.843914e-39
-170.55322 236.88214 640 1.3840134e-39
-175.24634 266.51282 640 1.6591803e-38
-178.375 286.26654 640 1.1432632e-38
-123.80664 325.28333 630 8.2961423e-39
-146.68921 341.90839 630 5.9930607e-39
-209.0791 352.276 640 2.6725929e-39
-213.77222 381.90668 640 2.3048865e-39
-169.08081 419.35907 630 3.3201091e-39
-104.63574 459.94019 620 2.952449e-39
-78.133789 484.38702 620 2.3048879e-39
-63.073242 517.14642 610 2.3981626e-39
-26.694336 543.15759 610 2.490361e-39
-11.633545 575.91693 610 2.8573401e-39
4.9914551 598.79944 600 2.8566282e-39
-27.768066 613.86011 610 2.7658675e-39
-119.78857 619.53467 620 2.6743921e-39
-192.05542 628.33795 630 2.6740306e-39
-206.62549 656.40424 630 2.7665864e-39
-199.8772 677.72235 630 2.5818364e-39
-224.32422 704.2243 640 2.5811189e-39
-286.71411 714.59192 650 2.4867597e-39
-311.16089 741.09387 650 4.9781941e-39
-342.35596 746.27771 650 9.7730927e-39
-396.43335 768.08655 660 1.0140082e-38
-448.94653 780.01855 670 8.4837972e-39
-493.14722 803.39172 680 7.5622053e-39
-517.59399 829.89368 680 9.2231503e-40
-551.91772 854.8313 680 8.2940474e-40
-505.66187 882.40686 680 9.219535e-40
-510.35498 912.03748 680 8.3047953e-40
453.95996 1024.2723 520 1.2907402e-39
470.58496 1047.1548 520 1.5673215e-39
478.89746 1058.5961 510 4.6105004e-39
505.39941 1083.043 510 1.3916853e-38
502.27075 1102.7966 510 1.0802365e-38
-152.82422 1211.6569 610 1.3460528e-38
-197.0249 1235.03 620 1.7975228e-38
-221.47168 1261.532 620 1.7884498e-38
-214.72363 1282.8501 620 1.788666e-38
-229.29346 1310.9164 620 1.2450003e-38
-212.66846 1333.7988 620 1.5951245e-38
-164.84839 1351.4976 610 1.3913677e-38
-138.34644 1375.9443 600 5.7082103e-39
-131.59814 1397.2625 600 7.6378207e-39
-114.97314 1420.145 600 1.2146406e-38
-106.66064 1431.5862 600 1.1874851e-38
-29.209961 1453.9779 590 1.2341957e-38
-11.020508 1466.9835 580 1.2527406e-38
26.922607 1483.1178 580 1.2623927e-38
-713.62915 2003.6782 680 2.7658731e-39
-749.51709 2038.4927 690 3.0413782e-39
-647.61963 2034.3826 670 2.5793266e-39
-642.43579 2065.5776 670 2.4892778e-39
-645.56445 2085.3313 670 2.4910785e-39
-638.81641 2106.6494 670 3.133934e-39
-643.50928 2136.28 670 3.134657e-39
-615.44312 2150.8501 660 2.9506161e-39
-651.33105 2185.6646 670 2.2031476e-38
-815.12793 2260.968 690 2.0097518e-38
-819.82104 2290.5986 690 2.2769751e-38
-749.11841 2291.6724 680 2.1108475e-38
-753.81152 2321.3027 680 1.668199e-38
-766.81714 2339.4922 680 1.7145121e-38
-718.99707 2357.1909 670 2.0188295e-38
-700.80762 2370.1965 670 2.3509886e-38
-684.18262 2393.0791 670 2.3232151e-38
-847.97949 2468.3823 690 2.3509886e-38
-916.62671 2518.2578 700 2.3509886e-38
-878.68359 2534.3921 690 2.3509886e-38
-862.05859 2557.2744 690 2.3509886e-38
351.41895 -885.27881 560 1.2913897e-38
302.03467 -893.10059 570 1.7059741e-38
290.59351 -884.78784 570 1.7612286e-38
277.58789 -866.59863 570 1.8071456e-38
272.89478 -836.96802 570 1.8165793e-38
287.95557 -804.2085 570 1.7615865e-38
276.51416 -795.896 570 1.6691373e-38
281.698 -764.70105 570 1.5676116e-38
250.50293 -759.51721 570 1.5674342e-38
-109.66577 -978.55713 630 1.6501932e-38
-112.79443 -958.80347 630 1.6872878e-38
-99.298096 -916.16724 630 1.7612232e-38
-102.42676 -896.41333 630 1.7151267e-38
-97.24292 -865.21851 630 1.7060136e-38
-73.869629 -821.01782 620 1.7150175e-38
-14.117676 -750.80603 610 1.7610434e-38
45.634277 -680.59424 600 1.7981742e-38
42.505615 -660.84045 600 1.1457469e-38
29.5 -642.65112 610 5.8072513e-39
52.873291 -598.45044 600 5.3466151e-39
31.555176 -591.70227 600 4.5193739e-39
-27.706055 -601.0885 610 4.5168544e-39
-22.522217 -569.89343 610 4.517939e-39
-71.906738 -577.71521 620 5.8075918e-39
-132.73242 -577.22449 630 5.6217684e-39
-148.8667 -539.28125 630 1.3637285e-38
-133.80591 -506.52197 630 1.5029323e-38
-166.56543 -491.4613 630 1.3646738e-38
-189.44775 -474.83618 630 1.2078694e-38
-182.69971 -453.51807 630 1.1707396e-38
-177.51587 -422.32312 630 1.1799206e-38
-284.59717 -449.40784 650 1.0682783e-38
-363.6123 -461.92273 660 1.2353825e-38
-404.68408 -458.30322 670 1.106202e-38
-429.13086 -431.80127 670 1.1063816e-38
-452.01343 -415.17627 670 1.1618416e-38
-455.14209 -395.42249 670 1.189177e-38
-431.7688 -351.22192 670 1.3179987e-38
-454.65137 -334.5968 670 1.4291723e-38
-619.42969 -380.94458 700 1.4289936e-38
-766.01855 -414.28687 720 1.1994041e-38
-704.70215 -353.9519 710 1.0426734e-38
-689.64136 -321.19263 710 8.6847182e-39
-590.38184 -244.72339 690 5.4643578e-39
-537.37793 -195.82971 680 1.3186104e-38
-426.67725 -127.6731 660 1.4381413e-38
-317.54077 -49.639526 640 1.3092114e-38
-312.35693 -18.44458 640 1.2814074e-38
-259.35303 30.449097 630 1.2538928e-38
-262.48169 50.202881 630 1.6591682e-39
-161.65771 116.79517 620 2.1009254e-38
-212.60645 118.85034 620 2.2393351e-38
-217.29956 148.48096 620 2.1756609e-38
-182.48511 184.36902 620 1.9372181e-39
-177.30127 215.56409 620 1.4758517e-39
-170.55322 236.88214 610 1.6595185e-39
-175.24634 266.51282 610 1.7700335e-38
-178.375 286.26654 610 1.1064207e-38
-123.80664 325.28333 610 7.6511429e-39
-146.68921 341.90839 610 5.8072345e-39
-199.20239 353.84039 620 2.765143e-39
-194.01855 385.0354 610 2.1204981e-39
-149.32715 422.48779 610 3.5945408e-39
-132.70215 445.37024 600 3.4130586e-39
-117.64136 478.12964 600 2.9484581e-39
-92.703857 512.45331 600 3.3165175e-39
-66.201904 536.90015 590 3.5931072e-39
-31.387451 572.78821 590 3.226847e-39
-24.63916 594.10632 580 2.9531426e-39
-27.768066 613.86011 580 2.6779865e-39
-90.157959 624.22772 590 2.8591435e-39
-182.17871 629.90228 610 2.766585e-39
-216.50244 654.8399 610 2.6740362e-39
-199.8772 677.72235 610 2.9498986e-39
-234.20093 702.65997 610 2.9502602e-39
-286.71411 714.59192 620 2.9502588e-39
-301.28394 742.6582 620 4.5193683e-39
-332.479 747.84204 630 1.0879072e-38
-366.80273 772.77966 630 9.4036081e-39
-419.31592 784.71161 640 8.1124994e-39
-473.39331 806.52051 650 7.5604018e-39
-458.33276 839.27985 640 8.2976067e-40
-451.58447 860.59796 640 9.2159616e-40
-416.77002 896.48602 640 9.219549e-40
444.08301 1022.708 500 1.1988991e-39
480.46191 1048.7192 500 1.4754888e-39
478.89746 1058.5961 500 4.334275e-39
505.39941 1083.043 490 1.15259e-38
502.27075 1102.7966 490 1.8442741e-39
-305.67065 1217.8221 610 6.2804095e-39
-238.09668 1238.6495 600 1.7786477e-38
-262.54346 1265.1515 600 1.7426049e-38
-224.60034 1281.2858 600 1.7241653e-38
-239.17041 1309.3521 600 1.1619146e-38
-222.54541 1332.2345 600 1.2450369e-38
-164.84839 1351.4976 590 1.0518574e-38
-126.90527 1367.6318 580 9.323629e-39
-121.72144 1398.8268 580 8.7697448e-39
-124.8501 1418.5806 580 7.2978629e-39
-127.97876 1438.3344 580 6.1925887e-39
1626.6709 1291.01 320 4.9007597e-39
1625.1066 1300.887 320 3.973784e-39
1623.5422 1310.7638 320 4.4282629e-39
-713.62915 2003.6782 650 2.9495399e-39
-760.95825 2046.8053 660 2.4900023e-39
-649.18408 2044.2594 640 2.6733215e-39
-640.87134 2055.7007 640 2.3034558e-39
-635.6875 2086.8955 640 1.844993e-39
-638.81641 2106.6494 640 2.9499084e-39
-622.19116 2129.5317 640 3.133934e-39
-594.125 2144.1018 630 2.9499014e-39
-587.37671 2165.4199 630 1.9636171e-38
-713.32251 2449.2114 640 2.3509886e-38
-760.65186 2492.3384 650 2.3509886e-38
-850.61743 2548.9619 660 2.3509886e-38
341.54224 -886.84302 540 1.2912452e-38
320.22412 -880.09497 550 1.6784973e-38
290.59351 -884.78784 550 1.7615141e-38
267.71094 -868.16284 550 1.7521144e-38
264.58228 -848.40918 550 1.7706259e-38
279.64282 -815.6499 550 1.71556e-38
266.63721 -797.46033 550 1.6140013e-38
271.82104 -766.26538 550 1.493785e-38
242.19043 -770.9585 550 1.5213008e-38
129.92529 -829.23828 570 1.5397741e-38
-99.788818 -976.99292 610 1.5490306e-38
-112.79443 -958.80347 610 1.6596661e-38
-117.48755 -929.17285 610 1.7151627e-38
-112.30371 -897.97778 610 1.6872167e-38
-115.43237 -878.22388 610 1.6689919e-38
-73.869629 -821.01782 600 1.6503378e-38
-14.117676 -750.80603 590 1.6781035e-38
82.013184 -654.58313 570 7.6684853e-39
60.695068 -647.83484 580 5.8079491e-39
39.376953 -641.08667 580 4.6108535e-39
16.494385 -624.46167 580 4.056242e-39
-6.3879395 -607.83667 590 4.5157796e-39
-83.838623 -630.22839 600 4.0558748e-39
-86.967529 -610.47461 600 3.8711262e-39
-99.9729 -592.28516 600 4.3346211e-39
-122.85547 -575.66016 600 5.714313e-39
-144.17358 -568.91199 610 6.6359077e-39
-94.29834 -500.26453 600 4.8888585e-39
-87.550293 -478.94641 590 1.4565819e-38
-120.30957 -463.88574 600 1.3645297e-38
-151.50464 -458.7019 600 1.1802115e-38
-154.6333 -438.94812 600 1.0511372e-38
-177.51587 -422.32312 610 9.5022525e-39
-266.40771 -436.40222 620 6.3579125e-39
-335.5459 -447.35278 630 4.9990818e-39
-358.42847 -430.72766 630 3.3327193e-39
-381.31079 -414.10266 640 2.6819493e-39
-414.07031 -399.04199 640 2.4010436e-39
-427.07568 -380.85254 640 2.030822e-39
-412.01514 -348.09314 640 1.7542351e-39
-454.65137 -334.5968 640 1.6609633e-39
-581.48633 -364.8103 660 1.6609605e-39
-708.32153 -395.0238 680 1.750638e-39
-656.88208 -336.2533 670 2.0265018e-39
-613.75513 -288.92395 670 1.9357467e-39
-532.68481 -225.46045 650 1.8442713e-39
-489.55786 -178.1311 640 1.3184666e-38
-380.42139 -100.09753 630 1.4197732e-38
-317.54077 -49.639526 620 8.8633543e-39
-312.35693 -18.44458 620 1.1802446e-38
-259.35303 30.449097 610 1.2169787e-38
-262.48169 50.202881 610 1.7524344e-39
-161.65771 116.79517 590 2.5987416e-39
-222.4834 117.28601 600 2.3196324e-39
-227.17651 146.91663 600 1.8575753e-39
-182.48511 184.36902 590 1.3822114e-39
-177.30127 215.56409 590 9.2231503e-40
-170.55322 236.88214 590 1.4751315e-39
-175.24634 266.51282 590 1.8350064e-38
-178.375 286.26654 590 1.0696859e-38
-133.68359 323.71899 580 6.7302684e-39
-166.44287 338.77966 590 5.4388107e-39
-209.0791 352.276 590 2.6729488e-39
-184.1416 386.59973 590 2.120138e-39
-178.95776 417.79474 590 2.7655074e-39
-172.20972 439.11285 590 2.7658703e-39
-167.02588 470.30786 580 2.5825594e-39
-140.52393 494.7547 580 2.7658661e-39
-105.70947 530.64276 570 2.6747509e-39
-98.961182 551.96088 570 2.4900065e-39
-113.53125 580.02716 570 2.2130595e-39
-126.53687 598.21655 580 2.2137727e-39
-60.527344 628.92084 570 1.8460776e-39
-154.1123 644.47223 580 1.478014e-39
-216.50244 654.8399 590 1.4772923e-39
-190.00049 679.28674 580 1.2914619e-39
-234.20093 702.65997 590 1.4747657e-39
-266.96045 717.72064 590 1.6580808e-39
-281.53027 745.78693 590 2.5807462e-39
-302.84839 752.5351 600 1.023083e-38
-337.17212 777.47266 600 9.7727368e-39
-399.56201 787.84033 610 8.0206611e-39
-463.51636 808.08484 620 7.3745686e-39
-428.7019 843.9729 610 8.2976347e-40
-421.95386 865.29102 610 9.2124024e-40
-385.57495 891.30225 610 7.3792798e-40
-309.68872 923.5708 590 1.0137946e-39
453.95996 1024.2723 480 1.2903773e-39
480.46191 1048.7192 480 1.6591584e-39
488.77441 1060.1604 480 4.4264636e-39
495.52246 1081.4785 480 1.115604e-38
512.14771 1104.3611 470 1.4754916e-39
-305.67065 1217.8221 590 5.0675577e-39
-238.09668 1238.6495 580 1.613055e-38
-262.54346 1265.1515 580 1.6967216e-38
-224.60034 1281.2858 570 1.6594127e-38
-249.04712 1307.7877 580 2.7691143e-39
-253.74023 1337.4183 580 2.1183359e-39
-186.1665 1358.2457 570 3.4962271e-39
-126.90527 1367.6318 560 4.4153037e-39
-121.72144 1398.8268 560 4.9670313e-39
-134.72705 1417.0162 560 3.4998242e-39
1626.6709 1291.01 310 7.9133146e-39
1625.1066 1300.887 310 8.0030075e-39
1623.5422 1310.7638 310 1.3158006e-38
1621.9778 1320.6406 310 2.3473278e-38
-766.14209 2015.6104 640 2.7658675e-39
-659.06079 2042.6951 620 2.949184e-39
-642.43579 2065.5776 620 1.6613178e-39
-645.56445 2085.3313 620 2.2116245e-39
-650.25757 2114.9619 620 3.2225395e-39
-622.19116 2129.5317 610 3.0424544e-39
-584.24805 2145.6663 610 3.0413796e-39
247.64917 1943.3131 490 2.1577637e-38
189.36938 2055.5784 500 1.9911354e-38
187.80518 2065.4551 500 2.3509886e-38
-785.09863 2518.8403 630 2.3509872e-38
386.2334 -849.39062 510 1.2819539e-38
346.72607 -855.64795 520 1.6967597e-38
317.09546 -860.34106 520 1.7613352e-38
277.58789 -866.59863 530 1.7429671e-38
264.58228 -848.40918 530 1.7154166e-38
269.76611 -817.21411 530 1.6968337e-38
266.63721 -797.46033 530 1.5952743e-38
263.50854 -777.70667 530 1.4387189e-38
233.87793 -782.39966 530 1.4937491e-38
138.23779 -817.79688 550 1.475489e-38
-81.599365 -963.9873 580 1.5400623e-38
-112.79443 -958.80347 580 1.7148383e-38
-125.80005 -940.61401 590 1.6689211e-38
-138.80566 -922.42456 590 1.6136039e-38
-133.62183 -891.22949 580 1.6595194e-38
-92.059082 -834.02344 580 1.5951633e-38
-50.496582 -776.81726 570 7.6713482e-39
100.20264 -641.57751 550 3.8750891e-39
60.695068 -647.83484 550 3.597419e-39
84.068359 -603.63428 550 3.4119516e-39
24.806885 -613.02039 560 3.4105124e-39
3.4887695 -606.27222 560 3.1328493e-39
-73.961914 -628.66394 570 2.86094e-39
-115.03369 -625.04456 580 3.5931058e-39
-109.84985 -593.84949 580 3.4119502e-39
-94.789062 -561.09021 570 4.1487893e-39
-125.98413 -555.90637 580 4.8863516e-39
-64.667725 -495.57141 570 6.358602e-39
-79.237793 -467.50513 570 9.1388538e-39
-118.74536 -473.76257 570 1.3736047e-38
-151.50464 -458.7019 580 1.8457133e-39
-174.38721 -442.07678 580 2.1197792e-39
-205.58203 -436.89307 580 2.1194149e-39
-266.40771 -436.40222 590 2.2123336e-39
-297.60278 -431.21851 600 2.3048921e-39
-302.2959 -401.58777 600 2.3052509e-39
-315.30151 -383.39844 600 3.1317689e-39
-329.87134 -355.33215 600 3.8675305e-39
-342.87695 -337.1427 600 2.3963731e-39
-347.57007 -307.51208 600 2.3963703e-39
-436.46191 -321.59131 610 2.5807602e-39
-553.42017 -350.24036 630 2.1205009e-39
-642.31201 -364.31958 640 1.8449972e-39
-599.18506 -316.99023 640 1.9368369e-39
-557.62256 -259.78406 630 1.9361208e-39
-484.86475 -207.76172 620 3.2210905e-39
-451.61475 -161.99683 610 1.2724758e-38
-360.66772 -96.968872 600 1.4104101e-38
-307.66382 -48.075195 590 1.3832946e-39
-312.35693 -18.44458 590 1.2925381e-39
-259.35303 30.449097 580 1.6609591e-39
-252.60474 51.767212 580 1.8435553e-39
-151.78101 118.35962 570 1.660243e-39
-212.60645 118.85034 570 1.7517156e-39
-217.29956 148.48096 570 1.5676886e-39
-182.48511 184.36902 570 1.2903773e-39
-167.42456 217.12842 570 1.3825799e-39
-170.55322 236.88214 570 1.5666012e-39
-175.24634 266.51282 570 1.8905086e-38
-168.49805 287.83093 560 1.0327725e-38
-133.68359 323.71899 560 6.3614929e-39
-166.44287 338.77966 560 5.3466123e-39
-199.20239 353.84039 570 2.305604e-39
-184.1416 386.59973 560 2.119775e-39
-178.95776 417.79474 560 1.566967e-39
-182.08643 437.54846 560 1.3825729e-39
-165.46143 460.43097 560 1.2903773e-39
-140.52393 494.7547 560 1.7499163e-39
-105.70947 530.64276 550 1.9346677e-39
-98.961182 551.96088 550 2.119059e-39
-121.84375 568.58594 550 2.1190646e-39
-136.41357 596.65222 550 2.2119734e-39
-60.527344 628.92084 540 2.5811119e-39
-162.4248 633.03101 560 2.3045306e-39
-236.2561 651.71118 570 2.3048879e-39
-170.24658 682.41541 560 2.2130524e-39
-253.95483 699.53125 570 2.4903624e-39
-237.32959 722.4137 560 2.1222946e-39
-260.21216 739.03876 570 3.0435222e-39
-283.09473 755.66382 570 9.5897748e-39
-296.10034 773.85321 570 9.8642205e-39
-360.05469 794.09778 580 8.2039747e-39
-443.7627 811.2135 590 7.3745658e-39
-417.26074 835.6604 590 7.3828531e-40
-402.19995 868.41974 580 7.3756644e-40
-365.82129 894.43091 580 9.2159616e-40
506.47314 1012.3404 460 1.0145079e-39
463.83691 1025.8367 460 1.1985432e-39
490.33887 1050.2836 460 1.3832932e-39
488.77441 1060.1604 460 4.3346253e-39
485.64575 1079.9142 460 8.6703815e-39
502.27075 1102.7966 460 2.2119931e-39
-251.59302 1196.0133 560 1.2262396e-38
-234.96802 1218.8958 550 3.7835997e-39
-197.0249 1235.03 550 1.5761417e-38
-211.59473 1263.0963 550 1.6871067e-38
-194.96973 1285.9788 550 5.6455709e-39
-219.4165 1312.4807 550 3.8854825e-39
-232.42212 1330.6702 550 2.2116091e-39
-196.04346 1356.6814 550 4.3234668e-39
-126.90527 1367.6318 540 5.4355653e-39
-121.72144 1398.8268 530 6.4378412e-39
1636.5477 1292.5743 300 7.4706879e-39
1634.9834 1302.4513 300 8.6620438e-39
1623.5422 1310.7638 300 1.1151261e-38
1621.9778 1320.6406 300 1.7349374e-38
1631.8547 1322.2051 300 1.3734224e-38
-659.06079 2042.6951 590 2.5818392e-39
-642.43579 2065.5776 590 2.3945738e-39
-657.00586 2093.6438 590 2.580407e-39
-650.25757 2114.9619 590 3.7810942e-39
-632.06812 2127.9675 590 2.9495441e-39
-584.24805 2145.6663 580 2.8577086e-39
580.42676 1823.9011 430 1.3655298e-38
342.79858 1917.8848 460 2.3509886e-38
42.780518 2022.2361 500 2.3509886e-38
67.718262 2056.5598 500 2.0555304e-38
107.22583 2062.8171 490 2.1936401e-38
200.81079 2047.2657 480 2.0464878e-38
219.00024 2060.2715 470 2.3509886e-38
248.63086 2064.9644 470 2.2215519e-38
245.50195 2084.7183 470 2.3509886e-38
394.54614 -837.94946 490 1.2177414e-38
364.91528 -842.64258 490 1.6966172e-38
343.59717 -835.89429 500 1.7612265e-38
295.7771 -853.59302 500 1.6784663e-38
264.58228 -848.40918 510 1.0439738e-38
269.76611 -817.21411 510 6.7540624e-39
258.32471 -808.90161 510 1.3282301e-38
245.31909 -790.71216 510 1.4201356e-38
214.12427 -785.52844 510 1.4017326e-38
148.11475 -816.23267 520 1.4751657e-38
-73.286865 -952.5459 550 1.5860148e-38
-122.67139 -960.36768 560 1.6596651e-38
-143.9895 -953.61963 560 1.6779958e-38
-156.99487 -935.43018 560 1.576903e-38
-151.81128 -904.23511 560 1.5398453e-38
-110.24854 -847.02905 560 1.4570138e-38
-78.562744 -791.38721 550 4.4257392e-39
82.013184 -654.58313 530 3.9651239e-39
60.695068 -647.83484 530 3.5952666e-39
102.25781 -590.62866 520 2.9491784e-39
52.873291 -598.45044 530 3.5012689e-39
39.867676 -580.26111 530 3.3179595e-39
-64.084961 -627.09961 550 3.1342843e-39
-115.03369 -625.04456 550 3.041374e-39
-210.67383 -660.44189 560 2.950256e-39
-408.70215 -752.55457 590 3.4097908e-39
-158.74365 -540.8457 560 4.6097661e-39
-199.81543 -537.2262 560 5.3469682e-39
-174.87793 -502.90247 560 7.851345e-39
-143.19214 -447.26062 550 3.684207e-39
-182.69971 -453.51807 560 2.489282e-39
-233.64844 -451.46301 560 2.2134294e-39
-312.66333 -463.97778 570 2.5818406e-39
-335.5459 -447.35278 580 2.2130595e-39
-320.48511 -414.59338 570 2.3048907e-39
-315.30151 -383.39844 570 2.4964609e-39
-329.87134 -355.33215 570 2.31315e-39
-352.75391 -338.70703 580 2.3059782e-39
-347.57007 -307.51208 570 2.3059782e-39
-426.58496 -320.02686 590 1.9371984e-39
-535.23071 -337.23474 600 1.8446329e-39
-576.30273 -333.61536 600 1.8449986e-39
-552.92944 -289.41479 600 1.7531659e-39
-527.99194 -255.09106 600 1.845e-39
-446.92163 -191.62744 590 1.0683439e-38
-413.67163 -145.86243 580 1.3826794e-38
-342.47827 -83.963257 570 1.3643118e-38
-307.66382 -48.075195 560 1.1981845e-39
-312.35693 -18.44458 560 1.0152309e-39
-249.47607 32.013428 560 1.4744084e-39
-242.72803 53.331665 550 1.0148736e-39
-171.53467 115.23083 540 1.7509995e-39
-212.60645 118.85034 550 1.5676858e-39
-227.17651 146.91663 550 1.2911018e-39
-182.48511 184.36902 540 1.4744112e-39
-167.42456 217.12842 540 1.2907416e-39
-170.55322 236.88214 540 1.6598773e-39
-165.36938 268.07715 540 1.9180276e-38
-168.49805 287.83093 540 9.960386e-39
-133.68359 323.71899 540 6.545517e-39
-166.44287 338.77966 540 4.7945175e-39
-199.20239 353.84039 540 2.3974423e-39
-184.1416 386.59973 540 2.0279381e-39
-169.08081 419.35907 540 2.5807546e-39
-182.08643 437.54846 540 2.0279451e-39
-175.33838 458.86664 540 2.0283053e-39
-140.52393 494.7547 530 2.1208582e-39
-115.58618 529.07837 530 2.580756e-39
-108.83813 550.39648 530 2.5803986e-39
-131.7207 567.02155 530 2.397801e-39
-136.41357 596.65222 530 2.2148545e-39
-60.527344 628.92084 520 2.0301017e-39
-162.4248 633.03101 530 1.5709228e-39
-206.62549 656.40424 540 1.2943416e-39
-160.36963 683.9798 530 1.2010711e-39
-214.44727 705.78864 540 1.1077909e-39
-187.94531 730.23547 530 1.1077853e-39
-210.82764 746.86053 540 1.1063476e-39
-253.46411 760.35687 540 6.7410696e-39
-266.46948 778.54626 540 9.1295366e-39
-350.17773 795.66211 550 7.1033795e-39
-443.7627 811.2135 560 7.0075825e-39
-407.38379 837.22473 560 9.219563e-40
-402.19995 868.41974 560 9.2159757e-40
-355.94434 895.99524 550 9.219563e-40
-280.05811 928.26385 540 8.301222e-40
526.22681 1015.4691 440 9.2231503e-40
483.59058 1028.9655 440 1.1985418e-39
490.33887 1050.2836 440 1.3829358e-39
488.77441 1060.1604 440 3.6870993e-39
485.64575 1079.9142 440 2.1226715e-39
502.27075 1102.7966 440 1.8446343e-39
530.33691 1117.3666 430 7.4713927e-39
-217.26929 1171.0757 530 1.0874785e-38
-210.52124 1192.3938 530 1.2813039e-38
-213.6499 1212.1476 530 6.630566e-39
-157.51733 1241.2875 520 1.4841267e-38
-191.84106 1266.2251 520 1.5951981e-38
-185.09277 1287.5432 520 1.6409375e-38
-188.22168 1307.297 520 4.6065333e-39
-222.54541 1332.2345 530 4.2312698e-39
-205.92017 1355.1169 520 4.2327061e-39
-128.46948 1377.5087 510 3.2217982e-39
1636.5477 1292.5743 290 3.3136379e-39
1634.9834 1302.4513 290 3.3143525e-39
1633.4191 1312.3281 290 4.33101e-39
1633.4191 1312.3281 290 1.3825e-38
1621.9778 1320.6406 290 1.3550546e-38
-649.18408 2044.2594 570 2.4892834e-39
-642.43579 2065.5776 560 2.6733145e-39
-657.00586 2093.6438 570 2.5818378e-39
-638.81641 2106.6494 560 3.5981379e-39
-622.19116 2129.5317 560 2.5821923e-39
-584.24805 2145.6663 560 2.8573499e-39
611.62158 1818.7173 410 1.0800106e-38
406.75293 1897.6403 430 2.3509886e-38
213.32544 1968.2507 460 2.3509886e-38
146.24243 2008.249 470 2.3507339e-38
164.43188 2021.2546 460 2.3497994e-38
172.74438 2032.6958 460 2.3137799e-38
233.57007 2032.2051 450 2.1937489e-38
240.31836 2053.5232 450 2.3509886e-38
333.90332 2037.9717 440 2.3509527e-38
311.02075 2054.5967 440 2.3509874e-38
394.54614 -837.94946 470 1.1165428e-38
373.22803 -831.20117 470 1.650663e-38
361.78662 -822.88867 470 1.6873985e-38
312.40234 -830.71045 480 3.3299532e-39
274.45898 -846.84473 480 2.0279535e-39
271.33032 -827.09106 480 1.9371942e-39
258.32471 -808.90161 480 2.1233848e-39
245.31909 -790.71216 490 9.2260034e-39
205.81177 -796.9696 490 1.3647822e-38
148.11475 -816.23267 500 1.4751641e-38
-73.286865 -952.5459 530 1.5675774e-38
-130.98389 -971.80908 530 1.6963274e-38
-152.302 -965.06079 540 1.6226788e-38
-175.18433 -948.43579 540 1.5212639e-38
-170.00049 -917.24072 540 1.4844913e-38
-128.43799 -860.03467 530 4.8918531e-39
-123.25415 -828.8396 530 3.2264855e-39
55.51123 -679.02991 510 3.5027067e-39
60.695068 -647.83484 510 2.8576988e-39
120.44702 -577.62317 500 2.8573443e-39
89.252197 -572.43933 500 2.8577016e-39
76.246582 -554.24988 500 3.2254023e-39
-19.393555 -589.64722 510 3.1335654e-39
-115.03369 -625.04456 530 2.8580603e-39
-210.67383 -660.44189 540 2.9495357e-39
-372.32349 -726.54346 560 3.1350031e-39
-423.27222 -724.48828 560 2.9513392e-39
-418.08838 -693.29333 560 3.2257652e-39
-449.2832 -688.1095 570 4.6987261e-39
-444.09961 -656.91443 570 6.1731317e-39
-151.50464 -458.7019 530 5.7128808e-39
-313.1543 -524.80347 550 2.8580645e-39
-588.6333 -639.30786 580 2.3048935e-39
-601.63892 -621.11853 580 2.2123406e-39
-569.95312 -565.47668 580 2.3041789e-39
-554.89233 -532.71729 580 2.2123392e-39
-531.51929 -488.51672 570 3.1411058e-39
-516.4585 -455.75732 570 2.4925134e-39
-436.95264 -382.41687 560 2.2123378e-39
-403.70264 -336.65198 560 2.1205023e-39
-454.65137 -334.5968 560 2.0283095e-39
-525.35376 -335.67041 570 2.0283067e-39
-538.35938 -317.48108 570 1.8453629e-39
-514.98633 -273.2804 570 1.9361194e-39
-490.04858 -238.95679 560 1.5673341e-39
-418.85547 -177.0575 550 1.1798486e-38
-385.60522 -131.29248 550 1.0517475e-38
-342.47827 -83.963257 540 9.5879644e-39
-297.78687 -46.510864 540 1.1059902e-39
-302.47998 -16.880127 540 1.2900186e-39
-249.47607 32.013428 530 1.6577179e-39
-214.66162 67.901611 520 1.3822156e-39
-132.0271 121.48828 510 1.105986e-39
-204.29395 130.2915 520 2.0268647e-39
-227.17651 146.91663 530 1.9422683e-39
-172.6084 185.93335 520 1.2903801e-39
-167.42456 217.12842 520 1.566967e-39
-160.67627 238.44647 520 1.7513596e-39
-165.36938 268.07715 520 1.9457616e-38
-168.49805 287.83093 520 1.0699047e-38
-133.68359 323.71899 510 6.1771002e-39
-176.31982 337.21533 520 4.8852796e-39
-199.20239 353.84039 520 2.4889219e-39
-174.26465 388.16406 520 2.1197806e-39
-178.95776 417.79474 510 2.2112644e-39
-191.96338 435.98413 520 1.1067091e-39
-185.21533 457.30225 510 9.2267516e-40
-150.40088 493.19031 510 8.301194e-40
-125.46313 527.51404 510 8.2975787e-40
-108.83813 550.39648 500 1.2896584e-39
-121.84375 568.58594 510 1.3818554e-39
-126.53687 598.21655 510 1.5662411e-39
-60.527344 628.92084 500 1.7495562e-39
-114.60474 650.72968 500 1.9343118e-39
-176.99487 661.09729 510 1.9353894e-39
-150.49292 685.54413 510 2.3034516e-39
-174.9397 712.04608 510 2.3045334e-39
-158.3147 734.92853 510 2.5804e-39
-181.19702 751.55359 510 2.8580659e-39
-213.95654 766.61426 510 3.2275631e-39
-236.83887 783.23938 510 1.9364642e-39
-340.30078 797.22644 530 3.2279148e-39
-433.88574 812.77789 540 6.8221151e-39
-417.26074 835.6604 530 8.2976487e-40
-402.19995 868.41974 530 8.2940194e-40
-336.19067 899.12396 520 8.2976207e-40
460.21729 984.76489 430 1.0137904e-39
506.47314 1012.3404 420 9.2231643e-40
483.59058 1028.9655 420 1.1981831e-39
490.33887 1050.2836 420 1.2910976e-39
488.77441 1060.1604 420 3.412676e-39
485.64575 1079.9142 420 2.0279423e-39
502.27075 1102.7966 420 3.3179567e-39
510.58325 1114.2379 420 3.5052304e-39
568.28027 1133.501 410 2.3509886e-38
616.10034 1151.1996 400 1.3001013e-38
-95.618164 1170.0942 490 1.0787972e-38
-200.64429 1193.9581 500 1.1063854e-38
-174.14233 1218.405 500 9.3092419e-39
-126.32227 1236.1036 490 1.4840556e-38
-160.646 1261.0413 500 1.677671e-38
-153.89795 1282.3594 500 1.6317179e-38
-168.46777 1310.4257 500 1.5765799e-38
-202.7915 1335.3633 500 5.4344961e-39
-184.60205 1348.3688 500 6.6215094e-39
-107.15137 1370.7605 490 6.4526193e-39
1636.5477 1292.5743 280 8.3865695e-39
1636.5477 1292.5743 280 6.6359231e-39
1634.9834 1302.4513 280 9.8537416e-39
1633.4191 1312.3281 280 1.4558611e-38
1631.8547 1322.2051 280 1.364059e-38
-642.43579 2065.5776 540 2.4885673e-39
-666.88257 2092.0796 540 2.215565e-39
-638.81641 2106.6494 540 2.6736775e-39
-622.19116 2129.5317 540 2.5818378e-39
632.9397 1811.9692 390 9.1441689e-39
418.19434 1889.3278 420 2.1752732e-38
277.28003 1948.0062 430 2.258431e-38
177.4375 2003.0652 440 2.3506621e-38
175.87305 2012.9421 440 2.3506998e-38
172.74438 2032.6958 440 2.3508077e-38
264.76514 2027.0212 430 2.3509886e-38
304.27271 2033.2787 430 2.3509886e-38
376.53955 2024.4753 420 2.3509886e-38
352.09277 2050.9773 420 2.3509886e-38
404.42285 -836.38501 450 7.284545e-39
364.91528 -842.64258 450 1.4389735e-38
361.78662 -822.88867 450 1.2738867e-38
340.46851 -816.14062 450 1.7528044e-39
292.64844 -833.83911 460 1.6602528e-39
269.76611 -817.21411 460 1.7520827e-39
266.63721 -797.46033 460 1.5684159e-39
255.19604 -789.14783 460 2.3056236e-39
205.81177 -796.9696 470 1.3095358e-38
148.11475 -816.23267 480 1.4846359e-38
-81.599365 -963.9873 500 1.5583574e-38
-130.98389 -971.80908 510 1.6135662e-38
-172.05566 -968.18945 510 1.558357e-38
-203.25073 -963.00562 520 1.4844203e-38
-188.18994 -930.24634 520 1.4659796e-38
-146.62744 -873.04028 510 3.5048717e-39
-133.1311 -830.40405 510 3.4119446e-39
55.51123 -679.02991 480 2.766222e-39
69.007568 -636.39368 480 2.580756e-39
120.44702 -577.62317 470 2.5803986e-39
89.252197 -572.43933 480 2.7655018e-39
67.934082 -565.69116 480 3.041374e-39
-17.829346 -599.52405 490 3.2243219e-39
-115.03369 -625.04456 500 2.6740264e-39
-192.48438 -647.43628 510 3.2243275e-39
-334.38013 -710.40906 530 2.7651472e-39
-413.39526 -722.92395 540 2.9499014e-39
-454.46704 -719.30444 540 3.4115886e-39
-505.41602 -717.24939 550 3.9651253e-39
-546.48779 -713.62988 550 4.5161369e-39
-625.50293 -726.14478 560 1.3065459e-38
-696.20532 -727.21838 570 1.8140868e-38
-695.7146 -666.3927 570 4.3270709e-39
-634.39819 -606.05786 560 2.5800413e-39
-629.21436 -574.86279 560 2.5803986e-39
-605.84106 -530.66223 560 5.1525044e-39
-610.53418 -501.03162 550 2.3041761e-39
-549.21777 -440.69666 550 2.3041761e-39
-478.02466 -378.79749 540 1.9364768e-39
-472.84082 -347.60242 540 2.0275878e-39
-497.2876 -321.10046 540 1.8439182e-39
-510.29321 -302.91113 540 1.7524456e-39
-486.91992 -258.71045 540 1.6609717e-39
-481.73608 -227.5155 540 1.6595227e-39
-400.66602 -164.05188 520 1.2350229e-38
-375.72827 -129.72815 520 1.1243158e-38
-342.47827 -83.963257 520 1.2068949e-38
-299.35132 -36.633911 510 1.0137932e-39
-292.60303 -15.315796 510 1.0145121e-39
-249.47607 32.013428 510 2.0250584e-39
-196.47217 80.907104 500 1.2903787e-39
-151.78101 118.35962 490 1.1059888e-39
-194.41724 131.85596 500 2.9542048e-39
-227.17651 146.91663 500 2.0337353e-39
-172.6084 185.93335 490 1.4751301e-39
-167.42456 217.12842 490 1.5673327e-39
-160.67627 238.44647 490 1.475493e-39
-165.36938 268.07715 490 1.9457629e-38
-158.62109 289.39526 490 1.125079e-38
-133.68359 323.71899 490 6.2693014e-39
-176.31982 337.21533 490 4.7930839e-39
-199.20239 353.84039 490 2.4928847e-39
-174.26465 388.16406 490 4.9022241e-39
-187.27026 406.35352 490 2.5825552e-39
-191.96338 435.98413 490 2.4882044e-39
-175.33838 458.86664 490 2.5803986e-39
-140.52393 494.7547 480 2.4885659e-39
-115.58618 529.07837 480 2.5803986e-39
-108.83813 550.39648 480 2.5818336e-39
-121.84375 568.58594 480 2.672953e-39
-126.53687 598.21655 480 2.7651542e-39
-50.650391 630.48517 470 2.8577058e-39
-75.097168 656.98712 470 3.1328521e-39
-127.61035 668.91907 480 3.4101593e-39
-130.73901 688.67285 480 3.1353675e-39
-145.30908 716.73914 480 3.1332137e-39
-148.43774 736.49292 480 3.3201217e-39
-181.19702 751.55359 480 3.3194014e-39
-223.83325 765.04993 490 3.5037941e-39
-246.71582 781.67499 490 2.7655228e-39
-350.17773 795.66211 500 3.7810956e-39
-433.88574 812.77789 510 6.3625761e-39
-428.7019 843.9729 510 5.4355877e-39
-402.19995 868.41974 510 5.6206866e-39
461.78174 974.88794 410 6.4511704e-39
479.97119 987.89355 410 6.730281e-39
506.47314 1012.3404 400 7.6515226e-39
493.46753 1030.5298 400 8.2043363e-39
490.33887 1050.2836 400 1.7517198e-39
498.65137 1061.7249 400 2.1222917e-39
495.52246 1081.4785 400 7.5622697e-39
502.27075 1102.7966 400 2.1204911e-39
510.58325 1114.2379 400 5.8976701e-39
537.08521 1138.6847 400 2.3509865e-38
584.90527 1156.3834 390 1.2630789e-38
603.09473 1169.389 390 1.1338266e-38
-149.69556 1191.9031 470 4.4304882e-39
-133.07056 1214.7855 470 7.2852624e-39
-75.373535 1234.0486 460 1.401476e-38
-89.943604 1262.1149 470 1.5489548e-38
-93.072266 1281.8687 470 4.4337153e-39
-86.323975 1303.1868 460 1.8442699e-39
-140.40161 1324.9956 470 5.7024384e-39
-123.77637 1347.8781 470 6.8058964e-39
1636.5477 1292.5743 270 5.5356951e-39
1636.5477 1292.5743 270 5.9033902e-39
1634.9834 1302.4513 270 3.6896133e-39
1633.4191 1312.3281 270 1.4285625e-38
1631.8547 1322.2051 270 1.4378529e-38
1640.1672 1333.6462 270 7.4736208e-39
-719.39575 2104.0115 520 1.4758461e-39
978.72278 1674.3678 340 2.4907155e-39
977.15833 1684.2446 340 2.5811175e-39
932.95776 1707.6179 340 3.1332165e-39
482.14868 1869.0833 390 2.3231131e-38
424.94238 1910.6459 400 2.3509863e-38
252.83301 1974.5081 410 2.3509877e-38
239.82739 1992.6975 420 2.3509872e-38
277.77075 2008.8318 410 2.3509886e-38
351.60181 1990.1516 400 2.3509886e-38
391.10938 1996.4092 400 2.3509886e-38
399.42188 2007.8503 400 2.3509886e-38
384.85205 2035.9166 400 2.3509886e-38
404.42285 -836.38501 430 3.1375339e-39
374.79224 -841.07812 430 1.3264993e-38
370.09912 -811.44751 430 2.8610395e-39
348.78101 -804.69922 430 1.566974e-39
300.96094 -822.39795 440 1.4758602e-39
279.64282 -815.6499 440 1.7517226e-39
276.51416 -795.896 440 1.6602458e-39
255.19604 -789.14783 440 2.2134196e-39
205.81177 -796.9696 450 1.0233648e-38
156.42725 -804.7915 450 1.4293188e-38
-45.220459 -937.97607 470 1.5581417e-38
-121.10693 -970.24463 480 1.5583936e-38
-180.36816 -979.63086 490 1.5305542e-38
-211.56323 -974.44702 490 1.4660176e-38
-198.06689 -931.81079 490 1.4472895e-38
-156.50415 -874.60449 490 3.1339227e-39
-141.4436 -841.84521 480 2.6736691e-39
45.634277 -680.59424 460 2.4889205e-39
32.628662 -662.40479 460 2.6736705e-39
93.945068 -602.06995 450 2.9480966e-39
62.750244 -596.88611 460 2.8566212e-39
29.990723 -581.82544 460 3.0417271e-39
0.36010742 -586.51855 460 3.1342871e-39
-95.280029 -621.91577 470 2.7651486e-39
-174.29492 -634.43066 480 2.7644256e-39
-307.87817 -685.96228 500 2.7651472e-39
-385.32886 -708.354 510 3.2257638e-39
-454.46704 -719.30444 510 3.13465e-39
-505.41602 -717.24939 520 2.7676696e-39
-546.48779 -713.62988 520 1.1421398e-38
-689.948 -766.72583 540 1.3631949e-38
-732.09351 -692.40393 540 1.6117968e-38
-662.4646 -620.62781 530 1.6024334e-38
-648.96826 -577.99158 530 1.6022173e-38
-633.90747 -545.23218 530 1.5272758e-38
-620.41113 -502.59595 530 4.2363214e-39
-568.97168 -443.82544 520 2.3981794e-39
-469.71216 -367.3562 510 2.0279507e-39
-454.65137 -334.5968 510 1.8442769e-39
-487.41064 -319.53613 510 1.8446343e-39
-500.41626 -301.34668 510 1.7524526e-39
-477.04297 -257.14612 510 1.7524512e-39
-481.73608 -227.5155 510 1.7506394e-39
-390.78906 -162.48755 500 7.0158558e-39
-365.85156 -128.16382 490 6.7335082e-39
-322.72461 -80.834473 490 6.1774491e-39
-279.59741 -33.505249 480 9.219563e-40
-292.60303 -15.315796 480 1.1978257e-39
-249.47607 32.013428 480 1.9335817e-39
-176.71851 84.035889 470 1.1989033e-39
-151.78101 118.35962 470 1.1981845e-39
-174.66333 134.98462 470 1.1063476e-39
-217.29956 148.48096 470 1.3829316e-39
-172.6084 185.93335 470 1.4747741e-39
-157.54761 218.69275 470 1.475493e-39
-160.67627 238.44647 470 1.6595227e-39
-155.49243 269.64148 470 1.9366505e-38
-158.62109 289.39526 470 1.2172385e-38
-133.68359 323.71899 460 6.1771016e-39
-176.31982 337.21533 470 4.6101332e-39
-199.20239 353.84039 470 1.058768e-38
-184.1416 386.59973 470 2.950263e-39
-187.27026 406.35352 470 1.0295648e-38
-191.96338 435.98413 470 6.904936e-39
-165.46143 460.43097 460 3.1400464e-39
-120.77002 497.88336 460 2.9625173e-39
-95.83252 532.20709 460 3.1342997e-39
-98.961182 551.96088 460 3.0431789e-39
-103.6543 581.59149 460 3.0424586e-39
-106.78296 601.34528 460 3.0428159e-39
-60.527344 628.92084 450 3.134657e-39
-75.097168 656.98712 450 3.4112355e-39
-147.36426 665.79041 460 3.4108838e-39
-140.61597 687.10852 460 3.1357332e-39
-145.30908 716.73914 460 3.5030738e-39
-138.56079 738.05725 460 3.4116012e-39
-171.32031 753.11792 460 3.3193986e-39
-213.95654 766.61426 460 3.5037941e-39
-256.59277 780.11066 470 3.0424586e-39
-369.9314 792.53339 480 3.5045101e-39
-433.88574 812.77789 490 5.4424274e-39
-468.20947 837.71545 490 5.7161333e-39
624.50488 970.28699 370 5.8094079e-39
542.36108 977.52594 380 7.0061546e-39
519.47876 994.151 380 7.2848897e-39
526.22681 1015.4691 380 7.5618395e-39
524.66235 1025.3459 380 8.2050579e-39
511.65698 1043.5354 380 1.8431937e-39
508.52808 1063.2892 380 1.1888155e-38
505.39941 1083.043 380 1.1625241e-38
512.14771 1104.3611 380 1.115638e-38
510.58325 1114.2379 380 4.7898441e-39
517.33154 1135.556 380 1.2581282e-38
533.95654 1158.4385 380 1.1984709e-38
552.146 1171.4441 380 3.7897697e-39
93.606934 1189.9401 420 3.223959e-39
-21.296143 1212.2396 440 3.4083586e-39
-14.547852 1233.5579 440 1.1529065e-38
-38.994873 1260.0597 440 1.5213337e-38
-42.123535 1279.8135 440 3.5966889e-39
-4.1801758 1295.9478 430 1.9350236e-39
2.5678711 1317.2659 430 5.8853919e-39
1636.5477 1292.5743 260 1.2443854e-38
1634.9834 1302.4513 260 1.3181444e-38
1634.9834 1302.4513 260 6.1655759e-39
1633.4191 1312.3281 260 1.5205414e-38
1641.7316 1323.7694 260 1.0143683e-38
1640.1672 1333.6462 260 5.1629595e-39
1000.0409 1667.6196 320 2.489282e-39
1009.9177 1669.184 320 2.4892848e-39
964.15283 1702.4341 330 3.1350101e-39
577.29785 1843.6549 360 2.2775174e-38
552.85107 1870.1569 370 2.3509867e-38
475.89111 1908.5908 370 2.3507006e-38
462.8855 1926.7802 370 2.3509881e-38
471.198 1938.2214 370 2.3509886e-38
468.06934 1957.9751 370 2.3509886e-38
464.94067 1977.729 370 2.3509886e-38
463.37622 1987.6058 370 2.3509886e-38
448.8064 2015.6721 370 2.3509886e-38
394.54614 -837.94946 410 9.0240034e-39
364.91528 -842.64258 410 1.4202453e-38
370.09912 -811.44751 410 4.1473852e-39
357.09351 -793.25806 410 1.5684103e-39
327.46289 -797.95117 410 1.3840261e-39
279.64282 -815.6499 420 1.568053e-39
276.51416 -795.896 420 1.7524414e-39
253.63184 -779.271 420 1.8442811e-39
205.81177 -796.9696 420 2.5836412e-39
184.49365 -790.22144 430 1.3553823e-38
-112.79443 -958.80347 460 1.5765804e-38
-162.17871 -966.62524 460 1.5488856e-38
-203.25073 -963.00562 470 1.4289943e-38
-207.94385 -933.375 460 7.301823e-39
-164.81665 -886.04565 460 2.5807504e-39
-141.4436 -841.84521 460 2.3048907e-39
55.51123 -679.02991 440 2.5803916e-39
24.316162 -673.84607 440 2.5807504e-39
74.191406 -605.19861 430 2.856624e-39
71.062744 -585.44495 430 3.4090719e-39
29.990723 -581.82544 440 3.3186783e-39
18.549561 -573.51294 440 3.3179581e-39
-86.967529 -610.47461 450 2.6729544e-39
-156.10547 -621.42505 450 1.6591626e-39
-233.5564 -643.81677 460 1.0159526e-39
-302.69434 -654.76721 470 1.3832932e-39
-408.21143 -691.72888 480 2.119775e-39
-477.34961 -702.67944 490 4.9738725e-39
-519.98584 -689.18311 490 7.2773199e-39
-681.6355 -755.28467 510 8.4747743e-39
-751.84717 -695.53259 510 1.1050851e-38
-682.21826 -623.75647 510 8.4736967e-39
-667.15747 -590.99707 500 1.0034889e-38
-653.66113 -548.36084 500 1.1973148e-38
-638.60059 -515.60156 500 1.3539385e-38
-587.16113 -456.83093 490 1.2892219e-38
-487.90137 -380.36182 480 1.1774019e-38
-464.52832 -336.16125 480 5.8890002e-39
-487.41064 -319.53613 480 3.1314214e-39
-501.98071 -291.46985 480 3.406209e-39
-467.16626 -255.58179 480 6.6233255e-39
-490.04858 -238.95679 480 4.4235517e-39
-380.91211 -160.92322 470 1.7635986e-39
-355.97461 -126.59949 470 1.1062007e-38
-312.84766 -79.270142 460 9.4068185e-39
-269.7207 -31.940918 460 8.301194e-40
-282.72632 -13.751465 460 1.0145121e-39
-249.47607 32.013428 450 1.933939e-39
-176.71851 84.035889 450 1.1985432e-39
-151.78101 118.35962 440 1.1059902e-39
-164.78662 136.54895 440 1.1067105e-39
-217.29956 148.48096 450 1.0141533e-39
-172.6084 185.93335 440 1.5673285e-39
-157.54761 218.69275 440 1.4754916e-39
-150.79932 240.01086 440 1.7510009e-39
-155.49243 269.64148 440 1.8723664e-38
-148.74438 290.95959 440 1.2271761e-38
-133.68359 323.71899 440 6.2682294e-39
-128.49976 354.914 440 4.7937986e-39
-141.50537 373.10339 440 3.5048829e-39
-174.26465 388.16406 440 3.0431761e-39
-149.32715 422.48779 440 3.0424558e-39
-182.08643 437.54846 440 3.4079943e-39
-185.21533 457.30225 440 3.40836e-39
-120.77002 497.88336 430 3.5023521e-39
-115.58618 529.07837 430 3.8700557e-39
-118.71509 548.83215 430 4.3292345e-39
-121.84375 568.58594 430 5.4330584e-39
-116.65991 599.78088 430 3.2272128e-39
-90.157959 624.22772 430 3.2272114e-39
-75.097168 656.98712 430 3.4115998e-39
-137.4873 667.35474 430 3.5027193e-39
-130.73901 688.67285 430 3.5030752e-39
-135.43213 718.30347 430 3.4115998e-39
-148.43774 736.49292 430 3.3201161e-39
-181.19702 751.55359 440 3.3197615e-39
-223.83325 765.04993 440 3.5037941e-39
-246.71582 781.67499 440 3.0431761e-39
-340.30078 797.22644 450 3.5952694e-39
-404.25513 817.47095 460 5.6242964e-39
657.26416 955.22632 350 5.3466291e-39
644.25854 973.41571 350 6.0856318e-39
571.9917 982.21899 360 5.9955942e-39
558.98608 1000.4084 360 7.0079455e-39
557.42188 1010.2853 360 7.1015844e-39
554.29321 1030.0391 360 8.2057726e-39
541.2876 1048.2285 360 2.6718698e-39
528.28198 1066.4178 360 4.2586497e-39
525.15332 1086.1716 360 1.1622028e-38
523.58887 1096.0485 360 7.3648576e-39
510.58325 1114.2379 360 4.9897226e-39
507.45459 1133.9917 360 6.170629e-39
524.07959 1156.8741 360 3.1342801e-39
542.26904 1169.8798 360 3.1447436e-39
519.38647 1186.5048 360 5.5198436e-39
69.160156 1216.442 410 9.7705423e-39
15.082764 1238.2509 410 7.0132914e-39
-17.676514 1253.3115 410 1.4013362e-38
-22.369629 1282.9423 410 2.212328e-39
5.6965332 1297.5122 410 1.6577221e-39
32.198486 1321.959 410 5.9772232e-39
1639.6765 1272.8207 250 2.7637011e-39
1638.1122 1282.6975 250 2.030822e-39
1636.5477 1292.5743 250 1.8467909e-39
1634.9834 1302.4513 250 2.1215701e-39
1634.9834 1302.4513 250 3.0399222e-39
1643.2959 1313.8925 250 1.0140802e-38
1641.7316 1323.7694 250 6.0856346e-39
1640.1672 1333.6462 250 5.1629511e-39
1638.6029 1343.5232 250 4.3346407e-39
1637.0386 1353.4 250 6.4450775e-39
1643.7867 1374.7181 250 5.3631896e-39
1652.0992 1386.1594 250 1.3290933e-38
1652.0992 1386.1594 250 2.3509886e-38
1650.5349 1396.0363 250 2.3509886e-38
1634.8914 1494.8051 250 2.7644452e-39
580.91748 1884.7268 350 2.3509884e-38
556.47046 1911.2288 350 2.3509886e-38
574.65991 1924.2344 350 2.3509886e-38
519.01807 1955.92 350 2.3509886e-38
430.61694 2002.6665 360 2.3509886e-38
384.85205 2035.9166 360 2.3509886e-38
386.2334 -849.39062 390 1.2447126e-38
364.91528 -842.64258 390 1.14409e-38
370.09912 -811.44751 390 5.2551621e-39
366.97046 -791.69373 390 5.3408837e-39
335.77539 -786.50989 390 1.5680516e-39
287.95557 -804.2085 390 1.4762147e-39
266.63721 -797.46033 400 1.6602556e-39
255.19604 -789.14783 400 1.6598941e-39
215.68848 -795.40527 400 2.2130623e-39
192.80615 -778.78027 400 1.3367255e-38
116.91968 -811.04883 410 1.5582842e-38
-68.103027 -921.35107 430 1.5399534e-38
-135.67676 -942.17847 430 1.511935e-38
-193.37378 -961.44141 440 1.4199182e-38
-198.06689 -931.81079 440 2.4911738e-39
-164.81665 -886.04565 430 2.3052537e-39
-143.00781 -831.96826 430 2.0286598e-39
55.51123 -679.02991 410 2.2123322e-39
32.628662 -662.40479 410 2.3052439e-39
47.689453 -629.64551 410 2.6729488e-39
44.560791 -609.89172 410 3.2268358e-39
-14.700439 -619.27783 420 3.5027095e-39
0.36010742 -586.51855 420 3.0431704e-39
-77.090576 -608.91028 420 2.6729572e-39
-146.22876 -619.86072 430 2.1204939e-39
-187.30054 -616.24121 430 2.0268605e-39
-218.49561 -611.05737 440 1.565525e-39
-305.82324 -635.01355 440 2.3931277e-39
-412.90454 -662.09827 450 3.230873e-39
-463.85327 -660.04321 460 2.5811091e-39
-579.24707 -698.56921 470 3.2261184e-39
-770.03662 -708.53821 490 7.0003616e-39
-690.53076 -635.19775 480 8.4715302e-39
-685.34692 -604.00269 480 9.4881933e-39
-661.97388 -559.80212 470 1.0135e-38
-648.47729 -517.16589 470 9.5800386e-39
-597.03784 -458.39539 470 8.9350237e-39
-497.77832 -381.92615 460 8.0155814e-39
-464.52832 -336.16125 450 8.6602249e-39
-487.41064 -319.53613 450 9.1197681e-39
-482.22681 -288.34119 450 9.0275641e-39
-467.16626 -255.58179 450 1.0688871e-38
-499.92554 -240.52112 450 9.2119609e-39
-390.78906 -162.48755 440 3.3168651e-39
-365.85156 -128.16382 440 1.0971248e-38
-304.53516 -67.828979 440 2.7749115e-39
-259.84375 -30.376465 430 8.2940334e-40
-274.41382 -2.3101807 430 1.0141519e-39
-249.47607 32.013428 430 1.7502708e-39
-166.84155 85.60022 420 1.2907416e-39
-141.90405 119.92395 420 1.2907388e-39
-146.59717 149.55457 420 1.29002e-39
-217.29956 148.48096 420 1.1989075e-39
-172.6084 185.93335 420 1.1992593e-39
-147.67065 220.25708 420 1.3832904e-39
-142.48682 251.45209 420 1.9353852e-39
-145.61548 271.20587 420 1.7987891e-38
-140.43188 302.40088 420 1.1713918e-38
-123.80664 325.28333 410 5.7164822e-39
-118.6228 356.47833 410 6.4615778e-39
-141.50537 373.10339 420 2.5825594e-39
-164.38794 389.72845 420 2.9506245e-39
-139.4502 424.05212 410 2.2105259e-39
-172.20972 439.11285 420 2.3469143e-38
-175.33838 458.86664 420 1.0603547e-38
-110.89331 499.44775 410 6.4677351e-39
-95.83252 532.20709 410 4.8085879e-39
-118.71509 548.83215 410 3.7929814e-39
-121.84375 568.58594 410 3.0550591e-39
-116.65991 599.78088 410 3.135013e-39
-129.66553 617.97034 410 3.3190455e-39
-114.60474 650.72968 410 3.4105208e-39
-216.50244 654.8399 420 3.3194056e-39
-150.49292 685.54413 410 3.50415e-39
-125.55518 719.86786 410 2.7673122e-39
-197.82227 728.67114 410 3.2275687e-39
-141.6897 757.81104 410 3.3190399e-39
-283.09473 755.66382 420 3.4108838e-39
-226.96216 784.80371 420 3.0417425e-39
663.52173 915.71875 340 3.4115998e-39
670.26978 937.03687 340 4.9778508e-39
657.26416 955.22632 340 5.3469878e-39
654.1355 974.9801 340 5.6246537e-39
591.74561 985.34772 340 5.8104785e-39
580.3042 993.66022 340 5.5310133e-39
577.17554 1013.414 340 7.1901787e-39
574.04688 1033.1677 340 6.4590835e-39
561.04126 1051.3572 340 1.6595185e-39
538.15869 1067.9822 340 1.6598787e-39
535.03003 1087.736 340 2.5796714e-39
533.46582 1097.6129 340 2.6758285e-39
520.46021 1115.8022 350 5.1733865e-39
517.33154 1135.556 350 1.1732163e-38
524.07959 1156.8741 340 1.0600687e-38
552.146 1171.4441 340 9.6765755e-39
549.01709 1191.1979 340 1.1157102e-38
516.25781 1206.2585 340 9.2152302e-39
72.779541 1257.5139 380 1.134869e-38
59.77417 1275.7032 380 6.071581e-39
66.522217 1297.0214 380 2.0257815e-39
42.075439 1323.5233 390 4.5074923e-39
-123.77637 1347.8781 400 5.9768673e-39
1631.364 1261.3794 250 2.3002076e-39
1629.7996 1271.2562 250 2.02542e-39
1628.2352 1281.1332 250 1.5676886e-39
1636.5477 1292.5743 250 1.6588053e-39
1636.5477 1292.5743 240 2.124084e-39
1644.8604 1304.0156 240 7.3716609e-39
1643.2959 1313.8925 240 4.9807234e-39
1651.6085 1325.3337 240 5.1633182e-39
1650.0442 1335.2106 240 4.9796528e-39
1650.0442 1335.2106 240 4.6101374e-39
1658.3567 1346.6519 240 1.01448e-38
1656.7924 1356.5288 240 4.4250329e-39
1655.2279 1366.4056 240 4.7030645e-39
1665.1049 1367.97 240 5.3484423e-39
1683.2942 1380.9756 240 2.3509886e-38
1683.2942 1380.9756 240 2.3509886e-38
1681.7299 1390.8524 240 2.3509886e-38
1691.6068 1392.4167 240 2.3509886e-38
1699.9193 1403.858 240 2.3509886e-38
1698.355 1413.7349 240 2.5807602e-39
1696.7905 1423.6118 240 2.3967262e-39
1695.2262 1433.4886 240 2.3041775e-39
1683.785 1441.8013 240 2.3041677e-39
1682.2206 1451.6781 240 2.3045292e-39
1682.2206 1451.6781 240 2.3041691e-39
1680.6562 1461.5549 240 2.3963675e-39
1667.6506 1479.7444 240 2.4878457e-39
1644.7682 1496.3694 240 2.2130567e-39
1623.4501 1503.1177 240 2.1201408e-39
1484.1001 1551.9192 250 2.3974479e-39
1430.0227 1573.728 260 3.6903349e-39
1331.7446 1618.9102 270 1.0809567e-38
602.2356 1877.9786 330 1.2374366e-38
331.84814 1987.0229 350 1.2926833e-38
543.46509 1929.4182 330 1.3020458e-38
379.66821 2004.7217 350 1.3571117e-38
279.82568 2059.7805 350 1.3295605e-38
224.18384 2091.4663 360 1.3757293e-38
386.2334 -849.39062 360 1.2078691e-38
373.22803 -831.20117 360 7.0134035e-39
370.09912 -811.44751 360 5.1611602e-39
376.84741 -790.12939 360 6.7295705e-39
355.5293 -783.38123 370 5.7161431e-39
296.26807 -792.76733 370 2.0279507e-39
258.32471 -808.90161 370 1.6606129e-39
245.31909 -790.71216 370 1.5676914e-39
214.12427 -785.52844 380 2.2123434e-39
202.68286 -777.21582 380 1.0510944e-38
181.36475 -770.46765 380 1.5123302e-38
122.10352 -779.85388 380 1.5581422e-38
-71.231689 -901.59717 400 1.4661612e-38
-156.99487 -935.43018 410 1.401587e-38
-179.87744 -918.80518 410 2.7640738e-39
-156.50415 -874.60449 410 2.4896351e-39
-123.25415 -828.8396 400 2.211972e-39
55.51123 -679.02991 390 2.3956458e-39
32.628662 -662.40479 390 2.3960032e-39
29.5 -642.65112 390 2.7651416e-39
34.683838 -611.45605 390 3.0417327e-39
-14.700439 -619.27783 390 3.041374e-39
-9.5166016 -588.08289 390 2.765506e-39
-58.901123 -595.90466 400 2.3967262e-39
-91.6604 -580.84399 400 2.7651458e-39
-122.85547 -575.66016 400 2.6733061e-39
-154.05054 -570.47632 400 2.8569785e-39
-213.31177 -579.86243 410 1.1329535e-38
-320.39307 -606.94727 420 1.7520785e-39
-407.7207 -630.90332 430 2.0290395e-39
-645.25659 -729.27344 450 2.0301199e-39
-760.15967 -706.97388 450 2.2119706e-39
-682.21826 -623.75647 450 2.9491685e-39
-677.03442 -592.56152 450 4.9735067e-39
-653.66113 -548.36084 440 6.4464732e-39
-638.60059 -515.60156 440 7.2758695e-39
-577.28418 -455.2666 440 6.5390262e-39
-487.90137 -380.36182 430 6.2635183e-39
-454.65137 -334.5968 420 6.1706052e-39
-459.34448 -304.96619 430 5.985858e-39
-492.10376 -289.90552 430 5.8068547e-39
