# .PCD v0.7 - Point Cloud Data file format
VERSION 0.7
FIELDS x y z rgb
SIZE 4 4 4 4
TYPE F F F F
COUNT 1 1 1 1
WIDTH 1250
HEIGHT 1
VIEWPOINT 0 0 0 1 0 0 0
POINTS 1250
DATA ascii
4796.0815 4056.4204 1400 1.1437001e-38
4786.6953 3997.1592 1380 1.1436267e-38
4762.7393 3909.8315 1350 1.0974206e-38
4792.3701 3905.1384 1350 1.0790896e-38
4784.5483 3855.7539 1330 1.088237e-38
4883.8999 3971.6387 1370 1.0697255e-38
4871.3848 3892.6235 1350 1.0604339e-38
5038.8936 4119.209 1440 1.0052608e-38
5135.1162 4215.3398 1480 9.8682086e-39
5112.7246 4137.8896 1450 9.7756571e-39
4944.1426 3840.6013 1330 9.5909029e-39
5157.416 4100.437 1440 8.9469698e-39
5122.0186 4004.7969 1400 9.1302694e-39
5128.7666 3983.4788 1390 9.3121482e-39
5146.9561 3970.4731 1390 8.5774586e-39
5124.5645 3893.0225 1360 8.483828e-39
5180.2061 3924.7083 1380 8.3916226e-39
5211.4014 3929.8921 1380 7.9299312e-39
5228.0264 3907.0095 1370 7.7458931e-39
5246.2158 3894.0039 1370 8.4831022e-39
5303.4219 3935.5667 1390 8.7629219e-39
5271.1533 3859.6802 1360 1.0049353e-38
5248.7617 3782.2295 1330 1.0328108e-38
5266.9512 3769.2239 1320 1.1066742e-38
3168.696 5863.2456 1920 9.95857e-39
3204.0015 5766.5317 1880 9.8670974e-39
3242.4353 5689.5718 1860 1.0049329e-38
3275.6855 5643.8071 1850 1.0141889e-38
3302.6782 5558.5347 1820 1.0232646e-38
3337.4927 5522.6465 1800 1.0050414e-38
3373.8716 5496.6353 1800 1.0418833e-38
3416.5078 5510.1318 1800 1.0142612e-38
3447.7026 5515.3154 1810 1.0235518e-38
3491.9033 5538.6885 1820 1.0051857e-38
3542.3613 5601.5693 1840 1.0328444e-38
3558.4036 5447.1587 1790 1.0787626e-38
3577.0837 5373.3276 1770 1.0789065e-38
3622.8486 5406.5776 1780 1.1064934e-38
3687.3857 5558.3506 1840 1.1157129e-38
3107.3188 1448.4937 360 1.9187519e-38
3121.8889 1476.5601 370 1.8634353e-38
3134.8945 1494.7495 380 1.863543e-38
3151.0288 1532.6926 390 1.8545029e-38
3175.4756 1559.1946 410 1.8913447e-38
3191.6099 1597.1377 420 1.8729776e-38
3207.7441 1635.0809 430 1.9739967e-38
3233.7554 1671.4597 450 1.8912012e-38
3262.895 1727.5923 470 1.9738532e-38
3290.4707 1773.8481 490 1.9094966e-38
3285.7776 1744.2174 480 1.9464819e-38
3284.2134 1734.3406 470 1.9001695e-38
3295.6545 1742.6531 480 1.9645979e-38
5136.251 5500.9912 1900 1.4390164e-38
5159.624 5456.7905 1880 1.6602483e-38
5199.6226 5389.7075 1860 2.3509886e-38
5221.9219 5274.8042 1820 1.383411e-38
4712.9561 4170.833 1410 1.3190509e-38
4716.5757 4129.7607 1390 1.2452953e-38
4733.2007 4106.8784 1390 1.2269273e-38
4749.8257 4083.9958 1380 1.2360383e-38
4768.0151 4070.9902 1380 1.1807213e-38
4796.0815 4056.4204 1370 1.1619947e-38
4786.6953 3997.1592 1350 1.116148e-38
4762.7393 3909.8315 1320 1.1160043e-38
4792.3701 3905.1384 1320 1.1067118e-38
4758.5371 3819.3752 1290 1.0698335e-38
4841.7544 3897.3167 1320 1.042247e-38
5089.3516 4182.0898 1430 1.0328471e-38
5175.6973 4279.7852 1470 9.8682072e-39
5124.166 4146.2021 1420 9.7752927e-39
4892.1201 3767.8438 1280 9.4994219e-39
5067.9414 3982.988 1360 9.4979884e-39
5135.0244 4022.9863 1380 9.2214001e-39
5166.2192 4028.1702 1380 8.6700158e-39
5169.8389 3987.0981 1370 8.8518931e-39
5109.9946 3864.9561 1320 8.8508071e-39
5155.7598 3898.2063 1340 8.2068824e-39
5173.9492 3885.2007 1330 7.8377356e-39
5162.9985 3816.0625 1310 7.5618633e-39
5199.377 3790.0513 1300 8.6674976e-39
3170.2605 5873.1226 1880 1.0141882e-38
3202.437 5756.6548 1840 1.0140449e-38
3240.8711 5679.6948 1820 1.0233719e-38
3274.1211 5633.9302 1800 1.0325556e-38
3302.6782 5558.5347 1780 1.0234802e-38
3337.4927 5522.6465 1770 1.0417754e-38
3373.8716 5496.6353 1760 1.0235876e-38
3416.5078 5510.1318 1770 1.0419188e-38
3454.4509 5493.9976 1760 1.060287e-38
3487.2102 5509.0581 1770 1.0695419e-38
3536.104 5562.062 1790 1.0787624e-38
3555.2749 5427.4053 1750 1.088018e-38
3586.47 5432.5889 1750 1.1155687e-38
3625.9775 5426.3315 1750 1.0973821e-38
3677.9998 5499.0894 1780 1.1524845e-38
3117.1958 1446.9294 360 1.7529458e-38
3120.3245 1466.6831 370 1.6609668e-38
3144.7712 1493.1851 370 1.771277e-38
3159.3413 1521.2515 390 1.7805323e-38
3173.9111 1549.3176 400 1.78968e-38
3190.0454 1587.2609 410 1.7806758e-38
3216.0566 1623.6396 420 1.8357053e-38
3242.0679 1660.0186 440 1.8450682e-38
3259.7664 1707.8386 460 1.8909142e-38
3285.7776 1744.2174 470 1.8264859e-38
3284.2134 1734.3406 470 1.8448171e-38
5145.0542 5428.7241 1840 1.5499367e-38
5198.0581 5379.8306 1820 2.3509886e-38
4717.6494 4200.4634 1390 1.3005771e-38
4716.5757 4129.7607 1370 1.3003258e-38
4733.2007 4106.8784 1360 1.2727016e-38
4749.8257 4083.9958 1350 1.2359668e-38
4768.0151 4070.9902 1350 1.2173842e-38
4796.0815 4056.4204 1340 1.1806853e-38
4786.6953 3997.1592 1320 1.1619589e-38
4762.7393 3909.8315 1290 1.1527743e-38
4792.3701 3905.1384 1290 1.1158606e-38
4840.1899 3887.4397 1290 1.042248e-38
5076.3457 4163.9004 1400 1.005225e-38
5174.1328 4269.9082 1440 9.868217e-39
4977.9756 3926.3645 1310 9.9582393e-39
4866.1094 3731.4648 1240 9.866408e-39
4908.7451 3744.9612 1240 9.4065046e-39
5110.5771 3996.4844 1340 9.2214001e-39
5154.7778 4019.8574 1350 9.2192337e-39
5171.4033 3996.9751 1340 8.7607751e-39
5136.0059 3901.335 1310 8.4838294e-39
5155.7598 3898.2063 1310 8.2075957e-39
5159.3789 3857.1343 1300 7.4707509e-39
5127.1104 3781.248 1270 7.838446e-39
2379.8342 2161.0708 550 4.057335e-39
2389.7112 2159.5063 550 3.0431845e-39
2392.8398 2179.2603 560 1.4754958e-39
2402.7168 2177.6958 560 2.6747663e-39
2402.3792 3645.824 1050 1.3927344e-38
2674.6685 2296.6172 620 1.3927699e-38
2666.9387 2439.5867 660 1.3929125e-38
2649.332 2584.1206 710 1.3743682e-38
2624.4863 2810.7979 790 1.3742597e-38
2667.0303 5892.0786 1820 1.0237318e-38
3129.6794 5808.6772 1820 1.0234441e-38
3170.7512 5812.2969 1820 9.9596532e-39
3206.0564 5715.583 1790 1.0326636e-38
3239.3066 5669.8179 1780 1.0418473e-38
3274.1211 5633.9302 1770 1.0419192e-38
3304.2427 5568.4111 1750 1.0234811e-38
3340.6213 5542.4004 1740 1.0051487e-38
3378.5645 5526.2661 1730 1.023552e-38
3419.6365 5529.8853 1740 1.0419191e-38
3447.7026 5515.3154 1730 1.0511391e-38
3488.7747 5518.9351 1740 1.0419202e-38
3534.5396 5552.1851 1750 1.0696864e-38
3559.968 5457.0356 1720 1.1064567e-38
3586.47 5432.5889 1710 1.09731e-38
3627.5417 5436.2085 1720 1.1248965e-38
3674.8711 5479.3354 1740 1.1434081e-38
3065.1736 1374.1718 330 2.3505581e-38
3078.1792 1392.3611 330 2.3506657e-38
3091.1846 1410.5505 340 2.3509886e-38
3104.1902 1428.74 350 2.3509886e-38
3118.7603 1456.8063 360 2.3509886e-38
3133.3301 1484.8726 370 2.3509886e-38
3146.3357 1503.062 380 2.3509886e-38
3162.47 1541.0051 390 2.3509886e-38
3177.0398 1569.0715 400 2.3509886e-38
3203.051 1605.4503 410 2.3509886e-38
3219.1853 1643.3936 430 2.3509886e-38
3246.7607 1689.6492 440 2.3509886e-38
3275.9006 1745.7817 460 2.3509886e-38
3288.9062 1763.9712 470 2.3509886e-38
3294.0901 1732.7761 460 2.3509886e-38
5132.0488 5410.5347 1790 1.6974857e-38
5196.4937 5369.9536 1780 2.3509886e-38
4729.0903 4208.7759 1360 1.3283801e-38
4716.5757 4129.7607 1340 1.3096527e-38
4733.2007 4106.8784 1330 1.2636628e-38
4749.8257 4083.9958 1330 1.2359684e-38
4768.0151 4070.9902 1320 1.2173849e-38
4796.0815 4056.4204 1320 1.2173836e-38
4786.6953 3997.1592 1300 1.1713577e-38
4761.1748 3899.9546 1260 1.1525945e-38
4782.4932 3906.7029 1270 1.1342988e-38
5057.5732 4045.3779 1330 9.8660548e-39
5084.5664 3960.1055 1300 9.3125167e-39
5167.7832 4038.0469 1330 8.668941e-39
5185.9727 4025.0413 1330 8.576381e-39
5163.5811 3947.5906 1300 8.3005046e-39
5142.7539 3880.0168 1280 8.3001542e-39
2381.3987 2170.9478 550 3.7814684e-39
2391.2756 2169.3833 550 2.5822035e-39
2401.1523 2167.8188 550 1.6598871e-39
2402.7168 2177.6958 550 3.0446306e-39
2405.8455 2197.4497 560 3.1368332e-39
2472.4377 2298.2734 590 5.5364588e-39
2649.1479 2199.4128 570 1.3558918e-38
2660.5894 2207.7253 570 1.3375603e-38
2677.2144 2184.8428 570 1.3467793e-38
2687.0913 2183.2786 570 1.3560353e-38
2673.104 2286.7402 600 1.3559642e-38
2665.3743 2429.71 650 1.3559631e-38
2649.332 2584.1206 700 1.3189782e-38
2632.7991 2799.3567 770 1.3006829e-38
2614.2107 3065.5417 850 1.3557846e-38
2669.5762 5780.3042 1740 1.0420644e-38
2707.0286 5824.9956 1760 1.0511759e-38
2747.6096 5889.4404 1780 1.0604667e-38
2780.3689 5904.5015 1790 1.0512107e-38
2824.5696 5927.8745 1800 1.0234442e-38
2857.8196 5882.1099 1790 1.0143328e-38
2905.0569 5732.8828 1740 9.7752717e-39
2933.614 5657.4873 1720 1.0235167e-38
2977.8147 5680.8604 1730 9.8678191e-39
3017.3223 5674.603 1730 1.0788339e-38
3046.9529 5669.9102 1730 1.2078711e-38
3089.5891 5683.4062 1730 1.3919012e-38
3129.0967 5677.1489 1730 1.410125e-38
3163.4202 5702.0864 1740 1.3361517e-38
3196.6704 5656.3218 1730 1.2806552e-38
3241.3618 5618.8691 1720 1.1336454e-38
3270.9924 5614.1763 1720 9.0373465e-39
3304.2427 5568.4111 1710 1.0234804e-38
3340.6213 5542.4004 1700 1.0419196e-38
3377.0002 5516.3892 1700 1.0603583e-38
3418.072 5520.0083 1700 1.0879094e-38
3456.0154 5503.874 1690 1.0419199e-38
3485.646 5499.1812 1700 1.0602872e-38
3532.9751 5542.3081 1710 1.0788343e-38
3572.4827 5536.0508 1710 1.1064573e-38
3595.856 5491.8501 1700 1.152555e-38
3638.4922 5505.3467 1700 1.1895781e-38
3679.564 5508.9658 1710 1.2359281e-38
3734.2244 5662.3032 1760 1.2637319e-38
3298.7832 1762.4069 460 1.9282224e-38
3298.7832 1762.4069 460 1.9370831e-38
4730.6548 4218.6528 1340 1.3467469e-38
4718.1396 4139.6377 1310 1.282317e-38
4734.7651 4116.7549 1310 1.2821368e-38
4751.3901 4093.8728 1300 1.2268916e-38
4768.0151 4070.9902 1290 1.2264973e-38
4796.0815 4056.4204 1290 1.2082725e-38
4786.6953 3997.1592 1270 1.180542e-38
4762.7393 3909.8315 1240 1.1803976e-38
4792.3701 3905.1384 1240 1.1620294e-38
5096.0073 3968.418 1280 9.0373648e-39
5179.2246 4046.3594 1310 8.6689354e-39
2381.3987 2170.9478 540 4.1484502e-39
2391.2756 2169.3833 540 2.0290339e-39
2401.1523 2167.8188 540 2.0293857e-39
2402.7168 2177.6958 540 2.860968e-39
2414.158 2186.0083 540 3.0453565e-39
2408.9741 2217.2034 560 3.3223021e-39
2419.4338 2347.1672 600 5.5364518e-39
2430.875 2355.4797 600 6.3658495e-39
2455.8127 2321.1562 590 6.6438811e-39
2455.8127 2321.1562 590 4.8925327e-39
2468.8184 2339.3455 600 6.2707476e-39
2491.21 2416.7964 620 1.1155317e-38
2640.8354 2210.854 560 1.2730588e-38
2657.4607 2187.9717 560 1.3005377e-38
2664.2087 2166.6533 550 1.3189052e-38
2674.0857 2165.0891 550 1.2912825e-38
2678.7788 2194.7197 560 1.227033e-38
2676.2329 2306.4941 590 1.2361451e-38
2658.6262 2451.0278 640 1.2361095e-38
2644.1482 2615.3154 690 1.2266745e-38
2627.6152 2830.5518 760 1.2085585e-38
2602.2788 3118.0549 850 1.2547641e-38
2678.3794 5708.0371 1680 1.0605025e-38
2711.1389 5723.0981 1690 1.0421005e-38
2751.72 5787.543 1710 1.0604307e-38
2789.1724 5832.2344 1730 1.0511754e-38
2820.3672 5837.4185 1730 7.4707481e-39
2861.9299 5780.2119 1720 1.0141172e-38
2900.364 5703.2524 1690 1.0142968e-38
2941.9265 5646.0459 1680 1.0419554e-38
2971.5571 5641.353 1680 1.0142604e-38
3011.0647 5635.0957 1680 9.9582182e-39
3052.1367 5638.7148 1680 1.0143677e-38
3083.3315 5643.8989 1680 9.7741871e-39
3121.2749 5627.7646 1680 1.0141168e-38
3160.7825 5621.5073 1680 1.0050412e-38
3197.1611 5595.4961 1670 9.7727452e-39
3233.54 5569.4849 1670 1.0231921e-38
3274.6118 5573.1045 1670 9.4018201e-39
3302.6782 5558.5347 1670 8.5752824e-39
3340.6213 5542.4004 1660 1.0326278e-38
3378.5645 5526.2661 1660 1.1705614e-38
3419.6365 5529.8853 1660 1.1155684e-38
3447.7026 5515.3154 1660 1.05114e-38
3485.646 5499.1812 1660 1.0604305e-38
3539.2327 5581.8159 1690 1.2447863e-38
3581.3779 5656.1377 1710 1.3185805e-38
3602.1133 5531.3579 1670 1.2908861e-38
3644.7495 5544.854 1680 1.300105e-38
3684.2571 5538.5967 1680 1.3089649e-38
3732.6599 5652.4263 1720 1.309037e-38
3298.7832 1762.4069 450 2.2775202e-38
3137.4404 1382.9751 320 2.2775202e-38
4730.6548 4218.6528 1310 1.3651148e-38
4718.1396 4139.6377 1280 1.3189807e-38
4734.7651 4116.7549 1280 1.2912862e-38
4751.3901 4093.8728 1270 1.2453314e-38
4768.0151 4070.9902 1270 1.2175288e-38
4796.0815 4056.4204 1260 1.1991606e-38
4786.6953 3997.1592 1240 1.1713944e-38
4762.7393 3909.8315 1210 1.1435913e-38
4792.3701 3905.1384 1210 1.1342638e-38
4975.3379 3845.7852 1200 9.2213973e-39
5109.0127 3986.6074 1260 8.8526148e-39
5167.7832 4038.0469 1270 8.5760363e-39
2381.3987 2170.9478 530 3.781104e-39
2391.2756 2169.3833 530 1.66025e-39
2401.1523 2167.8188 530 2.3978108e-39
2402.7168 2177.6958 530 2.953521e-39
2414.158 2186.0083 530 3.32087e-39
2408.9741 2217.2034 550 3.5063346e-39
2412.103 2236.957 550 3.7832901e-39
2413.6672 2246.834 550 4.2446241e-39
2431.3657 2294.6543 570 5.6290075e-39
2427.7463 2335.7261 580 6.2743769e-39
2437.6233 2334.1616 580 6.8268332e-39
2454.2483 2311.2793 580 7.3810846e-39
2455.8127 2321.1562 580 4.4297595e-39
2458.9414 2340.9097 590 7.1005152e-39
2463.6345 2370.5405 590 8.0217499e-39
2475.0757 2378.853 600 8.1168238e-39
2478.2043 2398.6069 600 8.8529497e-39
2481.333 2418.3606 610 1.3921515e-38
2494.3386 2436.5498 620 2.3509886e-38
2656.9697 2248.7974 570 1.4390822e-38
2668.9019 2196.2842 550 1.503511e-38
2678.7788 2194.7197 550 1.5031172e-38
2667.9202 2317.9355 590 1.3556408e-38
2660.1904 2460.9048 630 1.31869e-38
2638.9644 2646.5103 690 1.2636243e-38
2623.9956 2871.6235 760 1.2453656e-38
2600.2236 3169.0037 850 1.2268913e-38
2562.4644 3569.8455 970 1.2731693e-38
2631.1421 5857.2642 1690 1.106709e-38
2681.999 5666.9653 1630 1.1067085e-38
2714.7583 5682.0259 1640 1.0605034e-38
2747.0269 5757.9126 1660 1.0422433e-38
2784.4792 5802.604 1680 1.0787985e-38
2820.3672 5837.4185 1690 1.042028e-38
2861.9299 5780.2119 1680 5.9081027e-39
2901.9282 5713.1289 1660 6.9197281e-39
2935.1785 5667.3643 1650 7.3810664e-39
2976.2502 5670.9839 1650 7.9353066e-39
3014.1934 5654.8491 1640 8.6710751e-39
3053.7009 5648.5918 1640 9.1309757e-39
3083.3315 5643.8989 1650 9.8660156e-39
3122.8391 5637.6416 1650 1.0141168e-38
3162.3467 5631.3843 1650 1.0141166e-38
3198.7256 5605.373 1640 9.7734612e-39
3233.54 5569.4849 1630 1.032556e-38
3269.428 5604.2993 1640 1.0050414e-38
3308.9355 5598.042 1640 9.680195e-39
3348.4431 5591.7847 1640 8.0213981e-39
3387.9507 5585.5273 1640 9.1298869e-39
3419.1458 5590.7109 1640 9.4983233e-39
3453.9602 5554.8228 1640 7.834137e-39
3496.5964 5568.3193 1640 7.6479297e-39
3548.6187 5641.0771 1670 8.3833339e-39
3584.5068 5675.8916 1680 8.106754e-39
3606.8064 5560.9883 1650 8.1092708e-39
3647.8784 5564.6079 1650 8.3854989e-39
3688.9502 5568.2275 1650 8.478775e-39
3734.2244 5662.3032 1680 8.6628131e-39
3492.5479 3625.0273 1030 1.4572711e-38
3525.3071 3640.0881 1040 2.3509886e-38
3839.8643 4795.1006 1420 1.8264142e-38
3896.5796 4897.4888 1450 2.0660833e-38
3896.5796 4897.4888 1450 2.3509886e-38
3896.5796 4897.4888 1450 2.3509886e-38
3896.5796 4897.4888 1450 2.3509886e-38
3896.5796 4897.4888 1450 2.3509886e-38
3896.5796 4897.4888 1450 2.3509886e-38
3896.5796 4897.4888 1450 2.3509886e-38
3896.5796 4897.4888 1450 2.3509886e-38
3896.5796 4897.4888 1450 2.3509886e-38
3896.5796 4897.4888 1450 2.3509886e-38
3896.5796 4897.4888 1450 2.3509886e-38
3896.5796 4897.4888 1450 2.3509886e-38
3137.4404 1382.9751 320 2.3509886e-38
4743.6602 4236.8418 1290 1.3926667e-38
4718.1396 4139.6377 1260 1.3558593e-38
4734.7651 4116.7549 1250 1.3005783e-38
4751.3901 4093.8728 1240 1.2635919e-38
4769.5796 4080.8672 1240 1.2635547e-38
4796.0815 4056.4204 1240 1.1991263e-38
4786.6953 3997.1592 1220 1.1622466e-38
4762.7393 3909.8315 1190 1.2177829e-38
4792.3701 3905.1384 1190 7.838467e-39
4981.1045 3946.1184 1210 9.5891078e-39
4997.7295 3923.2358 1200 9.4047081e-39
4988.3433 3863.9746 1190 8.943737e-39
5110.5771 3996.4844 1230 8.5763866e-39
5154.7778 4019.8574 1240 8.3909121e-39
2381.3987 2170.9478 520 3.1364619e-39
2391.2756 2169.3833 520 1.6591696e-39
2401.1523 2167.8188 520 2.8591547e-39
2411.0293 2166.2546 520 3.4148635e-39
2414.158 2186.0083 520 3.3223077e-39
2408.9741 2217.2034 530 3.5988904e-39
2410.5386 2227.0803 540 4.1524257e-39
2421.9797 2235.3928 540 4.3382603e-39
2423.5442 2245.2698 540 5.0751079e-39
2434.9854 2253.5823 550 5.537165e-39
2438.114 2273.3359 550 5.9070293e-39
2441.2427 2293.0898 560 6.5509722e-39
2451.1196 2291.5254 560 7.1974276e-39
2460.9966 2289.9609 560 7.7488022e-39
2464.1252 2309.7148 560 4.3357506e-39
2467.2539 2329.4688 570 7.4693048e-39
2470.3826 2349.2224 580 8.0239079e-39
2473.5112 2368.9761 580 8.4856091e-39
2479.7688 2408.4836 590 9.2238944e-39
2481.333 2418.3606 600 1.7055801e-38
2494.3386 2436.5498 600 2.3509886e-38
2505.7798 2444.8625 610 2.3509886e-38
2500.5959 2476.0576 620 2.3509886e-38
2500.1052 2536.8833 640 2.3509886e-38
2538.0483 2520.749 630 9.866031e-39
2556.2378 2507.7432 630 1.0422806e-38
2571.2986 2474.9839 620 1.1160378e-38
2594.6719 2430.7832 610 1.1530964e-38
2645.5286 2240.4846 550 1.180864e-38
2655.4055 2238.9204 550 1.2546917e-38
2663.718 2227.479 550 1.2729884e-38
2678.7788 2194.7197 540 1.3374171e-38
2667.9202 2317.9355 580 1.3467102e-38
2660.1904 2460.9048 620 1.3837326e-38
2638.9644 2646.5103 680 1.3562541e-38
2623.9956 2871.6235 740 1.4207198e-38
2590.3467 3170.5679 830 1.4394446e-38
2562.4644 3569.8455 950 1.4761087e-38
2631.6331 5796.4385 1630 1.1342969e-38
2677.3059 5637.335 1580 1.0791942e-38
2713.1938 5672.1494 1600 1.0973455e-38
2752.2107 5726.7173 1620 1.1064932e-38
2789.6631 5771.4087 1630 1.0513558e-38
2829.1707 5765.1514 1630 1.0237678e-38
2865.5496 5739.1401 1630 9.1299065e-39
2895.6709 5673.6216 1610 9.1298925e-39
2941.9265 5646.0459 1600 9.1277401e-39
2976.2502 5670.9839 1610 9.0373381e-39
3014.1934 5654.8491 1610 9.1284632e-39
3055.2654 5658.4688 1610 9.1291764e-39
3084.896 5653.7759 1610 9.3121258e-39
3124.4036 5647.5186 1610 9.4039514e-39
3162.3467 5631.3843 1610 9.2206504e-39
3198.7256 5605.373 1600 9.219577e-39
3238.2332 5599.1157 1600 9.9564162e-39
3272.5566 5624.0532 1610 9.4979533e-39
3313.6287 5627.6729 1610 9.2224511e-39
3354.7004 5631.292 1620 7.9310018e-39
3385.8955 5636.4761 1620 8.7600324e-39
3422.2744 5610.4648 1610 9.1277359e-39
3458.6533 5584.4536 1610 8.0203177e-39
3504.418 5617.7036 1620 8.1088952e-39
3544.9993 5682.1489 1640 7.9237963e-39
3586.071 5685.7686 1640 8.1092652e-39
3608.3708 5570.8652 1610 8.4784078e-39
3651.0071 5584.3618 1620 8.2961732e-39
3692.0789 5587.981 1620 8.6638809e-39
3740.4817 5701.8105 1660 9.0308753e-39
3513.375 3692.6013 1030 1.475891e-38
3534.6931 3699.3494 1040 2.3509886e-38
3896.5796 4897.4888 1420 2.3050708e-38
3137.4404 1382.9751 310 2.3509886e-38
4743.6602 4236.8418 1260 1.3654404e-38
4719.7041 4149.5146 1230 1.3928818e-38
4734.7651 4116.7549 1220 1.3374207e-38
4751.3901 4093.8728 1220 1.3006133e-38
4779.4565 4079.3027 1210 1.226821e-38
4797.6455 4066.2974 1210 1.2542632e-38
4786.6953 3997.1592 1190 1.1897975e-38
4762.7393 3909.8315 1160 1.5035903e-38
4792.3701 3905.1384 1160 6.3655104e-39
5001.9316 4013.6921 1210 6.4555158e-39
5016.9922 3980.9329 1200 6.3633187e-39
5036.7461 3977.8042 1200 6.454434e-39
5054.9355 3964.7986 1190 6.1785674e-39
5161.0352 4059.365 1230 5.9023392e-39
5128.7666 3983.4788 1200 6.0849284e-39
2381.3987 2170.9478 510 3.6885525e-39
2391.2756 2169.3833 510 2.1233876e-39
2401.1523 2167.8188 510 1.8439182e-39
2411.0293 2166.2546 510 3.3197714e-39
2414.158 2186.0083 510 3.9669638e-39
2408.9741 2217.2034 520 3.320863e-39
2410.5386 2227.0803 530 2.6758467e-39
2421.9797 2235.3928 530 5.7164864e-39
2423.5442 2245.2698 530 7.100511e-39
2433.4209 2243.7053 530 5.9063133e-39
2444.8623 2252.0181 540 6.0903584e-39
2447.991 2271.7717 540 6.9215638e-39
2449.5552 2281.6484 540 7.4754453e-39
2460.9966 2289.9609 550 7.3847042e-39
2464.1252 2309.7148 550 4.9800256e-39
2468.8184 2339.3455 560 7.286347e-39
2471.947 2359.0991 570 8.3919617e-39
2475.0757 2378.853 570 8.8547475e-39
2479.7688 2408.4836 580 2.3509886e-38
2482.8975 2428.2373 590 2.3509886e-38
2484.4617 2438.1143 590 2.3509886e-38
2499.0317 2466.1807 600 2.3509886e-38
2502.1604 2485.9346 610 2.3509886e-38
2491.7927 2548.3242 630 2.3509886e-38
2511.5464 2545.1958 620 1.5220262e-38
2543.2322 2489.5537 610 1.0977422e-38
2561.4216 2476.5483 610 1.2545827e-38
2578.0469 2453.6658 600 1.319121e-38
2596.2361 2440.6602 600 1.3467082e-38
2612.8613 2417.7778 590 1.3745826e-38
2612.3704 2478.6035 610 1.4298655e-38
2589.5801 2654.332 660 1.4209343e-38
2556.4219 2892.4509 730 1.5037321e-38
2521.2085 3181.5186 820 1.5320025e-38
2473.5725 3583.9248 930 1.6427073e-38
2591.1438 5924.3472 1630 1.2453684e-38
2635.2524 5755.3667 1580 1.1252219e-38
2677.3059 5637.335 1550 1.0974542e-38
2719.4514 5711.6567 1570 1.0789785e-38
2755.3394 5746.4712 1580 1.0696878e-38
2789.6631 5771.4087 1590 1.0698296e-38
2822.4224 5786.4697 1600 1.0513194e-38
2867.1138 5749.0171 1590 9.0384213e-39
2901.9282 5713.1289 1580 9.4972387e-39
2936.7427 5677.2412 1570 8.9458656e-39
2980.9434 5700.6143 1580 9.4965198e-39
3017.3223 5674.603 1580 9.2206574e-39
3048.5171 5679.7871 1580 9.3135663e-39
3088.0247 5673.5298 1580 9.3124859e-39
3127.5322 5667.272 1580 9.0355431e-39
3163.9111 5641.2612 1570 9.3106894e-39
3201.8542 5625.127 1570 9.1277331e-39
3233.0493 5630.3105 1570 9.6816243e-39
3277.2498 5653.6836 1580 9.4057633e-39
3321.4504 5677.0571 1590 9.4968842e-39
3357.3384 5711.8716 1600 8.3001374e-39
3403.1033 5745.1216 1610 9.2195826e-39
3436.3535 5699.3569 1600 8.3916226e-39
3472.7324 5673.3457 1600 8.3887457e-39
3510.1848 5718.0371 1610 8.2032517e-39
3562.207 5790.7944 1640 9.2159659e-39
3597.0215 5754.9067 1630 9.1252094e-39
3613.064 5600.4961 1580 9.3081783e-39
3655.7002 5613.9922 1590 9.5840407e-39
3698.3364 5627.4888 1590 9.9542582e-39
3748.3035 5751.1953 1630 1.0231209e-38
3519.6323 3732.1086 1020 1.5128054e-38
3560.2136 3796.554 1050 2.3509886e-38
3890.3223 4857.9814 1380 2.3509886e-38
3137.4404 1382.9751 310 2.3509886e-38
3186.334 1435.979 330 2.3050708e-38
4743.6602 4236.8418 1230 1.4481646e-38
4729.5811 4147.9502 1200 1.3654034e-38
4736.3291 4126.6318 1200 1.328237e-38
4751.3901 4093.8728 1190 1.3189803e-38
4779.4565 4079.3027 1190 1.2820302e-38
4797.6455 4066.2974 1180 1.2451519e-38
4786.6953 3997.1592 1160 1.208381e-38
4764.3037 3919.7083 1140 1.854467e-38
4792.3701 3905.1384 1140 7.4700713e-39
4707.0054 3685.7917 1070 6.2707742e-39
4962.915 3959.1238 1160 6.0863731e-39
5031.5625 4008.999 1180 5.4417268e-39
5049.752 3995.9934 1170 5.6239671e-39
5079.3823 3991.3005 1170 5.4399261e-39
5136.5884 4032.863 1190 5.1640553e-39
5024.7222 3837.9634 1130 5.162612e-39
2381.3987 2170.9478 500 3.7793104e-39
2391.2756 2169.3833 500 3.5956352e-39
2401.1523 2167.8188 500 2.3066998e-39
2411.0293 2166.2546 500 2.0301157e-39
2414.158 2186.0083 510 2.2159475e-39
2408.9741 2217.2034 510 3.505236e-39
2410.5386 2227.0803 520 3.3208532e-39
2421.9797 2235.3928 520 5.3480598e-39
2423.5442 2245.2698 520 5.990195e-39
2433.4209 2243.7053 520 7.2827233e-39
2436.5498 2263.459 530 7.9277424e-39
2447.991 2271.7717 530 8.207939e-39
2449.5552 2281.6484 540 8.0293421e-39
2460.9966 2289.9609 540 6.8315388e-39
2465.6895 2319.5918 540 5.994888e-39
2460.5056 2350.7866 550 1.189466e-38
2463.6345 2370.5405 560 2.3509886e-38
2468.3274 2400.1711 570 1.1909511e-38
2471.4561 2419.9248 570 2.3509886e-38
2482.8975 2428.2373 580 2.3509886e-38
2486.0261 2447.9912 580 2.3509886e-38
2489.1548 2467.7451 590 2.3509886e-38
2502.1604 2485.9346 600 2.3509886e-38
2498.541 2527.0063 610 2.3509886e-38
2516.7302 2514.0007 600 1.3562183e-38
2533.3555 2491.1182 600 1.0421719e-38
2543.2322 2489.5537 600 1.2359999e-38
2562.9861 2486.4253 600 1.5594053e-38
2579.6111 2463.5427 590 1.9652795e-38
2586.3594 2442.2246 590 2.3509886e-38
2611.2969 2407.9009 580 2.3509886e-38
2612.3704 2478.6035 600 2.3509886e-38
2589.5801 2654.332 650 2.3509886e-38
2556.4219 2892.4509 710 2.3509886e-38
2521.2085 3181.5186 800 2.3509886e-38
2473.5725 3583.9248 910 2.3509886e-38
2589.5796 5914.4702 1590 1.4116426e-38
2635.2524 5755.3667 1540 1.1072894e-38
2681.999 5666.9653 1520 1.1432643e-38
2712.2124 5793.8003 1560 1.0974185e-38
2746.5361 5818.7383 1570 1.1064927e-38
2787.6079 5822.3574 1570 1.0605383e-38
2823.4961 5857.1719 1580 9.9603818e-39
2863.0034 5850.9146 1580 9.1302624e-39
2897.8181 5815.0269 1570 9.2217322e-39
2942.5093 5777.5742 1570 8.0239191e-39
2975.2688 5792.6348 1570 8.5745677e-39
3019.96 5755.1826 1560 8.484886e-39
3051.155 5760.3662 1560 8.5759984e-39
3089.0981 5744.2319 1560 8.6674794e-39
3133.2988 5767.6055 1570 8.3923373e-39
3166.5491 5721.8403 1560 6.1778499e-39
3207.6208 5725.46 1560 7.4696579e-39
3241.9446 5750.3975 1570 7.0076036e-39
3285.0715 5703.0684 1560 9.2224665e-39
3319.3953 5728.0059 1570 9.5887267e-39
3362.0315 5741.502 1570 7.6540618e-39
3404.177 5815.8242 1600 7.5629409e-39
3445.2488 5819.4438 1600 8.3909093e-39
3483.1919 5803.3096 1600 7.741556e-39
3525.8281 5816.8057 1600 8.1096197e-39
3597.0215 5754.9067 1590 8.3865695e-39
3617.7568 5630.1265 1550 8.2950942e-39
3658.8286 5633.7461 1560 8.5709706e-39
3704.5938 5666.9961 1570 8.8486435e-39
3460.2793 3549.1411 940 1.4755674e-38
3524.3254 3761.7395 1010 1.503335e-38
3869.4949 4790.4072 1320 2.3509886e-38
3137.4404 1382.9751 310 2.3509886e-38
3148.8816 1391.2876 310 2.3509886e-38
3186.334 1435.979 320 2.3509886e-38
3186.334 1435.979 320 1.6881587e-38
4756.666 4255.0312 1210 1.4667481e-38
4729.5811 4147.9502 1180 1.3838079e-38
4746.2061 4125.0679 1170 1.3560395e-38
4751.3901 4093.8728 1160 1.346604e-38
4779.4565 4079.3027 1160 1.3189792e-38
4797.6455 4066.2974 1150 1.2544065e-38
4786.6953 3997.1592 1140 1.2177801e-38
4762.7393 3909.8315 1110 1.9560959e-38
4780.9287 3896.8259 1110 8.2998656e-39
4695.5645 3677.4792 1040 6.2715001e-39
4778.7817 3755.4209 1070 5.994909e-39
4822.9824 3778.7942 1070 5.9941873e-39
4946.7808 3921.1807 1120 5.9945376e-39
5031.5625 4008.999 1150 5.5339224e-39
2381.3987 2170.9478 490 2.3988983e-39
2391.2756 2169.3833 490 2.8605883e-39
2392.8398 2179.2603 490 3.780025e-39
2402.7168 2177.6958 490 4.3335547e-39
2404.2812 2187.5728 500 4.5182991e-39
2408.9741 2217.2034 500 4.1502383e-39
2410.5386 2227.0803 510 3.4134047e-39
2421.9797 2235.3928 510 5.7168409e-39
2423.5442 2245.2698 510 4.8881719e-39
2433.4209 2243.7053 510 4.6090752e-39
2436.5498 2263.459 520 5.0696919e-39
2439.6785 2283.2129 520 6.7273971e-39
2451.1196 2291.5254 530 8.1121294e-39
2452.6841 2301.4023 530 8.1132154e-39
2455.8127 2321.1562 540 7.0126314e-39
2458.9414 2340.9097 540 1.5579936e-38
2471.947 2359.0991 550 2.3509886e-38
2466.7632 2390.2944 550 2.3509886e-38
2469.8918 2410.0479 560 2.3509886e-38
2482.8975 2428.2373 570 2.3509886e-38
2486.0261 2447.9912 570 2.3509886e-38
2489.1548 2467.7451 580 2.3509886e-38
2502.1604 2485.9346 580 2.3509886e-38
2505.2891 2505.688 590 2.3509886e-38
2525.043 2502.5596 590 1.3193409e-38
2533.3555 2491.1182 590 1.1526982e-38
2553.1091 2487.9895 580 1.4386505e-38
2561.4216 2476.5483 580 2.3509886e-38
2569.7341 2465.1069 580 2.3509886e-38
2587.9236 2452.1016 580 2.3509886e-38
2612.8613 2417.7778 570 2.3509886e-38
2612.3704 2478.6035 580 2.3509886e-38
2589.5801 2654.332 630 2.3509886e-38
2556.4219 2892.4509 700 2.3509886e-38
2521.2085 3181.5186 780 2.3509886e-38
2473.5725 3583.9248 890 2.3509886e-38
2596.3276 5893.1519 1540 1.3561118e-38
2643.5649 5743.9253 1500 1.2083422e-38
2680.4346 5657.0884 1480 9.9582659e-39
2708.5928 5834.8726 1530 1.0319074e-38
2747.6096 5889.4404 1550 1.0789424e-38
2785.5527 5873.3062 1550 1.0880537e-38
2825.0603 5867.0488 1540 1.0052932e-38
2859.384 5891.9863 1550 9.3132118e-39
2902.511 5844.6572 1540 9.0366249e-39
2938.8899 5818.646 1540 9.5879938e-39
2981.5261 5832.1426 1540 6.182526e-39
3019.4692 5816.0083 1540 8.4823595e-39
3056.9216 5860.6997 1550 8.2987011e-39
3097.9937 5864.3188 1560 6.2711245e-39
3173.8799 5832.0503 1550 5.2548132e-39
3209.7681 5866.8647 1560 4.1513411e-39
3247.7112 5850.7305 1560 5.1608239e-39
3289.2739 5793.5244 1550 5.2530167e-39
3584.5068 5675.8916 1520 7.0029442e-39
3624.0142 5669.6343 1520 6.6392022e-39
3666.6504 5683.1304 1530 6.4540837e-39
3720.2373 5765.7651 1560 6.6406441e-39
3457.1504 3529.3872 920 1.4480896e-38
3527.4541 3781.4932 990 1.5310658e-38
3869.4949 4790.4072 1290 2.3509886e-38
3135.876 1373.0981 300 2.3509886e-38
3148.8816 1391.2876 310 2.3509886e-38
3163.4517 1419.3539 310 2.3509886e-38
3176.457 1437.5432 320 2.3509886e-38
3186.334 1435.979 320 2.3509886e-38
4758.2305 4264.9082 1180 1.4852226e-38
4731.1455 4157.8271 1150 1.3837727e-38
4746.2061 4125.0679 1140 1.3654398e-38
4751.3901 4093.8728 1130 1.3466403e-38
4779.4565 4079.3027 1130 1.2822464e-38
4797.6455 4066.2974 1130 1.2821025e-38
4786.6953 3997.1592 1110 1.2084893e-38
4762.7393 3909.8315 1080 1.9101782e-38
4780.9287 3896.8259 1080 9.6813987e-39
4688.8159 3698.7974 1020 7.1927361e-39
4863.5635 3843.2393 1070 5.9956264e-39
2381.3987 2170.9478 480 2.6744033e-39
2382.9629 2180.8247 480 3.9647708e-39
2392.8398 2179.2603 480 3.0438949e-39
2402.7168 2177.6958 480 4.5172187e-39
2404.2812 2187.5728 490 4.0562448e-39
2408.9741 2217.2034 490 3.8707773e-39
2410.5386 2227.0803 500 3.4123229e-39
2421.9797 2235.3928 500 6.2685742e-39
2423.5442 2245.2698 500 6.3618572e-39
2433.4209 2243.7053 500 6.730281e-39
2444.8623 2252.0181 510 5.8115687e-39
2439.6785 2283.2129 510 6.2685756e-39
2451.1196 2291.5254 520 7.5621884e-39
2462.5608 2299.8379 520 8.0228121e-39
2464.1252 2309.7148 520 8.390161e-39
2467.2539 2329.4688 530 9.7698417e-39
2470.3826 2349.2224 530 1.8881708e-38
2481.8237 2357.5349 540 2.1385831e-38
2484.9526 2377.2886 540 2.3509886e-38
2489.6455 2406.9194 550 2.3509886e-38
2492.7744 2426.6731 550 2.3509886e-38
2490.7192 2477.6218 570 2.3509886e-38
2493.8479 2497.3755 570 2.3509886e-38
2498.541 2527.0063 580 2.3509886e-38
2525.043 2502.5596 580 1.282462e-38
2533.3555 2491.1182 570 1.2357834e-38
2553.1091 2487.9895 570 1.8443473e-38
2562.9861 2486.4253 570 2.3509886e-38
2571.2986 2474.9839 570 2.3509886e-38
2587.9236 2452.1016 570 2.3509886e-38
2612.8613 2417.7778 560 2.3509886e-38
2612.3704 2478.6035 570 2.3509886e-38
2589.5801 2654.332 620 2.3509886e-38
2556.4219 2892.4509 680 2.3509886e-38
2521.2085 3181.5186 760 2.3509886e-38
2473.5725 3583.9248 870 2.3509886e-38
2593.199 5873.3984 1500 1.1437371e-38
2633.688 5745.4897 1470 7.6540954e-39
2681.999 5666.9653 1450 7.3767658e-39
2708.5928 5834.8726 1490 5.4449764e-39
2744.481 5869.687 1500 5.8108778e-39
2784.4792 5802.604 1490 6.5495233e-39
2823.9868 5796.3462 1490 5.9952551e-39
2865.0586 5799.9658 1490 5.0725939e-39
2903.002 5783.8315 1490 5.0697157e-39
2937.8164 5747.9434 1480 4.7038016e-39
2974.7778 5853.4604 1510 4.7952798e-39
3015.8499 5857.0801 1510 3.5063388e-39
3295.5312 5833.0322 1520 3.5074178e-39
3575.1206 5616.6304 1470 5.3499067e-39
3627.1431 5689.3877 1490 5.351713e-39
3676.0366 5742.3916 1510 5.7183319e-39
3452.4575 3499.7566 890 1.4572738e-38
3529.0186 3791.3701 970 1.5402864e-38
3549.7539 3666.5901 940 2.3509886e-38
3150.446 1401.1646 300 2.3509886e-38
3163.4517 1419.3539 310 2.3509886e-38
3176.457 1437.5432 320 2.3509886e-38
4817.0928 4508.7021 1220 1.7064899e-38
4858.1646 4512.3213 1220 1.5406121e-38
4758.2305 4264.9082 1150 1.5127027e-38
4729.5811 4147.9502 1120 1.4024271e-38
4746.2061 4125.0679 1110 1.4206128e-38
4751.3901 4093.8728 1110 1.3468202e-38
4779.4565 4079.3027 1100 1.2913946e-38
4796.0815 4056.4204 1100 1.2547654e-38
4786.6953 3997.1592 1080 1.2728105e-38
4764.3037 3919.7083 1060 1.974463e-38
4780.9287 3896.8259 1050 1.2168919e-38
4690.3804 3708.6743 1000 6.7328426e-39
4723.1396 3723.7351 1000 6.4555326e-39
4926.5361 3985.135 1080 6.2722091e-39
4809.9766 3760.6047 1020 6.0867375e-39
5016.5015 4041.7585 1100 5.8105107e-39
2373.0862 2182.3889 470 2.8595121e-39
2382.9629 2180.8247 470 3.5963498e-39
2392.8398 2179.2603 470 3.9633275e-39
2404.2812 2187.5728 470 4.2413563e-39
2404.2812 2187.5728 480 3.5027165e-39
2410.5386 2227.0803 480 3.2272044e-39
2412.103 2236.957 490 3.4123271e-39
2413.6672 2246.834 490 6.6380783e-39
2415.2314 2256.7109 500 7.0994138e-39
2434.9854 2253.5823 490 7.007221e-39
2438.114 2273.3359 500 6.271821e-39
2439.6785 2283.2129 500 7.5593186e-39
2451.1196 2291.5254 500 7.7451476e-39
2460.9966 2289.9609 510 7.7462266e-39
2462.5608 2299.8379 510 8.2976025e-39
2467.2539 2329.4688 520 8.573832e-39
2478.6951 2337.7812 520 8.8518581e-39
2480.2595 2347.6582 520 9.4950695e-39
2493.2651 2365.8474 530 1.2348078e-38
2496.3938 2385.6011 530 2.3509856e-38
2499.5225 2405.355 540 2.3509886e-38
2502.6511 2425.1089 540 2.3509886e-38
2500.5959 2476.0576 560 2.3509886e-38
2513.6016 2494.2471 560 2.3509886e-38
2523.4785 2492.6826 560 1.3561476e-38
2531.791 2481.2412 560 1.2910301e-38
2551.5449 2478.1128 560 2.3509886e-38
2562.9861 2486.4253 560 2.3509886e-38
2571.2986 2474.9839 560 2.3509886e-38
2587.9236 2452.1016 550 2.3509886e-38
2602.9844 2419.3423 550 2.3509886e-38
2612.3704 2478.6035 560 2.3509886e-38
2589.5801 2654.332 610 2.3509886e-38
2556.4219 2892.4509 670 2.3509886e-38
2521.2085 3181.5186 740 2.3509886e-38
2473.5725 3583.9248 850 2.3509886e-38
2508.5093 5977.9336 1480 2.3509886e-38
2551.6362 5930.6045 1470 1.6530388e-38
2596.8184 5832.3267 1450 8.4910629e-39
2643.5649 5743.9253 1430 6.8308115e-39
2676.8152 5698.1602 1420 5.8159365e-39
2705.4641 5815.1187 1450 4.7074226e-39
2744.9717 5808.8613 1450 4.8910838e-39
2784.4792 5802.604 1450 4.3364708e-39
2827.1155 5816.1001 1450 4.5208551e-39
2866.623 5809.8428 1450 3.9676799e-39
2903.002 5783.8315 1450 4.3375428e-39
2937.8164 5747.9434 1440 3.4141446e-39
2983.0906 5842.0195 1470 3.1368388e-39
3021.0337 5825.8853 1460 3.690014e-39
3178.573 5861.6812 1480 5.6271872e-39
3214.9519 5835.6699 1480 5.5313973e-39
3251.3306 5809.6587 1470 3.8743983e-39
3281.4521 5744.1401 1450 3.5970939e-39
3330.3457 5797.144 1470 3.5063416e-39
3575.1206 5616.6304 1430 4.1546005e-39
3627.1431 5689.3877 1450 4.6155815e-39
3679.1653 5762.1455 1470 4.7999797e-39
3530.583 3801.2468 950 1.5310668e-38
3888.7578 4848.1045 1240 2.3509886e-38
3137.4404 1382.9751 290 2.3509886e-38
3150.446 1401.1646 300 2.3509886e-38
3165.0159 1429.2307 310 2.3509886e-38
3178.0215 1447.4202 310 2.3509886e-38
3174.8928 1427.6664 310 2.3509886e-38
3187.8984 1445.8558 310 2.3509886e-38
4043.9048 3142.8394 800 2.3509886e-38
4872.2437 4601.2129 1220 1.7161039e-38
4887.3047 4568.4541 1210 1.5868168e-38
4759.7944 4274.7852 1130 1.5222091e-38
4729.5811 4147.9502 1090 1.4392697e-38
4746.2061 4125.0679 1090 1.4021741e-38
4751.3901 4093.8728 1080 1.3559691e-38
4779.4565 4079.3027 1070 1.337385e-38
4796.0815 4056.4204 1070 1.2729544e-38
4786.6953 3997.1592 1050 1.263483e-38
4764.3037 3919.7083 1030 1.8091591e-38
4780.9287 3896.8259 1030 1.5213481e-38
4729.3975 3763.2427 990 6.7335614e-39
4826.1108 3798.5479 1000 6.179296e-39
2373.0862 2182.3889 460 3.043539e-39
2384.5273 2190.7014 460 3.6881839e-39
2394.4043 2189.1372 470 4.6090556e-39
2404.2812 2187.5728 470 4.0551714e-39
2405.8455 2197.4497 470 2.7669633e-39
2408.9741 2217.2034 470 2.1223184e-39
2412.103 2236.957 480 2.9513462e-39
2413.6672 2246.834 480 6.8213892e-39
2418.3604 2276.4648 490 7.0983404e-39
2434.9854 2253.5823 480 7.46676e-39
2438.114 2273.3359 490 7.467832e-39
2439.6785 2283.2129 490 7.2812912e-39
2451.1196 2291.5254 490 7.3745672e-39
2460.9966 2289.9609 500 7.9288172e-39
2472.4377 2298.2734 500 8.1135714e-39
2465.6895 2319.5918 500 8.3897995e-39
2477.1309 2327.9043 510 8.6660305e-39
2480.2595 2347.6582 510 9.1277205e-39
2491.7007 2355.9707 510 9.4043144e-39
2503.1418 2364.2832 510 9.4972345e-39
2507.835 2393.9136 520 1.0692535e-38
2510.9636 2413.6675 530 1.6489682e-38
2508.9087 2464.6162 540 2.3509886e-38
2512.0374 2484.3701 550 2.3509886e-38
2523.4785 2492.6826 550 1.4298325e-38
2531.791 2481.2412 550 1.3740411e-38
2551.5449 2478.1128 550 2.3509886e-38
2562.9861 2486.4253 550 2.3509886e-38
2571.2986 2474.9839 550 2.3509886e-38
2587.9236 2452.1016 540 2.3509886e-38
2602.9844 2419.3423 530 2.3509886e-38
2612.3704 2478.6035 550 2.3509886e-38
2589.5801 2654.332 590 2.3509886e-38
2556.4219 2892.4509 650 2.3509886e-38
2521.2085 3181.5186 730 2.3509886e-38
2473.5725 3583.9248 830 2.3509886e-38
2508.5093 5977.9336 1440 2.3509886e-38
2550.072 5920.7275 1430 2.2499695e-38
2595.2542 5822.4497 1410 1.1350944e-38
2643.5649 5743.9253 1390 7.3829035e-39
2675.2507 5688.2837 1380 6.0917947e-39
2709.0837 5774.0469 1400 5.1673273e-39
2750.1555 5777.666 1400 4.4301056e-39
2782.9148 5792.7271 1410 4.0613245e-39
2820.3672 5837.4185 1420 4.0595238e-39
2859.8748 5831.1611 1420 3.9684002e-39
2897.8181 5815.0269 1420 3.7829313e-39
2944.0737 5787.4512 1410 3.7814852e-39
3254.4595 5829.4126 1440 3.4130656e-39
3286.145 5773.7705 1420 3.0450047e-39
3331.9102 5807.021 1430 3.3212287e-39
3570.4277 5586.9995 1390 4.7077729e-39
3620.8855 5649.8804 1400 5.1683923e-39
3674.4722 5732.5146 1430 6.185791e-39
3516.5039 3712.355 900 1.5036241e-38
3526.8716 3649.9651 890 2.3509886e-38
3505.4614 3450.863 840 2.3509886e-38
3887.1934 4838.2275 1210 2.3509886e-38
3909.0024 4784.1504 1190 2.3509886e-38
3139.0046 1392.8519 290 2.3509886e-38
3152.0103 1411.0413 300 2.3509886e-38
3165.0159 1429.2307 300 2.3509886e-38
3178.0215 1447.4202 310 2.3509886e-38
3174.8928 1427.6664 300 2.3509886e-38
3187.8984 1445.8558 310 2.3509886e-38
4043.9048 3142.8394 780 2.3509886e-38
4759.7944 4274.7852 1100 1.5316437e-38
4729.5811 4147.9502 1060 1.4667488e-38
4746.2061 4125.0679 1060 1.3930992e-38
4751.3901 4093.8728 1050 1.3376742e-38
4769.5796 4080.8672 1050 1.3373852e-38
4796.0815 4056.4204 1040 1.2913945e-38
4785.1309 3987.2822 1030 1.2637701e-38
4764.3037 3919.7083 1010 1.6156559e-38
4780.9287 3896.8259 1000 1.8438844e-38
4755.4082 3799.6213 980 6.8261256e-39
4304.3232 3061.0942 770 6.4558941e-39
4343.8311 3054.8369 770 6.0867403e-39
2374.6504 2192.2659 450 2.0308374e-39
2374.6504 2192.2659 460 2.1223142e-39
2386.0918 2200.5784 460 1.8457315e-39
2397.533 2208.8909 460 1.8453728e-39
2399.0972 2218.7678 460 1.7538932e-39
2400.6616 2228.6445 470 1.7538946e-39
2412.103 2236.957 470 3.2275715e-39
2415.2314 2256.7109 470 6.6384329e-39
2410.0479 2287.906 480 7.0061448e-39
2448.4817 2210.946 460 7.2827261e-39
2467.2539 2329.4688 490 7.9263004e-39
2477.1309 2327.9043 490 8.4837888e-39
2488.572 2336.2168 500 8.4830741e-39
2490.1365 2346.0938 500 8.6674668e-39
2501.5776 2354.4062 500 9.1273744e-39
2506.2708 2384.0369 510 9.4968715e-39
2510.9636 2413.6675 520 9.6819943e-39
2508.9087 2464.6162 530 9.9592916e-39
2512.0374 2484.3701 540 1.0972007e-38
2523.4785 2492.6826 540 1.2262024e-38
2531.791 2481.2412 540 1.4662715e-38
2553.1091 2487.9895 540 2.3509886e-38
2562.9861 2486.4253 540 2.3509886e-38
2571.2986 2474.9839 530 2.3509886e-38
2587.9236 2452.1016 530 2.3509886e-38
2604.5488 2429.219 520 2.3509886e-38
2612.3704 2478.6035 540 2.3509886e-38
2589.5801 2654.332 580 2.3509886e-38
2556.4219 2892.4509 640 2.3509886e-38
2521.2085 3181.5186 710 2.3509886e-38
2473.5725 3583.9248 810 2.3509886e-38
2515.2576 5956.6157 1400 2.3509886e-38
2555.2559 5889.5327 1380 2.0295643e-38
2592.1255 5802.6958 1360 1.3927725e-38
2642.0007 5734.0483 1350 9.8732589e-39
2681.999 5666.9653 1330 6.3701977e-39
2711.1389 5723.0981 1350 6.1879392e-39
2752.2107 5726.7173 1350 4.9858101e-39
2786.5344 5751.6553 1360 6.2758063e-39
2823.9868 5796.3462 1370 6.0914108e-39
2863.4944 5790.0889 1370 5.4420967e-39
2903.002 5783.8315 1370 5.348092e-39
2940.9451 5767.6973 1370 5.0729443e-39
3256.0237 5839.2896 1400 4.4308091e-39
3288.783 5854.3501 1400 5.1676524e-39
3577.1758 5565.6816 1340 6.1803862e-39
3611.4995 5590.6191 1350 7.2867338e-39
3663.5217 5663.3765 1370 8.3012417e-39
3416.4773 3272.5884 770 1.4667472e-38
3484.1431 3444.1147 810 2.3509886e-38
3410.1279 3040.7271 710 2.3509886e-38
3520.522 3418.1038 810 2.3509886e-38
3884.0647 4818.4736 1170 2.3509886e-38
3909.0024 4784.1504 1160 2.3509886e-38
3140.5691 1402.7288 290 2.3509886e-38
3163.4517 1419.3539 300 2.3509886e-38
3178.0215 1447.4202 300 2.3509886e-38
3178.0215 1447.4202 300 2.3509886e-38
3187.8984 1445.8558 300 2.3509886e-38
3875.323 2845.5513 680 2.3509886e-38
4055.3462 3151.1519 760 2.3509886e-38
4786.8794 4381.8667 1100 1.6788317e-38
4756.666 4255.0312 1060 1.5866733e-38
4729.5811 4147.9502 1040 1.4763272e-38
4746.2061 4125.0679 1030 1.4575642e-38
4751.3901 4093.8728 1020 1.4114656e-38
4769.5796 4080.8672 1020 1.4018862e-38
4796.0815 4056.4204 1020 1.3098339e-38
4785.1309 3987.2822 1000 1.2176376e-38
4764.3037 3919.7083 980 1.5228858e-38
4782.4932 3906.7029 980 2.1487711e-38
4294.4463 3062.6587 750 6.7332097e-39
4304.3232 3061.0942 750 6.5484485e-39
4324.0771 3057.9656 750 6.36333e-39
4330.8252 3036.6475 740 6.2696938e-39
4362.0205 3041.8313 750 5.8101492e-39
2374.6504 2192.2659 440 1.6616962e-39
2367.9023 2213.584 450 1.7538918e-39
2387.656 2210.4551 450 1.5695061e-39
2380.908 2231.7734 460 1.5698621e-39
2392.3491 2240.0859 460 1.662415e-39
2402.2261 2238.5215 460 1.8457301e-39
2412.103 2236.957 460 3.6881895e-39
2413.6672 2246.834 460 6.8221137e-39
2418.3604 2276.4648 470 6.8231843e-39
2501.5776 2354.4062 490 8.943695e-39
2504.7063 2374.1602 500 9.0366221e-39
2510.9636 2413.6675 500 9.1309701e-39
2500.5959 2476.0576 520 9.6834222e-39
2503.7246 2495.8113 530 1.0235162e-38
2523.4785 2492.6826 520 1.0512482e-38
2533.3555 2491.1182 520 1.143515e-38
2543.2322 2489.5537 520 1.7601441e-38
2562.9861 2486.4253 520 2.3509886e-38
2572.8628 2484.8608 520 2.3509886e-38
2589.488 2461.9785 520 2.3509886e-38
2599.3647 2460.4141 520 2.3509886e-38
2602.4937 2480.1677 530 2.3509886e-38
2603.5671 2550.8704 540 2.3509886e-38
2628.5046 2516.5466 530 2.3509886e-38
2642.001 2473.9104 520 2.3509886e-38
2629.0874 2648.0747 570 2.3509886e-38
2605.8062 2884.6292 620 2.3509886e-38
2580.4697 3172.1323 690 2.3509886e-38
2509 5917.1079 1350 2.3509886e-38
2552.1272 5869.7788 1340 1.7442644e-38
2600.438 5791.2544 1320 1.5041615e-38
2640.4363 5724.1714 1310 1.328707e-38
2681.999 5666.9653 1300 9.228635e-39
2716.3228 5691.9028 1300 9.4072473e-39
2747.5176 5697.0869 1310 9.0341236e-39
2788.0986 5761.5317 1320 6.9168569e-39
2828.6799 5825.9771 1340 7.3771246e-39
2866.623 5809.8428 1340 7.3745952e-39
2897.8181 5815.0269 1340 6.2682505e-39
2937.3254 5808.769 1340 5.0751023e-39
3574.0471 5545.9277 1300 5.8123268e-39
3598.9846 5511.604 1290 7.1948969e-39
3651.0071 5584.3618 1310 8.0250233e-39
3414.9131 3262.7114 740 1.4668902e-38
3466.4446 3396.2947 780 2.3509886e-38
3410.1279 3040.7271 690 2.3509886e-38
3520.522 3418.1038 790 2.3509886e-38
3880.936 4798.7197 1130 2.3509886e-38
3909.0024 4784.1504 1130 2.3509886e-38
3137.4404 1382.9751 280 2.3509886e-38
3150.446 1401.1646 290 2.3509886e-38
3165.0159 1429.2307 290 2.3509886e-38
3178.0215 1447.4202 300 2.3509886e-38
3189.4626 1455.7327 300 2.3509886e-38
3191.0271 1465.6096 300 2.3509886e-38
3945.0439 2966.1289 690 2.3509886e-38
4043.9048 3142.8394 740 2.3509886e-38
4727.0352 4259.7246 1040 1.6516397e-38
4745.2246 4246.7188 1030 1.540899e-38
4719.7041 4149.5146 1010 1.4855108e-38
4746.2061 4125.0679 1000 1.4299776e-38
4751.3901 4093.8728 990 1.3745156e-38
4768.0151 4070.9902 990 1.3283459e-38
4796.0815 4056.4204 990 1.2916462e-38
4775.2539 3988.8464 970 1.2361486e-38
4764.3037 3919.7083 950 1.3657589e-38
4782.4932 3906.7029 950 2.3509886e-38
4307.4521 3080.8481 740 6.7339286e-39
4315.7646 3069.407 730 6.8239592e-39
4322.5127 3048.0889 730 6.4558913e-39
4342.2666 3044.96 730 6.0867445e-39
4363.5845 3051.7083 730 5.9009141e-39
4011.8511 2429.0659 570 5.347006e-39
4033.1692 2435.814 570 4.9789438e-39
4041.4817 2424.3728 570 4.7949084e-39
4036.7886 2394.7422 560 4.7023471e-39
2382.9629 2180.8247 430 1.6613374e-39
2367.9023 2213.584 440 1.4776622e-39
2372.5952 2243.2146 450 1.4773063e-39
2374.1597 2253.0913 450 1.7535316e-39
2384.0366 2251.5271 450 1.5698635e-39
2395.4778 2259.8396 450 1.7538974e-39
2395.4778 2259.8396 450 4.1488061e-39
2400.1709 2289.4702 460 6.3618516e-39
2410.0479 2287.906 460 6.9135862e-39
2543.2322 2489.5537 510 1.180681e-38
2562.9861 2486.4253 510 1.4295041e-38
2572.8628 2484.8608 510 2.3509886e-38
2589.488 2461.9785 510 2.3509886e-38
2600.9292 2470.291 510 2.3509886e-38
2602.4937 2480.1677 510 2.3509886e-38
2622.2473 2477.0391 510 2.3509886e-38
2632.1243 2475.4746 510 2.3509886e-38
2645.1299 2493.6641 520 2.3509886e-38
2641.5103 2534.7361 530 2.3509886e-38
2638.9644 2646.5103 550 2.3509886e-38
2622.4314 2861.7468 600 2.3509886e-38
2597.095 3149.2498 670 2.3509886e-38
2515.7483 5895.79 1310 2.3509886e-38
2558.8752 5848.4609 1300 1.6146544e-38
2598.8735 5781.3779 1280 1.051507e-38
2638.8718 5714.2944 1270 5.9985383e-39
2680.4346 5657.0884 1260 4.8936145e-39
2716.3228 5691.9028 1270 4.3386372e-39
2755.8301 5685.6455 1270 4.6134179e-39
2783.4058 5731.9014 1280 3.96841e-39
2828.6799 5825.9771 1300 4.0598769e-39
2866.623 5809.8428 1300 3.5063486e-39
2899.3823 5824.9033 1300 3.3233979e-39
2940.4543 5828.5229 1310 5.5346455e-39
3566.2253 5496.5435 1250 5.9045168e-39
3589.5986 5452.3428 1240 7.1034243e-39
3640.0566 5515.2236 1260 8.0250191e-39
3704.5938 5666.9961 1300 8.4860015e-39
3413.3486 3252.8345 720 1.4851858e-38
3460.1873 3356.7871 750 2.3509886e-38
3410.1279 3040.7271 670 2.3509886e-38
3520.522 3418.1038 770 2.3509886e-38
3880.936 4798.7197 1100 2.3509886e-38
3909.0024 4784.1504 1100 2.3509886e-38
3139.0046 1392.8519 280 2.3509886e-38
3152.0103 1411.0413 280 2.3509886e-38
3165.0159 1429.2307 290 2.3509886e-38
3179.5859 1457.2971 290 2.3509886e-38
3189.4626 1455.7327 290 2.3509886e-38
3191.0271 1465.6096 300 2.3509886e-38
3904.4629 2901.6838 660 2.3509886e-38
4040.7761 3123.0854 720 2.3509886e-38
4759.3037 4335.6113 1020 1.6699351e-38
4745.2246 4246.7188 1000 1.5591226e-38
4718.1396 4139.6377 980 1.4854749e-38
4746.2061 4125.0679 970 1.4114677e-38
4751.3901 4093.8728 970 1.3377458e-38
4768.0151 4070.9902 960 1.3284175e-38
4796.0815 4056.4204 960 1.263988e-38
4773.6895 3978.9697 940 1.2361135e-38
4774.1807 3918.144 930 1.2917161e-38
4782.4932 3906.7029 920 2.3509886e-38
4296.0107 3072.5356 710 6.7339328e-39
4314.2002 3059.53 710 6.4573347e-39
4322.5127 3048.0889 710 6.365132e-39
4330.8252 3036.6475 710 6.0863927e-39
4362.0205 3041.8313 710 5.9941817e-39
4001.9741 2430.6304 550 5.5310427e-39
4010.2866 2419.189 550 4.9793095e-39
4020.1636 2417.6245 550 5.0718569e-39
4004.0293 2379.6814 540 4.7945483e-39
4036.7886 2394.7422 550 4.7034289e-39
2384.5273 2190.7014 430 1.4773063e-39
2392.8398 2179.2603 420 1.4776678e-39
2404.2812 2187.5728 430 1.5695019e-39
2411.6121 2297.7827 450 6.2700217e-39
2543.2322 2489.5537 500 1.1710665e-38
2562.9861 2486.4253 500 1.5308104e-38
2572.8628 2484.8608 500 2.3509886e-38
2581.1755 2473.4194 500 2.3509886e-38
2592.6167 2481.7322 500 2.3509886e-38
2604.0579 2490.0447 500 2.3509886e-38
2615.499 2498.3572 500 2.3509886e-38
2633.6885 2485.3516 500 2.3509886e-38
2644.6389 2554.4897 520 2.3509886e-38
2637.3999 2636.6335 540 2.3509886e-38
2639.5471 2778.0386 570 2.3509886e-38
2611.082 3045.7881 630 2.3509886e-38
2514.1838 5885.9131 1260 2.3509886e-38
2557.311 5838.584 1260 1.4945149e-38
2597.3093 5771.501 1240 1.0338222e-38
2638.8718 5714.2944 1230 1.1441322e-38
2680.4346 5657.0884 1220 1.0974218e-38
2716.3228 5691.9028 1230 8.9440999e-39
2755.8301 5685.6455 1230 8.2058132e-39
2783.4058 5731.9014 1240 7.3756882e-39
2828.6799 5825.9771 1260 6.1807408e-39
2858.3105 5821.2842 1260 5.721922e-39
2904.0754 5854.5342 1270 3.2308379e-39
2941.5278 5899.2256 1280 3.5992519e-39
3559.968 5457.0356 1210 5.9970684e-39
3584.9055 5422.7119 1200 7.74627e-39
3635.3635 5485.5928 1210 8.1172133e-39
3695.2075 5607.7349 1240 8.8537064e-39
3413.3486 3252.8345 700 1.4851502e-38
3453.9297 3317.2798 720 2.3509886e-38
3410.1279 3040.7271 660 2.3509886e-38
3520.522 3418.1038 740 2.3509886e-38
3879.3716 4788.8433 1070 2.3509886e-38
3909.0024 4784.1504 1070 2.3509886e-38
3139.0046 1392.8519 270 2.3509886e-38
3152.0103 1411.0413 280 2.3509886e-38
3165.0159 1429.2307 280 2.3509886e-38
3179.5859 1457.2971 290 2.3509886e-38
3191.0271 1465.6096 290 2.3509886e-38
3204.0327 1483.7991 300 2.3509886e-38
3904.4629 2901.6838 640 2.3509886e-38
4013.2007 3076.8298 680 2.3509886e-38
4701.0239 4223.3457 970 1.6884816e-38
4745.2246 4246.7188 970 1.5593379e-38
4718.1396 4139.6377 950 1.467036e-38
4746.2061 4125.0679 950 1.4393409e-38
4751.3901 4093.8728 940 1.3655118e-38
4768.0151 4070.9902 940 1.2917549e-38
4786.2046 4057.9846 930 1.263916e-38
4773.6895 3978.9697 920 1.2269646e-38
4764.3037 3919.7083 900 1.2455467e-38
4780.9287 3896.8259 900 2.3509886e-38
4283.0049 3054.3462 690 6.9158115e-39
4302.7588 3051.2175 690 6.6417203e-39
4320.9482 3038.2119 690 6.180745e-39
