# .PCD v0.7 - Point Cloud Data file format
VERSION 0.7
FIELDS x y z rgb
SIZE 4 4 4 4
TYPE F F F F
COUNT 1 1 1 1
WIDTH 1321
HEIGHT 1
VIEWPOINT 0 0 0 1 0 0 0
POINTS 1321
DATA ascii
3023.0012 2923 -180 4.7055897e-39
3043.0012 2993 -190 7.7491441e-39
3083.0015 3273 -230 8.5767552e-39
3103.0015 3283 -240 8.5781985e-39
3123.0015 3283 -240 9.0409717e-39
3143.0015 3283 -240 8.9473453e-39
3163.0015 3273 -240 9.2228504e-39
3183.0015 3263 -230 9.1320995e-39
3193.0015 3252.9998 -230 9.2235693e-39
3213.0015 3262.9998 -230 9.4112018e-39
3233.0015 3222.9998 -230 9.7796213e-39
3243.0015 3202.9998 -220 1.0145891e-38
3253.0012 3132.9998 -210 1.0332438e-38
3293.0015 3232.9998 -230 1.0700511e-38
3313.0015 3292.9998 -240 1.0610838e-38
3343.0015 3312.9998 -240 1.1254037e-38
3353.0015 3292.9998 -240 1.1626059e-38
3373.0015 3282.9998 -240 1.2639146e-38
3393.0015 3272.9998 -240 1.3651496e-38
3413.0015 3282.9998 -240 1.3838422e-38
3423.0015 3242.9998 -230 1.4484516e-38
3443.0015 3242.9998 -230 1.4855466e-38
3473.0015 3292.9998 -240 1.559302e-38
3493.0015 3302.9998 -240 1.6239456e-38
3513.0015 3302.9998 -240 1.7805682e-38
3533.0015 3292.9998 -240 1.8268805e-38
3543.0015 3272.9998 -240 1.946446e-38
3543.0015 3192.9998 -220 2.0661909e-38
3563.0015 3192.9998 -220 2.1489505e-38
3593.0015 3222.9998 -230 2.2040518e-38
3603.0015 3222.9998 -230 2.2132353e-38
3633.0015 3232.9995 -230 2.2775202e-38
3653.0015 3252.9995 -230 2.2316024e-38
3673.0015 3262.9995 -230 2.2316024e-38
3693.0015 3262.9995 -230 2.2958873e-38
3713.0015 3252.9995 -230 2.2040518e-38
3733.0015 3262.9995 -230 2.0471781e-38
3753.0015 3272.9995 -230 1.3190208e-38
3763.0015 3232.9995 -230 6.73466e-39
3783.0015 3222.9995 -230 4.3346604e-39
3793.0015 3212.9995 -230 3.320507e-39
3823.0015 3242.9995 -230 2.5833007e-39
3833.0015 3232.9995 -230 2.3996325e-39
3843.0015 3182.9995 -220 2.4911051e-39
3843.0012 3152.9995 -220 2.4907436e-39
3843.0012 3112.9995 -210 2.3067138e-39
3873.0012 3132.9995 -210 3.1353983e-39
3883.0012 3112.9995 -210 2.3992696e-39
3883.0012 3072.9995 -200 2.5829448e-39
3943.0012 3142.9995 -210 3.4116111e-39
3983.0015 3172.9995 -220 4.0551812e-39
4013.0015 3202.9995 -220 3.3176176e-39
4003.0015 3142.9995 -210 3.0413852e-39
4013.0015 3132.9995 -210 2.305981e-39
4033.0015 3122.9995 -210 1.752817e-39
4043.0015 3122.9995 -210 2.0286808e-39
4053.0012 3102.9995 -210 2.1201548e-39
4073.0012 3102.9993 -210 1.6602626e-39
4093.0012 3102.9993 -210 1.6609829e-39
4123.0015 3122.9993 -210 1.4765874e-39
4133.0015 3122.9993 -210 1.8442895e-39
2473.0005 1573.0002 20 1.5658796e-39
2483.0005 1563.0002 20 1.750275e-39
2493.0005 1563.0002 20 1.9357467e-39
2493.0005 1563.0002 20 1.749196e-39
2503.0005 1563.0002 20 8.290404e-40
2513.0005 1563.0002 20 1.0155883e-39
2513.0005 1573.0002 20 1.475856e-39
2513.0005 1583.0002 20 8.2868167e-40
2513.0005 1593.0002 20 4.6061661e-40
2523.0005 1593.0002 20 3.6842519e-40
2523.0005 1593.0002 20 3.6842379e-40
2523.0005 1603.0002 20 5.5281365e-40
2523.0005 1603.0002 20 5.5389685e-40
2533.0005 1603.0002 20 4.6025928e-40
2533.0005 1623.0002 10 4.6061942e-40
2533.0005 1633.0002 10 4.6097955e-40
2533.0005 1653.0002 10 4.6169842e-40
2533.0005 1653.0002 10 6.4609108e-40
2543.0005 1653.0002 10 6.4644981e-40
2553.0005 1643.0002 10 8.301208e-40
2563.0005 1643.0002 10 8.301222e-40
2573.0005 1633.0002 10 8.301222e-40
2573.0005 1643.0002 10 9.2267516e-40
2583.0005 1643.0002 10 1.0148722e-39
2583.0005 1643.0002 10 1.2914605e-39
2593.0005 1643.0002 10 1.569125e-39
2593.0005 1653.0002 10 1.383303e-39
2603.0005 1653.0002 10 8.2976347e-40
2663.0005 1593.0002 20 7.3612871e-40
2663.0005 1603.0002 20 7.3720771e-40
2663.0005 1623.0002 10 8.3048094e-40
2663.0005 1653.0002 10 1.0148708e-39
2663.0005 1653.0002 10 1.1989005e-39
2673.0005 1653.0002 10 1.2903787e-39
2673.0005 1653.0002 10 1.5666026e-39
2683.0005 1653.0002 10 1.6588011e-39
2683.0005 1653.0002 10 1.4758489e-39
2693.0005 1673.0001 0 1.1074294e-39
2693.0005 1693.0001 0 1.1059902e-39
2703.0005 1693.0001 0 1.1049112e-39
2703.0005 1693.0001 0 8.2868307e-40
2713.0005 1683.0001 0 8.2940194e-40
2723.0005 1683.0001 0 8.2868307e-40
2723.0005 1683.0001 0 8.290418e-40
2733.0005 1683.0001 0 1.1059888e-39
2743.0005 1683.0001 0 1.0130743e-39
2763.0005 1653.0001 10 1.1049112e-39
2763.0005 1653.0001 10 1.1045553e-39
2723.001 2483 -120 1.3818611e-39
2733.001 2503 -120 1.6573689e-39
2743.001 2513 -130 1.6573689e-39
2753.001 2533 -130 1.6573675e-39
2773.001 2543 -130 1.6577291e-39
2783.001 2553 -130 1.5662551e-39
2793.001 2523 -130 1.658092e-39
2813.001 2503 -130 1.566974e-39
2823.001 2493 -120 1.6584451e-39
2833.001 2533 -130 1.5658964e-39
2853.001 2523 -130 1.5662523e-39
2863.001 2523 -130 1.8428364e-39
2873.001 2533 -130 1.8432035e-39
2893.001 2543 -130 2.2119833e-39
2953.0012 2853 -180 1.9350474e-39
2963.0012 2903 -190 1.7524484e-39
2973.0012 2903 -190 1.8617032e-38
2993.0012 2913 -190 2.3509886e-38
3003.0012 2923 -190 6.647177e-39
3023.0012 2943 -200 7.4718411e-39
3043.0012 3023 -210 7.288896e-39
3073.0012 3073 -220 7.288896e-39
3093.0012 3113 -230 8.0257436e-39
3103.0012 3113 -230 8.3959652e-39
3133.0012 3143 -230 8.6703997e-39
3153.0012 3163 -240 8.5792719e-39
3163.0012 3093 -220 8.7651023e-39
3173.0012 3103 -230 8.7654764e-39
3193.0012 3082.9998 -220 9.2242882e-39
3213.0012 3072.9998 -220 9.3175684e-39
3223.0012 3062.9998 -220 9.9632993e-39
3243.0012 3062.9998 -220 1.0606511e-38
3263.0012 3062.9998 -220 1.1158967e-38
3273.0012 3052.9998 -220 1.1069657e-38
3293.0012 3062.9998 -220 1.1438434e-38
3313.0012 3062.9998 -220 1.1810467e-38
3333.0012 3072.9998 -220 1.2639512e-38
3353.0012 3082.9998 -220 1.3009017e-38
3373.0012 3082.9998 -220 1.3745509e-38
3393.0012 3112.9998 -230 1.3749101e-38
3413.0012 3122.9998 -230 1.4301208e-38
3433.0012 3132.9998 -230 1.6049686e-38
3443.0012 3082.9998 -220 1.586745e-38
3463.0012 3092.9998 -220 1.6791186e-38
3483.0012 3122.9998 -230 1.6606798e-38
3503.0012 3122.9998 -230 1.6974857e-38
3523.0012 3112.9998 -230 1.8265935e-38
3543.0012 3132.9998 -230 1.9275408e-38
3573.0012 3152.9998 -240 1.9003489e-38
3583.0012 3132.9998 -230 1.8821253e-38
3603.0012 3142.9998 -230 1.9281865e-38
3633.0015 3172.9995 -240 2.0754821e-38
3643.0012 3152.9995 -230 2.0203449e-38
3643.0012 3102.9995 -230 1.9928301e-38
3663.0012 3112.9995 -230 1.9739608e-38
3683.0012 3112.9995 -230 1.8359923e-38
3693.0012 3092.9995 -220 1.6420975e-38
3713.0012 3092.9995 -220 1.3929935e-38
3733.0012 3092.9995 -220 8.7669408e-39
3753.0012 3122.9995 -230 5.0747674e-39
3773.0012 3112.9995 -230 3.4119824e-39
3783.0012 3082.9995 -220 2.4911023e-39
3803.0012 3082.9995 -220 2.4907436e-39
3813.0012 3072.9995 -220 2.3067152e-39
3813.0012 3052.9995 -220 2.0301255e-39
3843.0012 3062.9995 -220 2.674416e-39
3853.0012 3042.9995 -220 2.5825763e-39
3873.0012 3042.9995 -220 2.3981906e-39
3883.0012 3032.9995 -210 3.4105321e-39
3913.0012 3062.9995 -220 3.2261492e-39
3943.0012 3102.9995 -230 4.1466538e-39
4003.0015 3172.9995 -240 4.1462838e-39
4003.0015 3142.9995 -230 4.0544497e-39
4013.0015 3122.9995 -230 1.7535359e-39
4033.0015 3122.9995 -230 1.4765916e-39
4043.0015 3122.9995 -230 2.306711e-39
4053.0012 3102.9995 -230 1.3847547e-39
4073.0012 3092.9993 -220 1.4765888e-39
4083.0012 3092.9993 -220 1.384396e-39
4113.001 3112.9993 -230 1.476593e-39
4133.001 3112.9993 -230 1.660264e-39
2473.0005 1563.0002 20 1.9353838e-39
2483.0005 1563.0002 20 2.02542e-39
2483.0005 1563.0002 20 9.208745e-40
2493.0005 1573.0002 20 5.5281365e-40
2493.0005 1573.0002 20 6.4572674e-40
2503.0005 1573.0002 20 1.3829302e-39
2503.0005 1573.0002 20 1.3829429e-39
2503.0005 1573.0002 20 7.3720631e-40
2513.0005 1583.0002 20 3.6878392e-40
2513.0005 1593.0002 10 3.6878252e-40
2513.0005 1593.0002 10 4.6061802e-40
2523.0005 1593.0002 10 3.6842379e-40
2523.0005 1593.0002 10 4.6062082e-40
2533.0005 1603.0002 10 5.5317658e-40
2543.0005 1593.0002 10 4.6061802e-40
2543.0005 1603.0002 10 8.2796e-40
2533.0005 1633.0002 10 7.3648464e-40
2533.0005 1643.0002 0 7.3648604e-40
2543.0005 1643.0002 0 1.0141477e-39
2553.0005 1633.0002 10 1.2903801e-39
2573.0005 1603.0002 10 1.291099e-39
2583.0005 1593.0002 10 1.2896598e-39
2583.0005 1603.0002 10 1.1967425e-39
2593.0005 1603.0002 10 8.2904601e-40
2593.0005 1613.0002 10 5.5281645e-40
2583.0005 1643.0002 0 5.5317518e-40
2603.0005 1613.0002 10 6.4465194e-40
2593.0005 1643.0002 0 6.4501348e-40
2613.0005 1603.0002 10 6.4501068e-40
2663.0005 1583.0002 10 8.2868027e-40
2663.0005 1593.0002 10 6.4501068e-40
2663.0005 1613.0002 10 7.3720491e-40
2663.0005 1643.0002 0 7.3756644e-40
2663.0005 1643.0002 0 8.2868307e-40
2673.0005 1653.0002 0 9.2123463e-40
2673.0005 1643.0002 0 9.2123603e-40
2683.0005 1633.0002 10 9.2123603e-40
2693.0005 1643.0001 0 9.208745e-40
2693.0005 1673.0001 0 1.1049098e-39
2693.0005 1683.0001 0 1.3804163e-39
2703.0005 1693.0001 0 1.8431923e-39
2703.0005 1683.0001 0 9.2160177e-40
2713.0005 1683.0001 0 8.290432e-40
2723.0005 1683.0001 0 9.208801e-40
2723.0005 1683.0001 0 7.3685038e-40
2733.0005 1683.0001 0 1.1974628e-39
2743.0005 1683.0001 0 1.1056301e-39
2753.0005 1663.0001 0 8.2940474e-40
2763.0005 1653.0001 0 9.208815e-40
2763.0005 1643.0001 0 1.0130757e-39
2723.001 2483 -130 1.5651719e-39
2733.001 2493 -140 1.5655306e-39
2743.001 2513 -140 1.473698e-39
2763.001 2513 -140 1.3825799e-39
2773.001 2533 -140 1.198553e-39
2783.001 2533 -140 1.3822254e-39
2793.001 2513 -140 1.5680502e-39
2813.001 2503 -140 1.6606073e-39
2823.001 2503 -140 1.660243e-39
2833.001 2523 -140 1.4751399e-39
2853.001 2513 -140 1.3833002e-39
2863.001 2523 -140 2.5796826e-39
2873.001 2533 -140 2.8580687e-39
2893.001 2543 -140 2.7630018e-39
2933.0012 2913 -210 4.5187111e-39
2953.0012 2853 -200 1.6588207e-39
2963.0012 2903 -210 1.4758616e-39
2973.0012 2903 -210 1.8442839e-39
2993.0012 2903 -210 1.3460586e-38
3003.0012 2913 -210 9.7786152e-39
3023.0012 2933 -210 7.2885261e-39
3043.0012 2983 -220 7.8406306e-39
3063.0012 3033 -230 7.8420754e-39
3083.0012 3053 -230 7.9342654e-39
3103.0012 3053 -230 7.7488022e-39
3123.0012 3073 -240 7.7502385e-39
3143.0012 3103 -240 8.3948932e-39
3153.0012 3073 -240 8.3956107e-39
3173.0012 3063 -240 8.9487817e-39
3193.0012 3062.9998 -240 9.1338904e-39
3203.0012 3062.9998 -240 9.7781906e-39
3223.0012 3042.9998 -230 9.5952287e-39
3243.0012 3042.9998 -230 1.0607583e-38
3253.0012 3032.9998 -230 1.0885251e-38
3273.0012 3022.9998 -230 1.1161478e-38
3283.0012 2992.9998 -220 1.1348404e-38
3303.0012 2992.9998 -220 1.1715383e-38
3323.0012 3002.9998 -230 1.1993402e-38
3333.0012 2982.9998 -220 1.28203e-38
3353.0012 2992.9998 -220 1.2823174e-38
3373.0012 3012.9998 -230 1.3654015e-38
3403.0012 3052.9998 -240 1.4023536e-38
3413.0012 3052.9998 -230 1.4483074e-38
3433.0012 3042.9998 -230 1.5219192e-38
3453.0012 3052.9998 -240 1.5128457e-38
3473.0012 3062.9998 -240 1.6143316e-38
3493.0012 3062.9998 -240 1.6327704e-38
3503.0012 3062.9998 -240 1.5962156e-38
3533.0012 3092.9998 -240 1.5964667e-38
3553.0012 3102.9998 -240 1.7069921e-38
3563.0012 3082.9998 -240 1.6885892e-38
3593.0012 3092.9998 -240 1.7799583e-38
3613.0012 3102.9998 -240 1.7895006e-38
3613.0012 3052.9998 -240 1.7067769e-38
3623.0012 3032.9998 -230 1.7161398e-38
3643.0012 3042.9995 -230 1.6697198e-38
3653.0012 3032.9995 -230 1.6233357e-38
3663.0012 2992.9995 -220 1.3932076e-38
3693.0012 3052.9995 -230 1.208527e-38
3713.0012 3052.9995 -240 1.0054785e-38
3733.0012 3062.9995 -240 7.6533569e-39
3753.0012 3072.9995 -240 5.2555293e-39
3763.0012 3052.9995 -230 4.979657e-39
3793.0012 3072.9995 -240 4.610157e-39
3783.0012 3012.9995 -230 3.781474e-39
3813.0012 3042.9995 -230 3.1361116e-39
3853.0012 3082.9995 -240 2.675495e-39
3853.0012 3042.9995 -230 2.4907408e-39
3883.0012 3082.9995 -240 2.3063565e-39
3893.0012 3052.9995 -230 2.5822161e-39
3923.0012 3082.9995 -240 4.2374116e-39
3943.0012 3102.9995 -240 6.813825e-39
4013.0015 3212.9995 -260 6.1684612e-39
4003.0015 3152.9995 -250 2.1205163e-39
4023.0015 3132.9995 -250 1.6606228e-39
4043.0015 3152.9995 -250 1.6606186e-39
4053.0015 3142.9995 -250 1.5687845e-39
4063.0012 3112.9995 -250 1.4765916e-39
4073.0012 3102.9993 -240 1.3847519e-39
4083.0012 3092.9993 -240 1.3843932e-39
4103.001 3092.9993 -240 1.4762301e-39
4123.001 3092.9993 -240 1.2929164e-39
2473.0005 1563.0002 10 5.5245491e-40
2473.0005 1573.0002 10 4.6061942e-40
2483.0005 1563.0002 10 4.6133548e-40
2483.0005 1573.0002 10 5.5281365e-40
2503.0005 1573.0002 10 8.2976207e-40
2503.0005 1563.0002 10 4.6062082e-40
2513.0005 1573.0002 10 4.6061661e-40
2513.0005 1583.0002 10 3.6878532e-40
2513.0005 1583.0002 10 3.6878252e-40
2513.0005 1593.0002 10 4.6061661e-40
2523.0005 1603.0002 10 3.6878252e-40
2523.0005 1603.0002 10 5.5245631e-40
2533.0005 1603.0002 10 5.5317798e-40
2533.0005 1603.0002 10 4.6061802e-40
2543.0005 1603.0002 10 4.6025928e-40
2533.0005 1633.0002 0 4.6097815e-40
2533.0005 1633.0002 0 4.6025928e-40
2543.0005 1633.0002 0 4.6061942e-40
2553.0005 1623.0002 0 3.6878532e-40
2573.0005 1603.0002 10 5.5245351e-40
2583.0005 1603.0002 10 6.4465194e-40
2583.0005 1603.0002 0 5.5281505e-40
2593.0005 1603.0002 10 5.5281505e-40
2593.0005 1613.0002 0 4.6133828e-40
2583.0005 1633.0002 0 4.6098095e-40
2603.0005 1613.0002 0 5.5281645e-40
2613.0005 1603.0002 0 5.5281645e-40
2623.0005 1603.0002 10 5.5317658e-40
2643.0005 1573.0002 10 5.5281505e-40
2653.0005 1583.0002 10 6.4573094e-40
2653.0005 1583.0002 10 7.3756784e-40
2663.0005 1583.0002 10 7.3648744e-40
2663.0005 1593.0002 10 1.1074238e-39
2663.0005 1613.0002 0 1.1113908e-39
2663.0005 1633.0002 0 9.2268638e-40
2663.0005 1643.0002 0 1.6569976e-39
2673.0005 1643.0002 0 3.1263669e-39
2683.0005 1643.0002 0 4.0475988e-39
2693.0005 1633.0001 0 2.2130454e-39
2693.0005 1633.0001 0 1.1077937e-39
2713.0005 1673.0001 0 1.3836575e-39
2723.0005 1673.0001 0 8.2868307e-40
2733.0005 1663.0001 0 8.2868307e-40
2743.0005 1663.0001 0 8.2904461e-40
2743.0005 1663.0001 0 1.381138e-39
2753.0005 1673.0001 0 1.014875e-39
2713.001 2463 -140 1.4729749e-39
2723.001 2493 -150 1.4729763e-39
2733.001 2503 -150 1.1063504e-39
2743.001 2503 -150 1.0145177e-39
2763.001 2513 -150 1.1067147e-39
2773.001 2513 -150 1.1067133e-39
2783.001 2523 -150 1.1981915e-39
2793.001 2513 -150 1.1985516e-39
2813.001 2513 -150 1.1067161e-39
2823.001 2513 -150 1.4733392e-39
2833.001 2523 -150 1.9346747e-39
2853.001 2503 -150 1.6591654e-39
2863.001 2533 -160 2.6769229e-39
2923.0012 2923 -230 5.9960076e-39
2933.0012 2903 -220 3.872613e-39
2953.0012 2853 -220 1.4744224e-39
2963.0012 2903 -220 1.1989145e-39
2973.0012 2903 -220 1.3829457e-39
2993.0012 2913 -230 2.8569925e-39
3013.0012 2933 -230 8.206895e-39
3023.0012 2953 -230 7.19562e-39
3043.0012 2993 -240 7.1041418e-39
3063.0012 2983 -240 7.8406278e-39
3083.0012 2983 -240 7.6569611e-39
3093.0012 2973 -240 8.026468e-39
3113.0012 2973 -240 8.3016158e-39
3123.0012 2953 -230 8.3026962e-39
3143.0012 2963 -240 8.3052087e-39
3163.0012 2973 -240 8.6729263e-39
3183.0012 3013 -240 9.3172083e-39
3203.0012 3012.9998 -240 9.9629448e-39
3213.0012 2972.9998 -240 1.0239162e-38
3233.0012 2992.9998 -240 1.0237367e-38
3243.0012 2982.9998 -240 1.0701226e-38
3263.0012 2962.9998 -240 1.1070729e-38
3273.0012 2952.9998 -230 1.1162927e-38
3293.0012 2952.9998 -230 1.1439162e-38
3313.0012 2972.9998 -240 1.1808658e-38
3323.0012 2952.9998 -230 1.2450435e-38
3343.0012 2962.9998 -240 1.236148e-38
3363.0012 2962.9998 -240 1.273026e-38
3373.0012 2952.9998 -230 1.30083e-38
3403.0012 2972.9998 -240 1.3283808e-38
3413.0012 2972.9998 -240 1.4021374e-38
3433.0012 2982.9998 -240 1.393314e-38
3453.0012 2992.9998 -240 1.3290653e-38
3463.0012 2962.9998 -240 1.4391241e-38
3483.0012 2962.9998 -240 1.5222808e-38
3483.0012 2912.9998 -230 1.577705e-38
3503.0012 2922.9998 -230 1.4855466e-38
3513.0012 2912.9998 -230 1.5682703e-38
3543.0012 2942.9998 -230 1.6050404e-38
3553.0012 2932.9998 -230 1.6144751e-38
3573.0012 2932.9998 -230 1.6236945e-38
3593.0012 2942.9998 -230 1.5499032e-38
3613.0012 2942.9998 -230 1.4388744e-38
3623.0012 2932.9998 -230 1.3832294e-38
3643.0012 2932.9995 -230 1.2455483e-38
3673.0012 2972.9995 -240 1.152956e-38
3683.0012 2962.9995 -240 1.0054054e-38
3693.0012 2942.9995 -230 8.1186637e-39
3723.0012 2982.9995 -240 6.4555312e-39
3723.0012 2942.9995 -230 5.4410009e-39
3743.0012 2942.9995 -230 4.8871041e-39
3743.0012 2902.9995 -220 4.2420892e-39
3763.0012 2902.9995 -230 3.6874819e-39
3783.0012 2922.9995 -230 3.044632e-39
3793.0012 2922.9995 -230 2.9506399e-39
3923.0012 3082.9995 -260 2.3985479e-39
3983.0015 3172.9995 -270 2.4896646e-39
4003.0015 3142.9995 -270 1.7524555e-39
4013.0015 3122.9995 -270 1.569139e-39
4073.0015 3202.9993 -280 1.4762329e-39
4053.0015 3122.9995 -270 1.4765888e-39
4053.0012 3102.9995 -260 1.3843932e-39
4053.0012 3062.9995 -250 1.3840345e-39
4043.0012 3002.9995 -240 1.3847491e-39
4073.0012 3022.9993 -250 2.3059894e-39
2473.0005 1563.0002 10 4.6061802e-40
2503.0005 1523.0002 10 7.372035e-40
2493.0005 1553.0002 10 5.5245491e-40
2493.0005 1563.0002 10 4.6097815e-40
2503.0005 1553.0002 10 9.2159476e-40
2513.0005 1543.0002 10 1.4744042e-39
2513.0005 1553.0002 10 6.4536801e-40
2513.0005 1573.0002 10 1.0123513e-39
2513.0005 1573.0002 0 6.4428901e-40
2513.0005 1583.0002 0 3.6950139e-40
2513.0005 1593.0002 0 7.3684898e-40
2523.0005 1593.0002 0 4.6061802e-40
2523.0005 1603.0002 0 4.6097675e-40
2533.0005 1603.0002 0 4.6062082e-40
2533.0005 1603.0002 0 4.6061802e-40
2543.0005 1603.0002 0 3.6878252e-40
2543.0005 1613.0002 0 4.6061802e-40
2533.0005 1633.0002 0 3.6878392e-40
2543.0005 1633.0002 0 4.6061942e-40
2563.0005 1613.0002 0 4.6061802e-40
2573.0005 1603.0002 0 3.6878532e-40
2583.0005 1593.0002 0 4.6097815e-40
2583.0005 1603.0002 0 5.5281505e-40
2593.0005 1593.0002 0 5.5281505e-40
2593.0005 1603.0002 0 5.5281505e-40
2603.0005 1613.0002 0 5.5245772e-40
2603.0005 1603.0002 0 5.5281785e-40
2613.0005 1603.0002 0 5.5317518e-40
2643.0005 1573.0002 0 5.5353531e-40
2653.0005 1583.0002 0 6.4465054e-40
2653.0005 1583.0002 0 1.9361068e-39
2663.0005 1583.0002 0 2.58077e-39
2663.0005 1593.0002 0 1.1052686e-39
2663.0005 1603.0002 0 8.2975927e-40
2663.0005 1633.0002 0 1.9346635e-39
2673.0005 1633.0002 0 1.1978243e-39
2673.0005 1633.0002 0 1.0130729e-39
2683.0005 1633.0002 0 1.1045469e-39
2743.0005 1803.0001 -30 1.1056343e-39
2753.0005 1823.0001 -30 1.0130771e-39
2723.001 2493 -160 1.1056301e-39
2733.001 2503 -160 1.0134401e-39
2743.001 2513 -170 1.0141575e-39
2763.001 2513 -170 1.1059944e-39
2773.001 2513 -170 1.0145177e-39
2783.001 2513 -170 1.1063532e-39
2803.001 2503 -160 1.1981901e-39
2813.001 2503 -160 1.1989075e-39
2823.001 2513 -170 9.2268077e-40
2833.001 2513 -170 1.0148792e-39
2853.001 2493 -160 1.1985516e-39
2863.001 2543 -170 2.396729e-39
2903.0012 2923 -240 5.8101576e-39
2923.0012 2893 -240 4.706331e-39
2933.0012 2873 -230 2.5811455e-39
2953.0012 2843 -230 1.383303e-39
2963.0012 2873 -240 1.1985544e-39
2973.0012 2883 -240 1.1992733e-39
2993.0012 2893 -240 1.5680544e-39
3003.0012 2933 -250 5.6264754e-39
3023.0012 2953 -250 6.9190247e-39
3043.0012 2963 -250 7.1956144e-39
3063.0012 2953 -250 7.839553e-39
3073.0012 2953 -250 7.8413537e-39
3093.0012 2943 -250 8.3008997e-39
3113.0012 2943 -250 8.486363e-39
3123.0012 2913 -240 8.6721976e-39
3143.0012 2933 -250 8.7629555e-39
3163.0012 2953 -250 8.9484229e-39
3173.0012 2963 -250 9.7778109e-39
3193.0012 2962.9998 -250 9.5030359e-39
3203.0012 2942.9998 -250 9.6874271e-39
3223.0012 2952.9998 -250 1.0056917e-38
3243.0012 2942.9998 -250 1.0423926e-38
3253.0012 2922.9998 -250 1.0240602e-38
3273.0012 2912.9998 -240 1.0885254e-38
3283.0012 2902.9998 -240 1.1071455e-38
3303.0012 2902.9998 -240 1.1532801e-38
3313.0012 2892.9998 -240 1.1899416e-38
3333.0012 2882.9998 -240 1.1532804e-38
3343.0012 2872.9998 -230 1.2453321e-38
3353.0012 2832.9998 -230 1.2639154e-38
3373.0012 2872.9998 -240 1.2731347e-38
3403.0012 2922.9998 -240 1.4019562e-38
3413.0012 2892.9998 -240 1.4206486e-38
3443.0012 2932.9998 -250 1.3932427e-38
3443.0012 2902.9998 -240 1.4020305e-38
3453.0012 2872.9998 -240 1.3747673e-38
3453.0012 2822.9998 -230 1.4945144e-38
3483.0012 2852.9998 -230 1.4852591e-38
3493.0012 2852.9998 -230 1.4763272e-38
3523.0012 2892.9998 -240 1.4575638e-38
3543.0012 2902.9998 -240 1.4668198e-38
3563.0012 2912.9998 -240 1.4019579e-38
3583.0012 2922.9998 -240 1.3653313e-38
3603.0012 2922.9998 -240 1.2732066e-38
3613.0012 2912.9998 -240 1.2913583e-38
3633.0012 2922.9995 -250 1.2360037e-38
3653.0012 2922.9995 -240 1.1162568e-38
3633.0012 2842.9995 -230 1.0146624e-38
3623.001 2772.9995 -220 9.6841971e-39
3643.001 2782.9995 -220 8.6667858e-39
3673.001 2812.9995 -220 7.4682342e-39
3683.001 2802.9995 -220 6.2696812e-39
3703.001 2822.9995 -230 5.5317504e-39
3723.001 2832.9995 -230 4.9782137e-39
3743.001 2832.9995 -230 4.2402983e-39
3753.001 2822.9995 -230 3.5045283e-39
3763.001 2802.9995 -220 2.9506399e-39
3753.001 2752.9995 -210 2.2141553e-39
3773.001 2762.9995 -210 2.305988e-39
3793.001 2772.9995 -220 2.2141553e-39
3993.0012 2912.9995 -240 1.569146e-39
4013.0012 2922.9995 -240 1.6609829e-39
4033.0012 2932.9995 -250 1.5684229e-39
2503.0005 1513.0002 10 4.6062082e-40
2513.0005 1513.0002 10 4.6061802e-40
2513.0005 1523.0002 10 5.5281224e-40
2503.0005 1553.0002 0 7.3684477e-40
2513.0005 1543.0002 0 6.4465054e-40
2513.0005 1553.0002 0 4.6097815e-40
2513.0005 1563.0002 0 4.6026068e-40
2523.0005 1563.0002 0 3.6878252e-40
2523.0005 1573.0002 0 4.6026068e-40
2513.0005 1593.0002 0 4.6061802e-40
2523.0005 1593.0002 0 5.5281224e-40
2523.0005 1593.0002 0 4.6061802e-40
2533.0005 1593.0002 0 4.6025928e-40
2533.0005 1593.0002 0 3.6878392e-40
2553.0005 1573.0002 0 4.6061942e-40
2553.0005 1593.0002 0 4.6061802e-40
2563.0005 1573.0002 0 3.6878252e-40
2563.0005 1593.0002 0 3.6842519e-40
2563.0005 1593.0002 0 3.6842519e-40
2573.0005 1593.0002 0 4.6061942e-40
2583.0005 1593.0002 0 5.5281505e-40
2583.0005 1593.0002 0 4.6097955e-40
2593.0005 1593.0002 0 4.6097955e-40
2593.0005 1593.0002 0 5.5317518e-40
2603.0005 1593.0002 0 5.5281645e-40
2613.0005 1593.0002 0 5.5281505e-40
2613.0005 1593.0002 0 5.5281645e-40
2643.0005 1573.0002 0 9.2375136e-40
2653.0005 1573.0002 0 1.1978229e-39
2653.0005 1573.0002 0 1.8424665e-39
2663.0005 1563.0002 0 1.8439168e-39
2673.0005 1573.0002 0 1.0127114e-39
2673.0005 1583.0002 0 4.0465184e-39
2673.0005 1593.0002 0 7.5427398e-39
2683.0005 1603.0002 0 7.909007e-39
2683.0005 1613.0002 0 5.7971647e-39
2693.0005 1613.0001 0 1.0134499e-39
2743.0005 1823.0001 -40 6.4537361e-40
2753.0005 1833.0001 -40 8.2940614e-40
2733.001 2483 -170 9.2160317e-40
2743.001 2503 -180 1.1056315e-39
2763.001 2503 -180 9.2232204e-40
2773.001 2503 -180 9.2160457e-40
2783.001 2503 -180 9.2232204e-40
2803.001 2503 -180 1.0141561e-39
2813.001 2513 -180 1.0141575e-39
2823.001 2523 -180 9.2268217e-40
2833.001 2533 -180 1.0145163e-39
2853.001 2503 -180 1.1989061e-39
2863.001 2543 -190 1.3825813e-39
2903.0012 2843 -240 7.0159651e-39
2923.0012 2823 -240 3.8751326e-39
2933.0012 2823 -240 2.3034684e-39
2953.0012 2813 -240 1.3825855e-39
2963.0012 2823 -240 1.1981971e-39
2973.0012 2823 -240 1.1996292e-39
2983.0012 2843 -240 1.3833044e-39
3003.0012 2873 -250 3.9647834e-39
3023.0012 2933 -260 6.2736595e-39
3043.0012 2913 -260 6.9183002e-39
3053.0012 2883 -250 7.1959787e-39
3073.0012 2873 -250 7.6565925e-39
3083.0012 2833 -240 7.7505832e-39
3093.0012 2833 -240 8.3937946e-39
3113.0012 2823 -240 8.3044801e-39
3133.0012 2873 -250 9.2257301e-39
3153.0012 2923 -260 9.2253574e-39
3173.0012 2933 -260 9.776013e-39
3193.0012 2932.9998 -260 9.8682142e-39
3203.0012 2912.9998 -260 9.5952259e-39
3223.0012 2912.9998 -260 9.9647301e-39
3233.0012 2862.9998 -250 1.0239159e-38
3243.0012 2833 -240 1.0791254e-38
3253.0012 2833 -240 1.0884523e-38
3273.0012 2833 -240 1.0794855e-38
3283.0012 2833 -240 1.1253316e-38
3303.0012 2832.9998 -240 1.1256202e-38
3313.0012 2812.9998 -240 1.1441319e-38
3323.001 2802.9998 -240 1.1441326e-38
3343.001 2792.9998 -240 1.2086698e-38
3353.001 2782.9998 -230 1.2727376e-38
3373.001 2792.9998 -240 1.2728817e-38
3383.001 2772.9998 -230 1.3468195e-38
3403.001 2792.9998 -230 1.2823194e-38
3413.001 2772.9998 -230 1.2453686e-38
3423.001 2772.9998 -230 1.3376365e-38
3443.001 2782.9998 -230 1.3656193e-38
3463.001 2782.9998 -230 1.4484164e-38
3483.001 2802.9998 -240 1.3285617e-38
3503.001 2822.9998 -240 1.3928465e-38
3523.0012 2842.9998 -250 1.3562197e-38
3543.0012 2862.9998 -250 1.3742622e-38
3573.0012 2872.9998 -250 1.3283809e-38
3583.0012 2872.9998 -250 1.2456568e-38
3593.0012 2852.9998 -250 1.2179261e-38
3593.001 2812.9995 -240 1.2362202e-38
3613.001 2832.9995 -240 1.2544078e-38
3613.001 2792.9995 -230 1.0884186e-38
3613.001 2742.9995 -230 9.5019597e-39
3633.001 2742.9995 -230 8.7643834e-39
3653.001 2752.9995 -230 8.3930729e-39
3643.001 2712.9995 -220 7.009414e-39
3673.001 2732.9995 -220 6.2714818e-39
3693.001 2742.9995 -230 5.6261082e-39
3693.001 2712.9995 -220 5.6253838e-39
3693.001 2682.9995 -210 5.1640441e-39
3703.001 2682.9995 -210 4.6108717e-39
3733.001 2692.9995 -220 4.8863754e-39
3743.001 2702.9995 -220 4.5193907e-39
3763.001 2692.9995 -220 4.2424507e-39
3793.001 2722.9995 -220 3.6892797e-39
3813.001 2742.9995 -220 3.5056031e-39
3823.001 2732.9995 -220 3.3215706e-39
3843.001 2742.9995 -230 3.5970771e-39
3863.001 2762.9995 -230 3.5960037e-39
3883.001 2772.9995 -230 3.5967212e-39
2513.0005 1503.0002 10 4.6061942e-40
2523.0005 1493.0002 10 4.6061802e-40
2523.0005 1493.0002 10 5.5245491e-40
2533.0005 1493.0002 10 5.5317238e-40
2533.0005 1493.0002 10 5.5317378e-40
2543.0005 1503.0002 10 5.5281505e-40
2523.0005 1543.0002 0 3.6842379e-40
2523.0005 1543.0002 0 4.6025928e-40
2533.0005 1543.0002 0 3.6842239e-40
2533.0005 1543.0002 0 3.6842239e-40
2543.0005 1543.0002 0 4.6025928e-40
2553.0005 1533.0002 0 4.6025928e-40
2553.0005 1543.0002 0 4.6061942e-40
2543.0005 1563.0002 0 5.5281224e-40
2553.0005 1563.0002 0 3.6842379e-40
2563.0005 1563.0002 0 4.6025928e-40
2563.0005 1563.0002 0 3.6842519e-40
2573.0005 1563.0002 0 3.6878392e-40
2573.0005 1573.0002 0 5.5209758e-40
2573.0005 1593.0002 0 4.6026068e-40
2573.0005 1593.0002 0 4.6061942e-40
2583.0005 1593.0002 0 5.5281505e-40
2583.0005 1593.0002 0 5.5317518e-40
2593.0005 1593.0002 0 5.5281645e-40
2603.0005 1593.0002 0 5.5281645e-40
2603.0005 1593.0002 0 5.5281505e-40
2613.0005 1593.0002 0 5.5317518e-40
2623.0005 1583.0002 0 5.5281505e-40
2653.0005 1553.0002 0 1.5658852e-39
2663.0005 1563.0002 0 9.208773e-40
2663.0005 1553.0002 0 9.2123743e-40
2673.0005 1553.0002 0 1.7499149e-39
2673.0005 1563.0002 0 1.4758503e-39
2673.0005 1573.0002 0 1.1056259e-39
2683.0005 1583.0002 0 1.5637258e-39
2683.0005 1593.0002 0 1.6555599e-39
2683.0005 1603.0002 0 1.6584451e-39
2693.0005 1603.0001 0 1.2896584e-39
2743.0005 1843.0001 -50 8.2940334e-40
2743.0005 1843.0001 -50 9.208815e-40
2753.0005 1843.0001 -50 9.208787e-40
2743.001 2433 -180 1.0134373e-39
2743.001 2493 -190 8.2976768e-40
2763.001 2503 -190 9.2196331e-40
2773.001 2503 -190 1.2910976e-39
2783.001 2503 -190 1.0148722e-39
2803.001 2503 -190 9.2232064e-40
2813.001 2503 -190 1.1059944e-39
2823.001 2523 -190 1.0137974e-39
2833.001 2523 -200 9.2232204e-40
2853.001 2513 -190 1.1059944e-39
2863.001 2543 -200 1.107072e-39
2873.001 2553 -200 1.2907458e-39
2893.001 2563 -200 4.8867341e-39
2903.001 2703 -230 8.3023557e-39
2923.001 2773 -250 3.9637409e-39
2933.0012 2793 -250 2.1179912e-39
2953.0012 2793 -250 1.3825827e-39
2963.001 2773 -250 1.1985502e-39
2973.0012 2783 -250 1.1989089e-39
2983.001 2683 -230 1.1992747e-39
2993.001 2653 -220 3.2293764e-39
3003.001 2653 -220 6.0906933e-39
3033.0012 2833 -260 6.7349949e-39
3053.0012 2813 -260 7.1966906e-39
3063.0012 2803 -250 7.7469973e-39
3073.001 2773 -250 7.6580302e-39
3093.001 2773 -250 8.0271799e-39
3103.001 2753 -240 8.5785572e-39
3123.001 2773 -250 9.0398885e-39
3143.0012 2823 -260 9.0416934e-39
3163.0012 2843 -260 9.6841789e-39
3173.0012 2833 -260 9.8707296e-39
3193.0012 2823 -260 9.7796213e-39
3203.001 2783 -250 1.060722e-38
3213.001 2773 -250 1.0605782e-38
3223.001 2763 -240 1.0146242e-38
3243.001 2773 -250 1.0973118e-38
3253.001 2753 -240 1.0701223e-38
3273.001 2773 -250 1.1253316e-38
3293.001 2803 -250 1.0702661e-38
3303.001 2782.9998 -250 1.0884904e-38
3323.001 2772.9998 -250 1.134912e-38
3333.001 2762.9998 -240 1.1992682e-38
3343.001 2722.9998 -240 1.1348047e-38
3353.001 2722.9998 -240 1.1717186e-38
3363.001 2692.9998 -230 1.1994491e-38
3383.001 2702.9998 -230 1.2363642e-38
3393.001 2712.9998 -230 1.2362202e-38
3413.001 2732.9998 -240 1.2085252e-38
3423.001 2712.9998 -230 1.3102291e-38
3443.001 2732.9998 -240 1.3193406e-38
3463.001 2722.9998 -240 1.310122e-38
3493.001 2802.9998 -250 1.2641682e-38
3523.001 2822.9995 -260 1.3007574e-38
3543.0012 2842.9998 -260 1.2823181e-38
3563.0012 2862.9998 -260 1.236112e-38
3573.0012 2842.9998 -260 1.272954e-38
3583.001 2822.9995 -260 1.2545146e-38
3563.001 2732.9995 -240 1.2545504e-38
3563.001 2672.9995 -230 1.2176371e-38
3593.001 2732.9995 -240 1.1716825e-38
3593.001 2692.9995 -230 1.0979616e-38
3613.001 2692.9995 -230 1.0611195e-38
3613.001 2672.9995 -230 1.0701585e-38
3633.001 2672.9995 -230 1.0145519e-38
3653.001 2682.9995 -230 8.7633058e-39
3663.001 2682.9995 -230 7.932092e-39
3683.001 2682.9995 -230 7.5625836e-39
3693.001 2672.9995 -230 6.8232207e-39
3703.001 2672.9995 -230 6.0860032e-39
3733.001 2702.9995 -230 5.5321077e-39
3743.001 2692.9995 -230 5.8998028e-39
3753.001 2692.9995 -230 5.7147011e-39
3773.001 2702.9995 -230 5.0700506e-39
3803.001 2722.9995 -240 4.7016226e-39
3813.001 2722.9995 -240 4.6105046e-39
3823.001 2712.9995 -230 4.610506e-39
3843.001 2722.9995 -240 4.7931022e-39
3863.001 2732.9995 -240 4.5172369e-39
4043.0012 2952.9995 -280 1.662415e-39
2513.0005 1493.0002 0 5.5317238e-40
2523.0005 1493.0002 0 5.5281224e-40
2533.0005 1493.0002 10 5.5281365e-40
2533.0005 1493.0002 10 5.5281365e-40
2533.0005 1493.0002 0 6.4465054e-40
2543.0005 1493.0002 0 3.6878252e-40
2543.0005 1493.0002 0 2.7694702e-40
2553.0005 1493.0002 0 3.6842239e-40
2533.0005 1533.0002 0 4.6026068e-40
2543.0005 1533.0002 0 4.6061802e-40
2543.0005 1543.0002 0 3.6842239e-40
2553.0005 1533.0002 0 3.6842379e-40
2583.0005 1583.0002 0 4.6061802e-40
2583.0005 1583.0002 0 6.4501068e-40
2593.0005 1583.0002 0 6.4501068e-40
2603.0005 1573.0002 0 6.4501208e-40
2603.0005 1583.0002 0 5.5317518e-40
2623.0005 1543.0002 0 5.5317518e-40
2633.0005 1523.0002 0 5.5317518e-40
2643.0005 1533.0002 0 6.4501348e-40
2643.0005 1523.0002 0 7.3756644e-40
2653.0005 1543.0002 0 1.8442741e-39
2653.0005 1543.0002 0 1.6627681e-39
2653.0005 1543.0002 0 1.1077909e-39
2663.0005 1553.0002 0 1.7502722e-39
2663.0005 1553.0002 0 2.4881988e-39
2673.0005 1553.0002 0 1.2925465e-39
2673.0005 1563.0002 0 1.2885808e-39
2683.0005 1563.0002 0 2.1176156e-39
2683.0005 1573.0002 0 1.3836533e-39
2683.0005 1583.0002 0 1.1070706e-39
2693.0005 1583.0001 -10 2.1208596e-39
2733.0005 1863.0001 -60 8.2868587e-40
2743.0005 1863.0001 -60 8.2904461e-40
2753.0005 1853.0001 -60 9.2052137e-40
2763.0005 1853.0001 -60 1.0130743e-39
2753.001 2473 -200 1.1978257e-39
2763.001 2493 -200 1.7499135e-39
2773.001 2503 -200 1.749196e-39
2783.001 2493 -200 1.7495562e-39
2803.001 2493 -200 1.4744084e-39
2813.001 2503 -200 1.3822142e-39
2823.001 2523 -210 1.0145135e-39
2833.001 2533 -210 9.219605e-40
2853.001 2533 -210 9.2268077e-40
2863.001 2543 -210 1.1067119e-39
2873.001 2553 -210 1.1067105e-39
2893.001 2563 -220 1.5673313e-39
2903.001 2603 -230 4.6144814e-39
2913.001 2693 -240 3.0432055e-39
2933.001 2753 -260 2.2098239e-39
2953.001 2743 -260 1.3822212e-39
2963.001 2693 -240 1.0145205e-39
2963.001 2713 -250 1.107435e-39
2973.001 2603 -220 1.2914675e-39
2993.001 2593 -220 3.2293792e-39
3003.001 2613 -230 6.3669341e-39
3023.001 2663 -240 7.1037817e-39
3043.001 2693 -250 7.1034215e-39
3053.001 2683 -240 7.196336e-39
3073.001 2683 -240 7.4729187e-39
3083.001 2693 -240 7.9342696e-39
3093.001 2683 -240 8.4867119e-39
3113.001 2683 -240 9.2228434e-39
3123.001 2653 -240 9.4994219e-39
3143.001 2673 -240 1.0051878e-38
3153.001 2683 -240 9.9604085e-39
3173.001 2713 -250 9.9640112e-39
3183.001 2683 -240 1.0144438e-38
3203.001 2703 -250 1.0606501e-38
3213.001 2693 -240 1.0700133e-38
3233.001 2693 -250 1.0699054e-38
3243.001 2683 -240 1.0791982e-38
3253.001 2683 -240 1.0882729e-38
3273.001 2673 -240 1.1531338e-38
3293.001 2703 -250 1.1344804e-38
3303.001 2712.9998 -250 1.0979622e-38
3323.001 2702.9998 -250 1.1438434e-38
3333.001 2682.9998 -240 1.1806853e-38
3343.001 2672.9998 -240 1.199197e-38
3353.001 2652.9998 -240 1.2358958e-38
3373.001 2662.9998 -240 1.1622476e-38
3383.001 2672.9998 -240 1.1991968e-38
3403.001 2682.9998 -240 1.1990538e-38
3413.001 2672.9998 -240 1.2451156e-38
3433.001 2672.9998 -240 1.2454749e-38
3433.001 2652.9998 -240 1.2915376e-38
3453.001 2652.9998 -240 1.3099404e-38
3463.001 2642.9998 -230 1.3282e-38
3473.001 2632.9998 -230 1.2456935e-38
3493.001 2632.9998 -230 1.263987e-38
3503.001 2652.9998 -240 1.2731001e-38
3523.001 2642.9995 -230 1.3006852e-38
3543.001 2652.9995 -240 1.273134e-38
3553.001 2642.9995 -230 1.2456561e-38
3573.001 2682.9995 -240 1.2087418e-38
3583.001 2662.9995 -240 1.2638064e-38
3603.001 2662.9995 -240 1.199126e-38
3613.001 2652.9995 -240 1.1255844e-38
3633.001 2662.9995 -240 1.0700144e-38
3643.001 2672.9995 -240 9.9629406e-39
3663.001 2662.9995 -240 9.1299331e-39
3673.001 2662.9995 -240 8.6696696e-39
3683.001 2652.9995 -240 8.1154001e-39
3693.001 2652.9995 -240 7.1927179e-39
3693.001 2622.9995 -230 6.6398986e-39
3723.001 2652.9995 -240 6.360788e-39
3753.001 2682.9995 -240 5.9005273e-39
3713.001 2562.9995 -220 5.1626049e-39
3793.001 2702.9995 -250 5.1625951e-39
3733.001 2552.9995 -210 4.7945399e-39
3743.001 2542.9995 -210 4.8860125e-39
3763.001 2552.9995 -210 4.6101486e-39
3773.001 2552.9995 -210 4.8856509e-39
2523.0005 1493.0002 0 5.5209478e-40
2523.0005 1493.0002 0 4.6061942e-40
2533.0005 1483.0002 0 4.6097675e-40
2533.0005 1493.0002 0 5.5281505e-40
2543.0005 1493.0002 0 4.6061802e-40
2543.0005 1493.0002 0 3.6878252e-40
2543.0005 1493.0002 0 3.6878252e-40
2553.0005 1493.0002 0 3.6842379e-40
2553.0005 1503.0002 0 3.6842379e-40
2543.0005 1533.0002 0 3.6842379e-40
2543.0005 1543.0002 0 2.7694562e-40
2553.0005 1533.0002 0 3.6842239e-40
2623.0005 1523.0002 0 6.4501208e-40
2623.0005 1533.0002 0 6.4465335e-40
2633.0005 1533.0002 0 6.4501068e-40
2633.0005 1543.0002 0 7.3720771e-40
2643.0005 1543.0002 0 9.219563e-40
2643.0005 1543.0002 0 1.3822156e-39
2653.0005 1543.0002 0 2.0265046e-39
2653.0005 1553.0002 0 2.3956458e-39
2663.0005 1553.0002 0 2.0286668e-39
2663.0005 1553.0002 0 2.3052509e-39
2673.0005 1553.0002 0 2.2116147e-39
2673.0005 1563.0002 -10 1.8431909e-39
2683.0005 1563.0002 -10 1.1081468e-39
2683.0005 1573.0002 -10 8.2976067e-40
2683.0005 1583.0002 -10 7.3684477e-40
2693.0005 1593.0001 -10 9.208745e-40
2693.0005 1603.0001 -10 1.1052644e-39
2723.0005 1873.0001 -70 7.3720771e-40
2733.0005 1863.0001 -70 6.4501488e-40
2743.0005 1863.0001 -70 6.4501348e-40
2753.0005 1863.0001 -70 8.2904461e-40
2763.0005 1863.0001 -70 9.2052277e-40
2753.001 2403 -190 1.6577207e-39
2763.001 2483 -210 1.5655236e-39
2773.001 2493 -210 1.7495562e-39
2783.001 2493 -210 1.7495576e-39
2803.001 2503 -220 1.8421119e-39
2813.001 2513 -220 1.8413945e-39
2823.001 2523 -220 2.0257815e-39
2833.001 2523 -220 1.5662453e-39
2853.001 2523 -220 9.2196331e-40
2863.001 2533 -220 1.0141561e-39
2873.001 2543 -230 1.1063518e-39
2893.001 2553 -230 1.0145219e-39
2903.001 2553 -230 3.2282862e-39
2913.001 2613 -240 4.1531656e-39
2933.001 2693 -260 1.3833086e-39
2943.001 2683 -260 1.0145205e-39
2963.001 2573 -230 1.1985488e-39
2963.001 2573 -230 1.1074336e-39
2973.001 2573 -230 1.3836617e-39
2993.001 2573 -230 4.5215571e-39
3003.001 2583 -240 6.3651222e-39
3023.001 2603 -240 6.7331929e-39
3033.001 2673 -250 7.2845772e-39
3053.001 2653 -250 7.3807217e-39
3063.001 2643 -250 8.0246562e-39
3083.001 2663 -250 8.4859874e-39
3093.001 2673 -250 8.7625813e-39
3103.001 2653 -250 8.9451649e-39
3123.001 2623 -240 9.1317226e-39
3133.001 2643 -250 9.2235525e-39
3143.001 2613 -240 9.2235567e-39
3153.001 2593 -240 9.5930721e-39
3173.001 2583 -240 1.0421743e-38
3193.001 2613 -240 9.9607686e-39
3193.001 2573 -230 9.5015813e-39
3203.001 2573 -230 1.0239162e-38
3223.001 2583 -240 1.0514308e-38
3243.001 2583 -240 1.0701936e-38
3253.001 2573 -230 1.0515026e-38
3263.001 2553 -230 1.0886698e-38
3273.001 2553 -230 1.1073254e-38
3283.001 2553 -230 1.1622818e-38
3303.001 2562.9998 -230 1.1805422e-38
3323.001 2592.9998 -240 1.1805773e-38
3343.001 2602.9998 -240 1.1712135e-38
3353.001 2612.9998 -240 1.1808655e-38
3373.001 2632.9998 -240 1.1532783e-38
3383.001 2622.9998 -240 1.1901219e-38
3403.001 2622.9998 -240 1.2544424e-38
3413.001 2602.9998 -240 1.2268933e-38
3423.001 2602.9998 -240 1.2272886e-38
3433.001 2602.9998 -240 1.2635549e-38
3443.001 2592.9998 -240 1.1990893e-38
3463.001 2582.9998 -240 1.3006489e-38
3473.001 2582.9998 -230 1.2637705e-38
3483.001 2592.9998 -240 1.2542988e-38
3503.001 2592.9998 -240 1.1346962e-38
3513.001 2582.9998 -230 1.2456564e-38
3533.001 2592.9995 -240 1.2085619e-38
3553.001 2602.9995 -240 1.1900129e-38
3553.001 2592.9995 -240 1.2634103e-38
3573.001 2602.9995 -240 1.1897257e-38
3593.001 2612.9995 -240 1.1345875e-38
3623.001 2642.9995 -250 1.0425366e-38
3633.001 2632.9995 -250 9.8721785e-39
3643.001 2632.9995 -240 9.6856307e-39
3653.001 2632.9995 -250 8.9466223e-39
3653.001 2602.9995 -240 8.3930772e-39
3673.001 2612.9995 -240 7.6562296e-39
3673.001 2572.9995 -230 7.5611515e-39
3683.001 2572.9995 -230 7.0987258e-39
3693.001 2562.9995 -230 6.6391784e-39
3713.001 2562.9995 -230 5.7168563e-39
3783.001 2682.9995 -260 5.3477067e-39
3733.001 2542.9995 -230 5.0707624e-39
3733.001 2522.9995 -220 4.9792885e-39
3753.001 2542.9995 -230 4.9782067e-39
3773.001 2562.9995 -230 4.7941784e-39
2523.0005 1483.0002 0 4.6097955e-40
2523.0005 1483.0002 0 6.4536941e-40
2533.0005 1483.0002 0 5.5245351e-40
2533.0005 1483.0002 0 3.6878252e-40
2543.0005 1493.0002 0 2.7658829e-40
2543.0005 1493.0002 0 4.6061802e-40
2543.0005 1493.0002 0 3.6842379e-40
2553.0005 1493.0002 0 3.6878252e-40
2553.0005 1503.0002 0 3.6842239e-40
2553.0005 1523.0002 0 3.6878392e-40
2543.0005 1533.0002 -10 5.5317518e-40
2633.0005 1523.0002 0 9.219563e-40
2643.0005 1523.0002 0 1.1085042e-39
2643.0005 1533.0002 -10 1.7589112e-39
2643.0005 1543.0002 -10 3.9665659e-39
2653.0005 1543.0002 -10 5.9837042e-39
2643.0005 1563.0002 -10 3.4087104e-39
2653.0005 1563.0002 -10 2.5865069e-39
2663.0005 1563.0002 -10 2.6754711e-39
2663.0005 1553.0002 -10 3.0478746e-39
2673.0005 1563.0002 -10 3.7821858e-39
2673.0005 1563.0002 -10 4.5157768e-39
2673.0005 1573.0002 -10 5.3477039e-39
2683.0005 1583.0002 -20 4.3335547e-39
2683.0005 1583.0002 -20 5.3451801e-39
2693.0005 1593.0001 -20 2.3963689e-39
2693.0005 1603.0001 -20 1.4758503e-39
2723.0005 1873.0001 -80 6.4501208e-40
2733.0005 1863.0001 -80 7.3685038e-40
2743.0005 1863.0001 -80 7.3684757e-40
2753.0005 1863.0001 -80 8.2940334e-40
2763.0005 1863.0001 -80 8.290432e-40
2773.0007 2273 -180 1.5658838e-39
2773.001 2393 -200 1.5655236e-39
2773.001 2453 -220 1.6577207e-39
2783.001 2473 -220 1.9339432e-39
2803.001 2503 -230 1.6577207e-39
2813.001 2513 -230 1.7502792e-39
2823.001 2513 -230 1.8421091e-39
2833.001 2513 -230 1.750275e-39
2853.001 2523 -230 1.0141547e-39
2863.001 2523 -230 8.3012781e-40
2873.001 2523 -230 1.0145149e-39
2893.001 2533 -240 9.2268217e-40
2903.001 2523 -240 1.9357509e-39
2913.001 2553 -240 4.3343016e-39
2933.001 2563 -240 1.2903913e-39
2943.001 2553 -240 1.1981915e-39
2953.001 2543 -240 1.1070748e-39
2963.001 2553 -240 1.1070776e-39
2973.001 2563 -240 2.1226631e-39
2993.001 2563 -240 5.9048545e-39
3003.001 2563 -240 6.7346348e-39
3013.001 2573 -250 6.9197463e-39
3033.001 2563 -240 6.8275465e-39
3043.001 2573 -250 7.7469833e-39
3053.001 2563 -240 7.7477007e-39
3073.001 2553 -240 8.116842e-39
3083.001 2573 -250 8.3937946e-39
3093.001 2503 -230 8.3019563e-39
3103.001 2503 -230 8.4845511e-39
3123.001 2523 -240 9.0388123e-39
3123.001 2473 -220 9.131724e-39
3143.001 2483 -220 9.2250028e-39
3163.001 2543 -240 9.2246399e-39
3183.001 2573 -250 9.8696394e-39
3193.001 2543 -240 9.7749368e-39
3203.001 2543 -240 1.0237362e-38
3223.001 2553 -240 9.6859712e-39
3233.001 2553 -240 1.0052603e-38
3243.001 2533 -240 1.0791261e-38
3253.001 2513 -230 1.0149861e-38
3263.001 2523 -240 1.0789106e-38
3283.001 2533 -240 1.023917e-38
3293.001 2543 -240 1.1069276e-38
3323.001 2572.9998 -250 1.0701585e-38
3333.001 2572.9998 -250 1.0516119e-38
3343.001 2582.9998 -250 1.0976739e-38
3363.001 2582.9998 -250 1.1253685e-38
3373.001 2582.9998 -250 1.1529912e-38
3393.001 2582.9998 -250 1.1991972e-38
3403.001 2572.9998 -250 1.1990894e-38
3413.001 2582.9998 -250 1.1897607e-38
3433.001 2592.9998 -250 1.2266388e-38
3443.001 2582.9998 -250 1.1899787e-38
3453.001 2562.9998 -240 1.1899415e-38
3463.001 2552.9998 -240 1.1805055e-38
3473.001 2552.9998 -240 1.171286e-38
3483.001 2542.9998 -240 1.18065e-38
3503.001 2552.9998 -240 1.1716462e-38
3523.001 2562.9995 -240 1.1991989e-38
3533.001 2572.9995 -250 1.0428247e-38
3543.001 2562.9995 -240 1.1161496e-38
3563.001 2582.9995 -250 1.1160778e-38
3583.001 2592.9995 -250 1.0700137e-38
3603.001 2612.9995 -260 1.07927e-38
3613.001 2592.9995 -250 9.8689373e-39
3623.001 2582.9995 -250 9.409034e-39
3633.001 2582.9995 -250 9.2232036e-39
3623.001 2502.9995 -230 9.1299275e-39
3623.001 2482.9995 -230 8.8508169e-39
3633.001 2472.9995 -220 7.9302997e-39
3643.001 2472.9995 -220 7.9281263e-39
3653.001 2472.9995 -220 7.1005237e-39
3683.001 2502.9995 -230 6.3625957e-39
3693.001 2492.9995 -230 5.8079786e-39
3703.001 2502.9995 -230 5.7161389e-39
3713.001 2492.9995 -230 5.5324651e-39
3733.001 2502.9995 -230 5.0714897e-39
3763.001 2542.9995 -240 5.0711324e-39
3763.001 2542.9995 -240 4.7941784e-39
2523.0005 1483.0002 0 7.3684757e-40
2533.0005 1473.0002 0 5.5245631e-40
2533.0005 1483.0002 0 5.5281505e-40
2533.0005 1483.0002 0 8.2940054e-40
2543.0005 1493.0002 0 8.2939913e-40
2543.0005 1493.0002 0 6.4572674e-40
2543.0005 1493.0002 0 6.4572954e-40
2553.0005 1493.0002 0 8.2940194e-40
2553.0005 1503.0002 0 8.2940054e-40
2553.0005 1523.0002 -10 7.372021e-40
2543.0005 1533.0002 -10 7.3684337e-40
2563.0005 1523.0002 -10 8.2939913e-40
2643.0005 1563.0002 -20 1.381854e-39
2653.0005 1563.0002 -20 2.1237351e-39
2653.0005 1563.0002 -20 5.4421135e-39
2663.0005 1563.0002 -20 1.6584578e-39
2673.0005 1563.0002 -20 1.6580822e-39
2673.0005 1563.0002 -20 2.6693517e-39
2673.0005 1573.0002 -20 1.8424735e-39
2683.0005 1573.0002 -20 1.3822156e-39
2683.0005 1573.0002 -20 1.4740497e-39
2693.0005 1583.0001 -20 1.3825729e-39
2723.0005 1873.0001 -90 7.3720771e-40
2733.0005 1863.0001 -90 6.4501348e-40
2743.0005 1863.0001 -90 7.3720631e-40
2753.0005 1873.0001 -90 7.3720911e-40
2763.0005 1863.0001 -90 9.2051997e-40
2773.0005 1853.0001 -90 1.1049098e-39
2773.0007 1943.0001 -110 7.3756924e-40
2773.0007 2233 -180 1.6573591e-39
2773.001 2333 -200 1.6577193e-39
2783.001 2423 -220 1.6573605e-39
2793.001 2463 -230 2.0254214e-39
2803.001 2493 -240 1.7502778e-39
2813.001 2493 -240 1.6584437e-39
2823.001 2503 -240 1.7491988e-39
2843.001 2503 -240 1.750275e-39
2853.001 2503 -240 1.1978257e-39
2863.001 2503 -240 9.219619e-40
2873.001 2493 -240 9.2232204e-40
2893.001 2493 -240 1.0141561e-39
2903.001 2493 -240 1.1996264e-39
2913.001 2513 -240 3.2272254e-39
2933.001 2513 -250 1.0145191e-39
2943.001 2493 -240 9.2232484e-40
2953.001 2503 -240 1.106e-39
2963.001 2513 -250 1.2921822e-39
2973.001 2513 -240 5.2591306e-39
2983.001 2503 -240 6.5491575e-39
3003.001 2523 -250 6.6406371e-39
3013.001 2523 -250 6.4569591e-39
3023.001 2493 -240 7.56475e-39
3043.001 2523 -250 8.2997885e-39
3053.001 2503 -240 8.2997969e-39
3063.001 2503 -240 8.0253708e-39
3073.001 2503 -240 8.6685724e-39
3093.001 2483 -240 8.6700298e-39
3103.001 2483 -240 8.4856329e-39
3113.001 2463 -230 8.579625e-39
3123.001 2463 -230 8.7636575e-39
3133.001 2463 -230 9.0398871e-39
3153.001 2473 -230 9.4065074e-39
3163.001 2473 -240 9.407962e-39
3183.001 2483 -240 9.8678471e-39
3193.001 2493 -240 9.8689359e-39
3213.001 2513 -240 9.5952273e-39
3223.001 2493 -240 9.9596924e-39
3233.001 2483 -240 9.7756599e-39
3243.001 2483 -240 1.0146254e-38
3263.001 2493 -240 1.005369e-38
3273.001 2483 -240 1.0054403e-38
3283.001 2483 -240 1.0054771e-38
3303.001 2502.9998 -240 1.0332442e-38
3323.001 2532.9998 -250 1.0609388e-38
3323.001 2502.9998 -240 1.0333175e-38
3343.001 2522.9998 -250 1.0885612e-38
3363.001 2522.9998 -250 1.143808e-38
3373.001 2532.9998 -250 1.1162204e-38
3383.001 2532.9998 -250 1.0887422e-38
3403.001 2552.9998 -250 1.1624627e-38
3423.001 2562.9998 -260 1.0519356e-38
3423.001 2532.9998 -250 1.0977455e-38
3433.001 2502.9998 -240 1.152991e-38
3443.001 2502.9998 -240 1.1624267e-38
3453.001 2482.9998 -240 1.1438076e-38
3473.001 2512.9998 -250 1.0703387e-38
3493.001 2542.9998 -250 1.1532077e-38
3513.001 2542.9998 -250 1.2081289e-38
3533.001 2552.9995 -250 1.1163291e-38
3533.001 2532.9995 -250 1.1344797e-38
3543.001 2522.9995 -250 1.0702299e-38
3533.001 2462.9995 -230 1.0976732e-38
3553.001 2482.9995 -240 1.0331355e-38
3563.001 2462.9995 -230 1.0329199e-38
3573.001 2472.9995 -240 9.8689359e-39
3583.001 2452.9995 -230 9.4061543e-39
3603.001 2462.9995 -230 8.4856287e-39
3613.001 2462.9995 -230 8.8511672e-39
3623.001 2452.9995 -230 8.7600506e-39
3633.001 2452.9995 -230 8.114314e-39
3643.001 2452.9995 -230 7.8359419e-39
3663.001 2462.9995 -230 6.9154191e-39
3683.001 2472.9995 -240 6.4551542e-39
3703.001 2482.9995 -240 6.0856501e-39
3713.001 2482.9995 -240 5.7179367e-39
3723.001 2492.9995 -240 5.7168619e-39
3753.001 2522.9995 -250 5.7168591e-39
3753.001 2522.9995 -250 5.0714953e-39
2523.0005 1473.0002 0 6.4500787e-40
2533.0005 1473.0002 0 6.4465194e-40
2533.0005 1483.0002 0 9.2159336e-40
2543.0005 1483.0002 0 9.2123743e-40
2543.0005 1483.0002 0 9.208773e-40
2543.0005 1493.0002 -10 8.2940054e-40
2543.0005 1493.0002 -10 9.2123603e-40
2543.0005 1513.0002 -10 9.2159476e-40
2553.0005 1513.0002 -10 8.2976067e-40
2543.0005 1523.0002 -10 1.0134317e-39
2533.0005 1553.0002 -20 1.0137918e-39
2523.0005 1593.0002 -30 1.1063462e-39
2523.0005 1613.0002 -30 1.4747671e-39
2643.0005 1563.0002 -20 2.764085e-39
2653.0005 1563.0002 -20 1.8414015e-39
2653.0005 1563.0002 -20 1.0130729e-39
2663.0005 1563.0002 -20 1.0130715e-39
2673.0005 1563.0002 -20 1.0127156e-39
2673.0005 1573.0002 -20 1.1985418e-39
2673.0005 1573.0002 -20 1.7509995e-39
2683.0005 1573.0002 -30 1.4744112e-39
2683.0005 1573.0002 -30 1.5662481e-39
2693.0005 1583.0001 -30 1.6584395e-39
2723.0005 1873.0001 -100 7.3684757e-40
2723.0005 1873.0001 -100 6.4537221e-40
2733.0005 1873.0001 -100 7.3720771e-40
2743.0005 1873.0001 -100 8.2868727e-40
2753.0005 1873.0001 -100 7.3685038e-40
2763.0005 1863.0001 -100 5.5281925e-40
2773.0005 1863.0001 -100 6.4501488e-40
2773.0005 1873.0001 -100 7.3720911e-40
2773.0007 1933.0001 -120 7.3756644e-40
2773.0007 2213 -190 1.7499135e-39
2773.001 2333 -210 1.7495548e-39
2783.001 2413 -230 1.749552e-39
2793.001 2463 -240 1.9339432e-39
2803.001 2483 -250 2.1183331e-39
2813.001 2483 -250 2.0257801e-39
2823.001 2493 -250 1.658078e-39
2843.001 2483 -250 1.6577193e-39
2853.001 2493 -250 1.3822128e-39
2863.001 2493 -250 9.219619e-40
2873.001 2493 -250 1.0137946e-39
2893.001 2483 -250 1.0137988e-39
2903.001 2483 -250 1.1989061e-39
2913.001 2503 -260 2.6744061e-39
2933.001 2503 -260 1.0145191e-39
2943.001 2493 -250 9.2268357e-40
2953.001 2503 -260 1.2003481e-39
2963.001 2513 -260 4.3389736e-39
2973.001 2473 -250 5.9034322e-39
2983.001 2453 -240 6.1800135e-39
2993.001 2483 -250 6.8239424e-39
3013.001 2473 -250 7.1019796e-39
3023.001 2473 -250 8.0228471e-39
3033.001 2493 -250 7.7480497e-39
3053.001 2493 -250 7.7473392e-39
3063.001 2493 -250 7.7480581e-39
3073.001 2483 -250 8.6678578e-39
3083.001 2473 -250 8.1161329e-39
3103.001 2463 -250 8.1175637e-39
3113.001 2453 -240 8.9451677e-39
3123.001 2453 -240 8.7625785e-39
3133.001 2463 -250 9.0377193e-39
3153.001 2463 -250 8.9448034e-39
3163.001 2463 -250 9.3132286e-39
3183.001 2473 -250 9.4072333e-39
3193.001 2473 -250 9.6830957e-39
3203.001 2483 -250 1.0053322e-38
3213.001 2473 -250 9.9622133e-39
3223.001 2463 -250 9.4090396e-39
3243.001 2473 -250 9.869645e-39
3253.001 2473 -250 9.7778011e-39
3263.001 2463 -250 9.5930665e-39
3283.001 2463 -250 9.9614889e-39
3293.001 2473 -250 1.0607932e-38
3313.001 2482.9998 -250 1.0698702e-38
3323.001 2472.9998 -250 1.0606145e-38
