# .PCD v0.7 - Point Cloud Data file format
VERSION 0.7
FIELDS x y z rgb
SIZE 4 4 4 4
TYPE F F F F
COUNT 1 1 1 1
WIDTH 1246
HEIGHT 1
VIEWPOINT 0 0 0 1 0 0 0
POINTS 1246
DATA ascii
682.73608 1172.1857 -200 4.8787888e-39
694.4917 1188.366 -200 3.4083432e-39
736.39575 1195.0029 -200 1.8421063e-39
756.2417 1205.3054 -200 4.2377382e-39
745.93921 1225.1514 -200 8.0159457e-39
737.84912 1231.0292 -200 9.9552783e-39
719.45654 1256.7529 -210 7.4642209e-39
717.24414 1270.7209 -210 4.3299408e-39
706.94165 1290.5669 -210 2.0261332e-39
660.61304 1311.866 -220 2.1176086e-39
598.104 1344.9208 -240 1.7495464e-39
571.62109 1376.5225 -240 1.1974544e-39
342.18994 1469.05 -280 8.2975927e-40
345.85571 1491.1082 -290 7.3756224e-40
253.19824 1533.7065 -300 7.372035e-40
1389.2274 1276.9231 -110 1.2896528e-39
1403.1954 1279.1354 -110 3.3179427e-39
1423.0413 1289.4379 -110 5.160056e-39
1437.0094 1291.6501 -110 5.9912558e-39
1464.9454 1296.0747 -110 6.3593124e-39
1531.12 1285.0781 -100 6.6366238e-39
1780.397 1202.8529 -50 6.8195717e-39
1772.3068 1208.7308 -50 6.4511577e-39
1778.1847 1216.821 -50 6.3589607e-39
1784.0625 1224.9111 -50 6.0823808e-39
1789.9403 1233.0013 -50 5.8994217e-39
1803.9084 1235.2136 -50 6.1742093e-39
1801.696 1249.1816 -50 6.4493557e-39
1831.8445 1239.6382 -50 6.0809347e-39
1843.6002 1255.8186 -50 5.8043464e-39
1811.2395 1279.33 -50 5.803266e-39
1803.1493 1285.2079 -60 5.7099956e-39
1817.1173 1287.4202 -60 5.6177971e-39
1822.9952 1295.5103 -60 5.8014667e-39
1820.783 1309.4783 -60 5.1578966e-39
1826.6608 1317.5685 -60 5.1564589e-39
1840.6288 1319.7808 -60 4.9731494e-39
1838.4165 1333.7488 -60 5.1607706e-39
1844.2943 1341.839 -60 5.0682233e-39
1858.2623 1344.0513 -50 5.0703827e-39
1902.3788 1336.7202 -50 5.6231935e-39
1902.3788 1336.7202 -50 6.2678455e-39
1772.9362 1430.7659 -80 6.5433534e-39
1786.9042 1432.9783 -70 6.5422688e-39
1800.8722 1435.1906 -70 6.0816507e-39
1814.8402 1437.4028 -70 5.4341303e-39
1812.6279 1451.3708 -70 4.6969254e-39
1818.5057 1459.4611 -70 3.9600835e-39
1832.4738 1461.6733 -70 3.4072684e-39
1854.532 1458.0078 -70 3.1306829e-39
1860.4098 1466.0979 -70 2.9459329e-39
1874.3778 1468.3103 -70 3.4051104e-39
1888.3458 1470.5226 -60 3.4969445e-39
1894.2238 1478.6128 -60 3.6798952e-39
1900.1016 1486.7029 -60 3.4036699e-39
1905.9795 1494.7931 -60 3.1278047e-39
1911.8573 1502.8833 -60 3.2189213e-39
1909.645 1516.8513 -70 2.6671895e-39
1891.2523 1542.575 -70 2.3913214e-39
1848.5892 1585.9324 -80 1.9317866e-39
1822.1064 1617.5339 -90 1.748473e-39
1771.3531 1666.769 -100 1.564802e-39
1710.2974 1735.8501 -120 1.7491946e-39
1568.2751 1999.7245 -160 1.9353796e-39
1574.153 2007.8147 -160 2.027215e-39
1593.9989 2018.1172 -160 2.1197736e-39
1624.1472 2008.5737 -160 2.1179729e-39
1646.2054 2004.9082 -150 2.5760728e-39
1668.2635 2001.2427 -150 2.5746323e-39
1690.3218 1997.5771 -150 2.7586606e-39
1712.38 1993.9115 -140 2.7590208e-39
1726.348 1996.1239 -140 2.6675426e-39
1732.2258 2004.214 -140 1.8399483e-39
1927.1488 1813.1511 -90 2.1158135e-39
1933.0267 1821.2413 -90 2.3913214e-39
1938.9045 1829.3314 -90 2.3002034e-39
1952.8726 1831.5438 -90 1.8406658e-39
1966.8406 1833.7561 -90 2.0246941e-39
1980.8086 1835.9684 -90 2.3916788e-39
2002.8668 1832.3029 -90 2.1154562e-39
2008.7446 1840.3929 -80 1.6566361e-39
2022.7126 1842.6053 -80 1.9321426e-39
2030.803 1836.7274 -80 2.7590208e-39
2036.6807 1844.8176 -80 3.1263669e-39
2058.739 1841.1521 -80 2.8519366e-39
2056.5266 1855.1201 -80 2.9459329e-39
2115.3701 1800.0071 -70 2.7651416e-39
2151.3962 1798.5537 -60 1.5648367e-38
2214.6643 1715.5046 -40 2.3476323e-38
2248.4783 1728.0195 -40 1.4386071e-38
2246.2661 1741.9875 -40 1.5493839e-38
2249.9316 1764.0457 -40 1.6324309e-38
2255.8093 1772.1359 -40 1.521977e-38
2245.5068 1791.9817 -50 1.2737341e-38
2251.3848 1800.0719 -50 1.0521781e-38
2257.2627 1808.1621 -50 8.5784816e-39
2260.9282 1830.2202 -50 6.3582446e-39
2213.0166 2087.5225 -80 1.1081468e-39
355.65845 977.19781 -250 2.7644157e-39
353.44604 991.16589 -250 2.7647815e-39
365.2019 1007.3462 -250 2.0257801e-39
385.04785 1017.6487 -250 1.6555557e-39
426.9519 1024.2855 -240 2.3909585e-39
438.70752 1040.4659 -240 3.1259998e-39
873.23438 1009.0589 -180 3.5855402e-39
834.99585 1024.4801 -180 3.4018692e-39
840.87378 1032.5703 -180 3.402228e-39
816.60327 1050.2039 -190 3.3096736e-39
784.24268 1073.7153 -200 3.4937033e-39
759.97217 1091.3489 -200 3.4018678e-39
655.55908 1117.7668 -220 3.5855402e-39
645.25659 1137.6128 -220 3.8610453e-39
620.98608 1155.2463 -230 3.402228e-39
670.98022 1156.0054 -220 3.219636e-39
690.82617 1166.3079 -220 3.8678808e-39
680.52368 1186.1537 -220 3.2243135e-39
722.42773 1192.7906 -220 1.8424665e-39
742.27368 1203.0931 -220 3.6860049e-39
740.06128 1217.0612 -220 6.819206e-39
729.75879 1236.907 -220 8.5716348e-39
719.45654 1256.7529 -220 5.8072275e-39
717.24414 1270.7209 -230 3.2261128e-39
706.94165 1290.5669 -230 2.0261346e-39
690.76123 1302.3225 -230 2.5775008e-39
650.31055 1331.7119 -240 2.1183289e-39
601.76953 1366.979 -250 1.8428224e-39
569.40894 1390.4905 -260 1.3829288e-39
649.55151 1381.7061 -250 1.4747629e-39
773.8103 1365.5906 -230 1.3829288e-39
632.61206 1443.4561 -260 1.56696e-39
1363.5037 1258.5305 -130 1.4747643e-39
1391.4397 1262.9551 -130 1.5662411e-39
1397.3176 1271.0452 -130 1.2900129e-39
1417.1635 1281.3477 -120 1.7488303e-39
1431.1315 1283.5601 -120 1.5644404e-39
1437.0094 1291.6501 -120 1.6559172e-39
1456.8552 1301.9526 -120 1.5644404e-39
1492.8815 1300.4994 -110 1.7481114e-39
1788.4871 1196.9751 -60 1.5637202e-39
1794.365 1205.0652 -60 1.3804079e-39
1800.2428 1213.1554 -60 1.380052e-39
1806.1207 1221.2456 -60 1.7477555e-39
1811.9985 1229.3357 -60 2.1158163e-39
1825.9666 1231.5481 -60 2.5757127e-39
1817.8765 1237.4259 -60 3.0363279e-39
1837.7223 1247.7284 -60 3.3129134e-39
1843.6002 1255.8186 -60 3.3129134e-39
1843.6002 1255.8186 -60 3.2210779e-39
1803.1493 1285.2079 -70 3.1281648e-39
1817.1173 1287.4202 -60 3.1281634e-39
1822.9952 1295.5103 -60 2.7604585e-39
1820.783 1309.4783 -70 2.9434134e-39
1826.6608 1317.5685 -70 2.6675454e-39
1840.6288 1319.7808 -60 2.2076532e-39
1846.5067 1327.871 -60 1.8406658e-39
1852.3845 1335.9612 -60 1.5640845e-39
1866.3525 1338.1735 -60 1.4722462e-39
1896.5009 1328.63 -60 1.2889339e-39
1902.3788 1336.7202 -60 1.2885752e-39
1900.1665 1350.6882 -60 1.4722462e-39
1865.5935 1388.1677 -70 1.3804121e-39
1833.2328 1411.6792 -80 1.4722462e-39
1750.1189 1484.4258 -100 1.4722448e-39
1820.718 1445.493 -80 1.3800548e-39
1826.5959 1453.5833 -80 1.563723e-39
1832.4738 1461.6733 -80 1.563723e-39
1854.532 1458.0078 -80 1.4718861e-39
1868.5 1460.2201 -80 1.3804107e-39
1882.468 1462.4324 -70 1.563723e-39
1888.3458 1470.5226 -70 1.4722462e-39
1894.2238 1478.6128 -70 1.4722476e-39
1900.1016 1486.7029 -70 1.4722462e-39
1914.0696 1488.9153 -70 1.5644404e-39
1919.9475 1497.0054 -70 1.3804121e-39
1917.7351 1510.9734 -70 1.5640831e-39
1915.5228 1524.9414 -70 1.5644404e-39
1880.95 1562.4209 -80 1.6562759e-39
1830.1967 1611.656 -100 1.4726063e-39
1779.4434 1660.8912 -110 1.4729651e-39
1702.2073 1741.728 -130 1.4729665e-39
1576.3652 1993.8467 -180 1.7517114e-39
1574.153 2007.8147 -180 2.3027229e-39
1602.089 2012.2393 -180 1.9339418e-39
1632.2374 2002.6959 -170 1.4729679e-39
1654.2955 1999.0304 -170 1.4726063e-39
1676.3538 1995.3647 -160 1.8395896e-39
1698.412 1991.6992 -160 1.7481128e-39
1712.38 1993.9115 -160 1.4726049e-39
1734.4381 1990.246 -150 1.2882165e-39
1740.316 1998.3362 -150 1.3804093e-39
1927.1488 1813.1511 -100 1.6555571e-39
1933.0267 1821.2413 -100 1.7477513e-39
1946.9948 1823.4536 -100 2.0232592e-39
1960.9628 1825.6659 -100 2.2987657e-39
1966.8406 1833.7561 -100 2.3906012e-39
1980.8086 1835.9684 -100 2.3909599e-39
2002.8668 1832.3029 -100 2.390604e-39
2008.7446 1840.3929 -90 2.2076476e-39
2016.8348 1834.5151 -90 2.4831569e-39
2046.9832 1824.9717 -90 2.7593795e-39
2071.2537 1807.3381 -80 3.2185584e-39
2077.1316 1815.4283 -80 3.4036699e-39
2083.0095 1823.5184 -80 3.0366908e-39
2096.9775 1825.7307 -80 2.3924032e-39
2121.248 1808.0972 -80 2.1172555e-39
2127.1257 1816.1874 -80 3.0384845e-39
2135.2161 1810.3094 -70 3.8689654e-39
2159.4863 1792.6759 -70 4.2388228e-39
2210.2397 1743.4407 -50 5.0660639e-39
2226.4202 1731.6851 -50 5.9883789e-39
2232.2979 1739.7751 -50 7.2816289e-39
2238.1758 1747.8654 -50 8.9411502e-39
2244.0537 1755.9556 -50 1.0685311e-38
2249.9316 1764.0457 -50 1.1695139e-38
2247.7192 1778.0137 -50 1.0959732e-38
2235.2046 1811.8276 -60 1.1696937e-38
2241.0823 1819.9177 -60 1.1149161e-38
2238.8701 1833.8857 -60 8.7517311e-39
2234.4453 1861.8219 -60 5.6185188e-39
341.69043 974.98553 -270 2.5796686e-39
331.38794 994.83142 -270 2.7633382e-39
445.34448 998.56183 -250 1.9335859e-39
435.04199 1018.4077 -260 1.4715245e-39
499.00415 1021.3791 -250 2.3906012e-39
861.47876 992.87854 -190 3.4018664e-39
873.23438 1009.0589 -190 3.7695699e-39
688.67871 1044.2612 -220 3.9532395e-39
840.87378 1032.5703 -200 3.5859003e-39
822.4812 1058.2941 -200 3.7692112e-39
748.21631 1075.1686 -220 3.7695699e-39
723.9458 1092.8021 -220 3.8617656e-39
691.58521 1116.3136 -230 3.9528822e-39
719.52124 1120.7383 -230 4.0450764e-39
651.13452 1145.7029 -240 3.2181982e-39
715.09668 1148.6743 -230 3.4029496e-39
726.85229 1164.8546 -230 4.0511945e-39
716.55005 1184.7004 -230 3.2243149e-39
744.48608 1189.1251 -230 1.7506324e-39
734.18359 1208.9709 -230 3.2235918e-39
731.97119 1222.939 -230 5.619588e-39
729.75879 1236.907 -240 6.4507906e-39
719.45654 1256.7529 -240 4.792714e-39
717.24414 1270.7209 -240 2.9491685e-39
706.94165 1290.5669 -250 2.210163e-39
704.72925 1304.5349 -250 4.4188784e-39
680.45874 1322.1685 -260 3.7753139e-39
623.82764 1363.3135 -270 3.0402754e-39
621.61548 1377.2815 -270 1.9350208e-39
663.51953 1383.9185 -260 2.1190505e-39
653.21704 1403.7643 -270 2.1194079e-39
651.00464 1417.7323 -270 1.9353796e-39
654.67017 1439.7905 -270 1.8435469e-39
1349.5356 1256.3181 -140 1.842828e-39
1371.5939 1252.6526 -140 2.1201281e-39
1391.4397 1262.9551 -140 1.9357411e-39
1397.3176 1271.0452 -140 1.7506296e-39
1417.1635 1281.3477 -140 1.5658782e-39
1431.1315 1283.5601 -130 1.3811296e-39
1437.0094 1291.6501 -130 1.3811296e-39
1448.765 1307.8306 -130 1.5651593e-39
1470.8232 1304.165 -130 1.6559172e-39
1796.5773 1191.0972 -70 1.840663e-39
1802.4552 1199.1874 -70 1.749189e-39
1808.333 1207.2776 -70 1.9324999e-39
1806.1207 1221.2456 -70 1.6562759e-39
1820.0887 1223.4579 -70 1.4722462e-39
1825.9666 1231.5481 -70 2.0254144e-39
1831.8445 1239.6382 -70 2.578584e-39
1845.8125 1241.8506 -60 2.3034376e-39
1851.6903 1249.9407 -60 1.658071e-39
1857.5682 1258.0309 -60 1.196381e-39
1817.1173 1287.4202 -70 1.1956607e-39
1817.1173 1287.4202 -70 1.2882137e-39
1822.9952 1295.5103 -70 1.3796918e-39
1828.873 1303.6005 -70 1.380052e-39
1834.751 1311.6907 -70 1.6559144e-39
1840.6288 1319.7808 -70 1.6559158e-39
1846.5067 1327.871 -70 1.7473926e-39
1860.4747 1330.0833 -70 1.6555585e-39
1874.4427 1332.2957 -70 1.6559172e-39
1896.5009 1328.63 -70 1.6555599e-39
1894.2886 1342.5981 -70 1.8395868e-39
1883.9861 1362.4438 -70 1.7481114e-39
1865.5935 1388.1677 -80 1.8399469e-39
1833.2328 1411.6792 -90 2.0232592e-39
1750.1189 1484.4258 -110 2.0232606e-39
1701.5779 1519.6929 -120 2.0236207e-39
1818.5057 1459.4611 -90 2.0239766e-39
1864.8345 1438.1619 -80 2.1150975e-39
1870.7123 1446.2521 -80 2.2080092e-39
1876.5902 1454.3423 -80 2.2072903e-39
1890.5582 1456.5546 -80 2.2994859e-39
1904.5262 1458.7668 -80 2.2072889e-39
1902.3138 1472.7349 -80 2.1154548e-39
1908.1918 1480.8251 -80 1.9314251e-39
1922.1598 1483.0374 -80 1.7477527e-39
1928.0376 1491.1274 -80 1.6562759e-39
1925.8253 1505.0955 -80 1.5648006e-39
1931.7032 1513.1858 -80 1.7484716e-39
1937.5811 1521.2759 -80 1.8403071e-39
1903.0081 1558.7554 -90 1.6566389e-39
1844.1647 1613.8684 -110 1.6569976e-39
1914.0048 1624.9299 -100 7.372035e-40
1911.7925 1638.8979 -100 7.3756364e-40
1901.49 1658.7439 -100 1.013789e-39
1574.153 2007.8147 -190 1.4740455e-39
1593.9989 2018.1172 -190 1.0141477e-39
1642.5398 1982.85 -180 9.2051576e-40
1656.5078 1985.0623 -180 1.4722476e-39
1686.6562 1975.5189 -170 1.932144e-39
1708.7144 1971.8534 -170 2.2080092e-39
1712.38 1993.9115 -170 1.8403085e-39
1710.1676 2007.8795 -170 1.5640817e-39
1732.2258 2004.214 -170 1.6555585e-39
1935.239 1807.2733 -110 1.6555599e-39
1941.1169 1815.3634 -110 1.6559172e-39
1946.9948 1823.4536 -110 2.1154534e-39
1952.8726 1831.5438 -110 2.8501374e-39
1958.7505 1839.6339 -110 3.4015105e-39
1964.6283 1847.7241 -110 3.5855402e-39
1986.6865 1844.0586 -110 3.4937033e-39
2008.7446 1840.3929 -110 3.1278005e-39
2041.1053 1816.8816 -100 2.6689831e-39
2065.376 1799.248 -90 2.1190547e-39
2079.3438 1801.4603 -90 2.1194135e-39
2085.2217 1809.5504 -90 2.2119678e-39
2093.312 1803.6726 -90 2.0282954e-39
2107.2798 1805.8849 -90 2.1176128e-39
2121.248 1808.0972 -90 1.5648034e-39
2127.1257 1816.1874 -80 1.8399483e-39
2135.2161 1810.3094 -80 1.7481128e-39
2149.1841 1812.5219 -80 1.5644446e-39
2165.3643 1800.7661 -80 1.2889367e-39
2179.3323 1802.9784 -80 1.4729665e-39
2195.5127 1791.2227 -70 2.0239809e-39
2219.7832 1773.5891 -70 2.8522982e-39
2227.8733 1767.7112 -60 3.3147113e-39
2241.8413 1769.9236 -60 3.2246778e-39
2255.8093 1772.1359 -60 3.2257596e-39
2245.5068 1791.9817 -60 2.9495343e-39
2249.1724 1814.0399 -70 2.8569799e-39
2230.7798 1839.7637 -70 2.8566226e-39
2236.6577 1847.8539 -70 2.9484525e-39
2299.9258 1764.8047 -50 3.0424516e-39
2330.0742 1755.2612 -50 4.4243126e-39
457.85913 964.74792 -270 8.2867887e-40
505.64111 979.47498 -260 7.3684337e-40
575.4812 990.5365 -250 1.1045427e-39
581.35913 998.62671 -250 1.8392267e-39
833.54272 988.45398 -210 2.5746295e-39
897.50488 991.42529 -200 3.1260026e-39
881.32471 1003.181 -200 3.1256453e-39
600.44604 1058.9233 -250 3.2181996e-39
584.26562 1070.6791 -260 3.309675e-39
701.8877 1096.4678 -240 4.0454338e-39
669.5271 1119.9791 -250 4.0447163e-39
727.61157 1114.8604 -240 3.9532409e-39
695.25073 1138.3718 -250 3.5858989e-39
737.15479 1145.0087 -240 2.8501374e-39
757.00073 1155.3112 -240 2.3909585e-39
732.73022 1172.9448 -250 1.7477527e-39
774.63428 1179.5817 -240 1.3804107e-39
734.18359 1208.9709 -250 2.3956346e-39
740.06128 1217.0612 -250 4.1455453e-39
751.81714 1233.2415 -250 4.7927154e-39
727.54663 1250.875 -250 3.5016249e-39
739.30225 1267.0554 -260 2.5796672e-39
728.99976 1286.9012 -260 2.3016369e-39
712.81958 1298.657 -260 4.6021907e-39
694.42676 1324.3807 -270 3.8664319e-39
662.06616 1347.8921 -280 3.4994556e-39
629.70557 1371.4036 -290 2.1194107e-39
633.37109 1393.4618 -290 2.2112476e-39
639.24902 1401.552 -290 2.488196e-39
642.91455 1423.6101 -290 2.395636e-39
692.90869 1424.3691 -280 2.2126853e-39
1357.6259 1250.4403 -150 2.4885463e-39
1377.4717 1260.7428 -150 2.3956346e-39
1391.4397 1262.9551 -150 2.57967e-39
1397.3176 1271.0452 -150 2.1194121e-39
1409.0732 1287.2256 -150 1.9335817e-39
1423.0413 1289.4379 -150 1.5648034e-39
1428.9192 1297.5281 -150 1.4733238e-39
1434.797 1305.6182 -150 1.5651579e-39
1790.6995 1183.0071 -70 1.6562759e-39
1796.5773 1191.0972 -70 1.9325013e-39
1802.4552 1199.1874 -70 1.6577137e-39
1816.4232 1201.3997 -70 1.7491904e-39
1814.2108 1215.3677 -70 1.8403071e-39
1828.1788 1217.5801 -70 2.1168911e-39
1850.2371 1213.9144 -70 2.7626137e-39
1856.115 1222.0046 -70 3.4990969e-39
1861.9928 1230.0948 -70 2.9480853e-39
1867.8706 1238.1849 -70 2.3941955e-39
1865.6583 1252.153 -70 1.3814883e-39
1849.478 1263.9087 -80 1.380052e-39
1831.0853 1289.6324 -80 1.4722448e-39
1836.9633 1297.7227 -80 1.7473926e-39
1828.873 1303.6005 -80 1.7477499e-39
1834.751 1311.6907 -80 1.9314237e-39
1848.719 1313.903 -80 2.0236193e-39
1854.5968 1321.9932 -80 1.9317824e-39
1860.4747 1330.0833 -80 1.8403071e-39
1874.4427 1332.2957 -80 1.8395882e-39
1896.5009 1328.63 -80 2.0236179e-39
1886.1985 1348.4758 -80 2.1154548e-39
1867.8058 1374.1997 -80 1.9317838e-39
1843.5353 1391.8333 -90 2.2991272e-39
1833.2328 1411.6792 -90 2.2994859e-39
1798.6599 1449.1586 -100 2.3913214e-39
1853.0787 1421.9816 -90 2.4831555e-39
1867.0468 1424.1938 -90 2.3909613e-39
1889.105 1420.5283 -90 2.39132e-39
1886.8926 1434.4963 -90 2.574991e-39
1892.7705 1442.5865 -90 2.3909613e-39
1906.7385 1444.7988 -90 2.2072903e-39
1920.7065 1447.0112 -90 2.2994845e-39
1918.4943 1460.9792 -90 2.2991258e-39
1916.2819 1474.9473 -90 2.2076476e-39
1930.25 1477.1594 -90 1.8395882e-39
1928.0376 1491.1274 -90 1.5640831e-39
1933.9155 1499.2178 -90 1.4726063e-39
1939.7933 1507.3079 -90 1.4726063e-39
1945.6713 1515.3979 -90 1.7484702e-39
1935.3688 1535.2439 -90 2.023978e-39
1935.3688 1535.2439 -90 1.9325041e-39
1933.1565 1549.2119 -90 2.2090896e-39
1930.9441 1563.1799 -100 2.0254186e-39
1914.0048 1624.9299 -110 1.2006942e-39
1919.8826 1633.02 -110 1.2010599e-39
1909.5802 1652.866 -110 1.200697e-39
1899.2777 1672.7119 -120 1.2907346e-39
1854.4022 1730.0371 -130 1.2900186e-39
1860.2802 1738.1273 -130 1.1978173e-39
1514.5504 2112.9219 -230 7.3684617e-40
1600.5709 2112.2278 -210 3.7764097e-39
1691.775 2033.6033 -190 3.6878084e-39
1618.2045 2136.4983 -220 2.9502517e-39
1927.1488 1813.1511 -130 2.0272207e-39
1933.0267 1821.2413 -130 1.8406672e-39
1946.9948 1823.4536 -120 2.4827968e-39
1952.8726 1831.5438 -130 3.0341685e-39
1956.5381 1853.6019 -130 3.3100351e-39
1954.3258 1867.5699 -130 2.943412e-39
2072.0127 1757.3439 -100 1.9357397e-39
2069.8005 1771.312 -100 2.0282954e-39
2075.6782 1779.4021 -100 2.7655046e-39
2081.5562 1787.4922 -100 2.7640584e-39
2087.4341 1795.5824 -100 2.3027243e-39
2101.4021 1797.7947 -100 1.4744084e-39
2107.2798 1805.8849 -100 1.4736881e-39
2121.248 1808.0972 -100 1.3814911e-39
2127.1257 1816.1874 -90 1.932144e-39
2143.3062 1804.4316 -90 2.3002034e-39
2159.4863 1792.6759 -90 2.2076504e-39
2173.4546 1794.8882 -80 1.5644446e-39
2187.4226 1797.1006 -80 1.5648006e-39
2195.5127 1791.2227 -80 2.0236221e-39
2201.3906 1799.3127 -80 2.3913214e-39
2199.1782 1813.2809 -80 1.9321454e-39
2194.7537 1841.2169 -90 1.6562787e-39
2145.4536 1926.4783 -100 1.5648006e-39
2157.2092 1942.6587 -110 1.5644432e-39
2238.8701 1833.8857 -80 1.5637258e-39
2244.7478 1841.976 -80 1.3804121e-39
2299.9258 1764.8047 -60 1.1967397e-39
2316.106 1753.0491 -60 1.1967411e-39
2313.8938 1767.0171 -60 1.0134317e-39
2327.8618 1769.2294 -60 1.104907e-39
774.00488 957.54651 -230 7.3648464e-40
932.07788 953.94586 -200 1.1960194e-39
857.81323 970.82037 -220 2.1147345e-39
659.28955 1003.8104 -250 2.7579418e-39
648.98706 1023.6562 -260 2.2991244e-39
881.32471 1003.181 -220 1.3807694e-39
666.62061 1047.9268 -260 8.2975646e-40
672.49829 1056.0168 -260 1.1967411e-39
812.17871 1078.1399 -240 4.1369119e-39
720.97461 1156.7644 -260 3.9532409e-39
704.79419 1168.5201 -270 3.1263613e-39
680.52368 1186.1537 -270 2.022899e-39
796.69263 1175.9161 -250 1.1041854e-39
734.18359 1208.9709 -270 1.8431825e-39
754.0293 1219.2734 -260 3.0409984e-39
765.78516 1235.4537 -260 3.594175e-39
757.69507 1241.3317 -270 2.7644186e-39
761.3606 1263.3899 -270 3.0388404e-39
745.18018 1275.1455 -270 4.3277604e-39
726.7876 1300.8693 -280 4.6958212e-39
702.51709 1318.5029 -280 2.303439e-39
676.03418 1350.1045 -290 2.3041565e-39
651.76367 1367.738 -300 1.8446203e-39
649.55151 1381.7061 -300 2.3023614e-39
661.30713 1397.8865 -300 3.2214338e-39
673.06299 1414.0667 -300 3.7738873e-39
700.99902 1418.4913 -300 3.6816945e-39
1357.6259 1250.4403 -170 3.5894947e-39
1385.5619 1254.8649 -160 3.5891373e-39
1399.5299 1257.0771 -160 4.051905e-39
1397.3176 1271.0452 -160 4.883825e-39
1417.1635 1281.3477 -160 5.1586126e-39
1423.0413 1289.4379 -160 2.3005663e-39
1428.9192 1297.5281 -160 1.8403085e-39
1434.797 1305.6182 -160 1.9321426e-39
1432.5847 1319.5862 -160 1.9321412e-39
1810.5453 1193.3096 -80 2.0246969e-39
1824.5133 1195.5219 -80 1.7499093e-39
1838.4813 1197.7341 -80 2.0254144e-39
1844.3593 1205.8243 -80 1.9321412e-39
1850.2371 1213.9144 -80 2.3002006e-39
1850.2371 1213.9144 -80 2.8548121e-39
1848.0248 1227.8826 -80 3.4998144e-39
1853.9026 1235.9727 -80 3.3154259e-39
1859.7805 1244.0629 -80 2.577149e-39
1857.5682 1258.0309 -80 1.932144e-39
1857.5682 1258.0309 -80 1.747394e-39
1855.3558 1271.9989 -80 1.747394e-39
1853.1436 1285.9669 -90 1.9314237e-39
1859.0215 1294.0571 -90 2.0232592e-39
1856.8091 1308.0251 -90 2.0236179e-39
1862.687 1316.1152 -90 2.1150933e-39
1862.687 1316.1152 -90 2.0232592e-39
1868.5648 1324.2054 -90 1.931781e-39
1874.4427 1332.2957 -90 2.0232578e-39
1880.3206 1340.3857 -90 2.1158121e-39
1878.1083 1354.3538 -90 2.2991258e-39
1843.5353 1391.8333 -100 2.3909627e-39
1835.4452 1397.7112 -100 2.2991258e-39
1841.323 1405.8013 -100 2.4831569e-39
1855.291 1408.0135 -100 2.4827968e-39
1869.259 1410.2258 -100 2.6664706e-39
1889.105 1420.5283 -100 2.574991e-39
1903.073 1422.7407 -90 2.574991e-39
1903.073 1422.7407 -90 2.574991e-39
1908.9508 1430.8308 -90 2.5753512e-39
1914.8286 1438.9209 -90 2.574991e-39
1920.7065 1447.0112 -90 2.3913214e-39
1918.4943 1460.9792 -100 2.5753512e-39
1916.2819 1474.9473 -100 2.5749896e-39
1922.1598 1483.0374 -100 2.758662e-39
1919.9475 1497.0054 -100 2.39132e-39
1925.8253 1505.0955 -100 2.1161723e-39
1931.7032 1513.1858 -100 1.8406686e-39
1937.5811 1521.2759 -100 2.7593823e-39
1935.3688 1535.2439 -100 3.3111127e-39
1935.3688 1535.2439 -100 3.587701e-39
1941.2466 1543.334 -100 3.3132735e-39
1939.0343 1557.302 -100 3.4991081e-39
1920.6417 1583.0259 -110 3.1350017e-39
1918.4293 1596.9939 -110 3.0449599e-39
1914.0048 1624.9299 -120 3.3215454e-39
1911.7925 1638.8979 -120 3.1342843e-39
1901.49 1658.7439 -120 2.0279353e-39
1899.2777 1672.7119 -130 1.2903731e-39
1862.4924 1724.1593 -140 1.1052658e-39
1860.2802 1738.1273 -140 1.0130701e-39
1541.0332 2081.3203 -240 9.219535e-40
1520.4283 2121.0122 -250 1.6569962e-39
1532.1841 2137.1924 -250 2.5757071e-39
1535.8496 2159.2505 -250 3.682412e-39
1712.38 1993.9115 -200 4.053714e-39
1726.348 1996.1239 -200 4.1469901e-39
1697.6528 2041.6935 -210 4.2377452e-39
1701.3185 2063.7517 -210 3.5912996e-39
2072.0127 1757.3439 -110 2.4878303e-39
2077.8906 1765.4341 -110 2.5789511e-39
2075.6782 1779.4021 -110 2.2105301e-39
2081.5562 1787.4922 -110 2.4889093e-39
2087.4341 1795.5824 -110 2.858775e-39
2101.4021 1797.7947 -110 2.8591323e-39
2107.2798 1805.8849 -110 2.4871156e-39
2113.1577 1813.9751 -110 1.6584325e-39
2135.2161 1810.3094 -100 2.0243382e-39
2143.3062 1804.4316 -100 2.023978e-39
2159.4863 1792.6759 -100 2.0239794e-39
2181.5447 1789.0104 -90 1.3811296e-39
2187.4226 1797.1006 -90 1.6566389e-39
2203.6028 1785.3447 -90 2.3916788e-39
2211.6929 1779.467 -90 2.6679055e-39
2217.5708 1787.5571 -90 2.5767903e-39
2194.7537 1841.2169 -100 2.2108846e-39
2290.3823 1734.6564 -70 2.023262e-39
2296.2603 1742.7466 -70 1.7481142e-39
2302.1382 1750.8367 -70 1.4729665e-39
2308.0159 1758.9269 -70 1.1978187e-39
2316.106 1753.0491 -70 1.3814897e-39
2313.8938 1767.0171 -70 1.4729679e-39
2330.0742 1755.2612 -60 1.472249e-39
2333.7397 1777.3196 -60 1.6577165e-39
2333.7397 1777.3196 -70 2.3027243e-39
914.44434 929.67535 -210 7.372035e-40
920.32227 937.7655 -220 7.3684197e-40
932.07788 953.94586 -210 1.1956607e-39
937.95569 962.03601 -210 1.9310622e-39
957.80164 972.3385 -210 2.7579418e-39
518.8501 1031.6815 -300 2.4827926e-39
588.69019 1042.743 -290 1.8399469e-39
600.44604 1058.9233 -290 1.1049028e-39
664.4082 1061.8948 -270 1.3804093e-39
806.30078 1070.0498 -250 3.7699273e-39
906.28931 1071.5679 -230 4.1372721e-39
912.16724 1079.6581 -230 3.9535969e-39
932.01306 1089.9606 -230 3.8617642e-39
753.33521 1133.2529 -270 3.9532423e-39
729.0647 1150.8866 -270 3.7699287e-39
704.79419 1168.5201 -280 3.3107498e-39
702.58179 1182.4882 -280 2.6693405e-39
774.63428 1179.5817 -270 1.7517058e-39
764.33179 1199.4275 -280 1.9360998e-39
762.11963 1213.3955 -280 2.3959948e-39
781.96533 1223.698 -270 2.9488084e-39
801.81128 1234.0005 -270 2.3038005e-39
791.50879 1253.8464 -280 2.8537317e-39
781.2063 1273.6923 -280 4.9709676e-39
756.93579 1291.3259 -290 4.8787747e-39
724.5752 1314.8373 -300 3.1324724e-39
692.2146 1338.3488 -310 4.4232084e-39
651.76367 1367.738 -320 5.2529551e-39
641.46118 1387.584 -320 5.2533208e-39
1237.7915 1238.6198 -200 4.5182767e-39
1235.5791 1252.5878 -200 4.0580216e-39
1241.457 1260.678 -200 3.0481885e-39
1365.7159 1244.5625 -180 2.0311681e-39
1393.652 1248.9871 -170 2.4874715e-39
1399.5299 1257.0771 -170 3.1295969e-39
1411.2856 1273.2576 -170 4.2323432e-39
1425.2537 1275.4698 -170 4.7858743e-39
1431.1315 1283.5601 -170 3.8657228e-39
1450.9774 1293.8625 -170 3.036688e-39
1448.765 1307.8306 -170 2.9430505e-39
1812.7576 1179.3416 -90 2.8508548e-39
1818.6355 1187.4316 -90 2.3913186e-39
1832.6035 1189.644 -90 1.6562759e-39
1846.5715 1191.8563 -80 1.7481114e-39
1852.4493 1199.9464 -80 2.0236165e-39
1850.2371 1213.9144 -90 2.1150947e-39
1850.2371 1213.9144 -90 2.2076476e-39
1848.0248 1227.8826 -90 2.2083665e-39
1853.9026 1235.9727 -90 2.1168939e-39
1859.7805 1244.0629 -90 1.6559186e-39
1857.5682 1258.0309 -90 1.6555599e-39
1857.5682 1258.0309 -90 1.8395868e-39
1855.3558 1271.9989 -90 1.7477513e-39
1861.2338 1280.0891 -90 1.8395896e-39
1859.0215 1294.0571 -90 2.1150947e-39
1864.8993 1302.1472 -90 2.0236193e-39
1870.7771 1310.2373 -90 2.2072903e-39
1876.655 1318.3276 -100 2.023978e-39
1882.5328 1326.4177 -100 2.1150961e-39
1874.4427 1332.2957 -100 2.2072917e-39
1872.2303 1346.2637 -100 2.3909613e-39
1870.0181 1360.2317 -100 2.4827968e-39
1797.2067 1413.1323 -120 2.5749924e-39
1835.4452 1397.7112 -110 2.8504975e-39
1833.2328 1411.6792 -110 3.3100351e-39
1988.3992 1336.026 -80 3.9535997e-39
1897.1951 1414.6504 -100 3.4025895e-39
1911.1631 1416.8628 -100 3.9536011e-39
1903.073 1422.7407 -100 4.0454352e-39
1900.8606 1436.7087 -110 4.2294663e-39
1898.6483 1450.6768 -110 4.0457953e-39
1896.436 1464.6448 -110 4.3209431e-39
1902.3138 1472.7349 -110 3.861767e-39
1900.1016 1486.7029 -110 3.7695713e-39
1914.0696 1488.9153 -110 3.2181982e-39
1911.8573 1502.8833 -110 3.1252879e-39
1917.7351 1510.9734 -110 3.0338084e-39
1931.7032 1513.1858 -110 2.5742736e-39
1929.4908 1527.1538 -110 2.3909613e-39
1935.3688 1535.2439 -110 2.9426931e-39
1935.3688 1535.2439 -110 3.4969431e-39
1941.2466 1543.334 -110 3.5920142e-39
1939.0343 1557.302 -110 3.3183112e-39
1928.7318 1577.1479 -120 3.4101467e-39
1934.6097 1585.2382 -120 3.5016235e-39
1932.3973 1599.2062 -120 3.3179511e-39
1930.1851 1613.1742 -120 2.5800315e-39
1933.8506 1635.2324 -130 1.7502736e-39
1939.7285 1643.3225 -130 1.1056259e-39
1937.5162 1657.2905 -130 9.2123463e-40
1852.1899 1744.0051 -150 8.2939913e-40
1663.1448 1943.1582 -210 1.0127086e-39
1565.3037 2063.6868 -240 8.290404e-40
1552.7889 2097.5007 -250 1.7481114e-39
1566.757 2099.7129 -250 2.5753512e-39
1588.8152 2096.0474 -250 4.050833e-39
1738.8628 1962.3099 -200 4.6994324e-39
1752.8308 1964.5222 -200 5.4366429e-39
1740.316 1998.3362 -200 4.9760235e-39
1743.9816 2020.3943 -210 4.0526364e-39
1871.2119 1940.3167 -180 2.3009251e-39
2072.0127 1757.3439 -120 2.1197736e-39
2069.8005 1771.312 -120 2.6736621e-39
2075.6782 1779.4021 -120 3.0428061e-39
2081.5562 1787.4922 -120 3.8732744e-39
2095.5242 1789.7046 -120 4.1473502e-39
2101.4021 1797.7947 -120 3.1357206e-39
2107.2798 1805.8849 -120 2.5796686e-39
2121.248 1808.0972 -120 2.0261374e-39
2135.2161 1810.3094 -110 2.3005635e-39
2143.3062 1804.4316 -110 2.116531e-39
2159.4863 1792.6759 -110 1.9325027e-39
2181.5447 1789.0104 -100 1.1974614e-39
2181.5447 1789.0104 -100 1.5647992e-39
2203.6028 1785.3447 -100 2.2994845e-39
2211.6929 1779.467 -100 2.5760714e-39
2217.5708 1787.5571 -100 2.3019999e-39
2325.7144 1647.1826 -60 2.3945556e-39
2305.1094 1686.8745 -70 2.3016439e-39
2310.9873 1694.9646 -70 2.3931207e-39
2306.5627 1722.9006 -70 2.0239809e-39
2304.3503 1736.8687 -70 1.8403071e-39
2304.3503 1736.8687 -70 1.3814897e-39
2310.2283 1744.9589 -70 1.565881e-39
2316.106 1753.0491 -70 1.7499093e-39
2321.9839 1761.1392 -70 1.6573563e-39
2338.1643 1749.3835 -70 1.5644418e-39
2344.0422 1757.4736 -70 2.0254172e-39
2349.9199 1765.5637 -70 1.9346621e-39
950.47046 928.22211 -220 7.3684337e-40
956.34839 936.31226 -220 6.4500647e-40
976.19421 946.61475 -220 6.4464634e-40
452.67554 1042.6782 -330 1.1967383e-39
530.60596 1047.8618 -310 2.1168925e-39
652.65259 1045.7144 -290 3.2221513e-39
708.52466 1054.5637 -280 3.4069027e-39
728.37061 1064.8661 -280 3.4079803e-39
792.33276 1067.8374 -270 3.5923715e-39
922.46948 1059.8121 -240 3.6842042e-39
920.25732 1073.7803 -250 3.8678766e-39
932.01306 1089.9606 -250 3.6842056e-39
739.36719 1131.0406 -290 3.8685969e-39
715.09668 1148.6743 -290 3.7764013e-39
726.85229 1164.8546 -290 3.684207e-39
732.73022 1172.9448 -290 3.6842084e-39
758.4541 1191.3374 -290 2.9470063e-39
778.2998 1201.6399 -290 2.3027201e-39
784.17773 1209.73 -290 2.027215e-39
826.08179 1216.3669 -280 2.5800273e-39
854.01782 1220.7915 -280 2.0275766e-39
821.65723 1244.303 -290 1.8424651e-39
819.44482 1258.271 -290 2.9452043e-39
801.05225 1283.9948 -300 3.2217898e-39
798.83984 1297.9628 -300 3.2239492e-39
692.2146 1338.3488 -320 4.6058004e-39
659.854 1361.8601 -330 5.527028e-39
663.51953 1383.9185 -330 5.7124997e-39
1245.8816 1232.7418 -210 5.8046939e-39
1241.457 1260.678 -210 5.8976056e-39
1365.7159 1244.5625 -190 6.2649504e-39
1393.652 1248.9871 -180 6.1731135e-39
1413.4979 1259.2896 -180 6.5404569e-39
1411.2856 1273.2576 -180 6.0816339e-39
1425.2537 1275.4698 -180 5.5266749e-39
1431.1315 1283.5601 -180 3.4087048e-39
1450.9774 1293.8625 -180 2.2094497e-39
1456.8552 1301.9526 -180 1.9321412e-39
1820.8478 1173.4636 -90 2.2076476e-39
1826.7256 1181.5538 -100 2.115452e-39
1840.6936 1183.7661 -90 2.2987643e-39
1846.5715 1191.8563 -90 2.5742708e-39
1852.4493 1199.9464 -90 2.4824353e-39
1858.3273 1208.0366 -90 2.573912e-39
1856.115 1222.0046 -90 2.3902424e-39
1856.115 1222.0046 -100 2.0228976e-39
1853.9026 1235.9727 -100 1.9307048e-39
1859.7805 1244.0629 -100 1.7470324e-39
1857.5682 1258.0309 -100 1.7470338e-39
1857.5682 1258.0309 -100 1.6551997e-39
1855.3558 1271.9989 -100 1.4722448e-39
1861.2338 1280.0891 -100 1.6555571e-39
1859.0215 1294.0571 -100 1.9314223e-39
1864.8993 1302.1472 -100 2.1150961e-39
1870.7771 1310.2373 -100 2.1154534e-39
1876.655 1318.3276 -100 2.0236165e-39
1882.5328 1326.4177 -100 1.9317824e-39
1896.5009 1328.63 -100 2.2991244e-39
1853.8378 1371.9873 -120 2.8504975e-39
1813.387 1401.3767 -130 3.1263641e-39
1835.4452 1397.7112 -120 3.2185584e-39
1990.6116 1322.058 -80 3.6777358e-39
1996.4894 1330.1482 -80 4.0450792e-39
2002.3672 1338.2383 -80 4.1376308e-39
1986.1869 1349.994 -90 4.2291062e-39
1919.2533 1410.9849 -110 4.5049728e-39
1903.073 1422.7407 -110 4.3205857e-39
1900.8606 1436.7087 -120 4.229109e-39
1898.6483 1450.6768 -120 4.229109e-39
1896.436 1464.6448 -120 4.3209402e-39
1902.3138 1472.7349 -120 3.8617684e-39
1900.1016 1486.7029 -120 3.8617656e-39
1914.0696 1488.9153 -120 4.1372721e-39
1911.8573 1502.8833 -120 3.8632019e-39
1925.8253 1505.0955 -120 4.0497512e-39
1931.7032 1513.1858 -120 4.4181749e-39
1937.5811 1521.2759 -120 4.6050801e-39
1935.3688 1535.2439 -120 5.2504537e-39
1935.3688 1535.2439 -120 4.8831118e-39
1941.2466 1543.334 -120 4.332103e-39
1947.1245 1551.4243 -120 3.9622373e-39
1936.822 1571.2701 -130 3.8704018e-39
1934.6097 1585.2382 -130 3.6867322e-39
1940.4875 1593.3284 -130 3.5016263e-39
1938.2753 1607.2964 -130 2.8562569e-39
1936.063 1621.2644 -130 1.5673201e-39
1947.8186 1637.4447 -130 1.0134303e-39
1953.6965 1645.5349 -130 9.2195209e-40
1919.1235 1683.0143 -150 8.290404e-40
1721.9883 1888.0452 -210 9.2123183e-40
1583.6964 2037.963 -250 9.2051296e-40
1571.1816 2071.7769 -260 1.74811e-39
1601.33 2062.2334 -250 2.5749924e-39
1639.5685 2046.8123 -240 4.1412265e-39
1704.2898 1999.7894 -230 5.4330429e-39
1744.7406 1970.4001 -220 6.0820095e-39
1756.4963 1986.5804 -220 5.7143102e-39
1746.1938 2006.4263 -220 4.5136104e-39
1731.4668 2054.2083 -230 3.2214436e-39
1881.5144 1920.4707 -180 2.0246969e-39
1871.2119 1940.3167 -190 1.5658824e-39
1893.2701 1936.651 -180 1.56696e-39
1899.1479 1944.7412 -180 2.0268605e-39
2080.103 1751.4661 -130 2.5807448e-39
2069.8005 1771.312 -130 3.4097838e-39
2075.6782 1779.4021 -130 4.1473488e-39
2081.5562 1787.4922 -130 3.9618785e-39
2087.4341 1795.5824 -130 3.7764111e-39
2101.4021 1797.7947 -130 2.6707866e-39
2107.2798 1805.8849 -130 2.7622634e-39
2121.248 1808.0972 -130 2.1168939e-39
2135.2161 1810.3094 -120 2.851215e-39
2143.3062 1804.4316 -120 2.6671853e-39
2167.5767 1786.7981 -110 2.2998447e-39
2181.5447 1789.0104 -110 1.4733252e-39
2189.6348 1783.1326 -110 1.7484744e-39
2203.6028 1785.3447 -110 2.6668265e-39
2209.4807 1793.4351 -110 2.7597396e-39
2209.4807 1793.4351 -110 2.393478e-39
2213.1462 1815.4932 -110 2.3945542e-39
2313.1997 1680.9966 -70 2.3934808e-39
2310.9873 1694.9646 -80 2.4849562e-39
2316.8652 1703.0547 -80 2.3916802e-39
2322.7432 1711.145 -80 2.1161737e-39
2322.7432 1711.145 -80 1.7491918e-39
2320.5308 1725.113 -80 1.7499107e-39
2334.4988 1727.3252 -80 1.7502708e-39
2340.3765 1735.4154 -80 1.8410245e-39
2366.8594 1703.8138 -70 1.564802e-39
2372.7373 1711.9041 -70 1.7491932e-39
2362.4348 1731.7499 -70 1.5658824e-39
2360.2224 1745.7179 -70 1.3814939e-39
936.50244 926.00977 -240 8.2867747e-40
956.34839 936.31226 -240 5.5316958e-40
962.2262 944.4024 -240 6.4464774e-40
996.04016 956.91724 -230 5.5281365e-40
452.67554 1042.6782 -340 4.6097535e-40
508.54761 1051.5275 -330 5.5281224e-40
1177.6245 985.67719 -200 4.6097675e-40
708.52466 1054.5637 -300 5.5281224e-40
706.31226 1068.5317 -300 6.4464774e-40
748.21631 1075.1686 -290 6.4464634e-40
812.17871 1078.1399 -280 7.361245e-40
956.28357 1072.3269 -250 6.4464774e-40
976.12939 1082.6294 -250 7.361245e-40
1018.0334 1089.2664 -240 7.3648324e-40
737.15479 1145.0087 -300 5.5281224e-40
748.91064 1161.189 -300 6.4464634e-40
768.75659 1171.4915 -300 5.5281224e-40
766.54419 1185.4595 -300 6.4464494e-40
786.39014 1195.762 -300 1.0134261e-39
784.17773 1209.73 -300 1.8421035e-39
886.37842 1197.2802 -280 2.3034418e-39
867.98584 1223.0039 -290 2.0279339e-39
813.56714 1250.1809 -300 1.5673187e-39
803.26465 1270.0267 -310 1.1981789e-39
787.08423 1281.7825 -310 1.7509869e-39
828.98828 1288.4194 -310 2.8573288e-39
692.2146 1338.3488 -340 4.4228483e-39
673.82202 1364.0725 -350 4.9763766e-39
1217.9456 1228.3173 -220 5.4351967e-39
1237.7915 1238.6198 -220 5.8036163e-39
1243.6693 1246.7098 -220 5.8968895e-39
1249.5471 1254.8 -220 6.4489801e-39
1379.684 1246.7748 -200 6.4493431e-39
1385.5619 1254.8649 -200 6.4507766e-39
1413.4979 1259.2896 -190 6.449699e-39
1405.4077 1265.1674 -200 6.2656693e-39
1409.0732 1287.2256 -200 4.2377438e-39
1431.1315 1283.5601 -190 2.1190505e-39
1437.0094 1291.6501 -190 1.5644404e-39
1448.765 1307.8306 -190 2.1154548e-39
1834.8158 1175.676 -100 2.6671867e-39
1834.8158 1175.676 -100 2.6668251e-39
1840.6936 1183.7661 -100 2.5746309e-39
1846.5715 1191.8563 -100 2.6671853e-39
1852.4493 1199.9464 -100 2.9419729e-39
1858.3273 1208.0366 -100 2.7583005e-39
1856.115 1222.0046 -100 2.1150947e-39
1856.115 1222.0046 -110 1.7477527e-39
1853.9026 1235.9727 -110 1.9328614e-39
1859.7805 1244.0629 -110 1.933223e-39
1857.5682 1258.0309 -110 1.7499121e-39
1857.5682 1258.0309 -110 1.7491932e-39
1855.3558 1271.9989 -110 1.8403099e-39
1861.2338 1280.0891 -110 2.1150961e-39
1867.1116 1288.1792 -110 2.1150933e-39
1872.9895 1296.2693 -110 2.0232578e-39
1878.8673 1304.3596 -110 2.2069288e-39
1884.7451 1312.4497 -110 2.4827968e-39
1890.623 1320.5398 -110 2.5746323e-39
1896.5009 1328.63 -110 2.6664678e-39
1864.1403 1352.1415 -120 2.7586634e-39
1853.8378 1371.9873 -130 2.9426917e-39
1990.6116 1322.058 -90 3.8614054e-39
1996.4894 1330.1482 -90 3.9536025e-39
2010.4574 1332.3605 -90 4.2291076e-39
1994.2771 1344.1162 -100 4.4131387e-39
1983.9746 1363.962 -100 4.0450764e-39
1903.073 1422.7407 -120 4.2294691e-39
1908.9508 1430.8308 -120 3.9535997e-39
1906.7385 1444.7988 -130 3.9532437e-39
1912.6163 1452.8889 -130 3.9528822e-39
1902.3138 1472.7349 -130 3.9553975e-39
1900.1016 1486.7029 -130 3.9564807e-39
1914.0696 1488.9153 -130 3.6820518e-39
1911.8573 1502.8833 -130 3.0395663e-39
1917.7351 1510.9734 -130 3.408702e-39
1923.613 1519.0636 -130 3.6860077e-39
1929.4908 1527.1538 -130 3.7789264e-39
1935.3688 1535.2439 -130 4.0555119e-39
1935.3688 1535.2439 -130 4.1473446e-39
1941.2466 1543.334 -130 3.8711164e-39
1939.0343 1557.302 -130 4.1466243e-39
1936.822 1571.2701 -140 4.2388186e-39
1934.6097 1585.2382 -140 4.3306583e-39
1940.4875 1593.3284 -140 3.777846e-39
1938.2753 1607.2964 -140 2.7644214e-39
1944.1531 1615.3865 -140 1.8431853e-39
1950.031 1623.4767 -140 1.0141491e-39
1955.9088 1631.5669 -140 1.105263e-39
1951.4843 1659.5029 -150 8.2939773e-40
1858.0677 1752.0955 -180 8.2867747e-40
1642.5398 1982.85 -250 8.2867747e-40
1621.9349 2022.5417 -260 1.7477513e-39
1719.0168 1952.0074 -230 2.3913186e-39
1682.2316 2003.455 -240 3.034886e-39
1720.4701 1988.0337 -240 3.1263613e-39
1742.5283 1984.3682 -230 3.4029482e-39
1748.4061 1992.4583 -230 4.5078566e-39
1743.9816 2020.3943 -240 3.6816945e-39
1861.6685 1910.1682 -200 2.2094511e-39
1875.6365 1912.3806 -190 1.2885752e-39
1889.6045 1914.5929 -190 1.5651607e-39
1887.3922 1928.5609 -200 1.3825673e-39
1893.2701 1936.651 -190 1.3825701e-39
1899.1479 1944.7412 -190 2.1201323e-39
2080.103 1751.4661 -140 2.8576918e-39
2077.8906 1765.4341 -140 3.5945352e-39
2083.7686 1773.5242 -140 3.5019808e-39
2089.6465 1781.6144 -140 3.1317605e-39
2095.5242 1789.7046 -140 1.9335831e-39
2101.4021 1797.7947 -140 1.5651593e-39
2115.3701 1800.0071 -140 2.3945612e-39
2121.248 1808.0972 -130 3.2210793e-39
2129.3381 1802.2194 -130 2.8512178e-39
2143.3062 1804.4316 -130 2.9423316e-39
2167.5767 1786.7981 -120 3.2178381e-39
2181.5447 1789.0104 -120 2.6671867e-39
2189.6348 1783.1326 -120 2.8504961e-39
2203.6028 1785.3447 -120 3.4940649e-39
2209.4807 1793.4351 -120 3.2185584e-39
2217.5708 1787.5571 -110 2.483873e-39
2223.4487 1795.6472 -110 2.0254172e-39
2313.1997 1680.9966 -80 2.2083693e-39
2310.9873 1694.9646 -80 2.5757113e-39
2316.8652 1703.0547 -80 3.0348902e-39
2316.8652 1703.0547 -80 2.3913214e-39
2322.7432 1711.145 -80 2.0246983e-39
2328.6208 1719.2351 -80 1.8410301e-39
2336.7109 1713.3572 -80 1.5658796e-39
2352.8914 1701.6016 -80 2.0243396e-39
2366.8594 1703.8138 -70 1.9321454e-39
2374.9497 1697.936 -70 1.9317838e-39
2372.7373 1711.9041 -70 1.4729679e-39
2370.5249 1725.8721 -80 1.565525e-39
972.52869 924.55652 -240 6.4500507e-40
984.28442 940.73688 -240 6.4500647e-40
990.16223 948.82703 -240 8.2975506e-40
1018.0984 953.25165 -240 1.2900129e-39
1132.0548 956.98206 -220 1.1985376e-39
1137.9327 965.0722 -220 1.1063406e-39
1143.8105 973.16235 -220 9.2159196e-40
1163.6565 983.46484 -210 6.4536941e-40
1161.4441 997.43286 -220 6.4500787e-40
1131.2958 1006.9763 -220 6.4428761e-40
1107.0253 1024.6099 -230 6.4500787e-40
1082.7548 1042.2434 -240 6.4464634e-40
956.28357 1072.3269 -270 5.5317098e-40
962.16138 1080.4171 -270 5.5281084e-40
1004.0654 1087.054 -260 6.4500787e-40
1023.9114 1097.3564 -260 7.372021e-40
718.76221 1170.7324 -330 7.372021e-40
754.78833 1169.2792 -320 9.2123323e-40
758.4541 1191.3374 -320 1.0134275e-39
786.39014 1195.762 -320 1.1978187e-39
784.17773 1209.73 -320 1.5662397e-39
912.10229 1215.6727 -290 2.0279381e-39
813.56714 1250.1809 -320 1.7502722e-39
789.29663 1267.8145 -330 1.7513484e-39
778.99414 1287.6603 -330 3.3161476e-39
889.28491 1269.3325 -310 4.6079542e-39
714.27271 1334.6831 -350 4.7930657e-39
1242.2161 1210.6836 -230 5.6206642e-39
1240.0038 1224.6517 -230 5.8057729e-39
1245.8816 1232.7418 -230 5.8979713e-39
1263.5151 1257.0123 -230 6.4504235e-39
1365.7159 1244.5625 -210 7.0021525e-39
1393.652 1248.9871 -210 6.8174025e-39
1413.4979 1259.2896 -200 6.635165e-39
1411.2856 1273.2576 -210 5.6206698e-39
1417.1635 1281.3477 -210 3.5016193e-39
1439.2217 1277.6821 -200 1.3818526e-39
1450.9774 1293.8625 -200 1.564439e-39
1456.8552 1301.9526 -200 2.1158135e-39
1834.8158 1175.676 -110 3.0345272e-39
1840.6936 1183.7661 -110 3.1263627e-39
1846.5715 1191.8563 -110 3.1267215e-39
1844.3593 1205.8243 -110 3.0352461e-39
1850.2371 1213.9144 -110 2.8522968e-39
1842.1469 1219.7924 -110 2.39492e-39
1848.0248 1227.8826 -120 2.5796658e-39
1853.9026 1235.9727 -120 2.6722229e-39
1851.6903 1249.9407 -120 2.5803818e-39
1857.5682 1258.0309 -120 2.4871114e-39
1857.5682 1258.0309 -120 2.4867527e-39
1855.3558 1271.9989 -120 2.6715027e-39
1861.2338 1280.0891 -120 2.9491685e-39
1867.1116 1288.1792 -120 2.5807518e-39
1872.9895 1296.2693 -120 2.3945654e-39
1878.8673 1304.3596 -120 2.3920445e-39
1884.7451 1312.4497 -120 2.4827954e-39
1890.623 1320.5398 -120 2.5746309e-39
1896.5009 1328.63 -120 2.8504989e-39
1880.3206 1340.3857 -130 3.1263613e-39
1789.1165 1419.0103 -150 3.4933474e-39
1990.6116 1322.058 -100 4.0454366e-39
1996.4894 1330.1482 -100 4.045438e-39
2010.4574 1332.3605 -100 4.4127771e-39
1994.2771 1344.1162 -100 4.4127785e-39
1967.7942 1375.7178 -110 4.4124184e-39
1917.041 1424.9529 -130 4.0450792e-39
1908.9508 1430.8308 -130 3.9528822e-39
1906.7385 1444.7988 -140 4.046154e-39
1912.6163 1452.8889 -130 3.8642837e-39
1910.4041 1466.8571 -140 3.2228716e-39
1900.1016 1486.7029 -140 2.7629794e-39
1905.9795 1494.7931 -140 3.131399e-39
1895.677 1514.6389 -150 3.963675e-39
1909.645 1516.8513 -150 4.331017e-39
1915.5228 1524.9414 -150 3.5927359e-39
1913.3105 1538.9094 -150 3.0381258e-39
1927.2786 1541.1218 -140 1.842828e-39
1927.2786 1541.1218 -140 1.7502736e-39
1941.2466 1543.334 -140 1.6587955e-39
1947.1245 1551.4243 -140 1.9346607e-39
1944.9121 1565.3923 -140 2.762262e-39
1942.6998 1579.3604 -150 2.9477266e-39
1948.5778 1587.4504 -150 3.1317591e-39
1946.3654 1601.4185 -150 2.6711439e-39
1944.1531 1615.3865 -150 1.750631e-39
1950.031 1623.4767 -150 9.2159336e-40
1955.9088 1631.5669 -150 8.29039e-40
1959.5745 1653.625 -150 7.372035e-40
1866.158 1746.2175 -190 7.3684477e-40
1798.4653 1857.2026 -210 1.6562759e-39
1745.4996 1920.4059 -230 2.39132e-39
1706.5021 1985.8214 -250 3.309675e-39
1730.7726 1968.1877 -240 2.9426903e-39
1752.8308 1964.5222 -240 3.0348846e-39
1782.9791 1954.9789 -230 2.8508562e-39
1815.3398 1931.4674 -220 2.2994845e-39
1871.9709 1890.3224 -200 1.6566361e-39
1877.8488 1898.4125 -200 1.2892941e-39
1891.8169 1900.6249 -200 1.2896542e-39
1895.4824 1922.683 -200 1.105986e-39
1901.3602 1930.7732 -200 1.1985376e-39
1899.1479 1944.7412 -210 2.0279381e-39
1876.3307 1998.401 -220 2.4889107e-39
2077.8906 1765.4341 -150 2.4874771e-39
2083.7686 1773.5242 -150 2.1179757e-39
2081.5562 1787.4922 -150 1.3818512e-39
2095.5242 1789.7046 -150 1.1049084e-39
2101.4021 1797.7947 -150 7.3756364e-40
2115.3701 1800.0071 -140 1.8413875e-39
2121.248 1808.0972 -140 2.4842359e-39
2129.3381 1802.2194 -140 2.5753526e-39
2143.3062 1804.4316 -140 2.1150947e-39
2167.5767 1786.7981 -130 1.9314237e-39
2183.7568 1775.0424 -130 1.747394e-39
2189.6348 1783.1326 -130 1.5640831e-39
2203.6028 1785.3447 -120 1.3804135e-39
2211.6929 1779.467 -120 1.7477555e-39
2217.5708 1787.5571 -120 2.5739134e-39
2223.4487 1795.6472 -120 2.9416155e-39
2313.1997 1680.9966 -90 3.2178395e-39
2310.9873 1694.9646 -90 3.3100351e-39
2319.0774 1689.0867 -90 3.3100337e-39
2324.9553 1697.177 -90 3.1260068e-39
2322.7432 1711.145 -90 2.6671867e-39
2336.7109 1713.3572 -90 2.2994845e-39
2344.8013 1707.4794 -90 2.2072917e-39
2352.8914 1701.6016 -80 2.4831569e-39
2366.8594 1703.8138 -80 3.0345314e-39
2374.9497 1697.936 -80 3.0352517e-39
2372.7373 1711.9041 -80 2.9437806e-39
2378.6152 1719.9941 -80 2.7604683e-39
972.52869 924.55652 -260 5.5317098e-40
992.37463 934.85901 -250 6.4500787e-40
998.25244 942.94916 -250 7.3756084e-40
1120.2991 940.80176 -230 7.3756224e-40
1132.0548 956.98206 -230 8.2939773e-40
1137.9327 965.0722 -230 6.4536521e-40
1143.8105 973.16235 -230 7.3755943e-40
1149.6884 981.25256 -230 7.3684337e-40
1161.4441 997.43286 -230 6.4500647e-40
1153.354 1003.3107 -230 7.3684477e-40
1143.0515 1023.1566 -240 6.4500928e-40
1090.845 1036.3656 -250 5.5352971e-40
1110.6908 1046.6681 -250 6.4500647e-40
1116.5687 1054.7583 -250 5.5352971e-40
1128.3245 1070.9386 -250 7.372021e-40
1120.2343 1076.8164 -250 7.372007e-40
1140.0801 1087.1189 -240 8.290376e-40
746.69824 1175.1571 -340 1.0130673e-39
736.39575 1195.0029 -340 1.0130687e-39
742.27368 1203.0931 -340 9.2159056e-40
917.22119 1273.7571 -320 5.159686e-39
1409.1382 1151.2109 -200 5.6203041e-39
1384.8677 1168.8445 -210 5.9883649e-39
1262.0619 1220.9861 -240 5.9898054e-39
1253.9718 1226.864 -240 6.4500563e-39
1273.8176 1237.1665 -240 6.6344504e-39
1263.5151 1257.0123 -250 7.0932649e-39
1277.4832 1259.2246 -240 6.81812e-39
1327.4774 1259.9836 -230 6.7248523e-39
1377.4717 1260.7428 -220 6.8177626e-39
1421.588 1253.4116 -210 6.6348049e-39
1405.4077 1265.1674 -220 5.0674988e-39
1425.2537 1275.4698 -220 2.580386e-39
1453.1897 1279.8945 -210 1.0134275e-39
1842.906 1169.7981 -120 3.4018692e-39
1832.6035 1189.644 -120 3.5862619e-39
1838.4813 1197.7341 -120 3.1288795e-39
1836.269 1211.7021 -120 2.6715027e-39
1836.269 1211.7021 -130 2.4874729e-39
1834.0568 1225.6702 -130 2.1190533e-39
1839.9346 1233.7604 -130 1.9353796e-39
1845.8125 1241.8506 -130 2.0275752e-39
1851.6903 1249.9407 -130 2.3034418e-39
1857.5682 1258.0309 -130 2.3020027e-39
1849.478 1263.9087 -130 2.1183317e-39
1855.3558 1271.9989 -130 2.1183331e-39
1861.2338 1280.0891 -130 2.0272179e-39
1859.0215 1294.0571 -130 1.935025e-39
1872.9895 1296.2693 -130 2.2116091e-39
1878.8673 1304.3596 -130 2.9462917e-39
1884.7451 1312.4497 -130 3.4973033e-39
1882.5328 1326.4177 -130 3.8624872e-39
1896.5009 1328.63 -130 4.0454338e-39
1888.4108 1334.5078 -130 3.9532409e-39
1861.928 1366.1095 -140 4.1372721e-39
1797.2067 1413.1323 -160 4.1372707e-39
1968.5533 1325.7235 -120 4.0450764e-39
1974.4312 1333.8137 -110 4.2291048e-39
1996.4894 1330.1482 -110 4.1369133e-39
2002.3672 1338.2383 -110 4.1376294e-39
1986.1869 1349.994 -110 4.0450778e-39
1967.7942 1375.7178 -120 4.1369105e-39
1933.2213 1413.1973 -130 3.7692112e-39
1917.041 1424.9529 -140 3.4022294e-39
1906.7385 1444.7988 -140 3.4962229e-39
1904.5262 1458.7668 -150 2.8544562e-39
1902.3138 1472.7349 -150 2.8548135e-39
1900.1016 1486.7029 -150 2.5785882e-39
1897.8893 1500.6709 -150 3.1306801e-39
1887.5868 1520.5168 -160 2.9459315e-39
1893.4647 1528.6069 -160 2.1183345e-39
1899.3425 1536.6971 -160 1.6584353e-39
1905.2203 1544.7874 -160 1.9350222e-39
1919.1885 1546.9996 -160 1.7517114e-39
1927.2786 1541.1218 -150 1.9357453e-39
1941.2466 1543.334 -150 1.7513554e-39
1947.1245 1551.4243 -150 1.75171e-39
1944.9121 1565.3923 -160 1.6595157e-39
1942.6998 1579.3604 -160 1.6580794e-39
1948.5778 1587.4504 -160 1.9350194e-39
1946.3654 1601.4185 -160 1.9350222e-39
1944.1531 1615.3865 -160 1.5662425e-39
1950.031 1623.4767 -160 9.2159476e-40
1963.999 1625.689 -160 8.290404e-40
1953.6965 1645.5349 -160 6.4536661e-40
1874.2482 1740.3396 -190 6.4501068e-40
1877.9137 1762.3978 -200 8.2867887e-40
1841.1284 1813.8453 -210 1.4726021e-39
1771.9824 1888.8042 -240 1.4726063e-39
1741.0751 1948.3419 -250 1.1967411e-39
1746.9529 1956.4321 -250 1.5644418e-39
1769.0111 1952.7665 -250 2.207649e-39
1791.0693 1949.101 -240 2.8508576e-39
1813.1274 1945.4354 -240 2.6668265e-39
1863.8807 1896.2002 -220 2.1161737e-39
1875.6365 1912.3806 -220 1.2889353e-39
1881.5144 1920.4707 -220 1.1974614e-39
1887.3922 1928.5609 -220 1.1067021e-39
1893.2701 1936.651 -220 1.7517128e-39
1896.9357 1958.7092 -220 2.3041621e-39
1868.2405 2004.2788 -230 2.5800301e-39
1855.7257 2038.0928 -240 2.1190547e-39
2075.6782 1779.4021 -160 1.4736867e-39
2089.6465 1781.6144 -160 8.290418e-40
2095.5242 1789.7046 -160 6.4500928e-40
2101.4021 1797.7947 -160 7.3720491e-40
2115.3701 1800.0071 -150 1.2885766e-39
2121.248 1808.0972 -150 2.207649e-39
2129.3381 1802.2194 -150 2.6671867e-39
2143.3062 1804.4316 -150 2.2991258e-39
2167.5767 1786.7981 -140 1.9314251e-39
2183.7568 1775.0424 -140 1.8392295e-39
2189.6348 1783.1326 -140 1.7477541e-39
2203.6028 1785.3447 -130 1.7477541e-39
2211.6929 1779.467 -130 1.564439e-39
2217.5708 1787.5571 -130 1.5644404e-39
2223.4487 1795.6472 -130 1.7477541e-39
2313.1997 1680.9966 -100 1.5640817e-39
2310.9873 1694.9646 -100 1.6559172e-39
2310.9873 1694.9646 -100 1.8388735e-39
2316.8652 1703.0547 -100 1.8392309e-39
2322.7432 1711.145 -100 2.3909613e-39
2336.7109 1713.3572 -100 2.4827982e-39
2344.8013 1707.4794 -100 2.942333e-39
2383.0398 1692.0581 -80 4.1390811e-39
2407.3103 1674.4246 -80 4.3231109e-39
986.4967 926.76886 -270 1.8442629e-39
1050.459 929.74023 -250 2.028294e-39
1012.2205 945.1615 -260 2.119768e-39
1112.209 946.67957 -240 2.1201281e-39
