# .PCD v0.7 - Point Cloud Data file format
VERSION 0.7
FIELDS x y z rgb
SIZE 4 4 4 4
TYPE F F F F
COUNT 1 1 1 1
WIDTH 1227
HEIGHT 1
VIEWPOINT 0 0 0 1 0 0 0
POINTS 1227
DATA ascii
-349.82446 706.83459 940 1.8421049e-39
-374.09473 733.49823 950 2.0261346e-39
-471.12427 757.69049 980 1.9342992e-39
-628.79077 786.69519 1020 1.5669586e-39
-725.82031 810.88751 1040 1.7517086e-39
-798.60547 849.64722 1060 2.2108902e-39
-844.70117 871.44635 1070 2.5789483e-39
-837.44336 900.55518 1070 6.3575132e-39
-820.48267 927.24487 1070 1.0693585e-38
-822.92798 958.77295 1070 1.2721888e-38
-723.50537 985.51465 1050 1.3274699e-38
414.02954 918.32306 770 1.3274335e-38
348.52808 944.96063 790 1.2629319e-38
384.89453 966.81177 780 1.3088861e-38
389.73291 986.21771 780 1.9177336e-38
-672.72754 1230.5078 1050 1.9447818e-38
-745.5127 1269.2675 1070 2.0092833e-38
-777.06689 1308.0532 1080 2.0650323e-38
-740.7002 1329.9044 1080 2.1939281e-38
-684.92773 1346.9172 1060 2.2307709e-38
-617.0332 1371.2136 1050 2.2400251e-38
-600.07251 1397.9033 1050 2.2404568e-38
-692.26367 1441.5015 1070 2.2952352e-38
-832.96948 1497.1958 1110 2.3413332e-38
-522.50098 1461.0115 1030 2.0835107e-38
-495.8374 1485.282 1020 1.991171e-38
-440.06494 1502.2947 1010 2.3507323e-38
-510.43091 1550.7573 1030 2.2681155e-38
-515.29541 1572.5825 1040 2.0467026e-38
-721.50269 1654.9143 1090 2.0095377e-38
-811.27466 1708.2156 1120 1.8985445e-38
-842.82861 1747.0012 1130 1.9912425e-38
-913.19458 1795.464 1150 2.2770482e-38
-857.42212 1812.4767 1130 2.3506239e-38
-821.05566 1834.3279 1130 1.7511742e-38
-833.20386 1868.2753 1130 7.8359069e-39
-796.8374 1890.1263 1120 4.7030701e-39
-903.59595 1957.969 1150 5.255881e-39
-867.22925 1979.8202 1150 5.4402652e-39
-859.97168 2008.929 1150 6.1792666e-39
-804.19922 2025.9418 1130 6.1774729e-39
-826.05029 2062.3081 1140 5.9920055e-39
-845.48218 2108.3779 1150 6.5469701e-39
-847.92749 2139.9058 1150 6.2689483e-39
-811.56104 2161.7571 1140 5.8083275e-39
-804.30322 2190.866 1140 6.2707406e-39
-787.34277 2217.5557 1140 6.8228367e-39
-770.38208 2244.2451 1140 6.7288503e-39
-763.12427 2273.354 1140 5.9019707e-39
-719.47412 2283.083 1130 7.9288158e-39
-673.40454 2302.5151 1120 1.8160319e-38
-758.33789 2375.2222 1140 2.1929532e-38
-770.48608 2409.1694 1150 2.220285e-38
-743.82251 2433.4399 1140 2.2752785e-38
-709.87524 2445.5879 1140 2.2936815e-38
-709.90137 2486.8191 1140 2.3488903e-38
-722.04956 2520.7664 1140 2.348854e-38
-695.38599 2545.0366 1140 2.3489254e-38
-688.12817 2574.1455 1140 2.3489983e-38
-671.16748 2600.8354 1140 2.3492865e-38
-654.20703 2627.5249 1130 2.3493221e-38
-637.24634 2654.2146 1130 2.3490347e-38
-610.58276 2678.4849 1130 2.3492493e-38
-576.6355 2690.6333 1120 2.3495367e-38
-562.09399 2707.6199 1120 2.3500769e-38
-472.34814 2695.5498 1090 2.3483871e-38
-385.02148 2673.7769 1070 2.3493608e-38
-217.6521 2642.3528 1030 2.3509886e-38
-309.86914 2727.1821 1060 2.3509886e-38
-365.69385 2792.6313 1070 2.3509886e-38
-712.68506 3054.3508 1170 2.3509886e-38
-802.48291 3148.8831 1200 2.3509876e-38
-751.54907 3146.4897 1190 2.3509886e-38
-593.85645 3076.2542 1150 2.3509886e-38
-567.19287 3100.5244 1140 2.3509886e-38
-542.94849 3115.0918 1140 2.3509886e-38
-535.69067 3144.2007 1140 2.3509886e-38
-482.33765 3151.5105 1120 2.3509886e-38
-387.72729 3117.6152 1100 2.3509853e-38
-373.18579 3134.6021 1100 2.3509097e-38
213.98608 2761.4678 930 2.3509886e-38
325.58325 2713.0312 900 2.3509886e-38
-560.14355 3459.4817 1160 2.3509886e-38
-552.88574 3488.5906 1160 2.3509881e-38
-526.22217 3512.8608 1160 2.350988e-38
-501.97778 3527.4285 1150 2.3509886e-38
-487.43652 3544.415 1150 2.3509886e-38
-460.77271 3568.6855 1140 2.3509886e-38
-419.54175 3568.7114 1130 2.3509886e-38
-337.05371 3527.5325 1110 1.9171623e-38
-206.10278 3556.7195 1080 1.0881556e-38
-266.79175 3643.9941 1100 1.9462577e-38
-308.07495 3726.4302 1120 1.9832091e-38
-325.08765 3782.2026 1120 1.8531989e-38
-351.80347 3840.3943 1130 1.7607514e-38
-395.50562 3913.1274 1150 1.4566507e-38
-960.30322 -418.9165 990 1.1246027e-38
-1421.0503 -530.7738 1100 1.0508819e-38
-1581.1104 -552.70312 1140 1.0784327e-38
-1527.7827 -504.16235 1130 1.1427184e-38
-1530.228 -472.63428 1130 1.1890316e-38
-1535.0928 -450.80908 1130 1.2441335e-38
-1493.8877 -409.552 1120 1.1706282e-38
-584.54175 -151.88989 920 1.143149e-38
-390.56055 -76.58136 880 1.1983582e-38
-320.24683 -42.581909 870 1.1798834e-38
-303.28613 -15.892273 860 1.133929e-38
-298.44775 3.5136108 860 1.0970868e-38
-303.31226 25.338745 870 9.7726975e-39
-320.29883 39.880188 870 4.6119241e-39
-431.86987 47.085754 900 1.9360998e-39
-448.85645 61.627197 900 1.658078e-39
-322.77026 112.63928 870 1.565881e-39
-305.80957 139.32892 870 1.6580752e-39
-279.146 163.59937 870 1.7499121e-39
-264.60449 180.586 870 1.6580766e-39
-279.17188 204.83038 870 1.6580738e-39
-262.21143 231.52002 870 1.4740441e-39
-288.90088 248.48065 880 1.3818498e-39
-284.0625 267.8866 880 1.4736867e-39
-276.80493 296.99545 880 1.3822086e-39
-250.14111 321.26584 870 1.4736839e-39
-223.47754 345.53625 870 1.4736825e-39
-184.69189 377.09039 860 1.4736839e-39
-179.85327 396.49631 860 1.4733252e-39
16.572754 440.27676 820 1.2896556e-39
99.009033 481.55991 800 1.2892955e-39
-262.39355 520.13739 880 1.3822072e-39
-255.13599 549.24622 880 1.3814911e-39
-272.12256 563.78766 890 1.3818498e-39
-255.16187 590.47729 890 1.2900157e-39
-269.72949 614.72168 890 1.3818484e-39
-293.99976 641.38525 900 1.4740427e-39
-308.56738 665.62964 910 1.5655208e-39
-323.13477 689.87396 910 1.4740441e-39
-381.35254 704.38934 930 1.6580752e-39
-395.91992 728.63373 930 1.6577165e-39
-492.94946 752.82599 950 1.5658824e-39
-597.2627 789.1405 980 1.5662411e-39
-725.82031 810.88751 1010 1.6580752e-39
-810.72778 842.36353 1030 2.0268605e-39
-864.10693 876.28479 1050 2.3027243e-39
-856.84937 905.39368 1050 3.5005403e-39
-830.18579 929.66406 1040 8.846784e-39
-832.6311 961.19214 1050 1.2811558e-38
-733.20825 987.93384 1020 1.3272899e-38
416.44873 928.026 750 1.3640248e-38
360.65015 952.24438 760 1.2169066e-38
404.30054 961.97333 750 1.2442782e-38
399.43604 983.79846 760 2.0560988e-38
-672.72754 1230.5078 1030 1.8803175e-38
-723.6875 1274.132 1040 1.9265954e-38
-728.552 1295.957 1040 1.8156741e-38
-670.36035 1322.6729 1030 1.4277e-38
-633.9939 1344.5239 1020 1.7965147e-38
-207.11597 1320.54 920 1.871029e-38
-250.79224 1352.042 930 1.9898374e-38
-568.57056 1441.5796 1010 1.987963e-38
-483.68921 1451.3346 990 2.006546e-38
-447.32251 1473.1858 980 2.0810937e-38
-391.55005 1490.1985 970 1.6214169e-38
-432.80713 1531.4036 990 1.685883e-38
-447.37476 1555.6479 990 1.9064318e-38
-595.36426 1623.4644 1030 1.7768179e-38
-733.65088 1688.8617 1070 1.7124962e-38
-804.01685 1737.3245 1090 1.4006532e-38
-903.4917 1793.0447 1110 1.9263808e-38
-847.71924 1810.0575 1100 2.3505862e-38
-821.05566 1834.3279 1100 1.7419541e-38
-804.09497 1861.0176 1090 8.2968822e-39
-758.02539 1880.4495 1080 4.7952658e-39
-903.59595 1957.969 1120 4.9785738e-39
-886.63525 1984.6586 1120 5.0722086e-39
-898.78345 2018.606 1130 4.7034303e-39
-881.82275 2045.2955 1120 5.8083331e-39
-872.14575 2084.1074 1120 6.6402462e-39
-864.88818 2113.2163 1120 8.9462005e-39
-857.63062 2142.3252 1120 8.0242554e-39
-811.56104 2161.7571 1110 6.1785477e-39
-804.30322 2190.866 1110 6.2685882e-39
-787.34277 2217.5557 1110 6.0863577e-39
-770.38208 2244.2451 1110 6.4536983e-39
-763.12427 2273.354 1110 5.9938048e-39
-709.771 2280.6638 1100 7.5600346e-39
-673.40454 2302.5151 1090 1.7700067e-38
-777.7439 2380.0605 1120 2.1932406e-38
-806.87866 2428.5493 1130 2.1371653e-38
-770.51221 2450.4004 1120 2.2658422e-38
-717.15894 2457.7102 1110 2.3026131e-38
-709.90137 2486.8191 1110 2.2659866e-38
-712.34668 2518.3472 1110 2.3121207e-38
-675.97998 2540.1982 1100 2.3030084e-38
-659.01929 2566.8879 1100 2.3491421e-38
-651.76172 2595.9968 1100 2.3492148e-38
-644.50391 2625.1057 1100 2.3492861e-38
-627.54346 2651.7954 1100 2.3490696e-38
-613.00195 2668.782 1090 2.3491425e-38
-576.6355 2690.6333 1090 2.3499325e-38
-562.09399 2707.6199 1090 2.3503295e-38
-491.75415 2700.3882 1070 2.3484951e-38
-365.61572 2668.9382 1040 2.3125882e-38
-173.97583 2610.8506 990 2.3509886e-38
-246.78711 2690.8416 1010 2.3509886e-38
-312.31445 2758.71 1030 2.3509886e-38
-652.02197 3008.3074 1130 2.3509886e-38
-846.15918 3180.385 1180 2.3509873e-38
-778.23853 3163.4504 1160 2.3509873e-38
-591.43726 3085.957 1120 2.3509886e-38
-576.89575 3102.9436 1110 2.3509886e-38
-552.65137 3117.5112 1110 2.3509886e-38
-535.69067 3144.2007 1100 2.3509886e-38
-475.05371 3139.3884 1090 2.3509865e-38
-380.4436 3105.4932 1070 2.3509837e-38
-494.51172 3226.689 1100 2.2394119e-38
-625.56689 3362.426 1140 2.0370135e-38
-644.99878 3408.4956 1150 2.0371603e-38
-584.36182 3403.6831 1130 2.147434e-38
-560.14355 3459.4817 1130 2.3509862e-38
-535.89917 3474.0491 1120 2.3509881e-38
-528.64136 3503.158 1120 2.3509873e-38
-501.97778 3527.4285 1120 2.3509886e-38
-487.43652 3544.415 1120 2.3509886e-38
-470.47583 3571.1047 1110 2.3509886e-38
-429.24463 3571.1309 1100 2.3509886e-38
-344.3374 3539.6548 1080 2.2585731e-38
-193.90259 3440.3101 1040 1.5667812e-38
-247.35986 3597.9246 1060 8.203232e-39
-308.04883 3685.199 1080 9.1240939e-39
-325.06152 3740.9714 1090 1.0781815e-38
-317.80396 3770.0803 1090 1.3455115e-38
-344.51953 3828.272 1100 1.4934205e-38
-395.50562 3913.1274 1120 1.6685198e-38
-1678.0356 -693.43506 1120 1.1244949e-38
-950.60034 -421.33569 960 1.1244951e-38
-1030.6433 -411.68481 980 1.0692497e-38
-1581.1104 -552.70312 1100 1.1244944e-38
-1527.7827 -504.16235 1090 1.161624e-38
-1498.7002 -470.18896 1090 1.2258743e-38
-1479.3203 -433.79639 1090 1.2259815e-38
-1447.8184 -390.12012 1080 1.1614092e-38
-572.41943 -144.6062 890 1.1063787e-38
-359.03247 -74.136047 850 1.1704846e-38
-320.24683 -42.581909 840 1.1337499e-38
-293.58325 -18.311523 840 1.1706637e-38
-286.32544 10.797363 840 1.1613732e-38
-269.36475 37.487 840 1.1430051e-38
-254.82349 54.473633 830 1.1613369e-38
-269.39087 78.718018 840 5.9048209e-39
-308.20264 88.394958 850 1.6606017e-39
-269.41699 119.9491 840 9.2231083e-40
-274.28149 141.77423 840 1.2896542e-39
-269.44287 161.18011 840 1.4736853e-39
-262.1853 190.289 840 1.6573577e-39
-269.46899 202.41119 850 1.4744028e-39
-262.21143 231.52002 840 1.3822086e-39
-279.198 246.06146 850 1.2896556e-39
-284.0625 267.8866 850 1.3814911e-39
-276.80493 296.99545 850 1.381847e-39
-240.43823 318.84662 850 1.3814897e-39
-223.47754 345.53625 840 1.2896542e-39
-184.69189 377.09039 840 1.2896556e-39
-179.85327 396.49631 840 1.3818484e-39
-80.430664 423.23801 810 1.3818484e-39
62.642334 459.70874 780 1.2903717e-39
-36.806396 474.19806 810 1.3829302e-39
-53.793213 488.73947 810 1.5676788e-39
-119.29443 515.37701 830 1.8453433e-39
-272.09668 522.55658 860 2.6740208e-39
-235.72998 544.40778 860 3.2264757e-39
-272.12256 563.78766 870 3.0424474e-39
-245.45898 588.05804 860 3.2250408e-39
-269.72949 614.72168 870 3.2254023e-39
-306.12207 634.1015 880 2.6733089e-39
-330.39233 660.76514 890 1.5662453e-39
-344.95996 685.00946 890 1.3814897e-39
-410.46143 711.64703 910 1.3818484e-39
-434.73169 738.31061 910 1.4736867e-39
-522.05835 760.08368 930 1.3818498e-39
-609.38501 781.85675 960 1.4736853e-39
-725.82031 810.88751 980 1.2896542e-39
-798.60547 849.64722 1000 1.5669614e-39
-834.99805 869.0271 1010 2.0268591e-39
-827.74048 898.13599 1010 2.3942025e-39
-808.3606 934.52856 1010 4.7901889e-39
-822.92798 958.77295 1020 1.0324072e-38
-704.09937 980.67621 990 1.3091024e-38
435.85449 923.18756 730 1.2627896e-38
380.05615 947.40588 740 1.290268e-38
423.7063 957.13489 730 1.336617e-38
418.8418 978.96002 730 2.0562081e-38
-721.24219 1242.6039 1010 1.8157807e-38
-764.9187 1274.106 1020 1.926775e-38
-777.06689 1308.0532 1030 1.23488e-38
-740.7002 1329.9044 1020 4.0537252e-39
-663.10278 1351.7817 1000 3.0413684e-39
-216.81885 1322.9592 900 3.0420858e-39
-112.53149 1327.8757 870 3.1335626e-39
-195.01978 1369.0547 900 3.2257582e-39
-413.34937 1444.103 950 3.4090705e-39
-398.80786 1461.0896 950 3.0402936e-39
-333.33252 1475.6831 930 2.856617e-39
-345.48071 1509.6304 940 2.9484525e-39
-367.33179 1545.9971 950 2.5811091e-39
-488.63184 1596.8529 980 2.6736649e-39
-578.40356 1650.1541 1000 4.7941643e-39
-709.40649 1703.4292 1030 9.0323033e-39
-903.4917 1793.0447 1080 1.6777416e-38
-857.42212 1812.4767 1070 2.2033256e-38
-840.46143 1839.1664 1070 1.7144755e-38
-794.39209 1858.5983 1060 8.2061229e-39
-748.32251 1878.0303 1050 6.6334036e-39
-903.59595 1957.969 1090 7.2762521e-39
-867.22925 1979.8202 1080 7.3680862e-39
-879.37744 2013.7675 1090 7.5524732e-39
-833.30811 2033.1995 1080 7.6432367e-39
-806.64453 2057.4697 1070 6.3571811e-39
-845.48218 2108.3779 1090 5.0718456e-39
-847.92749 2139.9058 1090 5.5324637e-39
-801.85815 2159.3379 1080 5.6235831e-39
-794.60034 2188.4468 1080 5.624302e-39
-787.34277 2217.5557 1080 5.9008846e-39
-780.08496 2246.6646 1080 6.1789135e-39
-763.12427 2273.354 1080 6.1785519e-39
-709.771 2280.6638 1060 6.7317159e-39
-692.81055 2307.3535 1060 1.7883742e-38
-787.44678 2382.4797 1090 2.2025329e-38
-770.48608 2409.1694 1090 2.0912112e-38
-743.82251 2433.4399 1080 2.2564082e-38
-717.15894 2457.7102 1080 2.3303431e-38
-700.19824 2484.3999 1070 2.3211602e-38
-692.94067 2513.5088 1070 2.348926e-38
-658.99341 2525.6567 1070 2.3490347e-38
-642.03271 2552.3467 1060 2.3491429e-38
-625.07202 2579.0361 1060 2.349537e-38
-627.51733 2610.5645 1060 2.3495731e-38
-610.55664 2637.2539 1060 2.3494646e-38
-583.89307 2661.5244 1060 2.3492861e-38
-569.35156 2678.511 1060 2.3494661e-38
-562.09399 2707.6199 1050 2.3499344e-38
-499.03784 2712.5103 1040 1.9704954e-38
-329.22314 2649.5583 1000 2.0448284e-38
-164.27295 2608.4316 960 2.3509886e-38
-239.50317 2678.7192 980 2.3509886e-38
-275.92188 2739.3301 990 2.3509886e-38
-652.02197 3008.3074 1090 2.3509886e-38
-855.8623 3182.8042 1150 2.3509877e-38
-778.23853 3163.4504 1130 2.3509886e-38
-601.14014 3088.3762 1080 2.3509886e-38
-576.89575 3102.9436 1080 2.3509886e-38
-552.65137 3117.5112 1080 2.3509886e-38
-516.28491 3139.3623 1070 2.3509886e-38
-441.08057 3110.3054 1050 2.3509837e-38
-380.46948 3146.7241 1040 2.1196656e-38
-492.19678 3401.3159 1080 2.2951635e-38
-482.51978 3440.1279 1080 2.350987e-38
-518.93848 3500.7388 1090 2.3509879e-38
-511.68066 3529.8477 1090 2.3509886e-38
-494.72021 3556.5374 1090 2.3509886e-38
-470.47583 3571.1047 1080 2.3509886e-38
-429.24463 3571.1309 1070 2.3509886e-38
-361.32397 3554.196 1060 2.3506258e-38
-254.56543 3486.3535 1030 1.6313899e-38
-213.33447 3486.3796 1020 1.4748365e-38
-186.6709 3510.6501 1020 1.2627529e-38
-281.33325 3627.0073 1040 9.7723458e-39
-317.75195 3687.6184 1050 8.3883422e-39
-334.76465 3743.3909 1060 8.2964955e-39
-300.81738 3755.5391 1060 1.0323353e-38
-337.23584 3816.1499 1070 1.465832e-38
-385.80273 3910.7083 1080 1.9547924e-38
-904.53076 -401.90369 930 1.1521895e-38
-965.16772 -397.09131 940 1.1981789e-38
-957.91016 -367.98242 940 1.1982151e-38
-1018.5471 -363.17004 960 1.2442765e-38
-516.64697 -127.59344 860 1.2811901e-38
-346.9104 -66.852356 820 1.2719351e-38
-310.54395 -45.00116 820 1.3086689e-38
-291.16406 -8.6085815 810 1.2444922e-38
-276.62256 8.3781128 810 1.2535317e-38
-269.36475 37.487 810 1.2442042e-38
-242.70117 61.757385 810 1.1982865e-38
-237.86279 81.163269 810 1.0417714e-38
-264.55249 98.123962 820 4.4289832e-39
-257.29468 127.23279 810 1.2925339e-39
-252.4563 146.63873 810 1.0141477e-39
-247.61792 166.04462 820 9.2195209e-40
-252.48242 187.86975 820 1.1974614e-39
-257.34692 209.69489 820 1.2900129e-39
-252.5083 229.10083 820 1.3814911e-39
-279.198 246.06146 830 1.3814925e-39
-284.0625 267.8866 830 1.1059818e-39
-288.927 289.71173 830 1.3822072e-39
-240.43823 318.84662 820 2.0272193e-39
-223.47754 345.53625 820 2.6733033e-39
-174.98901 374.67117 810 2.7658577e-39
-170.15039 394.07709 810 2.5811105e-39
-80.430664 423.23801 790 2.5814734e-39
-53.76709 447.50842 790 2.5811091e-39
-78.037354 474.17203 790 2.489275e-39
-95.02417 488.71344 800 2.5814692e-39
-131.41675 508.09329 810 2.7647815e-39
-262.39355 520.13739 840 2.6725873e-39
-204.2019 546.85303 830 2.4878401e-39
-250.29736 568.65216 840 2.3034474e-39
-223.63379 592.92255 830 2.1190561e-39
-269.72949 614.72168 840 2.57967e-39
-315.82495 636.52075 860 4.6097619e-39
-352.21753 655.90063 870 3.7803768e-39
-386.19092 684.98346 870 1.3822142e-39
-451.69238 711.62097 890 1.1978173e-39
-478.38208 728.58167 900 1.19746e-39
-543.88354 755.21918 910 1.19746e-39
-628.79077 786.69519 930 1.1974614e-39
-725.82031 810.88751 960 1.3814911e-39
-779.19971 844.80878 970 1.0141477e-39
-793.76709 869.05316 980 1.6587983e-39
-796.2124 900.58124 980 2.3949186e-39
-779.25171 927.27087 970 3.0395621e-39
-791.3999 961.2182 980 6.818127e-39
435.85449 923.18756 700 1.2534975e-38
409.16504 940.14819 710 1.2629683e-38
445.53149 961.99939 710 1.290735e-38
450.36987 981.40527 710 2.1023068e-38
-701.83643 1237.7654 980 1.7880857e-38
-745.5127 1269.2675 990 1.9263074e-38
-747.95801 1300.7957 990 1.0966943e-38
-721.29443 1325.0659 980 3.1335668e-39
-643.69678 1346.9431 970 2.580393e-39
-85.815918 1269.6841 840 2.5803874e-39
6.322998 1308.5481 820 2.5807504e-39
-165.91089 1361.7971 860 2.5807518e-39
-287.21094 1412.653 890 2.3974353e-39
-328.46802 1453.8579 900 2.7640626e-39
-313.92651 1470.8447 900 2.5807518e-39
-326.07471 1504.792 910 2.5807532e-39
-347.92603 1541.1584 910 2.5811105e-39
-469.22583 1592.0144 940 2.6733033e-39
-558.9978 1645.3156 960 9.1273225e-39
-690.00073 1698.5907 1000 2.0187897e-38
-903.4917 1793.0447 1050 2.3047772e-38
-857.42212 1812.4767 1040 2.2766514e-38
-840.46143 1839.1664 1040 1.7881956e-38
-813.79785 1863.4368 1030 8.2039747e-39
-796.8374 1890.1263 1030 5.6235719e-39
-952.1106 1970.0651 1070 5.8058108e-39
-915.74414 1991.9163 1060 6.0816732e-39
-898.78345 2018.606 1060 6.357544e-39
-777.50952 2008.9811 1030 6.7270454e-39
-702.33105 2021.1554 1020 6.3575426e-39
-799.38672 2086.5786 1040 6.1731457e-39
-828.52173 2135.0674 1050 6.0820459e-39
-794.57422 2147.2158 1040 5.5320993e-39
-794.60034 2188.4468 1050 5.4406324e-39
-777.63965 2215.1362 1050 5.7157759e-39
-770.38208 2244.2451 1050 6.1774715e-39
-763.12427 2273.354 1040 6.36186e-39
-719.47412 2283.083 1040 6.6395203e-39
-719.5 2324.314 1040 1.742313e-38
-768.04102 2377.6411 1050 2.2668916e-38
-770.48608 2409.1694 1050 2.0820291e-38
-753.52563 2435.8589 1050 2.3398506e-38
-726.86206 2460.1294 1050 2.3496101e-38
-700.19824 2484.3999 1040 2.349467e-38
-666.25098 2496.5481 1040 2.349753e-38
-612.89771 2503.8579 1030 2.3498621e-38
-578.95044 2516.0059 1020 2.3501838e-38
-552.28687 2540.2764 1010 2.3500409e-38
-571.71875 2586.3459 1020 2.3495738e-38
-528.0686 2596.075 1010 2.3494654e-38
-520.81079 2625.1838 1010 2.3493937e-38
-540.24292 2671.2534 1020 2.3496105e-38
-525.70142 2688.24 1020 2.349755e-38
-452.94214 2690.7114 1000 2.2555807e-38
-312.23633 2635.0171 970 2.0728087e-38
-217.6521 2642.3528 950 2.3509886e-38
-246.78711 2690.8416 950 2.3509886e-38
-275.92188 2739.3301 960 2.3509886e-38
-652.02197 3008.3074 1060 2.3509886e-38
-829.19873 3207.0747 1110 2.3509886e-38
-601.14014 3088.3762 1060 2.3509886e-38
-584.17944 3115.0659 1050 2.3509886e-38
-559.93506 3129.6333 1050 2.3509886e-38
-499.2981 3124.8208 1030 2.3509886e-38
-353.72778 3047.3015 1000 2.3509863e-38
-91.696045 2899.52 930 2.3509853e-38
-50.464844 2899.5461 920 2.1014067e-38
44.145508 2865.6509 900 2.3505518e-38
85.376465 2865.677 890 2.3228599e-38
90.214844 2885.0828 890 1.9358165e-38
87.769531 2916.6111 890 1.8895015e-38
-511.65479 3488.6167 1060 2.3509855e-38
-511.68066 3529.8477 1060 2.3509886e-38
-494.72021 3556.5374 1060 2.3509886e-38
-470.47583 3571.1047 1050 2.3509886e-38
-429.24463 3571.1309 1040 2.3509886e-38
-371.0271 3556.6155 1030 2.3500849e-38
-295.82251 3527.5586 1010 1.1978201e-38
-278.86182 3554.2483 1010 1.4276974e-38
-247.33374 3556.6936 1000 1.3548051e-38
-298.31982 3641.5488 1020 1.0509559e-38
-315.33276 3697.3213 1030 8.5716502e-39
-325.06152 3740.9714 1030 8.3894212e-39
-266.84399 3726.4561 1020 9.4946841e-39
-310.54614 3799.1892 1030 1.696284e-38
-412.49243 3927.6687 1060 2.3509859e-38
-814.81104 -372.7428 880 1.1798125e-38
-853.6228 -363.06592 890 1.1981431e-38
-868.19043 -338.82153 900 1.198215e-38
-919.12427 -336.42834 910 1.2165461e-38
-933.69165 -312.18396 910 1.1981068e-38
-1004.0317 -304.95227 930 1.1888878e-38
-567.55493 -166.43134 840 1.244421e-38
-429.34644 -108.13544 810 1.2995576e-38
-312.96313 -54.704102 790 1.2353086e-38
-286.29956 -30.433716 790 1.2903019e-38
-269.33887 -3.7440796 790 1.2627155e-38
-264.50024 15.661865 790 1.2442764e-38
-247.53979 42.351501 780 1.2626788e-38
-232.99829 59.338135 780 1.1890313e-38
-225.74072 88.447021 780 1.1060559e-38
-242.72729 102.9884 790 8.9411474e-39
-237.88892 122.39435 790 7.0093692e-39
-230.6311 151.50317 790 2.6772718e-39
-235.49561 173.32837 790 1.014868e-39
-242.7793 185.4505 790 8.2976207e-40
-247.6438 207.27563 790 1.0137876e-39
-240.38623 236.38452 790 1.1981774e-39
-257.3728 250.92596 800 1.1978187e-39
-293.76538 270.30582 810 1.1056245e-39
-310.7522 284.84723 810 1.289657e-39
-259.84424 323.68509 800 1.9353824e-39
-233.18066 347.95547 800 2.0268605e-39
-184.69189 377.09039 790 1.6584381e-39
-179.85327 396.49631 790 1.4751245e-39
-58.605469 428.10251 760 1.4744084e-39
-10.116699 457.23743 760 1.4747685e-39
-68.334473 471.75278 770 1.56696e-39
-126.55225 486.26816 780 1.382933e-39
-141.11963 510.51254 790 1.4758475e-39
-281.79956 524.97583 820 1.6602388e-39
-235.72998 544.40778 810 1.7520757e-39
-260.00049 571.07135 820 1.6609577e-39
-243.03979 597.76099 810 1.5676816e-39
-279.43237 617.14087 820 2.2123238e-39
-325.52783 638.93994 830 5.0703813e-39
-371.62354 660.73907 840 6.5455198e-39
-408.01611 680.11896 850 2.7673136e-39
-473.51758 706.75647 870 9.219549e-40
-497.78784 733.4201 870 9.2159616e-40
-543.88354 755.21918 890 8.2975787e-40
-628.79077 786.69519 910 8.2940054e-40
-725.82031 810.88751 930 8.2975927e-40
-759.7937 839.97034 940 9.2159616e-40
-771.94189 873.91766 940 1.0141491e-39
-754.9812 900.6073 940 1.6595199e-39
-738.02075 927.29694 940 2.2123238e-39
-752.58813 951.54126 940 3.5930932e-39
435.85449 923.18756 690 1.1985754e-38
430.98999 945.0127 690 1.2907713e-38
464.9375 957.16089 680 1.3181066e-38
469.77588 976.56683 680 2.1487289e-38
-672.72754 1230.5078 940 1.6963568e-38
-704.28174 1269.2935 950 1.9544341e-38
-697.02393 1298.4023 950 1.0878347e-38
-670.36035 1322.6729 940 2.8569799e-39
-604.88501 1337.2664 930 2.2119748e-39
-25.178955 1264.8717 800 2.3041649e-39
-30.043457 1286.6968 800 2.3967192e-39
-93.125732 1323.0374 820 2.3960032e-39
-156.20801 1359.3779 830 2.3045292e-39
-209.58716 1393.2991 850 2.3960018e-39
-250.84424 1434.5042 860 2.4878387e-39
-265.41162 1458.7485 860 2.3052411e-39
-277.56006 1492.6958 870 2.4889135e-39
-309.11401 1531.4817 880 2.4889149e-39
-430.41406 1582.3375 910 2.7644214e-39
-520.18579 1635.6387 930 7.7425916e-39
-660.89185 1691.333 960 1.8430411e-38
-932.60059 1800.3025 1020 2.3503335e-38
-867.12524 1814.896 1010 2.3506227e-38
-859.86743 1844.0048 1010 1.7882676e-38
-833.20386 1868.2753 1010 7.6533149e-39
-816.24316 1894.9648 1010 5.3441039e-39
-808.9856 1924.0737 1010 7.1818971e-39
-828.41748 1970.1432 1010 7.6435899e-39
-794.47021 1982.2915 1000 7.5510383e-39
-634.38452 1962.9897 970 7.6428724e-39
-578.61206 1980.0024 960 7.8272595e-39
-733.88525 2059.9412 1000 7.8276196e-39
-782.42603 2113.2683 1010 7.9208984e-39
-765.46533 2139.958 1010 7.6436011e-39
-767.91064 2171.4861 1010 6.5430072e-39
-760.65308 2200.5947 1010 6.7259664e-39
-760.67896 2241.8259 1010 7.0954636e-39
-743.71851 2268.5156 1010 7.0047043e-39
-690.36523 2275.8252 1000 6.8221165e-39
-712.21631 2312.1919 1000 1.7607514e-38
-748.63501 2372.8027 1020 2.2857971e-38
-751.08032 2404.3311 1020 2.2206461e-38
-743.82251 2433.4399 1020 2.349681e-38
-726.86206 2460.1294 1020 2.3500053e-38
-690.49536 2481.9805 1010 2.3501132e-38
-646.84521 2491.7095 1000 2.3499334e-38
-576.50513 2484.478 990 2.3501489e-38
-549.84155 2508.7483 980 2.3501486e-38
-496.48828 2516.0581 970 2.3506892e-38
-545.0293 2569.3853 980 2.3503657e-38
-564.46118 2615.4548 990 2.0734578e-38
-603.29907 2666.3628 1000 2.2115344e-38
-632.43384 2714.8516 1010 2.3504018e-38
-622.75708 2753.6633 1010 2.3501516e-38
-581.52588 2753.6895 1000 2.3484588e-38
-438.40088 2707.698 970 2.2292523e-38
-351.07422 2685.9248 950 2.3226016e-38
-334.11353 2712.6145 950 2.3509886e-38
-300.16626 2724.7627 940 2.3509886e-38
-302.61157 2756.291 940 2.3509886e-38
-669.00879 3022.8486 1030 2.3509883e-38
-802.50903 3190.114 1070 2.3509886e-38
-610.84302 3090.7954 1020 2.3509886e-38
-593.88257 3117.4851 1020 2.3509886e-38
-559.93506 3129.6333 1020 2.3509886e-38
-499.2981 3124.8208 1000 2.3509876e-38
-38.31665 2865.5989 890 2.3509886e-38
-33.478271 2885.0046 890 2.1752367e-38
61.13208 2851.1096 870 2.350766e-38
102.36304 2851.1355 860 2.3509866e-38
107.20166 2870.5415 860 2.0925855e-38
104.75635 2902.0696 860 2.1477214e-38
-501.95166 3486.1973 1020 2.3509827e-38
-511.68066 3529.8477 1030 2.3509886e-38
-494.72021 3556.5374 1020 2.3509886e-38
-470.47583 3571.1047 1020 2.3509886e-38
-438.94775 3573.55 1010 2.3509886e-38
-378.31079 3568.7375 1000 2.3504093e-38
-354.06641 3583.3049 1000 1.0414488e-38
-339.5249 3600.2917 990 7.9280857e-39
-332.26733 3629.4006 990 7.5596535e-39
-349.28003 3685.1731 1000 7.6500569e-39
-349.30591 3726.4041 1000 8.7560317e-39
-351.75122 3757.9321 1000 1.013788e-38
-293.53345 3743.4167 990 1.1241366e-38
-327.53296 3813.7307 1000 1.6502223e-38
-444.04663 3966.4546 1040 2.3509825e-38
-851.17749 -394.59399 860 1.1337146e-38
-831.79761 -358.20142 860 1.1705925e-38
-848.78442 -343.65991 870 1.1521892e-38
-841.52661 -314.55115 870 1.1614454e-38
-822.14673 -278.15857 860 1.2442042e-38
-817.30835 -258.75256 860 1.2259816e-38
-446.30713 -134.82507 790 1.2719348e-38
-298.39551 -78.948486 770 1.2076145e-38
-281.43506 -52.25885 760 1.0880833e-38
-264.47437 -25.569214 760 1.1338578e-38
-259.63574 -6.1633301 760 1.2075416e-38
-264.50024 15.661865 760 1.2534242e-38
-237.83667 39.932251 760 1.1982513e-38
-230.5791 69.041138 760 8.9386237e-39
-225.74072 88.447021 760 5.6160035e-39
-230.60522 110.27216 760 3.7746146e-39
-225.7666 129.67804 760 2.8555352e-39
-220.92822 149.08398 760 2.5789511e-39
-225.79272 170.90912 760 2.0272164e-39
-240.36011 195.1535 770 4.235583e-39
-235.52173 214.55939 770 7.4689026e-39
-230.68335 233.96527 770 2.8616687e-39
-245.25073 258.20966 770 9.219549e-40
-293.76538 270.30582 780 7.3792237e-40
-330.15796 289.68567 790 1.1052644e-39
-271.96631 316.40137 780 2.3963619e-39
-255.00562 343.091 780 2.5811189e-39
-196.81396 369.80667 770 1.7520743e-39
-179.85327 396.49631 770 2.1201323e-39
-36.780273 432.96701 740 2.2126895e-39
62.642334 459.70874 720 2.3970808e-39
-48.928711 466.91434 740 2.4889149e-39
-126.55225 486.26816 760 2.3052453e-39
-153.24194 503.22879 770 2.6733047e-39
-281.79956 524.97583 790 2.5811133e-39
-223.60791 551.69153 780 2.5811161e-39
-260.00049 571.07135 790 2.5811133e-39
-233.33691 595.3418 790 2.1204967e-39
-269.72949 614.72168 790 2.3967192e-39
-325.52783 638.93994 810 4.9778269e-39
-371.62354 660.73907 820 6.454043e-39
-408.01611 680.11896 830 5.4409799e-39
-451.69238 711.62097 840 2.307769e-39
-488.08496 731.00085 850 1.0141505e-39
-522.05835 760.08368 860 8.2975927e-40
-609.38501 781.85675 870 8.2976067e-40
-725.82031 810.88751 900 9.2159476e-40
-759.7937 839.97034 910 9.219549e-40
-762.23901 871.49841 910 1.1981803e-39
-754.9812 900.6073 910 2.3967206e-39
-738.02075 927.29694 910 3.0442452e-39
-730.76294 956.40576 910 5.4409575e-39
435.85449 923.18756 670 1.3089232e-38
450.396 940.17426 660 1.2998121e-38
484.34326 952.32245 660 1.3090667e-38
489.18188 971.72839 660 2.2129452e-38
494.02026 991.13428 660 2.3509886e-38
-612.09058 1225.6953 900 1.6500802e-38
-626.65796 1249.9397 900 1.9727288e-38
-629.10327 1281.4678 900 1.0878703e-38
-583.03369 1300.8997 900 2.5807602e-39
-495.73315 1320.3577 880 1.936467e-39
-105.22192 1274.5226 800 2.0283011e-39
-107.66724 1306.0507 800 2.1204925e-39
-102.82861 1325.4565 800 2.2116119e-39
-146.50488 1356.9586 810 2.1204953e-39
-178.05908 1395.7444 820 2.212328e-39
-212.03247 1424.8271 830 2.3041635e-39
-246.00586 1453.91 830 2.3038075e-39
-267.85693 1490.2766 840 2.4878387e-39
-299.41113 1529.0624 850 2.3963619e-39
-401.30518 1575.0798 870 2.5811119e-39
-471.67114 1623.5425 890 9.488552e-39
-554.15918 1664.7214 910 2.0726691e-38
-796.75928 1766.4332 960 2.3495794e-38
-808.90747 1800.3806 970 2.2487411e-38
-879.27344 1848.8433 980 1.7972711e-38
-872.01562 1877.9521 990 8.4801945e-39
-864.75806 1907.061 980 5.2537146e-39
-656.15747 1875.6631 940 5.3426648e-39
-724.10425 1933.8287 960 5.8021996e-39
-697.44067 1958.0991 950 6.7234314e-39
-576.16675 1948.4744 930 6.5408422e-39
-578.61206 1980.0024 930 6.9081856e-39
-619.86914 2021.2074 940 7.1844124e-39
-697.5188 2081.7925 960 7.8283427e-39
-719.36987 2118.1587 970 8.0123738e-39
-719.396 2159.3899 970 8.6563027e-39
-712.13818 2188.4988 970 8.2911089e-39
-724.28638 2222.446 970 8.9343259e-39
-717.02881 2251.5549 970 7.7386652e-39
-663.67554 2258.8647 960 6.0841969e-39
-656.41797 2287.9736 960 1.6228181e-38
-702.53955 2351.0039 970 2.2406004e-38
-731.67432 2399.4924 980 1.3382368e-38
-753.52563 2435.8589 990 9.229239e-39
-736.56494 2462.5488 990 8.7639392e-39
-700.19824 2484.3999 980 6.9221986e-39
-646.84521 2491.7095 970 7.2848589e-39
-603.19482 2501.4385 960 8.018831e-39
-595.93726 2530.5474 960 8.0188366e-39
-625.07202 2579.0361 970 1.4186184e-38
-663.90991 2629.9441 980 2.2193483e-38
-690.62549 2688.1357 990 2.3480981e-38
-693.0708 2719.6641 990 2.3473076e-38
-676.11011 2746.3535 990 2.3461212e-38
-651.86597 2760.9209 990 2.1994e-38
-608.21558 2770.6499 980 2.3289756e-38
-564.56519 2780.3789 970 2.3488911e-38
-520.91504 2790.1079 960 2.2308735e-38
-387.49292 2746.5359 930 2.3509886e-38
-346.26172 2746.562 920 2.3509886e-38
-365.69385 2792.6313 930 2.3509886e-38
-695.69849 3039.8093 1010 2.3509886e-38
-829.17261 3165.8435 1040 2.3509886e-38
-778.23853 3163.4504 1030 2.3509886e-38
-627.82983 3105.3369 1000 2.3509886e-38
-620.57202 3134.4458 1000 2.3509886e-38
-586.62476 3146.594 990 2.3509886e-38
-509.00122 3127.24 970 2.3509869e-38
73.306396 2775.9312 830 2.3509886e-38
97.550781 2790.4985 830 2.258141e-38
121.79517 2805.0659 830 2.3509825e-38
146.03955 2819.6335 820 2.3509886e-38
141.17505 2841.4587 820 2.3509863e-38
131.44604 2885.1089 830 2.3509149e-38
-492.24878 3483.7781 990 2.3509814e-38
-511.68066 3529.8477 990 2.3509886e-38
-494.72021 3556.5374 990 2.3509886e-38
-470.47583 3571.1047 990 2.3509886e-38
-446.23145 3585.6721 990 2.3509886e-38
-412.28418 3597.8203 980 2.3505547e-38
-422.01318 3641.4707 980 1.1705224e-38
-441.44507 3687.5403 990 9.7716227e-39
-424.48438 3714.2297 990 9.8666952e-39
-417.22681 3743.3386 990 8.7599875e-39
-417.25269 3784.5698 990 8.0231526e-39
-417.27881 3825.8008 990 8.2043096e-39
-334.79053 3784.6218 970 8.7596372e-39
-269.28906 3757.9841 960 1.4015472e-38
-444.04663 3966.4546 1000 2.3509834e-38
-955.43872 -440.74158 850 1.069142e-38
-860.88062 -392.17468 840 1.170484e-38
-841.50073 -355.7821 840 1.244097e-38
-858.4873 -341.24072 840 1.2257659e-38
-829.40454 -307.26733 840 1.2625356e-38
-725.14331 -261.11975 820 1.235129e-38
-618.46289 -205.26917 800 1.2351653e-38
-436.604 -137.24432 770 1.2719702e-38
-342.0459 -88.67749 750 1.1615527e-38
-293.55713 -59.542603 740 9.9592468e-39
-264.47437 -25.569214 740 1.1063068e-38
-269.33887 -3.7440796 740 1.1521529e-38
-264.50024 15.661865 740 1.1523323e-38
-237.83667 39.932251 740 1.0601025e-38
-220.87622 66.621887 740 4.7930839e-39
-216.0376 86.027771 740 1.5669614e-39
-220.9021 107.85291 740 1.1985418e-39
-216.06372 127.25885 740 1.1063462e-39
-220.92822 149.08398 740 1.1985404e-39
-225.79272 170.90912 740 1.1989005e-39
-230.65723 192.73425 740 4.7905378e-39
-225.81885 212.14014 740 1.0323357e-38
-230.68335 233.96527 740 8.5759802e-39
-235.54785 255.79047 750 2.7673052e-39
-281.64331 277.58954 760 7.3756644e-40
-288.927 289.71173 760 1.1059846e-39
-259.84424 323.68509 750 2.3974367e-39
-233.18066 347.95547 750 2.5818406e-39
-187.11108 367.38745 740 1.8449888e-39
-179.85327 396.49631 740 2.3963647e-39
-36.780273 432.96701 720 2.2130482e-39
52.939453 462.12796 700 2.4896351e-39
-90.159668 466.88831 730 2.6736663e-39
-104.72705 491.13266 730 2.5818308e-39
-162.94482 505.64804 740 2.581472e-39
-293.92163 517.69208 770 2.5814664e-39
-223.60791 551.69153 760 2.6736705e-39
-272.12256 563.78766 770 2.5825468e-39
-233.33691 595.3418 760 2.3045278e-39
-250.32349 609.88318 770 2.4889135e-39
-306.12207 634.1015 780 4.7934315e-39
-352.21753 655.90063 790 6.5433534e-39
-386.19092 684.98346 800 5.6235621e-39
-432.28638 706.78253 810 3.596347e-39
-466.25977 735.86536 820 1.6584437e-39
-512.35547 757.66449 830 2.94557e-39
-619.08789 784.276 850 2.4899925e-39
-725.82031 810.88751 870 1.2003397e-39
-769.49658 842.38953 880 1.198539e-39
-762.23901 871.49841 880 1.4762021e-39
-754.9812 900.6073 880 4.4257322e-39
-738.02075 927.29694 880 6.1749254e-39
-730.76294 956.40576 880 9.7709067e-39
414.02954 918.32306 650 1.2906273e-38
440.69312 942.59351 650 1.2815516e-38
484.34326 952.32245 640 1.3090315e-38
489.18188 971.72839 640 2.1945787e-38
503.72314 988.71509 640 2.3509886e-38
498.85864 1010.5402 640 1.7880504e-38
-502.99097 1291.2488 850 2.4889219e-39
-396.28442 1305.8684 830 2.212328e-39
-153.73657 1286.6187 780 2.1197764e-39
-139.19531 1303.6055 780 2.1201323e-39
-102.82861 1325.4565 770 2.1197764e-39
-146.50488 1356.9586 780 2.1197764e-39
-168.3562 1393.3252 790 2.2116133e-39
-192.62646 1419.9888 800 2.1204939e-39
-236.30298 1451.4908 810 2.4878401e-39
-258.15405 1487.8574 810 2.304525e-39
-299.41113 1529.0624 820 2.5811077e-39
-362.49341 1565.4028 840 2.6729488e-39
-423.15625 1611.4463 850 6.5411758e-39
-486.23853 1647.7869 870 1.1514313e-38
-566.30762 1698.6688 880 1.4741151e-38
-850.16455 1841.5856 950 1.917234e-38
-881.71851 1880.3713 960 7.8373432e-39
-845.35205 1902.2225 950 4.5143503e-39
-568.83081 1853.89 890 5.710727e-39
-639.19678 1902.3528 910 5.7107214e-39
-670.75098 1941.1385 920 5.8021982e-39
-576.16675 1948.4744 900 6.4490011e-39
-578.61206 1980.0024 900 7.3680834e-39
-554.36768 1994.5698 900 7.2766024e-39
-583.50244 2043.0586 900 7.2780443e-39
-624.75952 2084.2637 910 7.7372232e-39
-644.19141 2130.333 920 8.0134472e-39
-656.33984 2164.2803 920 8.013457e-39
-685.47461 2212.769 930 7.4599175e-39
-687.91992 2244.2974 940 6.2635421e-39
-663.67554 2258.8647 930 5.2555124e-39
-656.41797 2287.9736 930 1.5949086e-38
-685.55273 2336.4624 940 2.3509856e-38
-714.68774 2384.9512 950 2.3509862e-38
-743.82251 2433.4399 960 2.3509849e-38
-736.56494 2462.5488 950 2.3509856e-38
-709.90137 2486.8191 950 2.3509872e-38
-666.25098 2496.5481 940 2.3509867e-38
-629.88452 2518.3992 940 2.3509876e-38
-642.03271 2552.3467 940 2.3509872e-38
-671.16748 2600.8354 950 2.3509873e-38
-680.89648 2644.4856 950 2.3509884e-38
-693.04492 2678.4329 960 2.3509886e-38
-683.36792 2717.2446 960 2.3509886e-38
-659.12354 2731.812 950 2.3509886e-38
-642.16284 2758.502 950 2.3509886e-38
-579.10669 2763.3923 940 2.3509886e-38
-564.56519 2780.3789 940 2.3509865e-38
-537.90161 2804.6494 930 2.3505138e-38
-406.89868 2751.3743 900 2.3509886e-38
-409.34399 2782.9023 910 2.3509886e-38
-642.29297 2964.657 960 2.3509886e-38
-642.34521 3047.1191 970 2.3509886e-38
-627.80371 3064.1057 960 2.3509886e-38
-591.43726 3085.957 960 2.3509886e-38
-584.17944 3115.0659 960 2.3509886e-38
-499.27222 3083.5898 940 2.3509886e-38
73.306396 2775.9312 810 2.3509886e-38
107.25366 2788.0793 800 2.304131e-38
131.49805 2802.647 800 2.3509844e-38
143.62012 2809.9307 800 2.3509886e-38
150.87793 2839.0393 800 2.3509886e-38
141.14893 2882.6897 800 2.3509886e-38
-484.96509 3471.656 950 2.3509865e-38
-494.69409 3515.3062 960 2.3509886e-38
-477.7334 3541.9958 960 2.3509886e-38
-460.77271 3568.6855 960 2.3509886e-38
-446.23145 3585.6721 950 2.3509886e-38
-421.98706 3600.2397 950 2.3509867e-38
-438.99976 3656.0122 960 1.2811929e-38
-456.01245 3711.7847 960 9.0347906e-39
-458.45776 3743.3127 960 9.2188077e-39
-434.21338 3757.8801 960 9.2155763e-39
-424.53638 3796.6919 960 8.018838e-39
-434.26538 3840.3423 960 8.8489518e-39
-378.46704 3816.1238 950 1.1244948e-38
-286.27588 3772.5256 930 1.3646694e-38
-933.61377 -435.87708 820 1.1150237e-38
-860.88062 -392.17468 810 1.1980359e-38
-831.79761 -358.20142 810 1.1705919e-38
-836.66211 -336.37622 810 1.1980351e-38
-795.45728 -295.11914 800 1.1336422e-38
-669.37085 -244.10706 780 1.1610848e-38
-552.98755 -190.67566 760 1.1244585e-38
-402.65674 -125.09613 740 1.179632e-38
-342.0459 -88.67749 730 1.1154916e-38
-293.55713 -59.542603 720 9.4993546e-39
-264.47437 -25.569214 720 9.0390996e-39
-259.63574 -6.1633301 720 9.4989931e-39
-264.50024 15.661865 720 1.0600659e-38
-237.83667 39.932251 710 9.3099229e-39
-220.87622 66.621887 710 3.6867434e-39
-225.74072 88.447021 710 1.2907346e-39
-230.60522 110.27216 710 1.198539e-39
-216.06372 127.25885 710 1.1063462e-39
-220.92822 149.08398 720 1.1978201e-39
-225.79272 170.90912 720 1.3822128e-39
-240.36011 195.1535 720 4.9767367e-39
-225.81885 212.14014 720 1.0323357e-38
-230.68335 233.96527 720 9.3088565e-39
-223.42554 263.07416 720 5.4388107e-39
-284.0625 267.8866 730 1.6602374e-39
-298.62988 292.13095 740 1.1981831e-39
-271.96631 316.40137 730 2.4882002e-39
-245.30273 340.67175 730 2.3985255e-39
-187.11108 367.38745 720 2.0279423e-39
-179.85327 396.49631 720 2.3960018e-39
-36.780273 432.96701 690 2.4889177e-39
40.817139 454.84424 680 2.3974409e-39
-90.159668 466.88831 710 2.4896379e-39
-116.84937 483.84894 710 2.4896393e-39
-162.94482 505.64804 720 2.581472e-39
-284.21875 515.27283 750 2.6733089e-39
-245.43286 546.82703 740 2.8573387e-39
-281.82544 566.20691 750 2.6736663e-39
-243.03979 597.76099 740 2.3048851e-39
-247.9043 619.58618 740 2.3045208e-39
-293.99976 641.38525 750 4.7012442e-39
-330.39233 660.76514 760 4.97855e-39
-376.48804 682.56421 770 5.5317266e-39
-410.46143 711.64703 780 4.0576937e-39
-456.55688 733.44617 790 1.4751329e-39
-502.65234 755.24524 800 9.2267236e-40
-628.79077 786.69519 820 1.0141491e-39
-725.82031 810.88751 840 1.105986e-39
-769.49658 842.38953 850 1.0141519e-39
-762.23901 871.49841 850 1.4740441e-39
-754.9812 900.6073 850 5.0703813e-39
-728.31763 924.87769 850 9.7723486e-39
-721.06006 953.98657 850 1.1617337e-38
287.91699 908.54199 650 1.2627526e-38
375.21753 928 640 1.3088863e-38
399.46191 942.56744 630 1.3183221e-38
474.64038 954.7417 620 1.2722244e-38
498.88477 969.30914 620 2.1760688e-38
503.72314 988.71509 620 2.3509884e-38
508.56177 1008.121 620 1.778904e-38
-272.51318 1182.2534 770 1.5578134e-38
-267.6748 1201.6593 780 1.8710626e-38
-270.12012 1233.1874 780 1.0416647e-38
-335.62134 1259.825 790 2.3967276e-39
-347.76978 1293.7722 790 1.9357439e-39
-144.03369 1284.1995 760 2.0279381e-39
-107.66724 1306.0507 750 1.9357453e-39
-83.422852 1320.6182 740 2.1197764e-39
-136.802 1354.5394 760 2.0275794e-39
-158.65308 1390.906 760 2.2116091e-39
-182.92358 1417.5696 770 2.1204925e-39
-216.89697 1446.6523 780 2.3963591e-39
-248.45117 1485.4382 790 2.4878429e-39
-318.81714 1533.9009 800 2.6725859e-39
-362.49341 1565.4028 810 2.6729474e-39
-432.85938 1613.8656 830 7.5618045e-39
-486.23853 1647.7869 840 1.733308e-38
-517.79272 1686.5726 850 2.3043086e-38
-549.34692 1725.3584 850 2.2954138e-38
-542.08911 1754.4673 850 2.0741092e-38
-537.25073 1773.8733 850 9.8645737e-39
-452.36938 1783.6282 840 4.0587699e-39
-474.22046 1819.9948 840 4.3357141e-39
-610.08789 1895.0951 870 4.886374e-39
-687.73755 1955.6799 890 4.9782123e-39
-624.6814 1960.5704 880 5.3466277e-39
-607.7207 1987.2601 880 5.0707624e-39
-554.36768 1994.5698 870 5.0707652e-39
-556.81274 2026.0979 870 5.2547964e-39
-585.94775 2074.5867 880 5.0711226e-39
-598.09595 2108.5342 880 4.7945399e-39
-610.24414 2142.4814 890 3.8733095e-39
-668.48804 2198.2278 900 4.0587797e-39
-687.91992 2244.2974 900 4.2435283e-39
-670.95923 2270.9868 900 4.3371589e-39
-653.99854 2297.6765 900 1.6041992e-38
-675.84985 2334.043 910 2.3509848e-38
-685.57886 2377.6934 910 2.3509853e-38
-734.11963 2431.0205 920 2.3509867e-38
-726.86206 2460.1294 920 2.3509873e-38
-709.90137 2486.8191 920 2.3509877e-38
-675.95386 2498.9673 910 2.3509883e-38
-649.29028 2523.2378 910 2.3509874e-38
-661.43872 2557.1851 910 2.3509877e-38
-680.87061 2603.2544 920 2.3509886e-38
-680.89648 2644.4856 920 2.3509886e-38
-683.3418 2676.0137 920 2.3509886e-38
-676.08423 2705.1226 920 2.3509886e-38
-649.42065 2729.3931 920 2.3509886e-38
-632.45996 2756.0825 920 2.3509886e-38
-571.823 2751.27 910 2.3509886e-38
-554.8623 2777.96 900 2.3509886e-38
-547.60474 2807.0686 900 2.3509881e-38
-450.5752 2782.8765 880 2.3509866e-38
-470.00708 2828.9458 890 2.3509867e-38
-685.96948 2996.1592 940 2.3509858e-38
-625.3584 3032.5776 930 2.350986e-38
-608.39795 3059.2673 930 2.3509886e-38
-584.15356 3073.8347 920 2.3509886e-38
-567.19287 3100.5244 920 2.3509886e-38
-428.90625 3035.1272 890 2.3509842e-38
99.996094 2758.9705 780 2.3501569e-38
124.24023 2773.5381 770 2.3128458e-38
138.78174 2790.5247 770 2.3509862e-38
153.32324 2807.5112 770 2.3509886e-38
150.87793 2839.0393 770 2.3509886e-38
148.43262 2870.5674 780 2.3509886e-38
-494.66797 3474.0752 920 2.3509886e-38
-494.69409 3515.3062 930 2.3509886e-38
-470.44971 3529.8738 920 2.3509886e-38
-453.48901 3556.5632 920 2.3509886e-38
-429.24463 3571.1309 920 2.3509886e-38
-395.29736 3583.2791 910 2.3509884e-38
-412.31006 3639.0515 920 1.2813364e-38
-456.01245 3711.7847 930 7.3731182e-39
-465.74146 3755.4348 930 8.2060963e-39
-441.49707 3770.0022 930 8.4830517e-39
-451.22607 3813.6526 930 7.6511373e-39
-468.23877 3869.425 940 8.1113881e-39
-451.27808 3896.1147 940 1.0234756e-38
-310.54614 3799.1892 910 1.4938877e-38
-902.08545 -433.43188 790 1.1152747e-38
-848.7583 -384.89099 780 1.1981068e-38
-831.79761 -358.20142 780 1.1521894e-38
-826.95923 -338.79541 780 1.133894e-38
-763.9292 -292.67383 770 1.1521168e-38
-645.12646 -229.53955 750 1.1705204e-38
-528.74316 -176.10822 730 1.1889241e-38
-392.95386 -127.51532 710 1.2627155e-38
-342.0459 -88.67749 700 1.2718632e-38
-293.55713 -59.542603 700 1.2166896e-38
-264.47437 -25.569214 690 1.032875e-38
-259.63574 -6.1633301 690 9.3153179e-39
-254.79736 13.242615 690 1.0049643e-38
-225.7146 47.215942 690 7.8358816e-39
-220.87622 66.621887 690 2.6733145e-39
-216.0376 86.027771 690 1.1992621e-39
-220.9021 107.85291 690 1.0141519e-39
-203.94141 134.54254 690 1.105986e-39
-220.92822 149.08398 690 1.1063476e-39
-225.79272 170.90912 690 1.1989005e-39
-230.65723 192.73425 700 5.621746e-39
-213.69653 219.42389 700 1.0416273e-38
-218.56104 241.24902 700 8.1124685e-39
-213.72266 260.65494 700 5.0685862e-39
-262.2373 272.75107 710 3.133564e-39
-298.62988 292.13095 710 2.1204939e-39
-293.7915 311.53687 710 2.5814762e-39
-245.30273 340.67175 710 2.7655074e-39
-187.11108 367.38745 700 2.0282997e-39
-170.15039 394.07709 690 2.2126881e-39
35.97876 435.43832 660 2.305604e-39
106.29272 469.43771 650 2.3974381e-39
26.249756 479.08859 660 2.581472e-39
-19.845703 500.8877 670 2.4892778e-39
-109.59155 512.95776 690 2.3059655e-39
-272.09668 522.55658 720 2.4899967e-39
-255.13599 549.24622 720 2.4907141e-39
-291.52856 568.6261 720 2.6733075e-39
-245.45898 588.05804 720 2.3045278e-39
-247.9043 619.58618 720 2.3974353e-39
-284.29688 638.966 730 4.8856313e-39
-320.68945 658.34589 730 6.6373483e-39
-354.66284 687.42871 740 6.4544017e-39
-391.05542 706.80859 750 4.793821e-39
-437.15088 728.60767 760 1.4751357e-39
-490.53027 762.52893 770 1.0145079e-39
-619.08789 784.276 790 1.0141491e-39
-723.40112 820.59045 810 9.2267376e-40
-769.49658 842.38953 820 1.0141505e-39
-762.23901 871.49841 820 1.2914535e-39
-754.9812 900.6073 820 5.2544124e-39
-738.02075 927.29694 820 9.9574601e-39
-730.76294 956.40576 820 1.1523717e-38
338.85107 906.1488 620 1.2262342e-38
414.02954 918.32306 610 1.3088503e-38
440.69312 942.59351 610 1.3272899e-38
484.34326 952.32245 600 1.2906276e-38
511.00684 976.5929 600 2.1761783e-38
513.42627 986.29584 600 2.3509886e-38
527.96753 1003.2825 590 1.7789034e-38
544.92822 1029.9722 590 1.6870308e-38
508.53564 1049.3521 600 1.594728e-38
-202.19922 1216.2528 740 9.9563979e-39
-294.39038 1259.851 760 2.2130524e-39
-386.58154 1303.4492 780 2.1201366e-39
-243.48242 1298.6888 750 2.0279395e-39
-129.49219 1301.1862 730 2.0279395e-39
-93.125732 1323.0374 720 2.0286556e-39
-136.802 1354.5394 730 2.0290171e-39
-139.24731 1386.0675 730 2.1204967e-39
-173.2207 1415.1504 740 2.3974395e-39
-207.19409 1444.2332 750 3.4137424e-39
-258.15405 1487.8574 760 4.8028076e-39
-357.62891 1543.5778 780 3.6910622e-39
-411.00806 1577.499 790 2.4899939e-39
-461.96826 1621.1233 800 9.3095516e-39
-495.94165 1650.2061 810 1.9630764e-38
-488.68384 1679.3149 810 2.3226048e-38
-466.96289 1849.1036 820 2.3136372e-38
-566.43774 1904.8241 840 2.2310213e-38
-605.27563 1955.7321 850 2.2036143e-38
-607.7207 1987.2601 850 2.1023799e-38
-554.36768 1994.5698 840 2.084156e-38
-547.10986 2023.6787 840 2.0473147e-38
-585.94775 2074.5867 850 2.1024873e-38
-588.39307 2106.1147 850 2.2587875e-38
-610.24414 2142.4814 850 2.3508392e-38
-658.78491 2195.8086 870 2.3509831e-38
-687.91992 2244.2974 870 2.350804e-38
-680.66235 2273.4062 870 2.3509835e-38
-663.70166 2300.0957 870 2.3509832e-38
-666.14697 2331.624 870 2.3509845e-38
-612.7937 2338.9336 860 2.3504796e-38
-724.41675 2428.6013 890 2.3316422e-38
-746.26782 2464.9678 890 2.3506569e-38
-739.01025 2494.0767 890 2.3509818e-38
-692.94067 2513.5088 890 2.3509886e-38
-668.69629 2528.0762 880 2.3509886e-38
-688.12817 2574.1455 890 2.3509886e-38
-697.85718 2617.7959 890 2.3501923e-38
-690.59961 2646.9048 890 2.3317152e-38
-690.62549 2688.1357 890 2.3509097e-38
-683.36792 2717.2446 890 2.3509886e-38
-659.12354 2731.812 890 2.3509886e-38
-642.16284 2758.502 890 2.3509886e-38
-598.5127 2768.231 880 2.3509886e-38
-564.56519 2780.3789 870 2.3509873e-38
-547.60474 2807.0686 870 2.3509884e-38
-486.96777 2802.2563 860 2.3509886e-38
-523.38623 2862.8672 870 2.3509886e-38
-695.67236 2998.5784 910 2.3509886e-38
-722.38794 3056.77 920 2.3509872e-38
-608.37183 3018.0364 890 2.3509886e-38
-591.41113 3044.7258 890 2.3509886e-38
-567.16675 3059.2935 890 2.3509886e-38
-550.20605 3085.9829 890 2.3509886e-38
-1.8981934 2804.9878 770 2.3509886e-38
116.98267 2744.4292 750 2.3509874e-38
150.92993 2756.5771 740 2.3504436e-38
172.75513 2761.4419 740 2.3509832e-38
187.29663 2778.4285 740 2.3509886e-38
194.5542 2807.5374 740 2.3509886e-38
192.10889 2839.0654 740 2.3509886e-38
129.00073 2916.637 750 2.3509886e-38
-484.96509 3471.656 890 2.350802e-38
-494.69409 3515.3062 900 2.3509886e-38
-451.0437 3525.0352 890 2.3509886e-38
-446.20532 3544.4412 890 2.3509886e-38
-429.24463 3571.1309 890 2.3509886e-38
-388.01367 3571.1567 880 2.3509886e-38
-405.02637 3626.9292 880 1.5398788e-38
-465.71533 3714.2039 900 1.1261848e-38
-492.43115 3772.3955 910 1.4389665e-38
-458.48389 3784.5437 900 1.7611823e-38
-502.18604 3857.2769 910 1.9536776e-38
-885.09888 -447.97327 760 1.1427897e-38
-889.96338 -426.14807 760 1.1060555e-38
-848.7583 -384.89099 760 1.1705206e-38
-831.79761 -358.20142 750 1.2255501e-38
-814.83716 -331.51172 750 1.1611212e-38
-729.98169 -280.52563 740 1.1704848e-38
-475.38989 -168.79846 700 1.225874e-38
-380.83154 -120.23163 680 1.2350214e-38
-351.74878 -86.25824 680 1.244384e-38
-303.26001 -57.123352 680 1.1799908e-38
-276.59644 -32.852966 670 1.1155266e-38
-259.63574 -6.1633301 670 1.1615517e-38
-254.79736 13.242615 670 1.1060199e-38
-216.01172 44.796753 660 6.9139366e-39
-211.1731 64.202637 660 2.0290255e-39
-206.33472 83.608582 660 1.2903773e-39
-220.9021 107.85291 670 1.0137904e-39
-203.94141 134.54254 670 1.2903745e-39
-220.92822 149.08398 670 1.1063448e-39
-225.79272 170.90912 670 1.1978201e-39
-220.95435 190.315 670 6.1760016e-39
-213.69653 219.42389 670 1.0508117e-38
-218.56104 241.24902 670 7.8355257e-39
-213.72266 260.65494 670 4.5164929e-39
-262.2373 272.75107 680 2.4881974e-39
-330.15796 289.68567 700 2.6729474e-39
-335.02246 311.51083 700 3.0431676e-39
-267.12793 335.80725 690 2.3985241e-39
-184.69189 377.09039 670 2.0275808e-39
-160.44751 391.65784 670 2.1201394e-39
