# .PCD v0.7 - Point Cloud Data file format
VERSION 0.7
FIELDS x y z rgb
SIZE 4 4 4 4
TYPE F F F F
COUNT 1 1 1 1
WIDTH 1206
HEIGHT 1
VIEWPOINT 0 0 0 1 0 0 0
POINTS 1206
DATA ascii
-367.91138 155.09882 1110 2.0283011e-39
-389.89233 172.89868 1120 2.0283011e-39
-382.0376 193.83441 1110 2.119775e-39
-345.39282 227.85126 1100 2.0279409e-39
-317.64771 250.87756 1090 2.0275808e-39
-329.68359 269.72272 1090 1.9357411e-39
-322.87402 300.60364 1090 2.027578e-39
-315.01953 321.53937 1080 1.8435469e-39
-307.16479 342.4751 1080 1.9357453e-39
-319.20068 361.32025 1080 2.0275808e-39
-341.18164 379.12009 1090 2.1194191e-39
-323.38184 401.1011 1090 2.1212113e-39
-316.57251 431.98206 1080 2.3038089e-39
-308.71802 452.91779 1080 2.2126895e-39
-310.80859 472.80823 1080 2.5796742e-39
-302.95386 493.74396 1070 2.3045222e-39
-275.20874 516.77026 1060 2.4878415e-39
-286.19922 525.67017 1070 2.5803902e-39
-268.39941 547.65125 1060 2.4885561e-39
-250.59961 569.63226 1050 2.4885575e-39
-252.69019 589.52271 1050 2.5811091e-39
-244.83569 610.45844 1050 2.4885519e-39
-256.87134 629.30359 1050 2.4889149e-39
-269.95239 658.09393 1050 2.5807546e-39
-272.04321 677.98438 1050 2.6733047e-39
-303.96924 694.73889 1070 2.7640654e-39
-335.89551 711.49347 1080 2.6729474e-39
-449.47412 739.77606 1120 2.8566198e-39
-552.06226 759.15881 1150 2.766222e-39
-594.979 784.81323 1160 3.133564e-39
-627.95044 811.513 1170 3.1339297e-39
-630.04102 831.40344 1170 3.3175951e-39
-642.0769 850.2486 1180 3.2275575e-39
-645.21289 880.08423 1180 3.318314e-39
-698.07471 904.69342 1190 3.408716e-39
-801.70825 934.02136 1230 3.8729213e-39
-885.45117 965.43982 1260 1.3824979e-38
-949.30347 998.94897 1280 2.1290663e-38
-1033.0464 1030.3674 1310 2.0186837e-38
-1075.9631 1056.022 1320 2.0371225e-38
-1008.4373 1083.2295 1290 1.7145104e-38
-868.15894 1087.9183 1250 1.2079743e-38
-941.95679 1120.3822 1270 2.350986e-38
-853.49512 1139.7351 1240 2.3509886e-38
-672.39038 1138.6599 1180 2.3509886e-38
-643.6001 1151.741 1170 2.3509835e-38
-625.80029 1173.722 1160 2.3509848e-38
-567.17432 1189.939 1140 2.3509873e-38
-354.14355 1172.1094 1070 2.3506594e-38
-326.39844 1195.1357 1060 1.6681229e-38
-328.48901 1215.0261 1060 1.2448869e-38
-340.5249 1233.8712 1060 1.4014742e-38
-332.67017 1254.807 1060 1.7415179e-38
-324.81567 1275.7427 1050 1.9070401e-38
-315.91577 1286.7333 1050 1.328404e-38
-298.11572 1308.7142 1040 1.0999677e-38
-290.26123 1329.6499 1040 1.3585471e-38
-323.23267 1356.3497 1050 1.6989539e-38
-366.14941 1382.0042 1060 2.0295643e-38
-368.23999 1401.8947 1060 2.3509886e-38
-381.32129 1430.6851 1070 2.3509886e-38
-496.99048 1478.8582 1100 2.3509886e-38
-581.77856 1520.2218 1130 2.3509886e-38
-771.24536 1600.8586 1200 2.3509886e-38
-815.20752 1636.4584 1210 2.3509886e-38
-859.16968 1672.0581 1220 2.3509886e-38
-903.13159 1707.6577 1240 2.3509886e-38
-895.2771 1728.5935 1230 2.3509874e-38
-866.48657 1741.6746 1220 1.5762202e-38
-858.63208 1762.6104 1220 6.7328187e-39
-840.83228 1784.5913 1210 6.364032e-39
-853.91333 1813.3817 1220 7.0990705e-39
-846.05859 1834.3174 1210 7.0997964e-39
-827.21338 1846.3533 1210 7.3756658e-39
-819.35889 1867.2889 1200 7.3760147e-39
-800.51367 1879.3248 1190 8.4823609e-39
-771.72339 1892.4059 1180 1.0601784e-38
-774.85913 1922.2416 1180 1.0598188e-38
-767.00464 1943.1772 1180 8.5731216e-39
-759.1499 1964.113 1180 8.2969004e-39
-771.18579 1982.9581 1180 8.7553576e-39
-869.05518 2053.1123 1210 8.3887359e-39
-860.15527 2064.1028 1210 7.5618507e-39
-860.15527 2064.1028 1200 2.2774818e-38
-860.15527 2064.1028 1200 2.2773016e-38
-860.15527 2064.1028 1200 2.3048891e-38
-860.15527 2064.1028 1200 2.3050687e-38
-860.15527 2064.1028 1200 2.3509869e-38
-860.15527 2064.1028 1200 2.350988e-38
-860.15527 2064.1028 1200 2.3509877e-38
-860.15527 2064.1028 1200 2.350988e-38
-860.15527 2064.1028 1200 2.3509886e-38
-860.15527 2064.1028 1200 2.3509881e-38
-860.15527 2064.1028 1200 2.3509883e-38
-860.15527 2064.1028 1200 2.3509881e-38
-860.15527 2064.1028 1200 2.3509879e-38
-860.15527 2064.1028 1200 2.3509876e-38
-860.15527 2064.1028 1200 2.350987e-38
-919.7959 -1099.4622 1320 2.3508781e-38
-960.62207 -1093.6981 1330 2.2865574e-38
-1299.2971 -1219.7904 1450 2.0191531e-38
-1387.7588 -1239.1433 1480 1.8992628e-38
-1324.4141 -1172.1549 1460 1.797811e-38
-1327.5498 -1142.3193 1460 1.8253978e-38
-1301.8955 -1099.4026 1450 1.8068872e-38
-1267.3411 -1045.4952 1430 1.6503357e-38
-1289.322 -1027.6954 1440 1.5022099e-38
-1302.4031 -998.90503 1440 1.5669255e-38
-1305.5391 -969.06946 1440 1.5766485e-38
-1385.1008 -977.43176 1470 1.6223149e-38
-1436.9175 -962.76782 1490 1.7331641e-38
-1458.8984 -944.96802 1490 1.806958e-38
-1452.0891 -914.08704 1490 1.5398426e-38
-1436.3799 -872.21558 1480 1.5765392e-38
-1420.6707 -830.34412 1480 1.7516758e-38
-1413.8613 -799.46313 1470 1.7884456e-38
-1369.3618 -744.51062 1460 1.8711686e-38
-1352.6072 -712.58435 1450 1.92627e-38
-1346.8433 -671.75818 1450 1.9538568e-38
-1349.979 -641.92249 1450 1.9634355e-38
-1371.96 -624.12268 1450 1.9447457e-38
-1404.9316 -597.42285 1460 1.9265937e-38
-1418.0127 -568.63257 1470 1.9726549e-38
-763.68921 -288.70288 1240 1.4563602e-38
-775.72485 -269.85779 1240 1.5298987e-38
-758.97046 -237.93152 1230 1.3549092e-38
-761.06104 -218.04108 1230 1.5021702e-38
-764.19678 -188.20538 1230 1.9358126e-38
-747.44238 -156.27917 1230 1.0694669e-38
-730.68774 -124.35291 1220 2.5814804e-39
-518.16479 -41.68512 1140 2.4885575e-39
-422.8938 8.5487061 1110 2.3041705e-39
-405.09375 30.529724 1100 2.4881988e-39
-378.39404 63.501282 1090 2.213051e-39
-380.48462 83.391724 1090 2.2134098e-39
-373.67529 114.27264 1090 2.3041705e-39
-365.8208 135.20837 1090 2.0283025e-39
-367.91138 155.09882 1090 2.3041649e-39
-389.89233 172.89868 1090 2.1201351e-39
-372.09253 194.8797 1090 2.0275808e-39
-345.39282 227.85126 1070 2.0279395e-39
-307.70239 251.92285 1060 2.0279395e-39
-310.83838 281.75848 1060 2.1190561e-39
-312.92896 301.64893 1060 1.9357425e-39
-305.07422 322.58466 1060 2.0272193e-39
-297.21973 343.52039 1050 1.9353824e-39
-299.3103 363.41083 1050 1.9357439e-39
-321.29126 381.21069 1060 2.0275808e-39
-313.43677 402.14642 1060 2.1194121e-39
-306.62744 433.02734 1060 2.0275822e-39
-298.77271 453.9631 1050 2.1201351e-39
-300.86328 473.85352 1050 2.2112546e-39
-293.00854 494.78925 1050 2.2119664e-39
-265.26367 517.81555 1040 2.3041677e-39
-266.30884 527.7608 1040 2.3956458e-39
-188.83765 556.01361 1010 2.3041663e-39
-161.09277 579.03992 1000 2.4878387e-39
-133.34766 602.06622 990 2.3041663e-39
-155.32861 619.86609 1000 2.3967178e-39
-197.2002 635.57532 1010 2.3963619e-39
-239.07153 651.28461 1030 3.320465e-39
-272.04321 677.98438 1030 7.2841358e-39
-333.80493 691.60303 1060 8.2914718e-39
-406.55737 714.12158 1080 4.516867e-39
-499.2002 734.54962 1110 3.1360793e-39
-571.95264 757.06818 1130 3.2322238e-39
-594.979 784.81323 1140 4.0612656e-39
-618.00537 812.55829 1150 3.6885343e-39
-620.09595 832.44873 1150 3.3186741e-39
-632.13159 851.29388 1150 3.4101495e-39
-635.26758 881.12952 1150 3.2264813e-39
-688.12964 905.73871 1170 3.1339269e-39
-801.70825 934.02136 1210 3.595617e-39
-895.39624 964.39453 1240 1.2075074e-38
-939.3584 999.99426 1250 1.9358149e-38
-1042.9917 1029.3221 1280 1.9264531e-38
-1066.0181 1057.0673 1290 1.9450719e-38
-997.44678 1074.3296 1270 1.898613e-38
-878.10425 1086.873 1230 1.640501e-38
-941.95679 1120.3822 1250 2.3509855e-38
-853.49512 1139.7351 1220 2.3509886e-38
-672.39038 1138.6599 1150 2.3509886e-38
-623.70972 1153.8315 1140 2.3509821e-38
-605.90991 1175.8126 1130 2.3509859e-38
-557.229 1190.9844 1110 2.3509881e-38
-354.14355 1172.1094 1050 2.3509886e-38
-295.51758 1188.3264 1030 2.3509886e-38
-287.66284 1209.2621 1020 2.3509886e-38
-299.69873 1228.1072 1030 2.3509881e-38
-281.89893 1250.0883 1020 2.3509855e-38
-282.94409 1260.0334 1020 2.3509859e-38
-286.08008 1289.8691 1020 2.3509886e-38
-277.18018 1300.8596 1020 2.3509886e-38
-269.32544 1321.7954 1010 2.3509886e-38
-323.23267 1356.3497 1030 2.3509886e-38
-377.14014 1390.9042 1040 2.3509886e-38
-399.12109 1408.704 1050 2.3509886e-38
-412.20215 1437.4944 1060 2.3509883e-38
-466.10938 1472.0488 1070 2.3509883e-38
-540.95239 1514.4578 1100 2.3509886e-38
-687.50244 1569.4402 1140 2.3509886e-38
-742.45508 1613.9397 1160 2.3509886e-38
-838.23389 1664.2034 1190 2.3509886e-38
-903.13159 1707.6577 1210 2.3509886e-38
-895.2771 1728.5935 1210 2.3509886e-38
-856.5415 1742.7198 1200 1.7328434e-38
-858.63208 1762.6104 1190 7.1934325e-39
-819.89648 1776.7367 1180 6.3643935e-39
-853.91333 1813.3817 1190 6.7324572e-39
-846.05859 1834.3174 1190 7.0083238e-39
-827.21338 1846.3533 1180 6.6398958e-39
-809.41357 1868.3342 1180 6.5466226e-39
-811.50415 1888.2247 1170 7.836274e-39
-772.76855 1902.3511 1160 9.7763283e-39
-774.85913 1922.2416 1160 9.8652981e-39
-767.00464 1943.1772 1160 7.3774581e-39
-769.09521 1963.0677 1160 7.0104874e-39
-782.17627 1991.858 1160 6.7324586e-39
-888.94556 2051.0215 1190 7.4678628e-39
-860.15527 2064.1028 1180 8.0203191e-39
-850.20996 2065.1479 1170 2.2680114e-38
-850.20996 2065.1479 1170 2.2958136e-38
-850.20996 2065.1479 1170 2.3142523e-38
-850.20996 2065.1479 1170 2.3507721e-38
-850.20996 2065.1479 1170 2.350988e-38
-850.20996 2065.1479 1170 2.3509877e-38
-850.20996 2065.1479 1170 2.3509874e-38
-850.20996 2065.1479 1170 2.3509886e-38
-850.20996 2065.1479 1170 2.350988e-38
-850.20996 2065.1479 1170 2.3509886e-38
-850.20996 2065.1479 1170 2.3509886e-38
-850.20996 2065.1479 1170 2.3509886e-38
-850.20996 2065.1479 1170 2.3509881e-38
-850.20996 2065.1479 1170 2.3509876e-38
-226.229 -905.90356 1060 2.3509883e-38
-229.36499 -876.06799 1050 2.3509874e-38
-279.09106 -881.29443 1070 2.3509876e-38
-328.81714 -886.52087 1090 2.3509866e-38
-339.80762 -877.62097 1090 2.3509869e-38
-1254.7976 -1164.8379 1400 1.8899359e-38
-1229.1431 -1121.9211 1390 1.797847e-38
-1288.8145 -1128.1929 1410 1.7977744e-38
-1292.9956 -1088.412 1410 1.8528045e-38
-1257.3958 -1044.45 1400 1.696325e-38
-1289.322 -1027.6954 1410 1.42892e-38
-1282.5127 -996.81445 1410 1.5945119e-38
-1314.439 -980.05994 1420 1.6500103e-38
-1375.1555 -976.38647 1440 1.668521e-38
-1426.9722 -961.72253 1450 1.8066692e-38
-1468.8438 -946.01331 1460 1.9539294e-38
-1453.1345 -904.14185 1460 1.8432957e-38
-1436.3799 -872.21558 1450 1.8060578e-38
-1410.7253 -829.29883 1440 1.815564e-38
-1414.9067 -789.51794 1440 1.7599963e-38
-1359.4165 -743.46533 1420 1.2895848e-38
-1333.762 -700.54846 1410 8.4754917e-39
-1326.9526 -669.6676 1410 1.3363624e-38
-1340.0339 -640.8772 1410 1.9632553e-38
-1381.9053 -625.16797 1420 1.8804244e-38
-1423.7769 -609.45874 1440 1.963292e-38
-1427.958 -569.67786 1440 1.9264509e-38
-705.06299 -272.48584 1190 1.1432203e-38
-707.15356 -252.59546 1190 1.1716339e-38
-710.28955 -222.75983 1190 1.4944616e-38
-712.38013 -202.86938 1190 1.9269182e-38
-705.5708 -171.9884 1190 2.1383194e-38
-678.87109 -139.01691 1180 1.1062727e-38
-652.17139 -106.04535 1170 2.3059697e-39
-488.3291 -38.549255 1110 2.3052509e-39
-422.8938 8.5487061 1090 2.3059627e-39
-395.14868 31.575012 1080 2.2137699e-39
-378.39404 63.501282 1070 2.5803958e-39
-380.48462 83.391724 1070 2.3956472e-39
-373.67529 114.27264 1070 2.2130496e-39
-365.8208 135.20837 1060 2.3967234e-39
-357.96606 156.1441 1060 2.3041677e-39
-389.89233 172.89868 1070 2.3041663e-39
-363.19263 205.87018 1060 2.0279423e-39
-325.5022 229.94183 1050 1.9353908e-39
-297.75732 252.96814 1040 1.9353852e-39
-290.948 283.84906 1030 1.8439098e-39
-273.14795 305.83011 1030 1.935381e-39
-265.29346 326.76584 1020 1.8431895e-39
-237.54834 349.79218 1020 1.8428308e-39
-229.69385 370.72791 1010 1.9350236e-39
-222.88452 401.60886 1010 1.9353852e-39
-185.19409 425.68045 990 3.5027011e-39
-167.39429 447.6615 990 4.4239343e-39
-169.48486 467.55194 990 3.7785817e-39
-171.57544 487.44235 990 3.8718465e-39
-163.72095 508.37808 990 7.0972376e-39
-155.86621 529.31384 980 1.2446374e-38
-146.96631 540.30432 980 1.0245554e-38
-149.05688 560.19476 980 5.5392768e-39
-151.14746 580.08521 980 2.7719631e-39
-143.29272 601.02094 980 4.2449408e-39
-145.38354 620.91138 980 5.2504566e-39
-227.03564 632.43945 1000 4.6962122e-39
-279.89771 657.04865 1020 3.6849357e-39
-311.82397 673.80316 1030 3.5009074e-39
-424.35718 692.14056 1060 3.041011e-39
-507.05493 713.61389 1090 3.1324878e-39
-549.97168 739.26837 1100 3.0410082e-39
-612.77881 762.83221 1120 2.9491756e-39
-614.86938 782.72266 1130 3.9633233e-39
-627.95044 811.513 1130 4.9796346e-39
-630.04102 831.40344 1130 4.5165069e-39
-632.13159 851.29388 1130 3.1332095e-39
-635.26758 881.12952 1130 3.2264799e-39
-698.07471 904.69342 1150 3.2253995e-39
-821.59863 931.93079 1190 3.5027039e-39
-905.34155 963.34924 1210 1.1338228e-38
-939.3584 999.99426 1220 1.9173043e-38
-1042.9917 1029.3221 1260 1.9080856e-38
-1075.9631 1056.022 1270 1.9357086e-38
-997.44678 1074.3296 1240 1.8526959e-38
-899.03979 1094.7277 1210 1.6499362e-38
-941.95679 1120.3822 1220 2.3509839e-38
-873.3855 1137.6444 1200 2.3509886e-38
-692.28101 1136.5693 1140 2.3509886e-38
-633.65503 1152.7864 1120 2.3509092e-38
-615.85498 1174.7673 1110 2.3509852e-38
-577.11938 1188.8938 1100 2.3509874e-38
-375.07935 1179.964 1030 2.3509879e-38
-305.46265 1187.281 1010 2.3509862e-38
-287.66284 1209.2621 1000 2.3509886e-38
-289.75342 1229.1526 1000 2.3509886e-38
-280.85352 1240.1431 1000 2.3509886e-38
-272.99902 1261.0787 1000 2.3509883e-38
-275.0896 1280.9692 1000 2.3509886e-38
-277.18018 1300.8596 990 2.3509886e-38
-269.32544 1321.7954 990 2.3509886e-38
-333.17798 1355.3044 1010 2.3509886e-38
-377.14014 1390.9042 1030 2.3509886e-38
-379.23071 1410.7947 1020 2.3509886e-38
-370.33057 1421.7852 1020 2.3509886e-38
-393.35693 1449.5302 1030 2.3509886e-38
-426.32861 1476.23 1040 2.3509886e-38
-625.74072 1555.8215 1100 2.3509886e-38
-669.70264 1591.4211 1120 2.3509886e-38
-796.3623 1648.4941 1150 2.3509886e-38
-893.18628 1708.7031 1180 2.3509886e-38
-895.2771 1728.5935 1180 2.3509886e-38
-866.48657 1741.6746 1170 1.8618453e-38
-858.63208 1762.6104 1170 7.9299228e-39
-829.84155 1775.6914 1160 6.5459107e-39
-874.84888 1821.2363 1170 6.7324572e-39
-866.99438 1842.172 1170 6.640972e-39
-848.14917 1854.2079 1160 6.7310153e-39
-819.35889 1867.2889 1150 6.5466268e-39
-811.50415 1888.2247 1150 8.4841461e-39
-761.77808 1893.4512 1130 1.1525527e-38
-743.97827 1915.4323 1130 1.1249661e-38
-735.07837 1926.4227 1130 8.2075747e-39
-737.16895 1946.3131 1120 6.9164827e-39
-729.31445 1967.2489 1120 7.3785315e-39
-879.00024 2052.0669 1170 7.9299074e-39
-840.26465 2066.1934 1150 7.6565673e-39
-839.21948 2056.248 1140 2.3048896e-38
-839.21948 2056.248 1140 2.3234002e-38
-839.21948 2056.248 1140 2.2958866e-38
-839.21948 2056.248 1140 2.3509866e-38
-839.21948 2056.248 1140 2.3509154e-38
-839.21948 2056.248 1140 2.3509873e-38
-839.21948 2056.248 1140 2.350987e-38
-839.21948 2056.248 1140 2.3509876e-38
-839.21948 2056.248 1140 2.3509886e-38
-839.21948 2056.248 1140 2.3509886e-38
-839.21948 2056.248 1140 2.3509886e-38
-839.21948 2056.248 1140 2.3509884e-38
-839.21948 2056.248 1140 2.3509886e-38
-281.71924 -951.9563 1050 2.3509874e-38
-217.3291 -894.91309 1030 2.3509877e-38
-200.57471 -862.98682 1020 2.3509869e-38
-222.55566 -845.18701 1030 2.3509877e-38
-214.70093 -824.25122 1030 2.3509876e-38
-206.84644 -803.31555 1020 2.3509869e-38
-238.77271 -786.56104 1030 2.350987e-38
-259.70825 -778.70642 1040 2.3509886e-38
-280.64404 -770.85168 1040 2.350987e-38
-292.67993 -752.00659 1050 2.3509867e-38
-332.46069 -756.18774 1060 2.2775172e-38
-316.75146 -714.31628 1050 2.194145e-38
-356.53247 -718.49744 1070 2.0282286e-38
-1203.4885 -1079.0044 1350 1.8252177e-38
-1244.3147 -1073.2404 1370 1.8161066e-38
-1228.6055 -1031.3689 1360 1.6410434e-38
-1280.4221 -1016.705 1370 1.410375e-38
-1263.6677 -984.77869 1370 1.5487382e-38
-1315.4844 -970.11475 1380 1.6684482e-38
-1346.3652 -963.30542 1400 1.6225666e-38
-1426.9722 -961.72253 1420 1.7700069e-38
-1468.8438 -946.01331 1430 1.9354897e-38
-1443.1892 -903.09656 1420 1.834399e-38
-1436.3799 -872.21558 1420 1.8344702e-38
-1410.7253 -829.29883 1410 1.7511702e-38
-1414.9067 -789.51794 1410 1.2443844e-38
-1379.3069 -745.55591 1400 7.3763426e-39
-1333.762 -700.54846 1380 9.0311724e-39
-1346.8433 -671.75818 1380 1.5851104e-38
-1388.7146 -656.04895 1400 1.9265936e-38
-1411.741 -628.30383 1400 1.9727633e-38
-1423.7769 -609.45874 1410 2.0830037e-38
-1379.2771 -554.5061 1390 2.0557037e-38
-656.38232 -257.31421 1150 2.0647431e-38
-668.41821 -238.46912 1150 2.1383194e-38
-671.55396 -208.63342 1150 2.1936362e-38
-654.79932 -176.70715 1150 2.1755198e-38
-636.99951 -154.72614 1140 2.1109837e-38
-601.3999 -110.7641 1130 1.0968381e-38
-574.7002 -77.792542 1120 2.6743879e-39
-469.48389 -26.513428 1080 2.3963675e-39
-422.8938 8.5487061 1070 2.3970822e-39
-405.09375 30.529724 1060 2.489275e-39
-368.44897 64.54657 1050 2.3970822e-39
-360.59424 85.4823 1040 2.3967234e-39
-363.73022 115.31793 1040 2.2126909e-39
-355.87549 136.25366 1040 2.5829098e-39
-357.96606 156.1441 1040 2.5861454e-39
-370.00195 174.98926 1040 2.307769e-39
-353.24731 206.91553 1040 2.1208568e-39
-315.55713 230.98712 1020 1.9364628e-39
-278.91211 265.00397 1010 2.0279381e-39
-271.05737 285.9397 1010 1.8435511e-39
-253.25757 307.92072 1000 1.8428308e-39
-245.40308 328.85645 1000 1.8424721e-39
-207.71265 352.92804 980 2.0268591e-39
-190.95825 384.85431 980 2.3070347e-39
-163.21313 407.88062 970 4.2456457e-39
-135.46802 430.90695 960 5.3419333e-39
-127.61353 451.84268 960 3.3132763e-39
-129.7041 471.73309 950 2.1208498e-39
-121.84937 492.66885 950 2.4885575e-39
-173.66602 507.33279 970 2.3960032e-39
-175.75659 527.22327 970 2.395999e-39
-196.69238 535.07788 970 2.4874785e-39
-198.78296 554.96826 970 2.3041677e-39
-210.81885 573.81342 980 2.3038061e-39
-212.90942 593.70386 980 2.2119706e-39
-224.94507 612.54901 980 2.1194149e-39
-246.92627 630.34888 990 2.1201351e-39
-309.7334 653.91272 1010 2.4885491e-39
-331.71436 671.71259 1010 2.7651346e-39
-475.12866 696.85931 1060 3.3154301e-39
-526.94531 711.52332 1080 3.4083404e-39
-620.63354 741.89648 1100 3.3157917e-39
-642.6145 759.69635 1110 3.4998186e-39
-645.75049 789.53198 1110 3.2236002e-39
-647.84106 809.42242 1110 3.685293e-39
-649.93164 829.31287 1110 4.4250133e-39
-653.06738 859.1485 1110 3.9633289e-39
-655.15796 879.03894 1110 3.0417271e-39
-738.90088 910.45746 1140 3.04209e-39
-842.53442 939.7854 1170 3.2264743e-39
-906.38672 973.29449 1190 1.0787211e-38
-939.3584 999.99426 1200 1.9263436e-38
-1033.0464 1030.3674 1230 1.8987584e-38
-1056.0728 1058.1125 1230 1.917126e-38
-997.44678 1074.3296 1220 1.8619148e-38
-918.93042 1092.6371 1190 1.7047145e-38
-962.89233 1128.2368 1200 2.3509828e-38
-914.21167 1143.4084 1180 2.3509886e-38
-763.98804 1149.1427 1140 2.3509886e-38
-674.4812 1158.5503 1110 2.3505854e-38
-646.73608 1181.5767 1100 2.3509867e-38
-598.05518 1196.7483 1080 2.3509866e-38
-405.96021 1186.7733 1020 2.3509873e-38
-315.40796 1186.2357 990 2.3509886e-38
-287.66284 1209.2621 980 2.3509886e-38
-278.76294 1220.2526 980 2.3509877e-38
-260.96313 1242.2336 970 2.3503012e-38
-253.1084 1263.1693 970 2.3504421e-38
-265.14429 1282.0145 970 2.3509837e-38
-267.23486 1301.9049 970 2.3509839e-38
-228.49927 1316.0312 960 2.3509867e-38
-323.23267 1356.3497 990 2.3509886e-38
-366.14941 1382.0042 1000 2.3509886e-38
-358.29492 1402.9399 1000 2.3509886e-38
-350.44019 1423.8757 990 2.3509886e-38
-352.53076 1443.7661 1000 2.3509886e-38
-385.50244 1470.4658 1000 2.3509886e-38
-552.98828 1533.303 1060 2.3509886e-38
-638.82178 1584.6118 1080 2.3509886e-38
-755.53613 1642.7302 1120 2.3509886e-38
-882.1958 1699.8031 1150 2.3509886e-38
-885.33179 1729.6388 1160 2.3509886e-38
-856.5415 1742.7198 1150 1.9539699e-38
-848.68677 1763.6556 1140 9.4025235e-39
-778.0249 1761.0275 1120 7.4685789e-39
-842.92285 1804.4817 1140 7.4707341e-39
-835.06812 1825.4175 1130 7.4696551e-39
-827.21338 1846.3533 1130 7.0101161e-39
-798.4231 1859.4343 1120 6.3654669e-39
-790.5686 1880.3701 1120 6.3651068e-39
-761.77808 1893.4512 1110 7.6533219e-39
-732.98779 1906.5322 1100 7.653689e-39
-735.07837 1926.4227 1100 6.1799995e-39
-706.28809 1939.5038 1090 5.7186584e-39
-740.30493 1976.1488 1100 5.2584075e-39
-879.00024 2052.0669 1140 5.8108666e-39
-839.21948 2056.248 1130 6.9157624e-39
-840.26465 2066.1934 1120 2.2682263e-38
-840.26465 2066.1934 1120 2.3415514e-38
-840.26465 2066.1934 1120 2.3049967e-38
-840.26465 2066.1934 1120 2.3141814e-38
-840.26465 2066.1934 1120 2.3325839e-38
-840.26465 2066.1934 1120 2.3509879e-38
-840.26465 2066.1934 1120 2.3509886e-38
-840.26465 2066.1934 1120 2.350988e-38
-840.26465 2066.1934 1120 2.3509886e-38
-840.26465 2066.1934 1120 2.3509886e-38
-840.26465 2066.1934 1120 2.3509886e-38
-840.26465 2066.1934 1120 2.3509886e-38
-840.26465 2066.1934 1120 2.350988e-38
-242.98364 -937.82983 1020 2.3509874e-38
-217.3291 -894.91309 1010 2.3509867e-38
-200.57471 -862.98682 1000 2.3509874e-38
-203.71045 -833.15125 1000 2.3509866e-38
-195.85596 -812.21545 1000 2.3509876e-38
-189.04663 -781.33447 1000 2.3509873e-38
-200.03711 -772.43457 1000 2.3509876e-38
-212.07275 -753.58948 1000 2.3509886e-38
-233.00854 -745.73486 1010 2.3509884e-38
-253.94434 -737.88025 1010 2.3509867e-38
-284.8252 -731.07092 1020 2.3049968e-38
-278.01587 -700.18994 1020 2.1759213e-38
-299.99707 -682.39001 1030 2.0190083e-38
-349.72314 -687.61658 1040 1.8898989e-38
-1158.989 -1024.0518 1310 1.8803196e-38
-1190.9153 -1007.2972 1320 1.6777413e-38
-1250.5864 -1013.569 1340 1.4196294e-38
-1234.8772 -971.69751 1330 1.6039828e-38
-1315.4844 -970.11475 1350 1.6775963e-38
-1327.52 -951.26953 1360 1.7051828e-38
-1417.0271 -960.67725 1390 1.8434395e-38
-1458.8984 -944.96802 1400 1.8530173e-38
-1414.3989 -890.01538 1380 1.7147245e-38
-1417.5349 -860.17969 1380 1.7696456e-38
-1410.7253 -829.29883 1380 1.5485208e-38
-1413.8613 -799.46313 1380 9.5865098e-39
-1369.3618 -744.51062 1360 8.478363e-39
-1362.5525 -713.62964 1360 1.2907317e-38
-1385.5786 -685.88452 1370 1.8895344e-38
-1427.4502 -670.17529 1380 2.0188231e-38
-1401.7957 -627.25854 1370 2.0095693e-38
-1394.9863 -596.37756 1370 2.0462678e-38
-590.94702 -210.21625 1100 2.0650299e-38
-584.1377 -179.33533 1100 2.1752684e-38
-547.49268 -145.31848 1090 2.1847755e-38
-539.63794 -124.38275 1080 2.0464483e-38
-542.77393 -94.547119 1080 1.0508837e-38
-534.91919 -73.611389 1080 2.7655074e-39
-488.3291 -38.549255 1070 2.3970808e-39
-461.62939 -5.5776978 1060 2.5814706e-39
-424.98438 28.439148 1040 2.4896365e-39
-319.76807 79.718262 1010 3.0453228e-39
-273.17798 114.7804 990 9.0480749e-39
-265.32324 135.71613 990 1.8904353e-38
-267.41382 155.60657 990 2.0089226e-38
-249.61401 177.58759 980 2.2937216e-38
-251.70459 197.47803 980 2.3505144e-38
-254.84058 227.31366 980 1.7802351e-38
-246.98584 248.24939 980 6.7396318e-39
-239.1311 269.18512 980 2.7672996e-39
-231.27661 290.12085 970 3.1339241e-39
-213.47681 312.1019 970 3.1314046e-39
-205.62207 333.03763 960 2.5796728e-39
-188.86768 364.96387 960 2.3030901e-39
-190.95825 384.85431 960 2.119775e-39
-163.21313 407.88062 950 2.1201337e-39
-155.3584 428.81635 950 2.118696e-39
-147.50391 449.75208 940 1.9353838e-39
-149.59448 469.64252 940 1.9350208e-39
-111.90405 493.71414 930 2.0264948e-39
-183.61133 506.28751 950 2.3027243e-39
-175.75659 527.22327 950 2.3023614e-39
-206.6377 534.03259 960 2.5789455e-39
-218.67334 552.87769 960 2.4871114e-39
-230.70923 571.72284 960 2.7626179e-39
-242.74512 590.56799 970 2.8548135e-39
-254.78076 609.41315 970 2.8551722e-39
-277.80713 637.1582 980 3.2228772e-39
-309.7334 653.91272 990 3.1310403e-39
-351.60474 669.62201 1000 3.2235918e-39
-475.12866 696.85931 1040 3.4987396e-39
-547.8811 719.37793 1060 3.31507e-39
-650.46924 738.76062 1090 2.8558939e-39
-652.55981 758.65106 1090 2.3956374e-39
-675.58594 786.39612 1100 2.4881918e-39
-677.67651 806.28656 1100 3.223959e-39
-680.8125 836.12219 1100 4.4239329e-39
-682.90308 856.01263 1100 4.1477131e-39
-695.98413 884.80298 1100 3.1342885e-39
-799.61768 914.13092 1130 2.8587792e-39
-872.36987 936.64954 1150 3.3186755e-39
-916.33203 972.24921 1170 1.0325521e-38
-939.3584 999.99426 1170 1.8160681e-38
-1023.1013 1031.4127 1200 1.880607e-38
-1036.1824 1060.2031 1200 1.8526236e-38
-997.44678 1074.3296 1190 1.8524082e-38
-928.87549 1091.5918 1170 1.7049299e-38
-982.78271 1126.1462 1180 2.3509806e-38
-945.09253 1150.2178 1170 2.3509886e-38
-835.69507 1161.7161 1130 2.3509886e-38
-756.1333 1170.0784 1110 2.3317881e-38
-697.50732 1186.2954 1090 2.3509856e-38
-617.94556 1194.6577 1060 2.3509877e-38
-436.84106 1193.5826 1010 2.3509874e-38
-315.40796 1186.2357 970 2.3509855e-38
-266.72705 1201.4075 950 2.3509865e-38
-227.99146 1215.5338 940 2.3509884e-38
-189.2561 1229.6603 930 2.3509886e-38
-180.35596 1240.6508 930 2.3509886e-38
-172.50146 1261.5864 920 2.3509886e-38
-164.64673 1282.5222 920 2.3509886e-38
-135.85645 1295.6033 910 2.3509865e-38
-312.24219 1347.4498 960 2.3509856e-38
-377.14014 1390.9042 980 2.3509886e-38
-358.29492 1402.9399 980 2.3509886e-38
-350.44019 1423.8757 970 2.3509886e-38
-352.53076 1443.7661 970 2.3509886e-38
-375.55713 1471.5112 980 2.3509886e-38
-552.98828 1533.303 1030 2.3509886e-38
-627.8313 1575.7119 1050 2.3509886e-38
-755.53613 1642.7302 1090 2.3509886e-38
-871.20532 1690.9032 1130 2.3509886e-38
-884.28638 1719.6936 1130 2.3509886e-38
-856.5415 1742.7198 1120 2.1013737e-38
-848.68677 1763.6556 1120 9.4046759e-39
-787.97021 1759.9822 1100 6.8232109e-39
-842.92285 1804.4817 1120 7.1005166e-39
-825.1228 1826.4628 1110 7.651531e-39
-838.2041 1855.2532 1110 6.7299419e-39
-829.3042 1866.2437 1110 7.0079637e-39
-811.50415 1888.2247 1100 9.6816299e-39
-771.72339 1892.4059 1090 9.4046871e-39
-774.85913 1922.2416 1090 8.5781536e-39
-818.82129 1957.8412 1100 9.6844998e-39
-780.08569 1971.9677 1090 8.9426314e-39
-824.04785 2007.5673 1100 7.4693034e-39
-889.99097 2060.9668 1120 7.5629311e-39
-850.20996 2065.1479 1110 8.2065013e-39
-860.15527 2064.1028 1100 2.277483e-38
-860.15527 2064.1028 1100 2.30496e-38
-860.15527 2064.1028 1100 2.3324404e-38
-860.15527 2064.1028 1100 2.3509872e-38
-860.15527 2064.1028 1100 2.3418039e-38
-860.15527 2064.1028 1100 2.3509886e-38
-860.15527 2064.1028 1100 2.3509886e-38
-860.15527 2064.1028 1100 2.3509872e-38
-860.15527 2064.1028 1100 2.3509886e-38
-860.15527 2064.1028 1100 2.3509886e-38
-860.15527 2064.1028 1100 2.3509886e-38
-860.15527 2064.1028 1100 2.3509886e-38
-316.27368 -1005.8635 1020 2.3509886e-38
-242.98364 -937.82983 990 2.3509869e-38
-227.27441 -895.95837 990 2.3509881e-38
-200.57471 -862.98682 980 2.3509876e-38
-203.71045 -833.15125 980 2.3509879e-38
-195.85596 -812.21545 980 2.350986e-38
-189.04663 -781.33447 970 2.3509873e-38
-201.08228 -762.48938 980 2.3509886e-38
-203.17285 -742.59888 980 2.3509876e-38
-224.10864 -734.74426 980 2.3509877e-38
-245.04443 -726.88965 990 2.3509866e-38
-265.98022 -719.03503 990 2.2589338e-38
-259.1709 -688.15405 990 2.1756703e-38
-271.20654 -669.30896 1000 2.0374134e-38
-310.98755 -673.49011 1010 1.8899703e-38
-341.86841 -666.68079 1020 1.8069574e-38
-1143.2798 -982.1803 1270 1.5857982e-38
-1212.8962 -989.49744 1290 1.3734233e-38
-1206.0869 -958.61646 1290 1.548415e-38
-1295.5938 -968.02405 1320 1.6591932e-38
-1289.8298 -927.198 1310 1.6959984e-38
-1398.1819 -948.64136 1350 1.9261271e-38
-1449.9985 -933.97742 1360 1.9448911e-38
-1404.4536 -888.97009 1350 1.8985771e-38
-1407.5896 -859.1344 1350 1.843583e-38
-1420.6707 -830.34412 1350 1.5300464e-38
-1413.8613 -799.46313 1350 1.0046412e-38
-1388.2068 -756.54639 1340 9.9552685e-39
-1391.3428 -726.71069 1340 1.4656154e-38
-1414.3691 -698.9657 1350 1.8988974e-38
-1437.3955 -671.22058 1350 2.0829654e-38
-1410.6956 -638.24902 1340 2.0095693e-38
-1404.9316 -597.42285 1340 2.04634e-38
-461.65918 -196.62744 1040 1.9815865e-38
-483.64014 -178.82758 1040 2.02754e-38
-476.83081 -147.94666 1040 1.9359198e-38
-488.8667 -129.1015 1040 2.000456e-38
-490.95728 -109.21106 1040 1.8068121e-38
-502.99292 -90.365906 1050 9.2177357e-39
-515.02881 -71.520752 1050 2.2137713e-39
-518.16479 -41.68512 1050 2.4889149e-39
-530.20044 -22.839966 1050 7.2837841e-39
-493.55542 11.17688 1040 1.4470695e-38
-270.04199 84.944763 970 1.575495e-38
-213.50659 121.05219 950 1.3809873e-38
-206.69727 151.93311 950 8.4639871e-39
-208.78784 171.82355 950 3.865727e-39
-220.82373 190.6687 950 2.5800301e-39
-222.91431 210.55914 950 2.3956416e-39
-195.16919 233.58545 940 2.1201337e-39
-197.25977 253.47589 940 1.9353852e-39
-209.29565 272.32104 950 1.9353852e-39
-201.44092 293.25674 940 1.5673215e-39
-183.64111 315.23776 940 1.7509883e-39
-185.73169 335.1282 940 1.8428238e-39
-198.81274 363.91858 940 1.9346649e-39
-210.84863 382.7637 940 2.1186932e-39
-173.1582 406.83533 930 2.0264962e-39
-175.24902 426.72577 930 2.3027201e-39
-187.28467 445.57089 930 2.3027215e-39
-199.32056 464.41605 940 2.4856765e-39
-131.79468 491.62354 920 2.3949144e-39
-193.5564 505.24222 930 2.4863911e-39
-185.7019 526.17798 930 2.6700663e-39
-216.58276 532.9873 940 2.5785868e-39
-218.67334 552.87769 940 2.48711e-39
-240.65454 570.67755 950 2.5789469e-39
-252.69019 589.52271 950 2.4863939e-39
-274.67114 607.32251 960 2.4867527e-39
-307.64282 634.02234 960 2.7622606e-39
-329.62378 651.82214 970 2.8544548e-39
-392.43091 675.38605 990 2.8544548e-39
-495.01904 694.76874 1020 2.7633353e-39
-587.66187 715.19672 1050 2.9470105e-39
-680.30469 735.62476 1070 2.855175e-39
-683.44067 765.46039 1080 2.5800301e-39
-715.36694 782.2149 1080 2.5803916e-39
-728.448 811.00531 1090 3.1328395e-39
-730.53857 830.89575 1090 3.5923743e-39
-733.67456 860.73138 1090 4.7905588e-39
-745.71021 879.57654 1090 5.8936694e-39
-839.39844 909.94971 1120 3.9615184e-39
-903.25098 943.45886 1140 4.0598251e-39
-916.33203 972.24921 1140 1.1529814e-38
-928.36792 991.09436 1140 1.8806067e-38
-1002.1655 1023.5581 1160 1.9634019e-38
-1015.2466 1052.3485 1170 1.8249286e-38
-997.44678 1074.3296 1160 1.7880856e-38
-939.86597 1100.4917 1140 1.7692862e-38
-1013.6638 1132.9556 1160 2.3509799e-38
-964.98291 1148.1272 1150 2.3509886e-38
-886.46655 1166.4348 1130 2.3509886e-38
-837.78564 1181.6064 1110 2.2401299e-38
-810.04077 1204.6328 1100 2.3509838e-38
-679.70752 1208.2764 1060 2.3509876e-38
-315.40796 1186.2357 950 2.3509858e-38
-206.0105 1197.734 920 2.3326182e-38
-156.28442 1202.9604 900 2.3509886e-38
-116.50366 1207.1416 890 2.3509886e-38
-108.64893 1228.0774 880 2.3509886e-38
-110.7395 1247.9678 880 2.3509886e-38
-122.77539 1266.813 890 2.3509886e-38
-145.80176 1294.5581 890 2.3509886e-38
-333.17798 1355.3044 950 2.350988e-38
-387.08521 1389.8589 970 2.3492929e-38
-358.29492 1402.9399 960 2.3488238e-38
-370.33057 1421.7852 960 2.3496512e-38
-362.47607 1442.7208 950 2.3494731e-38
-395.44751 1469.4207 960 2.1745159e-38
-625.74072 1555.8215 1030 2.3509852e-38
-690.63843 1599.2759 1050 2.3509886e-38
-817.2981 1656.3489 1090 2.3509886e-38
-872.25073 1700.8484 1100 2.3509886e-38
-884.28638 1719.6936 1110 2.3509886e-38
-866.48657 1741.6746 1100 2.258106e-38
-848.68677 1763.6556 1090 1.1245347e-38
-808.90601 1767.8368 1080 7.0990761e-39
-884.79419 1820.191 1100 7.4675027e-39
-887.93018 1850.0267 1100 7.191985e-39
-910.9563 1877.7717 1110 6.914682e-39
-913.04712 1897.6622 1110 6.7328159e-39
-916.18286 1927.4978 1110 7.377821e-39
-908.32837 1948.4336 1110 8.5741866e-39
-932.3999 1986.1239 1110 9.0333795e-39
-924.54517 2007.0596 1110 8.6660361e-39
-873.77393 2002.3408 1090 7.9295556e-39
-865.91919 2023.2766 1090 8.6660347e-39
-879.00024 2052.0669 1090 8.8522154e-39
-850.20996 2065.1479 1090 9.4943604e-39
-839.21948 2056.248 1070 2.3234362e-38
-306.32837 -1004.8182 1000 2.3509886e-38
-234.08374 -926.83936 970 2.3509874e-38
-227.27441 -895.95837 970 2.3509874e-38
-200.57471 -862.98682 960 2.3509873e-38
-202.66528 -843.09644 960 2.3509866e-38
-195.85596 -812.21545 950 2.3509872e-38
-189.04663 -781.33447 950 2.3509873e-38
-191.13721 -761.44409 950 2.3509876e-38
-193.22778 -741.55359 950 2.3509876e-38
-214.16333 -733.69897 960 2.3509883e-38
-236.14453 -715.89917 960 2.3509867e-38
-257.08008 -708.04456 970 2.341658e-38
-259.1709 -688.15405 970 2.2124038e-38
-271.20654 -669.30896 970 2.0647474e-38
-312.03271 -663.54492 980 1.8900066e-38
-332.96851 -655.69031 990 1.8070663e-38
-1104.5442 -968.05396 1230 1.6043079e-38
-1165.2607 -964.38049 1250 1.4194496e-38
-1197.187 -947.62598 1260 1.5576338e-38
-1295.5938 -968.02405 1290 1.6410057e-38
-1289.8298 -927.198 1280 1.6593001e-38
-1408.1272 -949.68665 1320 1.8711325e-38
-1440.0535 -932.93213 1330 1.9998484e-38
-1414.3989 -890.01538 1320 1.9262693e-38
-1436.3799 -872.21558 1330 1.889212e-38
-1440.561 -832.43469 1330 1.6872099e-38
-1433.7517 -801.55371 1320 1.5954091e-38
-1426.9424 -770.67273 1320 1.7334878e-38
-1430.0784 -740.83716 1320 1.9173381e-38
-1434.2595 -701.05627 1320 2.0001697e-38
-1427.4502 -670.17529 1320 2.0367604e-38
-1430.5862 -640.3396 1320 1.991129e-38
-1423.7769 -609.45874 1320 1.8988994e-38
-1369.3318 -553.46082 1300 1.8713831e-38
-422.92358 -182.50104 1000 1.9633992e-38
-434.95923 -163.65588 1010 2.0462311e-38
-438.09521 -133.82025 1010 2.0000615e-38
-450.1311 -114.9751 1010 1.8621644e-38
-472.11206 -97.175232 1010 1.6864179e-38
-484.14795 -78.330078 1020 8.0130913e-39
-506.12891 -60.530273 1020 2.7647829e-39
-508.21948 -40.639832 1020 2.4878401e-39
-481.51978 -7.6682739 1010 2.3041635e-39
-386.24878 42.565552 980 2.2119692e-39
-261.14209 95.935242 940 2.2119706e-39
-253.28735 116.87097 940 2.119775e-39
-265.32324 135.71613 950 2.0268605e-39
-257.46851 156.65186 940 1.8428308e-39
-259.55933 176.5423 940 1.7509911e-39
-232.85938 209.51379 940 1.7517058e-39
-215.05957 231.49487 930 1.9346635e-39
-197.25977 253.47589 920 1.934302e-39
-199.35034 273.36633 920 2.1186932e-39
-201.44092 293.25674 920 2.0261346e-39
-183.64111 315.23776 920 2.3941983e-39
-166.88647 347.16403 910 2.3027201e-39
-178.92236 366.00916 910 2.2105287e-39
-200.90332 383.80899 920 2.3023628e-39
-173.1582 406.83533 910 2.3020041e-39
-185.19409 425.68045 910 2.1186918e-39
-197.22998 444.5256 920 2.0261389e-39
-199.32056 464.41605 920 2.3023614e-39
-141.73975 490.57825 900 2.2105273e-39
-193.5564 505.24222 910 2.2105273e-39
-185.7019 526.17798 910 2.3020041e-39
-216.58276 532.9873 920 2.3934808e-39
-218.67334 552.87769 920 2.1190477e-39
-240.65454 570.67755 930 2.3023628e-39
-262.6355 588.47742 930 2.2105273e-39
-285.66187 616.22247 940 2.4863925e-39
-317.58789 632.97699 950 2.5785882e-39
-329.62378 651.82214 950 2.4871142e-39
-392.43091 675.38605 970 2.6704237e-39
-485.07397 695.81403 990 2.5789483e-39
-587.66187 715.19672 1030 2.855175e-39
-721.13086 741.38879 1060 2.7626221e-39
-753.05713 758.14331 1070 2.3034418e-39
-766.13818 786.93365 1070 2.5800287e-39
-789.16455 814.67871 1080 2.7651388e-39
-791.25513 834.56915 1080 3.0406467e-39
-794.39111 864.40485 1080 4.1462642e-39
-796.48169 884.29529 1080 1.0044963e-38
-870.2793 916.75903 1100 1.649937e-38
-913.19604 942.41351 1120 1.834509e-38
-905.34155 963.34924 1110 1.944926e-38
-918.42261 992.13965 1110 1.9632222e-38
-992.22021 1024.6034 1130 1.9447126e-38
-1005.3015 1053.3938 1140 1.8896101e-38
-1008.4373 1083.2295 1140 1.8802811e-38
-949.81128 1099.4464 1120 1.8152415e-38
-1054.49 1138.7196 1150 2.3508709e-38
-1005.8091 1153.8912 1140 2.3509886e-38
-937.23804 1171.1536 1120 2.3509886e-38
-909.49292 1194.1799 1100 2.2214043e-38
-901.63818 1215.1156 1100 2.3509837e-38
-894.82886 1245.9966 1100 2.350987e-38
-610.09106 1215.5935 1010 2.350988e-38
-387.11499 1198.8091 950 2.3509886e-38
-256.78198 1202.4528 910 2.3509886e-38
-176.1748 1200.8699 890 2.3509886e-38
-148.42993 1223.8962 880 2.3509886e-38
-160.46558 1242.7413 880 2.3509886e-38
-120.68481 1246.9226 870 2.3509886e-38
-112.83008 1267.8583 860 2.3509886e-38
-114.92065 1287.7488 860 2.3509886e-38
-323.23267 1356.3497 930 2.3509886e-38
-366.14941 1382.0042 940 2.3509886e-38
-327.41382 1396.1306 930 2.3509886e-38
-329.50464 1416.021 930 2.3499805e-38
-321.6499 1436.9568 920 2.1077517e-38
-354.62134 1463.6565 930 1.4631004e-38
-533.0979 1535.3936 980 1.0677746e-38
-628.87646 1585.6572 1010 9.2087408e-39
-807.35278 1657.394 1060 1.8991526e-38
-872.25073 1700.8484 1080 2.3509886e-38
-884.28638 1719.6936 1080 2.3509886e-38
-866.48657 1741.6746 1070 2.2950187e-38
-827.75098 1755.801 1060 1.2350257e-38
-789.01538 1769.9274 1050 7.4703656e-39
-842.92285 1804.4817 1070 7.5600529e-39
-876.9397 1841.1267 1080 8.3887261e-39
-879.03027 1861.0172 1070 8.6671151e-39
-892.11133 1889.8075 1080 9.7756178e-39
-885.302 1920.6885 1080 8.8515077e-39
-876.4021 1931.6791 1070 7.4685789e-39
-879.53784 1961.5146 1070 8.114663e-39
-861.73804 1983.4957 1070 8.3912471e-39
-821.95728 1987.6769 1060 8.9440607e-39
-813.05737 1998.6674 1050 9.6841439e-39
-837.12891 2036.3577 1060 9.131326e-39
-819.3291 2058.3389 1050 8.667841e-39
-818.28369 2048.3936 1040 2.304961e-38
-306.32837 -1004.8182 970 2.3509886e-38
-234.08374 -926.83936 950 2.3509877e-38
-227.27441 -895.95837 950 2.3509876e-38
-210.51978 -864.0321 940 2.3509883e-38
-202.66528 -843.09644 940 2.3509866e-38
-195.85596 -812.21545 930 2.3509872e-38
-189.04663 -781.33447 930 2.3509874e-38
-191.13721 -761.44409 930 2.350988e-38
-183.28247 -740.5083 930 2.3509881e-38
-205.26343 -722.7085 930 2.3509879e-38
-216.25391 -713.80859 940 2.3509886e-38
-247.13501 -706.99927 950 2.3048531e-38
-259.1709 -688.15405 950 2.1572658e-38
-271.20654 -669.30896 950 1.9823822e-38
-310.98755 -673.49011 960 1.9357452e-38
-332.96851 -655.69031 970 1.8342945e-38
-1066.8538 -943.9823 1190 1.7055075e-38
-1117.6252 -939.26355 1210 1.4286326e-38
-1158.4514 -933.49951 1220 1.5210058e-38
-1266.8035 -954.94299 1250 1.6592297e-38
-1259.9941 -924.06201 1250 1.6961064e-38
-1369.3916 -935.5603 1280 1.9169792e-38
-1430.1082 -931.88684 1290 1.9909511e-38
-1404.4536 -888.97009 1290 1.9170155e-38
-1427.48 -861.22498 1290 1.9077588e-38
-1440.561 -832.43469 1290 1.9538215e-38
-1413.8613 -799.46313 1290 1.9170867e-38
-1418.0425 -759.68225 1290 1.9263415e-38
-1411.2332 -728.80127 1280 1.9447447e-38
-1394.4788 -696.87512 1280 1.9908785e-38
-1378.7693 -655.00366 1270 2.0554511e-38
-1391.8506 -626.21326 1280 2.0278996e-38
-1375.0959 -594.28699 1270 1.8987542e-38
-1301.8059 -526.2533 1250 1.8343971e-38
-420.83301 -202.39148 980 1.8254651e-38
-394.13306 -169.41992 970 1.8621651e-38
-396.22388 -149.52948 970 1.8346122e-38
-398.31445 -129.63904 970 1.807062e-38
-410.3501 -110.79388 970 1.3091732e-38
-432.3313 -92.99408 980 4.7019701e-39
-454.31226 -75.194214 990 2.3045264e-39
-476.29321 -57.394348 990 2.3027285e-39
-478.38379 -37.503967 990 2.3956388e-39
-412.94849 9.5939941 970 2.3952759e-39
-297.78711 61.918396 940 2.5800259e-39
-261.14209 95.935242 930 2.4874729e-39
-263.23267 115.82568 930 2.4871142e-39
-275.26855 134.67084 930 2.3030803e-39
-267.41382 155.60657 930 2.1194107e-39
-279.44971 174.45172 930 2.1190533e-39
-251.70459 197.47803 920 2.3016439e-39
-225.00488 230.44958 910 2.2101686e-39
-207.20508 252.4306 900 2.0264962e-39
-209.29565 272.32104 900 2.1179715e-39
-201.44092 293.25674 900 2.0268535e-39
-183.64111 315.23776 900 2.026136e-39
-176.83179 346.11871 890 2.0264962e-39
-168.97705 367.05444 890 2.0264962e-39
-200.90332 383.80899 900 2.0261374e-39
-173.1582 406.83533 890 2.1183303e-39
-195.1394 424.63516 900 2.026136e-39
-207.17505 443.48032 900 1.8431839e-39
-229.15625 461.28015 910 1.9346593e-39
-151.68506 489.53296 880 2.1204841e-39
-203.50171 504.1969 890 4.0533553e-39
-185.7019 526.17798 890 3.8750751e-39
-216.58276 532.9873 900 4.4282545e-39
-228.61865 551.8324 900 5.4362926e-39
-250.59961 569.63226 910 5.158984e-39
-272.58057 587.43213 910 4.701247e-39
-305.55225 614.13184 920 3.318321e-39
-347.42358 629.84113 930 2.3027271e-39
-379.34985 646.5957 940 2.4867541e-39
-452.10229 669.11426 960 2.210886e-39
-514.90942 692.67816 980 2.39492e-39
-577.7168 716.242 1000 2.3030831e-39
-741.02148 739.29816 1040 2.6711411e-39
-803.82861 762.86206 1060 2.5796658e-39
-816.90967 791.6524 1070 2.210893e-39
-838.89062 809.45227 1070 2.4881932e-39
-832.0813 840.33319 1070 2.9484539e-39
-834.17188 860.22363 1070 3.3165105e-39
-837.30786 890.05933 1070 5.8029031e-39
-900.11499 913.62317 1080 1.2811542e-38
-923.14136 941.36823 1090 1.8343644e-38
-895.39624 964.39453 1080 1.9356358e-38
-908.47729 993.18494 1080 1.8806071e-38
-972.32983 1026.694 1100 1.8341834e-38
-995.3562 1054.4391 1110 1.8160674e-38
-1008.4373 1083.2295 1110 1.9446735e-38
-1095.3162 1144.4836 1130 2.3507272e-38
-1036.6902 1160.7006 1120 2.3509886e-38
-978.06421 1176.9176 1100 2.3509886e-38
-930.42871 1202.0344 1090 2.166268e-38
-932.51929 1221.9249 1080 2.3507309e-38
-935.65503 1251.7606 1090 2.3509852e-38
-256.78198 1202.4528 890 2.1909791e-38
-104.46777 1188.2965 850 1.2511945e-38
-96.613037 1209.2323 840 7.7332533e-39
-88.758545 1230.168 840 5.6221159e-39
-89.803711 1240.1133 840 5.3466109e-39
-91.894531 1260.0037 840 5.3466137e-39
-93.985107 1279.894 840 5.5327972e-39
-188.71851 1320.2125 870 5.8972679e-39
-263.56152 1362.6216 890 5.8976322e-39
-296.53296 1389.3213 890 5.620681e-39
-298.62354 1409.2117 900 5.5277623e-39
-300.71411 1429.1022 890 4.7012414e-39
-323.74048 1456.8472 900 4.7026778e-39
-418.47388 1497.1656 930 4.7938028e-39
-617.88599 1576.7573 980 5.3462549e-39
-786.41724 1649.5396 1030 1.244313e-38
-861.26025 1691.9485 1050 2.3509837e-38
-874.34131 1720.7388 1050 2.3509886e-38
-866.48657 1741.6746 1050 2.3506607e-38
-816.7605 1746.9011 1040 1.4376744e-38
-778.0249 1761.0275 1020 8.1142944e-39
-801.05127 1788.7725 1030 8.1139413e-39
-835.06812 1825.4175 1040 7.7462434e-39
-837.15869 1845.308 1040 8.1135868e-39
-851.28516 1884.0436 1040 7.7465965e-39
-842.38525 1895.0341 1040 8.2079376e-39
-834.53052 1915.9697 1040 9.7752465e-39
-826.67603 1936.9055 1030 1.2446046e-38
-829.81177 1966.7411 1030 1.1803557e-38
-801.02148 1979.8223 1020 1.0144399e-38
-803.11206 1999.7126 1020 9.8624171e-39
-816.19312 2028.5031 1030 8.76111e-39
-818.28369 2048.3936 1030 8.7618358e-39
-808.33862 2049.4387 1010 2.3418036e-38
-297.42847 -993.82776 950 2.3509886e-38
-224.13843 -925.79407 930 2.3509879e-38
-226.229 -905.90356 920 2.3509879e-38
-210.51978 -864.0321 920 2.3509867e-38
-202.66528 -843.09644 920 2.3509865e-38
-195.85596 -812.21545 910 2.3509874e-38
-189.04663 -781.33447 910 2.3509863e-38
-191.13721 -761.44409 910 2.3509879e-38
-193.22778 -741.55359 910 2.350988e-38
-205.26343 -722.7085 910 2.3509866e-38
-226.19922 -714.85388 920 2.3509521e-38
-257.08008 -708.04456 930 2.2957044e-38
-269.11597 -689.19934 930 2.1114926e-38
-280.10645 -680.29944 930 2.0004259e-38
-310.98755 -673.49011 940 1.9266329e-38
-332.96851 -655.69031 950 1.8069229e-38
-392.63989 -661.96204 960 1.7332378e-38
-1078.8896 -925.13721 1170 1.4378519e-38
-1148.5061 -932.45422 1190 1.4839141e-38
-1257.9036 -943.95251 1220 1.585976e-38
-1251.0942 -913.07153 1210 1.6870668e-38
-1340.6013 -922.47925 1240 1.852838e-38
-1391.3726 -917.7605 1250 1.9449245e-38
-1365.718 -874.84375 1240 1.8343626e-38
-1398.6897 -848.14392 1250 1.8435094e-38
-1420.6707 -830.34412 1260 1.8803885e-38
-1395.0161 -787.42737 1250 1.8251433e-38
-1398.1521 -757.59167 1250 1.8065243e-38
-1430.0784 -740.83716 1260 1.8896081e-38
-1433.2141 -711.00146 1260 1.9357044e-38
-1407.5598 -668.08472 1250 1.9727997e-38
-1420.6409 -639.29431 1250 2.0184296e-38
-1394.9863 -596.37756 1240 1.9999185e-38
-1310.7058 -537.2439 1220 1.9631473e-38
-372.1521 -187.21979 940 1.9541434e-38
-326.60718 -142.2124 930 1.8618757e-38
-318.75269 -121.27667 930 1.8617702e-38
-320.84326 -101.38623 930 1.7699679e-38
-342.82422 -83.586426 930 1.4569747e-38
-383.65039 -77.822388 940 7.8394802e-39
-415.57666 -61.06781 950 3.2257568e-39
-457.448 -45.358582 960 2.0272179e-39
-469.48389 -26.513428 970 1.9339446e-39
-354.32251 25.810974 930 2.0264962e-39
-267.95142 65.054321 910 2.3027229e-39
-251.19678 96.98053 900 2.3023628e-39
-263.23267 115.82568 900 2.3030803e-39
-275.26855 134.67084 910 2.2105315e-39
-267.41382 155.60657 900 2.1183345e-39
-279.44971 174.45172 910 2.0272136e-39
-271.59497 195.38745 900 1.934302e-39
-234.94995 229.40424 890 2.026492e-39
-217.15015 251.38531 890 2.0257773e-39
-209.29565 272.32104 890 1.934302e-39
-201.44092 293.25674 880 1.8424679e-39
-203.53149 313.14719 880 2.0268549e-39
-195.677 334.08292 880 2.3981486e-39
-237.54834 349.79218 890 3.5981323e-39
-269.47461 366.54672 900 4.609413e-39
-232.82959 400.56357 890 4.6983716e-39
-234.92017 420.45398 890 4.2391857e-39
-246.95605 439.29913 890 4.0555175e-39
-278.88232 456.05368 900 3.963682e-39
-171.57544 487.44235 870 4.1477117e-39
-203.50171 504.1969 880 4.0562336e-39
-185.7019 526.17798 870 4.2402689e-39
-216.58276 532.9873 880 4.0566007e-39
-228.61865 551.8324 880 4.1480733e-39
-260.54492 568.58698 890 4.2388298e-39
-292.47119 585.34149 900 4.8849152e-39
-325.44263 612.04126 910 5.9930649e-39
-397.14966 624.61462 930 4.4253804e-39
-420.17603 652.35974 930 2.21017e-39
-471.99268 667.02368 950 2.1183317e-39
-524.85474 691.63287 960 2.0268591e-39
-577.7168 716.242 970 2.1186932e-39
-721.13086 741.38879 1010 2.0268591e-39
-793.8833 763.90735 1030 2.3030803e-39
-826.85498 790.60712 1040 2.1190547e-39
-838.89062 809.45227 1050 1.9346649e-39
-842.02661 839.2879 1050 2.5803888e-39
-855.10767 868.07825 1050 3.3165161e-39
-867.14355 886.9234 1050 3.9604366e-39
-930.99609 920.4325 1070 8.2936116e-39
-944.07715 949.2229 1070 1.4934927e-38
-885.45117 965.43982 1060 1.8164296e-38
-898.53223 994.23022 1060 1.9540399e-38
-961.33936 1017.7941 1070 1.8801388e-38
-985.41089 1055.4844 1080 1.7975228e-38
-997.44678 1074.3296 1080 1.8434402e-38
-939.86597 1100.4917 1070 1.8154927e-38
-1095.3162 1144.4836 1110 2.2308379e-38
-1015.7544 1152.8459 1090 2.3509886e-38
-958.17358 1179.0082 1070 2.3509886e-38
-919.43799 1193.1345 1060 2.1752702e-38
-922.57397 1222.9702 1060 2.350766e-38
-914.71924 1243.906 1060 2.3509858e-38
-375.07935 1179.964 900 2.3509845e-38
-254.69141 1182.5623 870 2.1565463e-38
-144.24854 1184.1154 840 1.170235e-38
-115.45825 1197.1964 830 5.1622224e-39
-86.667969 1210.2776 820 5.3466052e-39
-77.768066 1221.2681 820 5.3458878e-39
-59.968262 1243.249 810 5.2536936e-39
-62.058838 1263.1395 810 5.068952e-39
-74.094482 1281.9846 820 4.8856383e-39
-126.95654 1306.5939 830 5.1607861e-39
-180.86377 1341.1482 850 5.0685904e-39
-265.6521 1382.512 870 4.7008841e-39
-277.68774 1401.3572 870 4.7008869e-39
-289.72363 1420.2023 870 4.7012414e-39
-323.74048 1456.8472 880 4.6083354e-39
-377.64771 1491.4016 900 4.7927294e-39
-556.12402 1563.1385 940 4.8863516e-39
-744.54565 1633.8302 1000 8.7582149e-39
-851.31494 1692.9938 1020 2.1571572e-38
-884.28638 1719.6936 1030 2.3509886e-38
-866.48657 1741.6746 1030 2.3508402e-38
-816.7605 1746.9011 1010 1.5023551e-38
-747.14404 1754.2181 990 9.9517316e-39
-749.23462 1774.1086 990 1.0960477e-38
-783.25146 1810.7535 1000 1.1514003e-38
-785.34204 1830.644 1000 1.1146302e-38
-798.4231 1859.4343 1000 1.0501298e-38
-801.55908 1889.27 1000 1.1053749e-38
-813.59473 1908.1151 1010 9.397483e-39
-805.74023 1929.0509 1000 7.099795e-39
-818.82129 1957.8412 1010 8.3890905e-39
-801.02148 1979.8223 1000 8.3901681e-39
-792.12158 1990.8127 1000 9.1259268e-39
-784.26685 2011.7485 990 8.6674654e-39
-776.41235 2032.6842 990 8.7578688e-39
-728.2981 -1582.0889 1060 2.2958856e-38
-721.48877 -1551.208 1060 2.3509881e-38
-650.28955 -1463.2839 1030 2.3509884e-38
-779.57739 -1476.8728 1070 2.3509886e-38
-316.27368 -1005.8635 930 2.3509883e-38
-234.08374 -926.83936 910 2.3509869e-38
-236.17432 -906.94885 900 2.3509883e-38
-210.51978 -864.0321 900 2.3509874e-38
-212.61035 -844.14172 900 2.3509874e-38
-205.80103 -813.26074 890 2.3509872e-38
-197.94653 -792.32507 890 2.3509879e-38
-200.03711 -772.43457 890 2.3509883e-38
-193.22778 -741.55359 890 2.3509886e-38
-205.26343 -722.7085 890 2.3509886e-38
-226.19922 -714.85388 900 2.350986e-38
-257.08008 -708.04456 910 2.3508053e-38
-278.01587 -700.18994 910 2.0837261e-38
-290.05176 -681.34473 910 2.0002096e-38
-320.93262 -674.5354 920 1.945251e-38
-341.86841 -666.68079 930 1.7700447e-38
-382.69458 -660.91675 940 1.7883742e-38
-1060.0444 -913.10132 1130 1.4282369e-38
-1158.4514 -933.49951 1160 1.4471066e-38
-1286.6938 -957.03357 1190 1.6592286e-38
-1308.675 -939.23376 1200 1.7236205e-38
-1350.5464 -923.52454 1210 1.8803891e-38
-1353.6824 -893.68884 1210 1.9081197e-38
-1356.8181 -863.85315 1210 1.8708451e-38
