# .PCD v0.7 - Point Cloud Data file format
VERSION 0.7
FIELDS x y z rgb
SIZE 4 4 4 4
TYPE F F F F
COUNT 1 1 1 1
WIDTH 1203
HEIGHT 1
VIEWPOINT 0 0 0 1 0 0 0
POINTS 1203
DATA ascii
-250.69189 219.65573 -150 4.8802153e-39
-217.77905 244.49008 -150 4.7880295e-39
-212.48145 257.60245 -140 4.6943933e-39
-211.09106 279.91983 -140 1.4729651e-39
-205.79321 293.0322 -140 1.1052616e-39
-222.81299 307.53497 -140 1.0130673e-39
-212.21753 333.7597 -140 9.2087029e-40
-156.9873 357.20364 -130 1.0127086e-39
-142.48438 374.22333 -130 5.7085382e-39
-74.141846 392.36951 -120 6.0769592e-39
-37.321533 407.99878 -110 6.1695108e-39
156.24817 566.20978 -80 3.2221569e-39
98.500977 574.28833 -90 5.5212785e-39
131.41382 599.12268 -80 3.0402866e-39
159.02893 610.8446 -80 6.261705e-39
80.354858 642.63098 -90 6.5372171e-39
514.28015 -1454.5359 -160 2.0842351e-38
506.46545 -1436.1257 -160 1.9643102e-38
493.35315 -1430.8281 -160 1.8999533e-38
489.4458 -1421.623 -160 1.8811922e-38
467.12842 -1420.2327 -170 1.8170143e-38
444.81104 -1418.8423 -170 1.7527283e-38
431.69861 -1413.5444 -170 1.734289e-38
409.38123 -1412.1541 -170 1.6511703e-38
387.06384 -1410.7637 -180 1.6418788e-38
373.95142 -1405.4661 -180 1.6508456e-38
360.83911 -1400.1682 -180 1.4484475e-38
333.224 -1411.8901 -180 1.4571975e-38
330.70703 -1380.3677 -180 1.411028e-38
332.09741 -1358.0503 -180 1.3558548e-38
318.98511 -1352.7526 -180 1.3004296e-38
287.46265 -1355.2695 -190 1.3280882e-38
265.14526 -1353.8792 -190 1.1342972e-38
242.82776 -1352.4888 -190 9.3146313e-39
229.71545 -1347.191 -190 8.6667395e-39
207.39807 -1345.8005 -200 8.2986759e-39
185.08057 -1344.4102 -200 9.130617e-39
177.26599 -1326.0001 -200 8.0224856e-39
160.24634 -1311.4973 -200 6.9171946e-39
132.63123 -1323.2192 -210 7.7487601e-39
130.11426 -1291.6968 -200 8.1186342e-39
122.29956 -1273.2867 -200 8.2111928e-39
99.982178 -1271.8964 -210 8.2072482e-39
101.37256 -1249.579 -210 7.7469651e-39
98.855713 -1218.0565 -200 7.4728921e-39
118.65613 -1187.9244 -200 5.1542924e-39
294.07983 -961.37085 -160 7.3807077e-39
299.37756 -948.25842 -160 7.196678e-39
306.06567 -912.82861 -160 6.3654824e-39
316.66113 -886.60388 -160 5.5324693e-39
285.13867 -889.12085 -160 5.1654832e-39
48.588257 -946.07629 -200 9.2231643e-40
49.97876 -923.75891 -190 1.1989005e-39
60.574219 -897.53418 -190 1.1989089e-39
76.467285 -858.19714 -190 1.289657e-39
119.97571 -807.13806 -180 4.1491817e-39
126.66382 -771.70825 -170 3.8743843e-39
128.0542 -749.39087 -170 2.9520678e-39
105.73682 -748.00049 -180 2.3960032e-39
74.214355 -750.51733 -180 1.9357453e-39
99.3125 -707.27295 -180 1.9346649e-39
100.70288 -684.95557 -170 1.5669628e-39
41.565308 -699.19446 -180 1.3825701e-39
0.83789062 -705.61865 -190 1.1988977e-39
-21.479492 -704.22827 -190 1.0148666e-39
-38.499268 -689.72546 -190 1.1056273e-39
-55.519043 -675.22278 -190 8.2940194e-40
-59.42627 -666.0177 -190 9.208759e-40
-76.446045 -651.51489 -190 8.2867747e-40
-84.260498 -633.10486 -190 6.4500928e-40
-82.870117 -610.78735 -190 6.4500507e-40
-72.274658 -584.56274 -190 1.1067063e-39
-80.089355 -566.15259 -190 1.1999809e-39
-78.698975 -543.83521 -190 1.5669642e-39
-95.71875 -529.3324 -190 1.2914549e-39
-94.328125 -507.01501 -190 1.8431937e-39
-92.937744 -484.69763 -190 1.4747713e-39
-109.95752 -470.19482 -190 1.1059902e-39
-136.18213 -459.59937 -190 9.2231503e-40
-116.38184 -429.46729 -190 1.1059874e-39
-133.40137 -414.9646 -190 1.1981831e-39
-113.60083 -384.83252 -190 1.2903801e-39
-163.53345 -395.16406 -190 9.2015423e-40
-180.55322 -380.66125 -190 6.4464914e-40
-160.75269 -350.5293 -190 8.2868027e-40
-159.3623 -328.21185 -190 6.4500928e-40
-240.81738 -341.0603 -200 7.3684617e-40
-276.24707 -334.37219 -200 7.372035e-40
-255.05615 -281.92273 -200 5.5281505e-40
-323.39868 -300.06891 -210 9.2159196e-40
-331.21338 -281.65881 -210 1.0127114e-39
-277.10962 -204.37506 -200 7.3684337e-40
-294.12939 -189.87225 -200 8.2939773e-40
-255.9187 -151.9256 -190 7.3756224e-40
-254.52832 -129.60815 -190 8.2975787e-40
-299.16309 -126.82733 -200 1.0130701e-39
-297.77271 -104.50995 -190 9.2123603e-40
-283.27002 -87.490295 -190 9.2123463e-40
-231.94702 -54.841309 -180 9.219549e-40
-184.53149 -12.987305 -170 7.3756224e-40
-160.82373 7.9396973 -170 8.2939913e-40
-137.11572 28.866699 -170 1.6573549e-39
-144.93042 47.276794 -160 3.2221527e-39
-143.54004 69.594238 -160 3.8664347e-39
-119.83228 90.52124 -160 4.0508246e-39
-136.85181 105.02399 -160 4.3274128e-39
-94.733887 133.76562 -150 4.3274114e-39
-170.89136 134.02954 -160 4.6036354e-39
-415.25635 95.484131 -200 4.6954723e-39
-373.13843 124.22577 -190 4.5118013e-39
-371.74805 146.54315 -190 4.6961912e-39
-357.24512 163.56287 -190 5.0628115e-39
-324.33228 188.39719 -180 4.6958338e-39
-259.89697 215.74841 -170 5.0635317e-39
-226.98413 240.58276 -160 4.6029137e-39
-212.48145 257.60245 -160 4.4196043e-39
-211.09106 279.91983 -160 1.6569934e-39
-218.90552 298.32993 -160 1.3804093e-39
-222.81299 307.53497 -160 9.2051436e-40
-221.42261 329.85239 -160 1.196018e-39
-166.19238 353.2963 -150 8.2939353e-40
-151.68945 370.31598 -150 5.4337492e-39
124.72571 563.69287 -100 5.3429955e-39
505.07507 -1458.4431 -180 1.8905901e-38
506.46545 -1436.1257 -180 1.8534954e-38
498.65088 -1417.7158 -180 1.8447083e-38
485.53845 -1412.418 -180 1.8078653e-38
472.42615 -1407.1204 -180 1.8076861e-38
459.31372 -1401.8225 -180 1.8074348e-38
446.20142 -1396.5249 -180 1.6602455e-38
423.88403 -1395.1345 -190 1.6511702e-38
401.56665 -1393.7439 -190 1.6050721e-38
383.15649 -1401.5586 -190 1.5775556e-38
366.13684 -1387.0559 -200 1.5125879e-38
329.31665 -1402.6851 -200 1.3651825e-38
330.70703 -1380.3677 -200 1.3008971e-38
346.60022 -1341.0306 -200 1.337344e-38
353.28833 -1305.6008 -190 1.3005017e-38
354.67871 -1283.2834 -190 1.2730228e-38
337.65906 -1268.7806 -190 1.1807897e-38
310.04395 -1280.5027 -200 9.8681862e-39
296.93152 -1275.205 -200 9.0394863e-39
236.40356 -1311.7612 -210 8.9462089e-39
199.58337 -1327.3905 -220 9.3168033e-39
177.26599 -1326.0001 -220 8.7640065e-39
160.24634 -1311.4973 -220 8.0246337e-39
99.718262 -1348.0536 -230 8.3033884e-39
115.61145 -1308.7166 -230 8.1179252e-39
122.29956 -1273.2867 -220 8.3023066e-39
109.18726 -1267.989 -230 8.6682109e-39
115.87537 -1232.5592 -220 7.8391635e-39
140.97363 -1189.3148 -220 7.1948675e-39
280.70361 -1032.2303 -190 6.9208043e-39
287.39172 -996.80054 -180 7.7480581e-39
312.48987 -953.55615 -180 7.4707495e-39
295.47021 -939.05334 -180 7.4696579e-39
296.8606 -916.73596 -180 6.5477114e-39
292.95337 -907.53088 -180 5.2587508e-39
252.22583 -913.9552 -180 5.1651231e-39
229.90845 -912.56482 -190 5.6246719e-39
70.641846 -1023.624 -220 5.073289e-39
65.608032 -960.5791 -210 2.3067054e-39
48.588257 -946.07629 -210 1.0141519e-39
40.773682 -927.66626 -210 1.1981817e-39
51.369141 -901.44153 -210 1.2900214e-39
85.672363 -854.28979 -200 1.1052644e-39
101.56555 -814.95264 -200 3.8729479e-39
117.45874 -775.6156 -190 3.6885525e-39
113.55139 -766.41052 -190 2.9477406e-39
87.32666 -755.81506 -200 1.8410315e-39
88.717041 -733.49768 -200 1.2892955e-39
99.3125 -707.27295 -190 1.0123499e-39
100.70288 -684.95557 -190 7.3684337e-40
69.180542 -687.47253 -200 6.4501068e-40
28.453003 -693.89673 -200 6.4464914e-40
-6.9768066 -687.20862 -210 5.5316958e-40
-29.294189 -685.81824 -210 5.5245631e-40
-55.519043 -675.22278 -210 4.6097815e-40
-68.631348 -669.92505 -210 5.5281224e-40
-76.446045 -651.51489 -220 3.6913985e-40
-93.465576 -637.01208 -220 6.4464914e-40
-92.075195 -614.6947 -210 1.2900171e-39
-81.479736 -588.46997 -210 1.1985432e-39
-80.089355 -566.15259 -210 1.2903787e-39
-87.904053 -547.74255 -210 1.7509911e-39
-95.71875 -529.3324 -210 1.6587997e-39
-85.123291 -503.10767 -210 1.1052714e-39
-74.527832 -476.88293 -200 1.013789e-39
-100.75244 -466.28748 -210 1.0137946e-39
-117.77222 -451.78479 -210 9.2267236e-40
-107.17676 -425.56006 -210 1.2907402e-39
-133.40137 -414.9646 -210 1.1992621e-39
-128.10376 -401.85217 -210 7.3648604e-40
-191.14868 -406.88599 -220 5.5281224e-40
-188.36792 -362.25122 -210 6.4500647e-40
-196.18237 -343.84106 -210 6.4536661e-40
-213.20215 -329.33832 -220 6.4536661e-40
-221.01685 -310.92828 -210 7.3720491e-40
-105.25854 -250.92804 -190 8.2868027e-40
-61.750244 -199.86902 -190 1.0137876e-39
-161.61523 -220.5321 -200 1.0137918e-39
-197.04517 -213.84399 -210 1.0134275e-39
-232.47485 -207.15582 -210 8.2868027e-40
-240.28955 -188.74579 -210 6.4536941e-40
-238.89917 -166.42834 -210 8.2975787e-40
-205.98633 -141.59399 -200 7.372021e-40
-204.5957 -119.27661 -200 8.2939913e-40
-230.82056 -108.68115 -200 1.1049042e-39
-247.84033 -94.178406 -200 9.2159476e-40
-196.51733 -61.529419 -200 1.1052658e-39
-135.98926 -24.973145 -190 1.1971027e-39
-134.59888 -2.6557617 -180 8.2939913e-40
-142.41357 15.754333 -180 9.2123463e-40
-127.91064 32.774048 -180 9.2087309e-40
-126.52026 55.091431 -180 2.8526513e-39
-134.33496 73.501526 -180 2.8555268e-39
-110.6272 94.428528 -180 4.0501071e-39
-127.64697 108.93134 -180 4.050826e-39
-94.733887 133.76562 -170 4.2359347e-39
-139.3689 136.54645 -180 4.4188868e-39
-346.91357 113.63031 -210 4.5118041e-39
-282.47827 140.98157 -200 4.5107223e-39
-290.29297 159.39166 -200 4.603634e-39
-307.31274 173.89441 -200 4.878786e-39
-283.60474 194.82141 -190 4.5121558e-39
-259.89697 215.74841 -190 5.0638891e-39
-226.98413 240.58276 -180 4.7873078e-39
-212.48145 257.60245 -180 4.32741e-39
-220.29614 276.01251 -180 1.6566347e-39
-218.90552 298.32993 -180 1.2885738e-39
-222.81299 307.53497 -180 1.1045441e-39
-221.42261 329.85239 -180 1.0123485e-39
-156.9873 357.20364 -170 9.2087169e-40
-142.48438 374.22333 -160 5.8021646e-39
164.06287 547.79968 -110 6.2602743e-39
102.40833 565.08325 -120 6.1687961e-39
528.78296 -1437.5161 -190 1.9456553e-38
511.76318 -1423.0134 -190 1.8628593e-38
507.85596 -1413.8083 -200 1.7799555e-38
494.74353 -1408.5107 -200 1.7800993e-38
472.42615 -1407.1204 -200 1.7705199e-38
473.81653 -1384.8027 -200 1.6970522e-38
466.00195 -1366.3928 -200 1.6694282e-38
447.5918 -1374.2075 -200 1.6600646e-38
416.06934 -1376.7244 -210 1.6050349e-38
402.95703 -1371.4265 -210 1.6048551e-38
389.8446 -1366.1289 -210 1.5032604e-38
376.7323 -1360.8311 -210 1.3648583e-38
359.71252 -1346.3284 -210 1.3189768e-38
380.90344 -1293.8789 -210 1.3188316e-38
382.29395 -1271.5615 -200 1.3559251e-38
383.68433 -1249.2441 -200 1.3005733e-38
356.06921 -1260.9661 -210 1.2359276e-38
339.04944 -1246.4633 -210 1.1159302e-38
316.73206 -1245.0729 -210 1.023949e-38
250.90637 -1294.7416 -230 9.9610993e-39
228.58899 -1293.3511 -230 1.0054381e-38
177.26599 -1326.0001 -240 9.1342183e-39
169.45129 -1307.59 -240 8.5778047e-39
130.11426 -1291.6968 -240 8.2115529e-39
146.00745 -1252.3597 -240 8.3026696e-39
109.18726 -1267.989 -240 7.9324437e-39
125.08044 -1228.652 -240 7.4710984e-39
286.00134 -1019.1179 -200 8.1161035e-39
292.68945 -983.68823 -200 7.839525e-39
303.28491 -957.4635 -200 7.471104e-39
295.47021 -939.05334 -200 7.1030446e-39
296.8606 -916.73596 -190 5.9963369e-39
292.95337 -907.53088 -200 5.3477165e-39
261.43091 -910.04785 -200 4.9796528e-39
229.90845 -912.56482 -200 5.1629609e-39
183.88318 -932.10132 -210 4.9749753e-39
81.237305 -997.39929 -230 3.590952e-39
40.509766 -1003.8235 -240 2.3942025e-39
56.402954 -964.48645 -230 1.2900171e-39
48.588257 -946.07629 -230 1.0137932e-39
40.773682 -927.66626 -230 1.2903759e-39
27.661255 -922.36853 -230 1.291099e-39
52.759521 -879.12415 -230 8.290418e-40
54.149902 -856.80676 -230 1.0145107e-39
55.540283 -834.48926 -230 9.2231923e-40
62.228516 -799.05957 -220 1.0130729e-39
45.20874 -784.55676 -220 7.3756504e-40
74.214355 -750.51733 -220 6.4500928e-40
99.3125 -707.27295 -210 5.5317238e-40
100.70288 -684.95557 -210 5.5317518e-40
69.180542 -687.47253 -210 5.5317238e-40
52.160767 -672.96973 -220 5.5317378e-40
11.43335 -679.39392 -220 5.5316958e-40
-20.089111 -681.91089 -230 6.4464914e-40
-46.313965 -671.31543 -230 4.6133828e-40
-63.333496 -656.81262 -230 5.5281224e-40
-76.446045 -651.51489 -230 4.6097815e-40
-93.465576 -637.01208 -240 1.105986e-39
-92.075195 -614.6947 -230 1.567683e-39
-81.479736 -588.46997 -230 1.568039e-39
-80.089355 -566.15259 -230 1.2903815e-39
-78.698975 -543.83521 -230 1.0134317e-39
-86.513672 -525.42505 -230 8.3048094e-40
-75.918213 -499.20032 -220 1.0141491e-39
-65.322754 -472.97559 -220 9.219549e-40
-100.75244 -466.28748 -230 1.1067049e-39
-108.56714 -447.87744 -230 1.2914549e-39
-107.17676 -425.56006 -220 1.4747713e-39
-124.19629 -411.05725 -230 1.0127142e-39
-128.10376 -401.85217 -230 6.4464774e-40
-172.73853 -399.07141 -230 7.3648464e-40
-180.55322 -380.66125 -230 7.372021e-40
-188.36792 -362.25122 -230 7.3684617e-40
-205.38745 -347.74841 -230 7.3684757e-40
-203.99707 -325.43103 -230 7.372021e-40
-202.60669 -303.11359 -230 7.3756364e-40
-182.80615 -272.98157 -230 8.290404e-40
-140.68823 -244.23993 -220 8.29039e-40
-126.18555 -227.22021 -210 1.1056245e-39
-134.00024 -208.81012 -210 1.1063462e-39
-114.19971 -178.6781 -210 9.2159616e-40
-118.10693 -169.47302 -210 7.3684337e-40
-135.12671 -154.97028 -210 7.372035e-40
-152.14624 -140.46753 -210 7.3720491e-40
-141.55103 -114.2428 -210 1.0130701e-39
-167.77563 -103.64734 -210 9.2123323e-40
-175.59033 -85.237244 -210 1.0134275e-39
-170.29248 -72.124878 -210 8.2940054e-40
-132.08203 -34.178162 -200 9.2123463e-40
-117.5791 -17.158508 -200 8.2939633e-40
-125.3938 1.2515869 -200 8.2868027e-40
-133.2085 19.661682 -200 9.2159196e-40
-118.70581 36.681335 -200 9.2051717e-40
-126.52026 55.091431 -200 2.4856709e-39
-134.33496 73.501526 -200 3.3143441e-39
-110.6272 94.428528 -190 3.4990941e-39
-127.64697 108.93134 -190 4.1426615e-39
-85.529053 137.67297 -190 3.9593478e-39
-120.95874 144.36108 -190 4.3266912e-39
-215.52612 136.81036 -200 4.6029165e-39
-223.34082 155.22046 -210 4.6021977e-39
-231.15527 173.63049 -200 4.5114412e-39
-266.58521 180.31866 -210 4.5114412e-39
-242.87744 201.24567 -210 4.6961926e-39
-250.69189 219.65573 -200 4.5110824e-39
-226.98413 240.58276 -200 4.4192469e-39
-212.48145 257.60245 -200 4.4192483e-39
-220.29614 276.01251 -200 1.5648006e-39
-218.90552 298.32993 -200 1.2892927e-39
-222.81299 307.53497 -190 1.0127086e-39
-208.3103 324.55466 -190 8.290362e-40
-166.19238 353.2963 -180 8.2867747e-40
-170.09961 362.50134 -180 4.6054333e-39
195.58533 550.31665 -120 6.2620693e-39
156.24817 566.20978 -120 6.2599127e-39
152.34082 575.41486 -120 6.168436e-39
667.29553 641.91022 -40 6.1687947e-39
667.29553 641.91022 -40 5.984409e-39
659.48096 660.32031 -40 5.8925693e-39
677.89099 668.13495 -40 5.7092571e-39
561.95972 -1336.5247 -200 1.7522598e-38
500.04126 -1395.3982 -210 1.7153101e-38
481.63123 -1403.2129 -220 1.7336043e-38
479.11426 -1371.6904 -210 1.6786119e-38
451.49915 -1383.4124 -220 1.6051061e-38
433.08899 -1391.2271 -220 1.5957428e-38
396.26892 -1406.8564 -230 1.6138576e-38
397.6593 -1384.5391 -230 1.558758e-38
375.34192 -1383.1484 -230 1.448337e-38
338.52173 -1398.7778 -240 1.4204632e-38
354.41492 -1359.4407 -230 1.3560699e-38
404.61133 -1272.9519 -220 1.2916051e-38
391.4989 -1267.6542 -220 1.3097919e-38
383.68433 -1249.2441 -220 1.2543677e-38
352.16187 -1251.761 -230 1.2542585e-38
362.75732 -1225.5363 -220 1.1346915e-38
349.6449 -1220.2385 -220 1.0977782e-38
279.91187 -1260.7021 -240 1.0149091e-38
286.59998 -1225.2723 -230 1.0513923e-38
153.82202 -1270.7698 -260 8.0260869e-39
160.51025 -1235.3401 -250 8.30015e-39
138.19275 -1233.9497 -260 7.6533373e-39
144.88086 -1198.5199 -250 7.0979901e-39
284.61084 -1041.4354 -220 6.5394171e-39
295.2063 -1015.2107 -220 6.3503357e-39
292.68945 -983.68823 -220 4.2348837e-39
303.28491 -957.4635 -210 2.7640696e-39
295.47021 -939.05334 -210 2.1197834e-39
296.8606 -916.73596 -210 1.6598801e-39
292.95337 -907.53088 -210 1.3836533e-39
261.43091 -910.04785 -220 1.2903815e-39
244.41113 -895.54504 -220 1.1070692e-39
216.79602 -907.26709 -220 1.1070678e-39
119.44788 -959.45264 -240 1.1978229e-39
64.217651 -982.89648 -250 1.0141519e-39
74.812988 -956.67175 -250 1.0137904e-39
48.588257 -946.07629 -250 9.2159757e-40
49.97876 -923.75891 -250 1.1067035e-39
32.958984 -909.25623 -250 1.199625e-39
67.262329 -862.10449 -240 8.2975927e-40
87.062744 -831.97241 -240 9.2231643e-40
93.750977 -796.5426 -240 9.219577e-40
95.141357 -774.22522 -230 7.3864404e-40
63.618896 -776.74207 -240 7.372035e-40
83.419312 -746.61011 -230 7.3684617e-40
90.107544 -711.1803 -230 6.4536521e-40
91.497925 -688.86292 -230 5.5353111e-40
69.180542 -687.47253 -230 6.4536801e-40
52.160767 -672.96973 -230 6.4500787e-40
20.638306 -675.48657 -240 5.5281224e-40
-20.089111 -681.91089 -250 5.5281084e-40
-46.313965 -671.31543 -250 4.6097675e-40
-63.333496 -656.81262 -250 5.5281365e-40
-76.446045 -651.51489 -250 6.4536661e-40
-93.465576 -637.01208 -250 1.3832946e-39
-92.075195 -614.6947 -250 1.2892997e-39
-81.479736 -588.46997 -250 8.2975927e-40
-80.089355 -566.15259 -250 1.0145079e-39
-78.698975 -543.83521 -250 9.2231503e-40
-86.513672 -525.42505 -250 1.1059874e-39
-75.918213 -499.20032 -240 1.382933e-39
-65.322754 -472.97559 -240 1.2910976e-39
-82.342285 -458.4729 -240 1.3825729e-39
-90.156982 -440.06274 -240 1.5676788e-39
-88.766602 -417.74536 -240 8.2975927e-40
-114.99146 -407.1499 -240 5.5317238e-40
-104.396 -380.92517 -240 8.2831873e-40
-163.53345 -395.16406 -250 8.2867747e-40
-171.34814 -376.75403 -250 6.4536801e-40
-188.36792 -362.25122 -250 7.3684757e-40
-205.38745 -347.74841 -250 8.29039e-40
-213.20215 -329.33832 -250 7.3648604e-40
-211.81177 -307.02094 -250 7.3720631e-40
-192.01123 -276.88892 -250 7.372035e-40
-140.68823 -244.23993 -240 8.29039e-40
-126.18555 -227.22021 -230 1.198539e-39
-124.79517 -204.90283 -230 1.1059874e-39
-114.19971 -178.6781 -230 8.2939773e-40
-99.696777 -161.65839 -220 7.372021e-40
-116.71655 -147.15564 -230 7.372021e-40
-124.53125 -128.74554 -230 8.2939913e-40
-123.14087 -106.42816 -220 1.19746e-39
-140.1604 -91.925354 -230 9.2159476e-40
-144.06787 -82.720337 -230 8.2940194e-40
-151.88257 -64.310242 -230 1.0130757e-39
-132.08203 -34.178162 -220 8.2939913e-40
-117.5791 -17.158508 -220 8.2939913e-40
-125.3938 1.2515869 -220 6.4536661e-40
-133.2085 19.661682 -220 9.2087309e-40
-118.70581 36.681335 -210 1.0137876e-39
-117.31543 58.998779 -210 1.6573521e-39
-134.33496 73.501526 -210 3.4051034e-39
-110.6272 94.428528 -210 3.6820448e-39
-127.64697 108.93134 -210 3.866792e-39
-72.416504 132.37524 -200 3.8667962e-39
-98.641357 142.9707 -200 4.1426601e-39
-165.59351 147.14191 -210 4.326331e-39
-182.61328 161.64465 -220 4.6018403e-39
-181.2229 183.96207 -210 4.6021991e-39
-216.65259 190.65021 -220 4.4199644e-39
-224.46729 209.0603 -220 4.3277702e-39
-241.48682 223.56305 -220 4.8791433e-39
-226.98413 240.58276 -220 4.7873078e-39
-225.59375 262.90015 -210 4.1426629e-39
-220.29614 276.01251 -210 1.5647978e-39
-218.90552 298.32993 -210 1.2889325e-39
-222.81299 307.53497 -210 1.1967397e-39
-199.10522 328.46198 -210 1.0127058e-39
-175.39722 349.38898 -200 9.2051436e-40
-174.00684 371.70639 -200 5.3404732e-39
-177.91431 380.91144 -200 5.9844048e-39
-163.41138 397.93112 -200 5.893284e-39
667.29553 641.91022 -50 5.8007367e-39
689.61304 640.51984 -50 5.7085396e-39
685.70569 649.72485 -50 5.5248686e-39
691.00342 662.83722 -50 5.250088e-39
687.09607 672.04224 -50 5.5245057e-39
467.12842 -1420.2327 -240 1.6233653e-38
522.62256 -1320.6315 -220 1.6324774e-38
485.80237 -1336.2607 -230 1.5587924e-38
462.0946 -1357.1877 -230 1.5403167e-38
445.07495 -1342.6849 -230 1.5310978e-38
446.46533 -1320.3676 -230 1.5310628e-38
409.64514 -1335.9968 -240 1.4205012e-38
367.52722 -1364.7385 -250 1.4205353e-38
404.61133 -1272.9519 -240 1.3651452e-38
382.29395 -1271.5615 -240 1.3002499e-38
374.47925 -1253.1514 -240 1.2448233e-38
346.86414 -1264.8734 -250 1.1802143e-38
348.25452 -1242.556 -240 1.105738e-38
316.73206 -1245.0729 -250 1.0128206e-38
265.40906 -1277.7218 -260 7.5481614e-39
295.80505 -1221.3651 -250 4.8813279e-39
282.69275 -1216.0674 -250 3.5019962e-39
327.59143 -1142.6909 -240 2.6736761e-39
276.26843 -1175.3398 -250 2.3970906e-39
224.94556 -1207.9888 -260 2.2126937e-39
207.92578 -1193.4861 -260 2.028671e-39
161.90063 -1213.0227 -270 2.0283053e-39
293.81592 -1037.5281 -240 1.8442685e-39
300.50403 -1002.0983 -240 1.5691208e-39
301.89441 -979.78088 -230 1.7520771e-39
303.28491 -957.4635 -230 1.6595283e-39
295.47021 -939.05334 -230 1.56769e-39
296.8606 -916.73596 -230 1.4758517e-39
292.95337 -907.53088 -230 1.2911018e-39
266.72864 -896.93542 -230 1.1989005e-39
262.82129 -887.73047 -230 1.1985404e-39
231.29883 -890.24731 -240 1.1981845e-39
208.98145 -888.85693 -240 1.0148694e-39
106.33545 -954.15491 -260 1.105986e-39
98.520874 -935.74475 -260 8.301208e-40
76.203491 -934.35437 -270 1.0134331e-39
68.388794 -915.94434 -270 1.1985418e-39
51.369141 -901.44153 -270 1.2914577e-39
67.262329 -862.10449 -260 7.3756364e-40
87.062744 -831.97241 -260 1.0137932e-39
102.95593 -792.63525 -250 8.2975787e-40
113.55139 -766.41052 -250 8.2940334e-40
82.028931 -768.92749 -250 7.3756364e-40
88.717041 -733.49768 -250 7.3720491e-40
99.3125 -707.27295 -250 6.4500787e-40
100.70288 -684.95557 -250 7.372007e-40
78.385498 -683.56519 -250 6.4500787e-40
61.365845 -669.06238 -250 6.4536801e-40
20.638306 -675.48657 -260 6.4500928e-40
-20.089111 -681.91089 -260 7.3648464e-40
-46.313965 -671.31543 -270 4.6133828e-40
-54.128418 -652.90527 -270 8.2939493e-40
-76.446045 -651.51489 -270 1.0148764e-39
-93.465576 -637.01208 -270 1.0152323e-39
-92.075195 -614.6947 -270 1.2910976e-39
-81.479736 -588.46997 -270 1.5669628e-39
-80.089355 -566.15259 -270 1.568762e-39
-78.698975 -543.83521 -260 1.5684033e-39
-86.513672 -525.42505 -260 1.752433e-39
-66.713135 -495.29309 -260 1.9353852e-39
-65.322754 -472.97559 -260 1.5658866e-39
-82.342285 -458.4729 -260 1.1052644e-39
-80.951904 -436.15552 -260 6.4464914e-40
-88.766602 -417.74536 -260 6.4464774e-40
-124.19629 -411.05725 -260 5.5281084e-40
-122.80591 -388.73987 -260 7.361231e-40
-172.73853 -399.07141 -270 6.4464774e-40
-171.34814 -376.75403 -270 6.4464774e-40
-179.16284 -358.34387 -270 6.4572534e-40
-177.77246 -336.02649 -270 8.29039e-40
-185.58691 -317.61639 -270 8.290404e-40
-174.99146 -291.39166 -260 9.2159056e-40
-155.19116 -261.25958 -260 9.208787e-40
-122.27832 -236.42529 -250 1.0145037e-39
-116.98047 -223.31293 -250 1.1981803e-39
-115.59009 -200.99548 -250 1.0141533e-39
-104.99463 -174.77075 -240 9.208759e-40
-99.696777 -161.65839 -240 8.2939913e-40
-107.51147 -143.24835 -240 7.3683777e-40
-115.32617 -124.83826 -240 7.382797e-40
-113.93579 -102.52081 -240 8.301166e-40
-140.1604 -91.925354 -240 1.013789e-39
-134.86279 -78.812988 -240 9.2159336e-40
-142.67749 -60.402893 -240 8.2975927e-40
-122.87695 -30.270874 -240 1.0134289e-39
-108.37427 -13.25116 -230 8.2976067e-40
-116.18872 5.1589355 -230 8.29039e-40
-120.09619 14.363953 -230 7.372021e-40
-118.70581 36.681335 -230 1.0134289e-39
-117.31543 58.998779 -230 1.380768e-39
-134.33496 73.501526 -230 2.8548079e-39
-119.83228 90.52124 -230 3.3139854e-39
-136.85181 105.02399 -230 3.5909268e-39
-113.14404 125.95099 -220 3.7749579e-39
-130.16382 140.4538 -230 3.7753181e-39
-165.59351 147.14191 -230 4.0501085e-39
-173.4082 165.552 -230 4.3266912e-39
-181.2229 183.96207 -230 4.0515434e-39
-207.44751 194.55753 -240 4.326694e-39
-224.46729 209.0603 -240 4.2348585e-39
-241.48682 223.56305 -240 4.4196043e-39
-226.98413 240.58276 -230 4.4178092e-39
-225.59375 262.90015 -230 3.7753153e-39
-220.29614 276.01251 -230 1.5651565e-39
-228.1106 294.42261 -230 1.2889325e-39
-232.01807 303.62766 -230 9.2087309e-40
-208.3103 324.55466 -230 8.2867466e-40
-184.60229 345.48166 -220 1.0127086e-39
-192.41699 363.89175 -220 5.1564462e-39
-187.11938 377.00412 -220 5.3415522e-39
-163.41138 397.93112 -210 5.7088984e-39
-171.22607 416.34122 -210 5.6170643e-39
-143.61108 428.06317 -210 5.7089012e-39
-88.380615 451.50708 -200 5.8003751e-39
-114.60547 462.10254 -200 5.6167027e-39
-131.62524 476.60532 -200 5.6174202e-39
-139.4397 495.01541 -200 5.6156251e-39
-178.77686 510.90857 -210 5.7081781e-39
-119.63916 525.14746 -200 5.9854824e-39
-145.86401 535.74292 -200 5.8929281e-39
-229.83594 554.41687 -210 6.168073e-39
680.40796 636.61249 -60 5.9844006e-39
698.81799 644.42712 -60 5.9840475e-39
704.11572 657.53949 -60 5.6163468e-39
700.2085 666.74457 -60 5.5255805e-39
696.30115 675.94958 -60 5.5241484e-39
473.55261 -1460.9602 -260 1.6137142e-38
460.44031 -1455.6624 -260 1.6318638e-38
457.92334 -1424.1399 -260 1.4843889e-38
513.41748 -1324.5387 -240 1.4471487e-38
480.50464 -1349.373 -250 1.3816039e-38
472.69006 -1330.963 -250 1.1783414e-38
503.08594 -1274.6062 -240 9.3909978e-39
495.27136 -1256.1962 -240 6.7234497e-39
474.34436 -1232.4883 -240 4.1480873e-39
698.57397 -941.76331 -180 3.5952708e-39
686.85205 -914.14807 -180 3.2268484e-39
407.39209 -1228.3171 -250 2.858789e-39
303.35583 -1315.9325 -270 2.9506245e-39
271.83337 -1318.4493 -280 2.6736817e-39
258.72095 -1313.1516 -280 2.5814818e-39
250.90637 -1294.7416 -280 2.3978066e-39
305.01013 -1217.4578 -270 2.4892862e-39
297.19543 -1199.0476 -270 2.3974451e-39
359.37781 -1064.0167 -250 1.844993e-39
346.26538 -1058.719 -250 1.75244e-39
314.74292 -1061.2358 -250 1.8439154e-39
306.92834 -1042.8258 -250 1.8439126e-39
322.82141 -1003.4886 -250 1.5673285e-39
318.91418 -994.28369 -250 1.6602388e-39
311.09949 -975.87354 -250 1.6587997e-39
303.28491 -957.4635 -250 1.6591626e-39
304.67529 -935.14612 -250 1.5669628e-39
296.8606 -916.73596 -250 1.3825715e-39
292.95337 -907.53088 -250 1.3822142e-39
275.93359 -893.0282 -250 1.474407e-39
268.11902 -874.61804 -250 1.198539e-39
245.80151 -873.22766 -250 1.1989005e-39
241.89429 -864.02258 -250 1.3822114e-39
177.45898 -891.3739 -270 1.3822128e-39
131.43372 -910.91052 -270 1.8439056e-39
105.20898 -900.31506 -280 1.6595255e-39
73.686523 -902.83191 -280 1.6595171e-39
60.574219 -897.53418 -290 1.4751259e-39
58.057251 -866.01172 -280 1.7509953e-39
68.65271 -839.78699 -280 1.7502722e-39
93.750977 -796.5426 -270 1.4747685e-39
104.34631 -770.31787 -270 1.106349e-39
82.028931 -768.92749 -270 9.219563e-40
107.1272 -725.68311 -270 8.2976207e-40
108.51758 -703.3656 -260 7.3792377e-40
100.70288 -684.95557 -260 7.3756364e-40
92.888306 -666.54541 -260 8.2939633e-40
88.980957 -657.34045 -260 8.2939773e-40
53.551147 -650.65234 -270 8.2939913e-40
12.82373 -657.07654 -280 6.4536661e-40
-18.69873 -659.59351 -280 7.3684617e-40
-44.923584 -648.99805 -290 9.219535e-40
-76.446045 -651.51489 -290 8.2976067e-40
-93.465576 -637.01208 -290 1.0148694e-39
-82.870117 -610.78735 -290 1.3829344e-39
-72.274658 -584.56274 -290 1.6605961e-39
-70.884277 -562.24524 -280 2.0254242e-39
-64.196289 -526.81555 -280 1.19746e-39
-68.103516 -517.61047 -280 7.3756504e-40
-33.800293 -470.45874 -270 7.3684337e-40
-23.204834 -444.23401 -270 7.3684197e-40
-31.019531 -425.82385 -270 6.4500647e-40
-20.424072 -399.59912 -260 5.5353111e-40
-33.536377 -394.30139 -270 4.6097815e-40
-87.376221 -395.42798 -280 4.6097815e-40
-113.60083 -384.83252 -280 5.5281084e-40
-200.35376 -410.79333 -290 4.6133548e-40
-171.34814 -376.75403 -290 1.013789e-39
-179.16284 -358.34387 -290 6.4464914e-40
-177.77246 -336.02649 -290 8.29039e-40
-157.97192 -305.89441 -280 7.3756364e-40
-128.96631 -271.85504 -270 8.29039e-40
-136.78101 -253.44495 -270 9.208759e-40
-103.86816 -228.61066 -260 1.1052686e-39
-98.570312 -215.49829 -260 1.29002e-39
-97.179932 -193.18085 -260 1.1059874e-39
-95.789551 -170.86346 -260 9.2159336e-40
-90.491943 -157.7511 -260 9.2123603e-40
-98.306396 -139.341 -260 9.2123463e-40
-106.12109 -120.93091 -260 8.290376e-40
-113.93579 -102.52081 -260 8.2939913e-40
-127.0481 -97.223083 -260 8.2939633e-40
-144.06787 -82.720337 -260 1.0130687e-39
-142.67749 -60.402893 -260 8.2939913e-40
-118.96973 -39.475891 -250 1.0134303e-39
-99.169189 -9.3438721 -250 9.2159196e-40
-106.98364 9.0662231 -250 1.0134289e-39
-101.68604 22.178589 -250 8.290376e-40
-100.29565 44.495972 -250 1.2885752e-39
-94.997803 57.608337 -240 9.2123463e-40
-102.8125 76.018433 -240 2.6700565e-39
-101.42212 98.335876 -240 3.1306759e-39
-164.46704 93.302063 -250 3.3147043e-39
-163.07666 115.61945 -250 3.8664347e-39
-139.3689 136.54645 -250 3.7738859e-39
-187.91089 148.53229 -250 3.5905737e-39
-173.4082 165.552 -250 4.0504644e-39
-168.11035 178.66437 -250 3.8675109e-39
-175.92505 197.07443 -250 4.32741e-39
-202.1499 207.66989 -250 4.0519036e-39
-232.28198 227.4704 -250 4.3266926e-39
-208.57397 248.3974 -250 3.9593492e-39
-203.27637 261.50977 -250 3.7746034e-39
-220.29614 276.01251 -250 1.6566347e-39
-218.90552 298.32993 -250 1.2889325e-39
-222.81299 307.53497 -250 1.0130659e-39
-208.3103 324.55466 -240 1.0127072e-39
-197.71484 350.77939 -240 9.2051296e-40
-201.62207 359.98444 -240 5.2486475e-39
-191.02661 386.20917 -240 5.52487e-39
-172.61646 394.0238 -230 5.5248686e-39
-189.63623 408.52658 -230 5.6167027e-39
-165.92847 429.45358 -230 5.5259476e-39
-129.10815 445.08289 -220 5.8003737e-39
-159.24023 464.88336 -220 5.7089026e-39
-185.46509 475.47882 -230 5.52487e-39
-97.321777 523.75708 -210 5.6159881e-39
-105.13647 542.16711 -210 5.8914917e-39
-162.88379 550.24567 -220 5.6170643e-39
-246.85571 568.91968 -230 6.168436e-39
689.61304 640.51984 -70 5.7081809e-39
708.02307 648.33447 -60 5.4337492e-39
704.11572 657.53949 -60 5.6166999e-39
700.2085 666.74457 -60 5.5248686e-39
700.2085 666.74457 -60 5.5248672e-39
575.07202 -1341.8224 -250 4.0562504e-39
576.4624 -1319.5049 -250 3.9633387e-39
485.53845 -1412.418 -270 3.5956324e-39
467.12842 -1420.2327 -270 3.3197699e-39
484.41199 -1358.5781 -260 3.2268555e-39
471.29968 -1353.2804 -270 3.13502e-39
487.19275 -1313.9434 -260 3.0442565e-39
517.58875 -1257.5865 -250 3.0435432e-39
518.97913 -1235.2692 -250 3.0428271e-39
657.58264 -1024.3447 -210 2.9513448e-39
678.77356 -971.89526 -200 2.6751208e-39
699.96436 -919.4458 -190 2.8595065e-39
705.26208 -906.3335 -190 2.9506273e-39
697.44751 -887.92334 -190 2.8587862e-39
317.85852 -1298.9127 -290 2.5825608e-39
295.54114 -1297.5223 -290 2.6733173e-39
258.72095 -1313.1516 -300 2.4892848e-39
265.40906 -1277.7218 -300 2.3059725e-39
670.09619 -823.48804 -190 2.3056096e-39
647.77881 -822.09766 -190 2.3048964e-39
629.36877 -829.91235 -200 2.1212212e-39
563.54309 -879.58093 -210 1.9368285e-39
541.22559 -878.19055 -220 1.9368313e-39
513.61047 -889.91248 -220 1.5680446e-39
407.05725 -946.00537 -250 1.2911004e-39
370.23706 -961.63464 -250 1.2907374e-39
357.12476 -956.33691 -260 1.290736e-39
340.1051 -941.83423 -260 1.2910933e-39
321.69495 -949.6488 -260 1.1989005e-39
313.88037 -931.23877 -260 1.0148722e-39
315.27075 -908.92139 -260 1.1056315e-39
307.45605 -890.51123 -260 1.1981803e-39
294.34375 -885.2135 -260 1.1067049e-39
295.73413 -862.89612 -260 1.0148708e-39
320.83228 -819.65173 -250 1.3822142e-39
336.72546 -780.31458 -250 1.2900157e-39
276.19751 -816.87085 -260 1.290736e-39
169.64429 -872.96375 -280 1.2903773e-39
156.53198 -867.66602 -290 1.3822114e-39
125.00952 -870.18298 -290 1.750275e-39
107.98975 -855.68018 -290 1.2903759e-39
100.17517 -837.27014 -290 1.0137918e-39
101.56555 -814.95264 -290 1.1063476e-39
126.66382 -771.70825 -280 1.1063434e-39
155.66931 -737.66895 -280 1.3825701e-39
105.73682 -748.00049 -290 1.4751259e-39
107.1272 -725.68311 -280 1.4747699e-39
108.51758 -703.3656 -280 1.3825743e-39
91.497925 -688.86292 -280 1.4744056e-39
92.888306 -666.54541 -280 1.2903759e-39
94.278687 -644.22803 -280 1.1063448e-39
81.166382 -638.9303 -280 8.2975646e-40
73.351685 -620.52026 -280 1.0137904e-39
65.537109 -602.11011 -280 1.1063448e-39
57.722412 -583.70007 -280 1.3832918e-39
-1.4151611 -597.93896 -290 1.6580794e-39
-60.552734 -612.17786 -300 1.2896584e-39
-40.752197 -582.04578 -300 1.474407e-39
-30.156738 -555.82104 -290 1.1985404e-39
-47.176514 -541.31824 -300 1.1985432e-39
-36.581055 -515.09351 -290 1.1067063e-39
-7.5755615 -481.0542 -290 1.1992579e-39
-6.1850586 -458.73682 -280 8.2976207e-40
13.615356 -428.60474 -280 6.4500928e-40
-79.297607 -337.68079 -290 9.208773e-40
-160.75269 -350.5293 -300 7.3756504e-40
-140.95215 -320.39722 -300 8.29039e-40
-167.177 -309.80176 -300 8.290404e-40
-156.58154 -283.57703 -300 7.3756364e-40
-164.396 -265.16693 -300 7.372035e-40
-113.07324 -232.51794 -280 1.0137918e-39
-98.570312 -215.49829 -280 1.0134289e-39
-106.38501 -197.0882 -280 1.105986e-39
-104.99463 -174.77075 -280 9.2159616e-40
-90.491943 -157.7511 -280 8.2975787e-40
-98.306396 -139.341 -280 9.2123603e-40
-115.32617 -124.83826 -280 1.0134303e-39
-104.73071 -98.613525 -270 8.2868027e-40
-127.0481 -97.223083 -280 6.4536801e-40
-134.86279 -78.812988 -280 1.4740553e-39
-142.67749 -60.402893 -280 1.0130701e-39
-109.76465 -35.568604 -270 9.2159336e-40
-89.964111 -5.4365234 -260 8.290376e-40
-84.66626 7.6758423 -260 8.2939913e-40
-83.275879 29.993225 -260 9.2231083e-40
-81.885498 52.310669 -260 8.2975787e-40
-76.587891 65.423035 -260 1.0134303e-39
-84.402344 83.833069 -260 2.5775008e-39
-88.309814 93.038147 -260 3.1299571e-39
-118.44189 112.83862 -260 3.4061824e-39
-85.529053 137.67297 -250 3.498378e-39
-111.75366 148.26843 -260 3.406181e-39
-156.38843 151.04919 -260 3.6827637e-39
-132.68066 171.9762 -260 3.5909296e-39
-131.29028 194.29364 -260 3.8667962e-39
-157.51514 204.88907 -260 3.8664361e-39
-192.94482 211.57721 -270 3.9593464e-39
-209.9646 226.07999 -270 4.0508246e-39
-195.46167 243.09967 -260 3.9589905e-39
-203.27637 261.50977 -260 3.9589877e-39
-220.29614 276.01251 -270 1.4729637e-39
-205.79321 293.0322 -260 1.4726035e-39
-213.60791 311.44229 -260 9.2087309e-40
-189.90015 332.36929 -260 1.0130645e-39
-175.39722 349.38898 -250 8.2867747e-40
-183.21191 367.79907 -250 4.9720578e-39
-177.91431 380.91144 -250 5.2486419e-39
-154.20654 401.83844 -240 5.8000108e-39
-162.021 420.24854 -250 5.249002e-39
-143.61108 428.06317 -240 5.6167041e-39
-110.698 452.89752 -230 5.8000136e-39
-105.40039 466.00989 -230 5.1564462e-39
-131.62524 476.60532 -240 5.5245057e-39
-139.4397 495.01541 -240 5.800731e-39
-71.097168 513.16162 -220 5.7078222e-39
-75.004395 522.36664 -220 5.7092571e-39
-73.614014 544.68408 -220 5.6174244e-39
-122.15625 556.66992 -230 5.8925735e-39
-224.53809 567.52924 -240 5.1564518e-39
-263.87524 583.42242 -250 5.8007352e-39
-236.26025 595.14441 -240 5.8003751e-39
-194.14233 623.88605 -230 5.8929267e-39
-192.75195 646.20343 -230 5.7096186e-39
711.93042 639.12939 -70 5.7092557e-39
708.02307 648.33447 -70 5.708541e-39
717.22815 652.24176 -70 5.6167041e-39
713.3208 661.44684 -70 5.6174202e-39
709.41345 670.65186 -70 5.156805e-39
1073.7278 -673.88342 -120 3.5045185e-39
1064.5227 -677.79077 -120 3.4123229e-39
1031.6099 -702.625 -130 3.2282932e-39
541.03271 -1312.8168 -270 3.1368122e-39
537.12537 -1303.6117 -270 3.1353745e-39
529.31067 -1285.2017 -270 3.1360934e-39
530.70117 -1262.8843 -270 3.0442551e-39
625.79626 -1103.0189 -240 3.0435418e-39
608.77661 -1088.5162 -240 3.2272086e-39
633.87476 -1045.2717 -230 2.767671e-39
635.26526 -1022.9543 -230 3.1346528e-39
645.8606 -996.72961 -220 2.8591491e-39
643.34375 -965.20715 -220 2.6751236e-39
615.72864 -976.92908 -230 2.5836356e-39
602.61621 -971.63147 -230 2.4903638e-39
604.00659 -949.31396 -230 2.581842e-39
585.59656 -957.12866 -230 2.3059725e-39
615.99255 -900.77185 -220 2.2130567e-39
622.68066 -865.34204 -220 2.2134168e-39
627.97839 -852.22974 -220 1.9371928e-39
610.95862 -837.72693 -220 1.8442727e-39
583.34351 -849.44897 -220 1.7520757e-39
564.93347 -857.26355 -230 1.7524358e-39
537.31836 -868.98547 -230 1.5673257e-39
515.00085 -867.59509 -240 1.4744112e-39
459.77063 -891.03906 -250 1.1981817e-39
399.24268 -927.59534 -260 1.1971027e-39
380.83252 -935.40991 -270 1.2907332e-39
363.81287 -920.90723 -270 1.0148736e-39
326.99268 -936.5365 -280 1.2900157e-39
313.88037 -931.23877 -280 1.1981817e-39
320.56848 -895.80896 -280 1.107065e-39
316.66113 -886.60388 -280 1.4744112e-39
308.84644 -868.19385 -270 1.3825729e-39
310.23694 -845.87646 -270 1.3822114e-39
335.33508 -802.63196 -270 1.2903801e-39
336.72546 -780.31458 -260 1.1985404e-39
338.11597 -757.99719 -260 1.1067063e-39
193.35217 -852.03674 -300 1.014868e-39
194.74255 -829.71936 -290 1.1063448e-39
175.20593 -783.69409 -290 9.2159336e-40
143.68347 -786.21106 -300 1.0137904e-39
192.4895 -722.03967 -290 1.1978229e-39
188.58215 -712.83459 -280 1.1985404e-39
171.5625 -698.33179 -290 1.1981803e-39
149.24512 -696.94141 -290 1.3818512e-39
141.43042 -678.53137 -290 1.3829274e-39
128.31812 -673.23364 -290 1.2907332e-39
120.50342 -654.82349 -290 1.2900157e-39
112.68884 -636.41345 -290 1.0141519e-39
104.87415 -618.0033 -290 8.290432e-40
106.26453 -595.68591 -290 8.2975787e-40
107.65491 -573.36853 -290 1.3829288e-39
218.90723 -298.00885 -250 6.4429181e-40
205.7948 -292.71112 -250 5.5388984e-40
188.77515 -278.20837 -250 5.5425138e-40
175.66272 -272.91064 -250 6.4572814e-40
-36.915771 -232.78186 -290 9.2123603e-40
-77.643311 -239.20612 -300 9.2159196e-40
-76.25293 -216.88867 -300 9.2195209e-40
-70.955322 -203.77631 -290 8.2975927e-40
-97.179932 -193.18085 -300 9.2123183e-40
-95.789551 -170.86346 -300 1.0134303e-39
-81.286865 -153.84375 -290 9.2123183e-40
-79.896484 -131.52637 -290 1.0134261e-39
-87.710938 -113.11627 -290 9.2123183e-40
-64.003174 -92.18927 -280 8.2976067e-40
-81.022949 -77.686523 -280 9.2195069e-40
-98.04248 -63.183716 -290 9.2195209e-40
-96.6521 -40.866333 -290 1.0134275e-39
-54.53418 -12.124695 -280 9.208745e-40
-49.236572 0.9876709 -270 7.372035e-40
-66.256348 15.490479 -270 1.0130715e-39
-55.660889 41.71521 -270 1.0130701e-39
-50.363037 54.827576 -270 8.29039e-40
-39.767578 81.052307 -270 9.2123603e-40
-102.8125 76.018433 -280 2.5778623e-39
-151.35474 88.004333 -290 3.1295983e-39
-155.26196 97.209351 -290 3.4980151e-39
-81.621582 128.4679 -270 3.4061796e-39
-80.231201 150.78534 -270 3.6816875e-39
-106.45605 161.3808 -270 3.5902121e-39
-91.953125 178.40045 -270 3.498378e-39
-99.767822 196.81055 -270 3.6827637e-39
-116.7876 211.31332 -270 3.8667962e-39
-152.21729 218.00143 -270 3.7749579e-39
-137.7146 235.02112 -270 3.7749607e-39
-158.6416 258.72894 -270 3.8664347e-39
-171.75391 264.02667 -280 3.5898506e-39
-201.88599 283.82718 -280 1.4729637e-39
-178.17822 304.75418 -270 1.1056217e-39
-182.08545 313.95923 -270 1.1963768e-39
26.849731 359.19275 -230 1.1045427e-39
-153.07983 347.9986 -270 8.2939633e-40
-170.09961 362.50134 -270 5.6159881e-39
-177.91431 380.91144 -270 5.0646107e-39
-185.72876 399.32153 -270 4.9727795e-39
-189.63623 408.52658 -270 5.3401172e-39
-188.24585 430.84399 -270 5.0642548e-39
-119.90308 448.99017 -250 5.5245085e-39
-199.96777 458.45911 -270 5.0638947e-39
-207.78247 476.8692 -270 5.0649709e-39
-215.59692 495.2793 -270 5.6174258e-39
-48.779785 511.77118 -230 5.249002e-39
-56.594238 530.18127 -230 5.7088955e-39
-60.501709 539.38635 -230 5.5252274e-39
-77.521484 553.8891 -240 5.6170643e-39
-246.85571 568.91968 -270 5.800015e-39
-250.76294 578.12469 -270 5.5248686e-39
-106.26294 596.00702 -240 5.3408389e-39
-91.760254 613.02667 -230 5.6149063e-39
-117.98486 623.62213 -240 5.0646135e-39
-112.68726 636.7345 -230 5.6156237e-39
711.93042 639.12939 -80 5.2497195e-39
708.02307 648.33447 -80 5.4323157e-39
717.22815 652.24176 -80 5.6159853e-39
713.3208 661.44684 -80 5.2486419e-39
709.41345 670.65186 -80 5.0638961e-39
1060.6155 -668.58569 -130 3.411604e-39
1036.9077 -689.5127 -140 3.4116012e-39
1027.7026 -693.42004 -140 3.0435446e-39
1014.5902 -688.12231 -140 3.2279274e-39
1015.9807 -665.80481 -140 3.2279302e-39
550.50159 -1232.7522 -280 2.950986e-39
629.70361 -1112.224 -250 3.135736e-39
621.88892 -1093.814 -250 3.1353703e-39
617.98157 -1084.6089 -250 3.0421013e-39
624.6698 -1049.1791 -250 2.9509748e-39
626.06018 -1026.8617 -240 2.9502644e-39
645.8606 -996.72961 -240 2.9509818e-39
623.54321 -995.33923 -240 2.7669479e-39
610.43091 -990.0415 -240 2.6747509e-39
597.31848 -984.74377 -250 2.5821993e-39
598.70886 -962.42639 -240 2.3988814e-39
590.89429 -944.01624 -240 2.3059768e-39
606.78748 -904.6792 -240 2.3059669e-39
617.38293 -878.45447 -230 2.2134168e-39
609.56824 -860.04431 -230 1.9382648e-39
620.1637 -833.81958 -230 2.0293815e-39
601.75366 -841.63428 -230 2.1212141e-39
579.43616 -840.2439 -240 1.7520743e-39
542.61609 -855.87317 -250 1.6595171e-39
538.70874 -846.66809 -250 1.1981803e-39
516.39136 -845.27771 -250 1.3840064e-39
484.8689 -847.79468 -260 1.1978243e-39
480.96155 -838.5896 -260 1.8424623e-39
458.64417 -837.19922 -260 1.8442643e-39
383.6134 -890.77515 -280 1.9361012e-39
366.59363 -876.27234 -280 1.9353838e-39
367.98413 -853.95496 -280 1.7509939e-39
354.8717 -848.65723 -280 1.5666082e-39
347.05701 -830.24719 -280 1.3829274e-39
343.14978 -821.04211 -280 1.2907374e-39
431.82068 -620.44934 -250 1.5669628e-39
372.68311 -634.68823 -260 8.290404e-40
355.66333 -620.18542 -260 1.013789e-39
355.92725 -544.0282 -260 1.1978201e-39
384.93286 -509.98877 -250 1.4747629e-39
332.74719 -412.64062 -250 1.4754916e-39
338.04492 -399.5282 -250 1.3840106e-39
339.43542 -377.21082 -250 1.6577179e-39
317.11792 -375.82043 -250 1.6591584e-39
318.50842 -353.50305 -250 1.9339432e-39
305.396 -348.20532 -250 2.1212099e-39
297.58142 -329.79517 -250 8.0984233e-39
387.11487 -259.19952 -230 3.0435278e-39
331.88464 -282.64343 -240 2.306669e-39
305.65991 -272.04803 -250 1.9346691e-39
283.34253 -270.65759 -250 1.1052672e-39
275.52783 -252.2475 -250 7.3756364e-40
262.41553 -246.94977 -250 8.2939773e-40
263.80591 -224.63239 -250 7.372021e-40
232.28345 -227.14929 -260 6.4536801e-40
224.46875 -208.7392 -260 8.290362e-40
202.15137 -207.34882 -260 6.4500647e-40
212.74683 -181.12408 -260 8.2868027e-40
227.24963 -164.10437 -250 9.2123603e-40
211.62036 -127.28418 -250 9.2159476e-40
214.40112 -82.649414 -250 7.3756364e-40
210.49377 -73.444336 -250 8.2940054e-40
-64.26709 -168.34656 -310 1.0134275e-39
109.76611 35.889709 -260 8.29039e-40
124.26892 52.909363 -250 1.0127086e-39
88.839111 59.597473 -260 9.2087309e-40
81.024414 78.007568 -260 7.3684057e-40
27.18457 76.881042 -270 7.3756364e-40
10.164917 91.38385 -270 1.9357411e-39
-52.879883 86.350037 -280 2.30236e-39
-9.3717041 137.40906 -270 1.841742e-39
-26.391357 151.91187 -270 1.9335817e-39
-30.298584 161.11688 -270 1.9335803e-39
-78.84082 173.10272 -280 1.8421035e-39
-55.133057 194.02972 -280 1.8417462e-39
-68.245361 199.32745 -280 1.8421021e-39
-107.58252 215.22064 -280 1.933223e-39
-102.28467 228.33301 -280 1.9332216e-39
35.790894 286.94281 -250 1.8410259e-39
50.293701 303.96249 -250 1.1045455e-39
55.591431 317.07486 -240 1.4729623e-39
-146.65576 307.27109 -280 1.1967397e-39
34.664429 340.78265 -250 1.01271e-39
26.849731 359.19275 -250 1.0127072e-39
9.8300781 373.69553 -250 9.2123043e-40
15.127808 386.80789 -250 4.8802209e-39
11.220459 396.01294 -250 5.2490076e-39
-9.706543 419.72076 -250 5.7085396e-39
-189.63623 408.52658 -280 5.6163426e-39
-197.45093 426.93668 -280 5.1560875e-39
-192.15308 440.04901 -280 5.5241512e-39
-209.17285 454.55182 -280 5.0638961e-39
-216.98755 472.96188 -280 5.5234323e-39
-224.802 491.37198 -280 5.2490006e-39
-210.29932 508.39166 -280 5.3404774e-39
-236.52393 518.98712 -280 5.7085382e-39
-28.979248 541.90326 -240 5.6177761e-39
-239.04102 550.50958 -280 5.7085396e-39
-256.06055 565.01233 -280 5.6170615e-39
-250.76294 578.12469 -280 5.7092599e-39
-249.37256 600.44214 -280 5.4315926e-39
-253.27979 609.64716 -280 5.616344e-39
-261.09448 628.05725 -280 5.0649737e-39
-135.00464 638.12494 -260 5.5241512e-39
721.1355 643.03674 -90 5.341555e-39
721.1355 643.03674 -90 5.3408403e-39
717.22815 652.24176 -90 5.4323115e-39
722.52588 665.35413 -90 5.2493607e-39
718.61853 674.5592 -90 4.9727766e-39
1068.4302 -686.99573 -140 3.5041584e-39
1059.2251 -690.90308 -150 3.3197643e-39
1036.9077 -689.5127 -150 3.1353759e-39
1033.0002 -680.30762 -150 3.2272086e-39
1014.5902 -688.12231 -150 2.9520622e-39
1010.6829 -678.91724 -150 3.2272044e-39
1021.2784 -652.6925 -150 2.8602281e-39
711.42249 -1023.2183 -240 3.0431775e-39
693.01233 -1031.0328 -250 2.9502672e-39
645.5968 -1072.887 -260 2.9509832e-39
637.7821 -1054.4768 -260 2.9513406e-39
633.87476 -1045.2717 -260 2.767308e-39
649.76794 -1005.9347 -250 2.675118e-39
651.15833 -983.61731 -250 3.0431761e-39
652.54883 -961.2998 -250 3.0431704e-39
630.23132 -959.90942 -250 3.1346444e-39
617.11902 -954.61169 -250 3.0420971e-39
627.71448 -928.38696 -250 2.8584205e-39
614.60205 -923.08923 -250 2.9491798e-39
639.70032 -879.84485 -240 2.8569813e-39
641.0907 -857.52747 -240 2.6736705e-39
624.07104 -843.02466 -240 2.7655018e-39
625.46143 -820.70728 -240 2.6736705e-39
607.05139 -828.52185 -250 2.4896365e-39
593.93896 -823.22424 -250 2.3045278e-39
557.11877 -838.85352 -260 2.0282983e-39
553.21143 -829.64844 -260 1.0137946e-39
545.39685 -811.23828 -260 1.0137904e-39
532.28442 -805.94055 -260 7.3684337e-40
519.17212 -800.64282 -260 1.4747643e-39
511.35742 -782.23279 -260 1.3825757e-39
536.45569 -738.9884 -250 2.2123266e-39
523.34326 -733.69067 -250 1.5673215e-39
524.73376 -711.37329 -250 1.3829316e-39
520.82642 -702.16821 -250 1.5662425e-39
516.91907 -692.96313 -250 1.3818526e-39
514.40222 -661.44067 -250 1.1989005e-39
543.40771 -627.40137 -240 1.2903773e-39
554.00317 -601.17664 -240 1.1988991e-39
540.89075 -595.87891 -240 1.2907374e-39
523.87109 -581.3761 -240 1.1978229e-39
543.67163 -551.24402 -240 1.2900143e-39
506.85144 -566.87329 -240 7.3756224e-40
400.29822 -622.96619 -270 6.4501068e-40
453.0116 -567.99988 -260 1.1981803e-39
406.98633 -587.5365 -270 1.1059846e-39
399.17175 -569.12634 -270 1.1059874e-39
376.85425 -567.73596 -270 1.1059818e-39
363.74194 -562.43823 -270 1.1059832e-39
374.3374 -536.2135 -270 1.0137932e-39
394.13782 -506.08142 -260 1.0141505e-39
381.02551 -500.78369 -260 9.219577e-40
382.41589 -478.46631 -260 1.7502736e-39
393.01135 -452.24158 -260 1.4747713e-39
403.60681 -426.01685 -250 1.1059818e-39
390.49438 -420.71912 -250 1.1971013e-39
391.88489 -398.40173 -250 1.2900143e-39
369.56738 -397.01135 -260 1.3825729e-39
370.95789 -374.69385 -260 1.4751273e-39
367.05054 -365.48889 -260 1.5669614e-39
331.62073 -358.80078 -260 1.7513512e-39
336.91846 -345.68835 -260 2.7633396e-39
347.51392 -319.46362 -260 3.3165119e-39
358.10938 -293.23889 -250 2.9506091e-39
405.52502 -251.38489 -240 4.4225022e-39
383.20764 -249.99451 -240 2.1204911e-39
314.86499 -268.14069 -260 1.9353852e-39
292.54749 -266.75031 -260 2.2144818e-39
275.52783 -252.2475 -260 1.199618e-39
271.62048 -243.04248 -260 8.311956e-40
291.42102 -212.9104 -260 9.2123603e-40
278.30872 -207.61267 -260 7.3792097e-40
316.51929 -169.66602 -250 8.29039e-40
354.72986 -131.7193 -240 7.3684757e-40
360.02759 -118.60693 -240 9.2123603e-40
333.80286 -108.01147 -240 1.0130673e-39
247.05005 -133.97235 -260 1.0130729e-39
279.96301 -109.138 -250 7.3756364e-40
272.14832 -90.727905 -250 9.2195209e-40
259.03601 -85.430176 -250 8.2975506e-40
269.63135 -59.205444 -250 9.2159196e-40
278.83643 -55.298157 -250 1.0137876e-39
289.43188 -29.073425 -240 1.0137918e-39
294.72961 -15.96106 -240 9.2159056e-40
268.50488 -5.3656006 -240 1.1056245e-39
273.80261 7.7467651 -240 1.0134289e-39
247.57788 18.342224 -250 1.013789e-39
262.08069 35.361877 -240 1.1052672e-39
217.4458 38.1427 -250 1.0130701e-39
241.15369 59.069702 -240 8.2939913e-40
233.33899 77.479797 -240 7.372021e-40
220.22668 82.777527 -250 6.4500787e-40
194.00195 93.372986 -250 7.3684197e-40
190.0946 102.578 -250 7.3899717e-40
95.527222 95.027283 -270 9.2123323e-40
87.712646 113.43738 -270 1.8417392e-39
61.487915 124.03284 -280 2.2098042e-39
57.580566 133.23785 -270 1.0137876e-39
81.28833 154.16486 -270 1.1059832e-39
82.678711 176.48224 -270 9.3110089e-39
78.771484 185.68732 -270 7.7390253e-39
70.956787 204.09741 -270 1.0123513e-39
-42.020752 188.73203 -290 9.2087309e-40
-90.562744 200.71786 -300 8.2868027e-40
-107.58252 215.22064 -300 9.208745e-40
69.830322 257.93726 -260 1.01271e-39
62.015625 276.34735 -260 9.208745e-40
76.518433 293.36703 -260 8.2975646e-40
81.816162 306.4794 -260 9.2123323e-40
96.31897 323.49908 -250 1.3814883e-39
79.299194 338.00186 -250 1.2889339e-39
75.391968 347.20691 -250 1.1970984e-39
36.05481 363.10007 -260 1.7495492e-39
19.035156 377.60284 -260 9.219535e-40
46.650269 389.3248 -260 4.879865e-39
61.153076 406.34448 -250 4.7891043e-39
-18.911621 415.81345 -270 5.4330303e-39
-193.54346 417.73163 -300 5.4330275e-39
95.456299 453.49622 -240 5.1568106e-39
-192.15308 440.04901 -300 5.2482831e-39
-207.78247 476.8692 -300 5.7078208e-39
-215.59692 495.2793 -300 5.3415536e-39
-178.77686 510.90857 -290 5.1575238e-39
-227.31909 522.89441 -300 5.5252302e-39
