# .PCD v0.7 - Point Cloud Data file format
VERSION 0.7
FIELDS x y z rgb
SIZE 4 4 4 4
TYPE F F F F
COUNT 1 1 1 1
WIDTH 1221
HEIGHT 1
VIEWPOINT 0 0 0 1 0 0 0
POINTS 1221
DATA ascii
-107.19226 -705.96118 440 4.8856355e-39
-152.86951 -726.29797 450 4.8841852e-39
-184.34326 -729.36475 450 5.3444557e-39
-210.7489 -719.22852 460 4.7938e-39
-214.81628 -710.09314 460 4.146274e-39
-222.95105 -691.82214 450 3.6867364e-39
-227.01843 -682.68677 460 3.8718493e-39
-244.2887 -668.48315 460 4.1455593e-39
-252.42334 -650.21228 460 2.175487e-38
-256.49072 -641.0769 460 1.079952e-38
-264.62549 -622.80591 460 3.0406383e-39
-277.82837 -617.73792 460 3.1350172e-39
-304.23401 -607.60168 460 4.0544455e-39
-687.92285 -778.43152 530 3.0417411e-39
-732.59937 -776.43005 530 3.2264855e-39
-713.32788 -745.95703 530 3.0435278e-39
-721.46265 -727.68616 530 3.1335752e-39
-720.46191 -705.3479 530 3.1342885e-39
-728.59668 -687.07703 530 2.9509874e-39
-709.32495 -656.604 520 3.8711333e-39
-680.91797 -622.0636 510 3.8714794e-39
-552.021 -542.78204 490 4.0562238e-39
-642.37476 -561.11755 510 4.2420471e-39
-613.96777 -526.57709 500 3.8739919e-39
-554.08691 -488.97003 490 3.5048563e-39
-534.81543 -458.49701 480 2.9524111e-39
-529.74731 -445.29419 480 3.0442452e-39
-547.01758 -431.09064 480 3.1360793e-39
-532.81396 -413.82043 480 3.2279078e-39
-522.67773 -387.41479 480 2.8587694e-39
-530.8125 -369.14386 480 2.9502447e-39
-516.60913 -351.87366 480 3.9611499e-39
-305.49304 -235.98578 440 6.3549768e-39
-291.28943 -218.71558 440 5.4341149e-39
-299.42419 -200.4447 440 6.722323e-39
-312.62708 -195.37659 440 6.993159e-39
-271.01721 -165.9043 430 1.6681242e-38
-247.67822 -144.56671 420 2.2116147e-39
-206.06836 -115.09436 420 1.2900171e-39
-214.203 -96.823486 420 1.1059832e-39
-168.52576 -76.486572 410 1.5669614e-39
-176.66052 -58.215698 410 1.2892969e-39
-153.32153 -36.878113 410 8.3688823e-39
-157.38892 -27.742676 410 6.8008672e-39
-152.32092 -14.539825 400 3.3100365e-39
-119.84644 10.865112 400 1.5651607e-39
-105.64294 28.135315 400 1.5658894e-39
-69.101074 44.404816 390 1.8428308e-39
-113.77771 46.406219 390 1.5665998e-39
-131.04785 60.609741 400 1.8417476e-39
-144.25073 65.677826 400 2.116538e-39
-161.52087 79.881348 400 2.0254214e-39
-165.58826 89.016785 400 2.0275822e-39
-129.04651 105.28629 390 2.1186918e-39
-137.18127 123.55719 390 2.5767917e-39
-141.24854 132.69266 390 8.5482569e-39
-131.11243 159.0983 390 1.1065987e-38
-126.04431 172.30112 390 7.2866721e-39
-106.77283 202.77414 380 4.8859914e-39
-182.9231 201.70886 390 2.5814832e-39
-124.04297 216.97766 380 2.4867597e-39
-316.95276 207.71307 410 1.751354e-39
-347.42578 226.98468 420 3.1353689e-39
-297.68115 238.18611 410 3.3168833e-39
-377.8988 246.25629 420 2.5771518e-39
-309.88318 265.59247 410 3.4065482e-39
-313.95056 274.72791 410 4.3310254e-39
-353.55908 289.93213 410 2.6765501e-39
-379.96472 300.0683 420 2.1312825e-39
-95.700439 350.00665 370 1.569118e-39
-108.90332 355.07471 370 1.6587969e-39
-103.83521 368.27753 370 1.5676844e-39
22.059692 380.54425 350 1.3832946e-39
-111.96997 386.54843 370 1.4744084e-39
44.333374 478.0321 350 1.3822128e-39
77.163208 -1587.1609 450 2.3509886e-38
87.299316 -1560.7552 450 2.2681203e-38
79.164551 -1542.4844 450 2.1945075e-38
80.165283 -1520.1461 450 2.0749053e-38
258.67773 -1232.686 410 2.0748322e-38
278.95007 -1179.8748 400 2.0101882e-38
298.22168 -1149.4017 400 1.9179559e-38
290.08691 -1131.1307 400 1.7427124e-38
300.22302 -1104.7251 400 1.5855451e-38
292.08826 -1086.4542 390 1.3643123e-38
307.29248 -1046.8458 390 9.9560224e-39
317.42871 -1020.4401 390 1.0878368e-38
313.36133 -1011.3047 390 1.0232274e-38
300.15845 -1006.2366 390 9.863475e-39
301.15918 -983.89832 390 1.2815906e-38
297.0918 -974.76282 390 8.7582541e-39
283.88892 -969.69482 390 2.304539e-39
275.75427 -951.42383 390 2.2144972e-39
266.61877 -955.49121 390 2.6744005e-39
230.07703 -971.76074 400 2.8595065e-39
174.26355 -1018.5033 410 3.3190511e-39
41.299194 -1088.6494 430 7.8441297e-39
28.096313 -1083.5813 430 2.221802e-38
19.961548 -1065.3104 430 2.2129417e-38
20.96228 -1042.9722 430 2.313603e-38
26.030396 -1029.7693 430 2.2676131e-38
-19.646851 -1050.1062 430 2.1755244e-38
-123.20349 -1063.3735 450 2.110804e-38
-98.863892 -1019.6978 440 2.1199861e-38
-97.863159 -997.35938 440 2.1941032e-38
-105.99792 -979.0885 440 2.3046316e-38
-104.99719 -956.75024 440 3.5992701e-39
-103.99646 -934.41199 440 3.4090663e-39
-61.385864 -882.60132 430 3.4076356e-39
-69.52063 -864.33044 430 3.1382359e-39
0.49633789 -800.31775 420 4.0565923e-39
1.4969482 -777.97949 410 4.1480761e-39
2.4976807 -755.64124 410 3.9622457e-39
-10.7052 -750.57312 410 4.6987275e-39
-18.839844 -732.30225 410 5.4355695e-39
-22.907227 -723.16675 420 5.2522628e-39
-45.245605 -722.16602 420 5.067866e-39
-67.583862 -721.16541 420 4.9778325e-39
-80.786621 -716.09729 420 5.6188817e-39
-107.19226 -705.96118 430 5.2511782e-39
-152.86951 -726.29797 430 5.2536964e-39
-170.13977 -712.09448 430 4.9767521e-39
-192.47803 -711.09375 440 4.2402703e-39
-191.47729 -688.75549 440 3.7796537e-39
-195.54468 -679.62012 440 3.5945464e-39
-203.67944 -661.34912 440 3.6867434e-39
-226.0177 -660.34851 440 1.7312134e-38
-225.01709 -638.01013 440 2.0650332e-38
-247.35535 -637.00952 440 3.5970911e-39
-255.49011 -618.73853 440 5.3433682e-39
-268.69287 -613.67053 440 3.4119544e-39
-285.96313 -599.46692 440 3.6874693e-39
-714.32861 -768.29529 510 3.2261282e-39
-713.32788 -745.95703 510 2.7673094e-39
-721.46265 -727.68616 510 3.0431803e-39
-720.46191 -705.3479 510 2.9517063e-39
-728.59668 -687.07703 510 2.9502672e-39
-709.32495 -656.604 500 3.1350172e-39
-680.91797 -622.0636 500 3.1350214e-39
-552.021 -542.78204 470 2.8587904e-39
-660.64575 -569.2522 490 2.7669563e-39
-623.10327 -530.64447 480 2.7673164e-39
-572.35791 -497.1048 470 2.767308e-39
-543.95093 -462.56439 470 2.766592e-39
-538.88281 -449.36151 470 2.4900121e-39
-547.01758 -431.09064 470 2.8573513e-39
-523.67847 -409.75305 460 2.397099e-39
-513.54248 -383.34741 460 2.0301171e-39
-512.54175 -361.00916 460 2.1219414e-39
-489.20276 -339.67157 450 1.3843736e-39
-306.49365 -258.32404 420 2.8576876e-39
-296.35754 -231.9184 420 4.4228455e-39
-273.01855 -210.58081 420 5.6181447e-39
-286.22144 -205.51276 420 1.6862025e-38
-294.35608 -187.24182 420 1.6682318e-38
-261.88171 -161.83691 410 1.6499363e-38
-152.25635 -113.02838 400 2.1190561e-39
-138.05273 -95.758179 390 1.1059874e-39
-146.1875 -77.487305 390 1.0141491e-39
-141.11951 -64.284485 390 2.2116049e-39
-154.32227 -59.21637 390 1.5662453e-39
-171.59253 -45.012878 390 1.7495478e-39
-157.38892 -27.742676 390 1.2405346e-38
-152.32092 -14.539825 390 5.7006391e-39
-106.64368 5.7970276 380 6.0661832e-39
-105.64294 28.135315 380 8.7312133e-39
-54.897583 61.675018 370 1.1763571e-38
-99.574097 63.676422 380 1.1673892e-38
-125.97974 73.812561 380 1.1215795e-38
-139.18262 78.880646 380 1.0297796e-38
-156.45288 93.084167 380 9.3790812e-39
-129.04651 105.28629 380 8.0008313e-39
-155.45215 115.42245 380 5.8889736e-39
-141.24854 132.69266 380 3.7843354e-39
48.594482 173.43097 350 3.3240789e-39
-131.11243 159.0983 380 2.5814664e-39
-135.17981 168.23373 380 2.6801417e-39
-120.97632 185.50394 370 2.0318996e-39
-178.85571 192.57343 380 1.8457091e-39
-223.53223 194.57483 390 1.7513526e-39
-303.74988 202.64499 400 1.6588011e-39
-330.15552 212.78116 400 1.5673243e-39
-365.69666 218.84991 400 1.5669614e-39
-329.15479 235.11943 400 1.4744112e-39
-400.23706 247.25699 410 1.4751273e-39
-332.22156 266.59314 400 1.6584381e-39
-318.01794 283.86334 390 1.3825757e-39
-340.3562 284.86407 400 1.4747685e-39
-348.49097 303.13495 400 1.5666012e-39
-132.24231 333.73712 370 1.3829316e-39
-73.362183 349.00592 360 1.3825701e-39
-99.767822 359.14209 360 1.4736909e-39
-94.699829 372.34491 360 1.2910961e-39
-98.767212 381.48035 360 1.3825687e-39
-102.83459 390.61581 360 1.2903773e-39
-75.428223 402.81793 360 1.1985418e-39
-25.683594 414.01935 350 1.38221e-39
72.095093 -1600.3638 440 2.3509886e-38
83.231934 -1551.6199 430 2.3050701e-38
75.097168 -1533.3489 430 2.222418e-38
85.233276 -1506.9432 430 2.2222375e-38
267.81323 -1228.6187 390 2.1851076e-38
293.15356 -1162.6045 380 2.1206773e-38
294.1543 -1140.2662 380 2.0008607e-38
299.22229 -1127.0635 380 1.8531658e-38
296.15564 -1095.5897 380 1.5857964e-38
301.22375 -1082.3868 380 1.1528753e-38
307.29248 -1046.8458 380 1.060139e-38
308.29321 -1024.5074 370 1.0787969e-38
313.36133 -1011.3047 370 1.0326252e-38
300.15845 -1006.2366 370 1.0231537e-38
301.15918 -983.89832 370 1.318433e-38
297.0918 -974.76282 370 8.5742258e-39
283.88892 -969.69482 380 6.6348764e-39
279.82166 -960.55933 380 1.292185e-39
266.61877 -955.49121 380 2.5814762e-39
230.07703 -971.76074 380 2.8591519e-39
179.33167 -1005.3004 390 3.1357388e-39
151.92529 -1017.5026 390 3.0428215e-39
92.044556 -1055.1096 400 2.8605911e-39
78.841675 -1050.0416 410 2.7669535e-39
56.503418 -1049.0409 410 2.0835458e-38
43.300537 -1043.9728 410 2.1852489e-38
-381.93372 -1342.7634 480 1.9635074e-38
-455.01721 -1375.3025 490 2.0000977e-38
-118.13538 -1050.1708 430 2.0463393e-38
-98.863892 -1019.6978 430 2.0829657e-38
-97.863159 -997.35938 420 2.1661934e-38
-105.99792 -979.0885 420 2.1578362e-38
-104.99719 -956.75024 420 3.7792865e-39
-103.99646 -934.41199 420 3.5931016e-39
-61.385864 -882.60132 410 3.6863706e-39
-60.385254 -860.26306 410 3.9633205e-39
0.49633789 -800.31775 400 4.5146964e-39
10.632446 -773.91211 400 3.5023367e-39
2.4976807 -755.64124 400 4.9792619e-39
-10.7052 -750.57312 400 5.3433781e-39
-18.839844 -732.30225 400 5.7128766e-39
-32.042725 -727.23413 400 5.7132312e-39
-54.380981 -726.2334 400 5.0696652e-39
-67.583862 -721.16541 400 5.7135941e-39
-80.786621 -716.09729 410 5.5291972e-39
-107.19226 -705.96118 410 5.8061485e-39
-138.66602 -709.02783 410 4.6998009e-39
-161.00427 -708.0271 420 4.2399116e-39
-174.20715 -702.95898 420 3.8718465e-39
-182.34192 -684.68811 420 3.500913e-39
-186.4093 -675.55273 420 3.6856546e-39
-194.54407 -657.28174 420 4.1451964e-39
-211.81421 -643.07825 420 1.4182922e-38
-215.88159 -633.94275 420 2.064564e-38
-233.15173 -619.73926 420 2.4899995e-39
-246.35461 -614.67126 420 2.9520594e-39
-254.48938 -596.40027 420 2.8595107e-39
-267.69214 -591.33228 420 2.8595079e-39
-303.23328 -585.26343 430 2.9509916e-39
-705.19312 -764.22791 490 3.1353745e-39
-713.32788 -745.95703 490 3.0431817e-39
-721.46265 -727.68616 490 3.0439005e-39
-729.59741 -709.41528 490 2.9520678e-39
-728.59668 -687.07703 490 2.9509916e-39
-709.32495 -656.604 480 2.7669563e-39
-680.91797 -622.0636 480 2.8591519e-39
-533.75 -534.64728 450 2.9502686e-39
-669.78125 -573.31958 470 2.5832867e-39
-632.23877 -534.71185 470 2.6747551e-39
-603.83154 -500.17145 460 2.7669535e-39
-543.95093 -462.56439 450 2.4907295e-39
-548.01831 -453.42889 450 2.3988898e-39
-565.28833 -439.2254 450 2.4896519e-39
-573.4231 -420.95447 450 2.6733201e-39
-531.81323 -391.48218 450 2.1172527e-39
-329.83264 -279.66162 410 1.0127114e-39
-288.22278 -250.18933 410 9.2159476e-40
-278.08667 -223.78363 400 2.0268507e-39
-263.88306 -206.51343 400 1.5476526e-38
-267.95044 -197.37799 400 1.5947619e-38
-276.08521 -179.10712 400 1.6312815e-38
-261.88171 -161.83691 400 1.6221694e-38
-84.240723 -93.6922 370 1.9353866e-39
-110.64636 -83.556091 380 1.1056273e-39
-123.84924 -78.487976 380 1.0141505e-39
-141.11951 -64.284485 380 1.6584409e-39
-154.32227 -59.21637 380 1.1052686e-39
-180.72791 -49.080261 380 9.2159196e-40
-166.52441 -31.810028 380 1.3825673e-39
-170.5918 -22.674591 380 2.7636955e-39
-187.86194 -8.4710693 380 2.2123224e-39
-133.04932 15.933197 370 1.8431839e-39
-122.91309 42.338837 370 1.5651621e-39
-99.574097 63.676422 370 1.6577179e-39
-125.97974 73.812561 370 1.566604e-39
-152.3855 83.94873 370 1.750638e-39
-187.92651 90.017487 380 1.7509953e-39
-182.85852 103.22031 370 1.7513554e-39
-164.58752 111.35507 370 1.6580864e-39
34.390991 156.16077 340 1.7513554e-39
57.729858 177.49835 340 1.7509981e-39
22.188843 183.56711 340 1.659157e-39
8.9859619 188.63519 350 1.4754846e-39
4.9185791 197.77066 350 1.7509925e-39
-93.569946 197.70609 360 1.6587997e-39
-223.53223 194.57483 370 1.6587983e-39
-92.569214 220.04434 360 1.4751245e-39
-82.433105 246.45 350 1.4744098e-39
-295.67969 282.86267 380 1.3822128e-39
-120.04016 306.33078 360 1.4740511e-39
-3.2807617 314.53009 340 1.3822142e-39
-87.565796 331.73572 350 1.2907346e-39
-113.97144 341.87189 350 1.3825701e-39
-82.497681 344.93854 350 1.4740469e-39
-90.632446 363.20947 350 1.2900171e-39
-94.699829 372.34491 350 1.3822142e-39
8.8568115 385.6123 330 1.3825729e-39
4.7894287 394.74777 330 1.3825687e-39
0.7220459 403.88321 330 1.3818526e-39
9.8575439 407.95059 330 1.474407e-39
91.366699 -1569.8907 420 2.3509886e-38
92.367432 -1547.5525 420 2.2499695e-38
84.232666 -1529.2815 420 2.3142538e-38
90.301392 -1493.7405 410 2.2772662e-38
105.50562 -1454.132 410 2.2773384e-38
263.74585 -1219.4832 380 2.1760674e-38
302.28906 -1158.5371 370 2.1668124e-38
294.1543 -1140.2662 370 1.982492e-38
295.15503 -1117.928 370 1.861881e-38
305.29114 -1091.5223 370 1.6226378e-38
306.29187 -1069.1841 360 1.0052563e-38
316.42798 -1042.7784 360 1.124676e-38
317.42871 -1020.4401 360 1.0695056e-38
313.36133 -1011.3047 360 9.6819803e-39
309.29395 -1002.1692 360 1.0232251e-38
301.15918 -983.89832 360 1.1805372e-38
297.0918 -974.76282 360 8.2039929e-39
283.88892 -969.69482 360 1.2813022e-38
279.82166 -960.55933 360 1.8439196e-39
266.61877 -955.49121 360 2.3970892e-39
239.2124 -967.69336 370 2.7669577e-39
193.53516 -988.03027 370 3.1364591e-39
166.12878 -1000.2324 380 2.7669605e-39
147.85791 -1008.3672 380 3.4116026e-39
125.51965 -1007.3665 380 2.4907281e-39
117.38489 -989.09558 380 1.6226673e-38
89.978516 -1001.2976 390 2.1301476e-38
-405.27258 -1364.1011 460 1.9449955e-38
-445.88184 -1371.2351 470 2.0551639e-38
-132.33899 -1067.4409 420 1.9725826e-38
-93.795776 -1006.4949 410 2.027792e-38
-97.863159 -997.35938 410 2.0463754e-38
-96.862427 -975.02112 410 1.2365372e-38
-104.99719 -956.75024 410 3.6874567e-39
-94.861084 -930.3446 410 3.1331983e-39
-61.385864 -882.60132 400 3.6860161e-39
-60.385254 -860.26306 400 4.513253e-39
5.5643311 -787.11487 390 5.8958204e-39
10.632446 -773.91211 380 4.3357015e-39
2.4976807 -755.64124 380 3.5030682e-39
-10.7052 -750.57312 380 4.1448307e-39
-14.772583 -741.43762 390 4.5139761e-39
-32.042725 -727.23413 390 5.4348478e-39
-54.380981 -726.2334 390 5.4380764e-39
-67.583862 -721.16541 390 5.5288399e-39
-80.786621 -716.09729 390 5.8043492e-39
-107.19226 -705.96118 390 5.344813e-39
-129.53064 -704.96045 400 4.7916406e-39
-151.8689 -703.95972 400 4.0551602e-39
-165.07166 -698.8916 400 4.0555189e-39
-173.20642 -680.62073 400 3.6860231e-39
-181.34119 -662.34985 400 3.0428103e-39
-185.40857 -653.21436 400 8.5647811e-39
-193.54333 -634.94348 400 9.1204814e-39
-206.74609 -629.87549 400 1.3616456e-38
-214.88086 -611.60449 400 9.4695014e-39
-228.08374 -606.5365 400 3.5027179e-39
-245.35388 -592.33289 400 2.767678e-39
-258.55676 -587.26489 410 2.8595121e-39
-284.9624 -577.12866 410 3.0439019e-39
-668.65137 -747.9585 460 2.9509916e-39
-695.05688 -737.82227 460 2.9520664e-39
-712.32715 -723.61877 470 2.8591575e-39
-720.46191 -705.3479 470 3.0431873e-39
-719.46118 -683.00964 460 2.9517091e-39
-700.1897 -652.53662 460 2.8584373e-39
-690.05347 -626.13098 460 2.7673136e-39
-565.28833 -439.2254 430 2.3038089e-39
-591.69409 -429.08923 440 2.1201366e-39
-577.49048 -411.81903 430 1.9379047e-39
-239.47888 -261.32617 390 1.843914e-39
-188.73352 -227.78644 380 1.566967e-39
-206.00378 -213.58295 380 1.2900186e-39
-191.80017 -196.31274 380 1.5295407e-38
-214.13843 -195.31201 380 1.5120734e-38
-145.12219 -153.63757 370 1.3278643e-38
-103.51233 -124.16522 360 1.0154443e-38
-61.902466 -94.692932 360 8.0389816e-39
-79.172729 -80.48938 360 1.936104e-39
-96.442871 -66.285889 360 1.7542295e-39
-122.84851 -56.149719 360 1.6598829e-39
-145.18677 -55.149048 360 1.6595171e-39
-171.59253 -45.012878 370 1.659157e-39
-157.38892 -27.742676 360 1.7509925e-39
-170.5918 -22.674591 370 1.7509925e-39
-187.86194 -8.4710693 370 1.4765664e-39
-182.79395 4.7317505 370 1.6591612e-39
-50.8302 52.539551 350 1.6598787e-39
-136.11597 47.406921 360 1.751354e-39
-193.99536 54.476379 360 1.8424735e-39
-202.13013 72.747284 360 1.4751315e-39
-224.46838 73.747986 370 1.7513568e-39
-467.12268 53.281982 400 1.7509981e-39
62.797974 190.70117 330 1.5669642e-39
49.595215 195.76926 330 1.6588011e-39
23.189575 205.9054 330 1.4751287e-39
-115.9082 198.70679 350 1.474414e-39
-182.9231 201.70886 360 1.4747699e-39
-114.90747 221.04504 350 1.3829302e-39
-73.297607 250.51738 340 2.0257787e-39
-304.81519 278.79529 370 1.1985418e-39
-115.97278 297.19531 340 1.1981817e-39
14.990234 322.66486 330 1.3825729e-39
-65.227417 330.73505 330 1.1985376e-39
-78.430298 335.8031 340 1.5648048e-39
-73.362183 349.00592 340 1.5651607e-39
-90.632446 363.20947 340 1.2900101e-39
-94.699829 372.34491 340 1.0141491e-39
-98.767212 381.48035 340 8.30118e-40
-102.83459 390.61581 340 7.3791957e-40
-43.954468 405.88461 330 7.372035e-40
-3.3453369 413.01868 320 8.290376e-40
37.263916 420.15271 320 7.372007e-40
-33.818359 432.29025 330 9.2123043e-40
38.264648 442.491 320 9.208759e-40
-55.155884 455.62924 330 1.0130687e-39
110.63831 -1539.4177 400 2.3050708e-38
106.57092 -1530.2822 400 2.3234376e-38
89.300659 -1516.0787 400 2.2407853e-38
118.7085 -1459.2001 390 2.1760327e-38
114.64111 -1450.0646 390 2.1852152e-38
272.88123 -1215.4158 360 2.1945423e-38
307.35706 -1145.3344 360 2.1667032e-38
303.28967 -1136.1989 350 1.9823128e-38
304.29041 -1113.8606 350 1.7239473e-38
305.29114 -1091.5223 350 1.6681602e-38
315.42725 -1065.1167 350 9.1281002e-39
316.42798 -1042.7784 350 1.1523364e-38
317.42871 -1020.4401 350 1.0602866e-38
313.36133 -1011.3047 350 1.014008e-38
309.29395 -1002.1692 350 1.050812e-38
301.15918 -983.89832 350 9.9614763e-39
297.0918 -974.76282 350 9.0333598e-39
274.75354 -973.76221 350 1.208124e-38
270.68616 -964.62671 350 1.8435735e-39
257.48328 -959.55859 350 2.3052579e-39
235.14502 -958.55798 350 2.6747607e-39
207.73865 -970.76001 360 2.9520678e-39
189.46777 -978.89478 360 2.8605883e-39
162.0614 -991.09692 360 3.135013e-39
148.85864 -986.02881 360 2.8573527e-39
140.72388 -967.75793 360 9.8598289e-39
118.38562 -966.7572 370 2.0745063e-38
-392.06982 -1369.1691 440 1.8896791e-38
-423.54358 -1372.2358 450 1.9445646e-38
-455.01721 -1375.3025 450 1.9541438e-38
-93.795776 -1006.4949 390 2.0187149e-38
-97.863159 -997.35938 390 2.0739967e-38
-96.862427 -975.02112 390 1.2261306e-38
-95.861694 -952.68286 390 3.5016319e-39
-94.861084 -930.3446 390 2.9488126e-39
-61.385864 -882.60132 380 3.5005431e-39
-42.114258 -852.1283 380 4.517932e-39
5.5643311 -787.11487 370 4.3306625e-39
10.632446 -773.91211 370 5.4348464e-39
2.4976807 -755.64124 370 6.2653301e-39
-10.7052 -750.57312 370 6.2667623e-39
-14.772583 -741.43762 370 5.9919733e-39
-32.042725 -727.23413 370 6.3589579e-39
-54.380981 -726.2334 370 5.621753e-39
-58.448364 -717.09802 370 5.62176e-39
-75.718628 -702.89441 380 5.0693037e-39
-98.056885 -701.8938 380 4.6090458e-39
-120.39514 -700.89307 380 5.5306434e-39
-151.8689 -703.95972 380 4.6086899e-39
-165.07166 -698.8916 380 3.6867378e-39
-173.20642 -680.62073 380 4.3320974e-39
-172.20569 -658.28247 380 2.7640696e-39
-176.27307 -649.14697 380 2.2123252e-39
-193.54333 -634.94348 380 7.0846315e-39
-197.61072 -625.80811 390 1.2251879e-38
-214.88086 -611.60449 390 1.35419e-38
-228.08374 -606.5365 390 1.3442166e-38
-236.21851 -588.2655 390 3.0431831e-39
-249.42126 -583.19751 390 2.8587932e-39
-239.28516 -556.79187 390 2.7665948e-39
-265.6908 -546.65564 390 2.7658745e-39
-333.7063 -565.99182 400 2.5825552e-39
-666.6499 -703.28186 440 2.3963689e-39
-656.51367 -676.87622 440 2.581835e-39
-681.9187 -644.40186 440 4.3346323e-39
-699.18896 -630.19824 440 3.1317717e-39
-190.73499 -272.46301 370 3.0500256e-39
-194.80225 -263.32758 370 2.1273392e-39
-188.73352 -227.78644 360 2.0282983e-39
-192.8009 -218.651 360 1.7531463e-39
-164.3938 -184.1106 360 1.8435497e-39
-91.310303 -151.57159 350 2.1197736e-39
-99.444946 -133.30072 350 1.660243e-39
-53.7677 -112.96381 340 2.0275766e-39
-28.427368 -46.949707 340 1.6595213e-39
-95.442139 -43.947571 350 1.475486e-39
-121.8479 -33.811432 350 1.7513512e-39
-157.38892 -27.742676 350 1.6602374e-39
-192.93005 -21.673889 350 1.4762091e-39
-206.13293 -16.605804 360 1.5676886e-39
-232.53857 -6.4696655 360 1.6595199e-39
-91.439453 45.405518 340 1.659164e-39
-213.26697 24.003357 350 1.5673271e-39
-158.45422 48.407623 350 1.6591584e-39
-166.58899 66.678528 350 1.5666054e-39
-179.79175 71.746582 350 1.6591598e-39
-206.19751 81.882751 350 1.6584381e-39
-485.39368 45.147217 380 1.6591612e-39
-502.66382 59.350739 380 1.750638e-39
53.662598 186.63379 320 1.3832932e-39
40.459717 191.70187 320 1.382933e-39
36.392334 200.83731 320 1.4744056e-39
-178.85571 192.57343 340 1.3818512e-39
-214.39673 198.64221 350 1.3814897e-39
-186.99048 210.84433 340 1.2896556e-39
-181.92236 224.04715 340 1.0141491e-39
-176.85425 237.24998 340 9.2266956e-40
-203.25989 247.38612 340 8.2975927e-40
-367.76257 272.66193 360 1.0130701e-39
-97.701904 305.33008 330 1.0134289e-39
-16.483521 319.59818 320 1.0130715e-39
-65.227417 330.73505 320 9.2159476e-40
-91.633057 340.87119 330 1.1056245e-39
-86.565063 354.07401 320 1.1056245e-39
-90.632446 363.20947 320 1.0141505e-39
-94.699829 372.34491 320 1.1978201e-39
-98.767212 381.48035 320 1.1052672e-39
-102.83459 390.61581 320 9.2159476e-40
-30.751587 400.81653 320 1.0141491e-39
9.8575439 407.95059 310 1.1052672e-39
37.263916 420.15271 310 1.1971027e-39
-11.47998 431.28955 310 1.1971027e-39
38.264648 442.491 310 1.1056245e-39
-55.155884 455.62924 320 1.0134317e-39
-126.23804 467.76678 320 1.1052672e-39
113.70496 -1570.8914 380 2.3509886e-38
114.70569 -1548.5531 380 2.3509886e-38
97.435425 -1534.3496 380 2.2591531e-38
93.368042 -1525.2142 380 2.2036915e-38
118.7085 -1459.2001 380 2.1761766e-38
86.234009 -1484.605 380 2.2314919e-38
292.15283 -1184.9427 340 2.0931639e-38
307.35706 -1145.3344 340 2.0289496e-38
303.28967 -1136.1989 340 1.8534169e-38
304.29041 -1113.8606 340 1.6593368e-38
314.42651 -1087.455 340 1.4842371e-38
315.42725 -1065.1167 340 8.0221114e-39
307.29248 -1046.8458 340 1.1523375e-38
317.42871 -1020.4401 330 1.097236e-38
313.36133 -1011.3047 330 9.9574882e-39
305.22656 -993.03381 330 1.0509199e-38
301.15918 -983.89832 330 7.8420726e-39
297.0918 -974.76282 330 1.0691078e-38
283.88892 -969.69482 340 1.0790512e-38
270.68616 -964.62671 340 1.9361166e-39
257.48328 -959.55859 340 2.0293913e-39
244.28052 -954.4906 340 2.6743991e-39
216.87415 -966.69263 340 2.9513462e-39
194.53589 -965.69202 340 3.0428257e-39
176.26501 -973.82678 350 3.0428187e-39
172.19763 -964.69128 350 3.2275659e-39
154.92737 -950.48779 350 6.2667553e-39
141.72461 -945.41968 350 2.0467763e-38
-444.81653 -1447.3854 430 1.7790822e-38
-415.40881 -1390.5067 430 1.7974123e-38
-446.88257 -1393.5734 430 1.8248552e-38
-455.01721 -1375.3025 430 1.8803515e-38
-98.863892 -1019.6978 380 1.9175171e-38
-97.863159 -997.35938 380 2.0093537e-38
-105.99792 -979.0885 380 1.1901145e-38
-104.99719 -956.75024 370 2.5825538e-39
-94.861084 -930.3446 370 2.6733061e-39
-52.250488 -878.53406 370 3.6870895e-39
-4.5717773 -813.52063 360 4.6076137e-39
5.5643311 -787.11487 360 6.2638826e-39
10.632446 -773.91211 350 6.5429834e-39
2.4976807 -755.64124 350 6.4511493e-39
-1.5697021 -746.50574 350 6.450799e-39
-9.7044678 -728.23486 350 5.7164668e-39
-22.907227 -723.16675 360 5.1633e-39
-36.110107 -718.09863 360 5.8972651e-39
-44.244873 -699.82776 360 5.8039891e-39
-66.58313 -698.82715 360 5.8057911e-39
-88.921387 -697.82642 360 4.9767535e-39
-111.25964 -696.82568 360 5.2529705e-39
-133.5979 -695.82495 370 5.9901796e-39
-160.00366 -685.68884 370 4.9760305e-39
-164.07092 -676.55334 370 3.8711262e-39
-172.20569 -658.28247 370 1.8446371e-39
-176.27307 -649.14697 370 6.2537989e-39
-184.40784 -630.8761 370 9.2101659e-39
-197.61072 -625.80811 370 1.2984779e-38
-205.74548 -607.53711 370 1.3260647e-38
-218.94824 -602.46912 370 1.1237756e-38
-236.21851 -588.2655 370 2.4896463e-39
-240.28589 -579.13013 370 2.2126951e-39
-230.14966 -552.72449 370 2.2108916e-39
-247.41992 -538.52094 370 2.2098126e-39
-278.89355 -541.58759 370 2.3012936e-39
-356.04456 -564.99121 380 2.6704279e-39
-373.31482 -550.7876 380 2.5796742e-39
-404.78857 -553.85425 390 2.5818364e-39
-228.27747 -311.0708 360 1.5676844e-39
-218.14124 -284.66516 360 1.7509967e-39
-240.47961 -283.66443 360 1.5684005e-39
-188.73352 -227.78644 350 1.5680474e-39
-215.13916 -217.65033 350 1.6595227e-39
-219.20654 -208.51483 350 1.6598843e-39
-118.71655 -163.77374 340 1.8431895e-39
-154.25769 -157.70496 340 1.7513526e-39
-85.241455 -116.03052 330 1.9350278e-39
-52.76709 -90.625549 330 1.6595213e-39
-56.834473 -81.490112 330 1.6591584e-39
-24.359985 -56.085144 320 1.935388e-39
-28.427368 -46.949707 320 1.7509953e-39
-68.035889 -31.745453 330 1.5676844e-39
-189.8634 -53.147644 340 1.7513526e-39
-207.13354 -38.944092 340 1.3836533e-39
-229.4718 -37.94342 350 1.5673257e-39
-255.87756 -27.807251 350 1.2918178e-39
-300.55408 -25.805847 350 1.3829344e-39
-286.35059 -8.5356445 350 2.029373e-39
-303.62073 5.6678772 350 1.5698368e-39
-161.52087 79.881348 330 1.0141505e-39
-224.46838 73.747986 340 8.301152e-40
-485.39368 45.147217 370 9.2159476e-40
-443.78369 74.619537 360 1.197097e-39
-384.90369 89.888336 360 1.2889353e-39
-393.03845 108.15924 360 1.2896528e-39
-410.30859 122.36276 360 1.1978187e-39
-445.84973 128.43155 360 1.38221e-39
-377.83423 147.76773 350 1.1063476e-39
-458.05188 155.83789 360 1.2896584e-39
-236.73511 199.64291 340 1.3818526e-39
-249.93787 204.71097 340 1.3818498e-39
-258.07263 222.98187 340 1.2900157e-39
-262.14001 232.11732 340 1.1981817e-39
-288.54565 242.25348 340 1.1974614e-39
-377.8988 246.25629 350 1.0141491e-39
-256.07117 267.65845 330 1.2892969e-39
-84.499023 300.26202 310 1.1981774e-39
-91.633057 340.87119 310 1.1063448e-39
-82.497681 344.93854 310 1.0145107e-39
-90.632446 363.20947 310 1.1063434e-39
-94.699829 372.34491 310 1.1974628e-39
-98.767212 381.48035 310 1.1059846e-39
-102.83459 390.61581 310 1.0141505e-39
-53.089966 401.81723 310 1.19746e-39
-3.3453369 413.01868 300 1.1056301e-39
-7.4125977 422.15411 300 1.106342e-39
-2.3446045 435.35693 300 1.1978229e-39
51.467407 437.42291 290 1.1063434e-39
56.535522 450.62573 290 1.1981774e-39
118.77307 -1557.6886 360 2.3509886e-38
110.63831 -1539.4177 360 2.2499695e-38
97.435425 -1534.3496 360 2.314002e-38
98.436157 -1512.0114 360 2.2315286e-38
113.64038 -1472.4028 360 2.231493e-38
86.234009 -1484.605 360 2.0842684e-38
307.35706 -1145.3344 330 1.9369702e-38
303.28967 -1136.1989 330 1.7884861e-38
313.4259 -1109.7932 330 1.5947641e-38
310.35925 -1078.3195 320 1.2907715e-38
315.42725 -1065.1167 320 8.8457358e-39
307.29248 -1046.8458 320 1.1156034e-38
317.42871 -1020.4401 320 1.1153168e-38
313.36133 -1011.3047 320 1.0324117e-38
305.22656 -993.03381 320 1.1242456e-38
301.15918 -983.89832 320 6.365146e-39
297.0918 -974.76282 320 1.2720086e-38
283.88892 -969.69482 320 4.3451295e-39
279.82166 -960.55933 320 2.304895e-39
262.55139 -946.35583 320 2.6729586e-39
253.41589 -950.42322 320 2.8566352e-39
231.07764 -949.42249 330 2.9509888e-39
227.01025 -940.28699 330 2.9513462e-39
199.60388 -952.48914 330 2.6740418e-39
186.40112 -947.42114 330 3.0435418e-39
164.06287 -946.42041 330 2.8587876e-39
150.85999 -941.35229 330 1.9549401e-38
-405.20801 -1462.5896 410 1.9542922e-38
-427.54639 -1461.5889 410 1.8438355e-38
-435.68103 -1443.318 410 1.7974123e-38
-443.8158 -1425.0471 410 1.7147598e-38
-446.88257 -1393.5734 410 1.8338946e-38
-455.01721 -1375.3025 410 1.8987544e-38
-407.33862 -1310.2891 400 1.9450303e-38
-107.99927 -1023.7651 360 1.9909496e-38
-106.99854 -1001.4268 360 2.0368682e-38
-105.99792 -979.0885 360 9.3125139e-39
-95.861694 -952.68286 360 2.5789567e-39
-94.861084 -930.3446 360 3.5927401e-39
-28.911499 -857.19641 350 4.1480761e-39
13.699097 -805.38586 340 5.6192321e-39
14.699829 -783.04749 340 5.9894551e-39
10.632446 -773.91211 340 6.2685573e-39
2.4976807 -755.64124 340 6.6348259e-39
-1.5697021 -746.50574 340 5.7132326e-39
-9.7044678 -728.23486 340 6.3575174e-39
-13.771851 -719.09937 340 6.0834472e-39
-31.041992 -704.89587 340 5.9008468e-39
-35.109375 -695.76038 340 5.5288385e-39
-48.312256 -690.69238 340 5.8061471e-39
-70.650513 -689.69165 340 6.1731317e-39
-102.12427 -692.7583 350 4.6061774e-39
-128.52991 -682.62219 350 5.0685862e-39
-150.86816 -681.62146 350 5.8072219e-39
-154.93555 -672.48596 350 5.2511824e-39
-163.07031 -654.21509 350 2.3931165e-39
-167.1377 -645.07971 350 1.3807694e-38
-184.40784 -630.8761 350 7.3637408e-39
-188.47522 -621.74072 350 1.4360854e-38
-205.74548 -607.53711 350 1.556012e-38
-218.94824 -602.46912 350 1.4087523e-38
-227.08301 -584.19812 350 5.9862391e-39
-235.21777 -565.92725 350 1.1077839e-39
-230.14966 -552.72449 350 1.2903745e-39
-247.41992 -538.52094 350 1.3818512e-39
-297.16455 -549.72229 360 1.1063448e-39
-365.18005 -569.05847 370 1.1978187e-39
-382.4502 -554.85498 370 9.2195209e-40
-413.92395 -557.92163 370 1.1052658e-39
-476.87146 -564.05505 380 1.0145107e-39
-485.00623 -545.78412 380 9.2231503e-40
-127.78748 -266.32965 330 1.7513554e-39
-209.00586 -280.59778 340 1.4754888e-39
-271.95325 -286.73108 350 1.5684047e-39
-221.20801 -253.19141 340 1.5673271e-39
-243.54626 -252.19073 340 1.5680404e-39
-560.28491 -327.534 380 1.5673257e-39
-586.69067 -317.39783 380 1.4762063e-39
-621.23096 -288.99078 380 1.5662439e-39
-47.698975 -77.422729 320 1.4747615e-39
-42.630859 -64.21991 310 1.1978201e-39
-77.171265 -35.812866 320 9.2159336e-40
-221.33716 -56.214294 330 1.0127114e-39
-243.67542 -55.213562 330 1.1967425e-39
-242.67468 -32.875305 330 1.104907e-39
-265.01294 -31.874603 330 1.1974628e-39
-282.2832 -17.671082 340 1.4740469e-39
-286.35059 -8.5356445 340 1.3825729e-39
-294.48523 9.73526 340 1.3818554e-39
-139.18262 78.880646 320 1.6580808e-39
-499.59717 27.877014 350 1.5669642e-39
-526.00269 38.013184 360 1.4747699e-39
-452.91919 70.552185 350 1.475486e-39
-407.24194 90.889038 340 1.4747657e-39
-411.30933 100.02451 340 1.5662425e-39
-419.44409 118.29541 340 1.5662467e-39
-445.84973 128.43155 340 1.4744112e-39
-409.30786 144.70105 340 1.4744042e-39
-435.71362 154.83719 340 1.3825701e-39
-264.14136 187.44077 320 1.3822128e-39
-263.14075 209.77905 320 1.1985418e-39
11.923462 354.13858 290 1.1059846e-39
7.8562012 363.27405 290 1.1059874e-39
-5.3466797 368.3421 290 1.2900157e-39
-98.767212 381.48035 300 1.1974614e-39
-111.96997 386.54843 300 1.1981774e-39
-75.428223 402.81793 300 1.1981789e-39
-115.03662 418.02216 300 1.2900171e-39
-65.291992 429.2236 300 1.1981845e-39
-69.359375 438.35904 300 1.2896556e-39
-118.10339 449.49588 300 1.1988963e-39
-64.291382 451.56186 290 1.2900157e-39
118.77307 -1557.6886 350 2.3142544e-38
114.70569 -1548.5531 350 2.2591531e-38
97.435425 -1534.3496 350 2.2407848e-38
98.436157 -1512.0114 350 2.2223096e-38
104.50488 -1476.4702 340 2.1763552e-38
315.49182 -1163.6052 310 2.1481933e-38
307.35706 -1145.3344 310 1.9180992e-38
308.35779 -1122.9961 310 1.6596626e-38
313.4259 -1109.7932 310 1.5485571e-38
319.49463 -1074.2521 310 1.1064902e-38
315.42725 -1065.1167 310 1.0137527e-38
307.29248 -1046.8458 310 1.1156045e-38
317.42871 -1020.4401 310 1.1247155e-38
313.36133 -1011.3047 310 9.4068353e-39
305.22656 -993.03381 310 1.106202e-38
301.15918 -983.89832 310 5.9945474e-39
287.9563 -978.8302 310 5.2681269e-39
293.02441 -965.62744 310 3.7782146e-39
275.75427 -951.42383 310 9.5868994e-39
271.68689 -942.28845 310 1.2259136e-38
258.48401 -937.22034 310 1.3368365e-38
240.21313 -945.3551 310 1.4831993e-38
227.01025 -940.28699 310 9.3866818e-39
199.60388 -952.48914 310 3.0431831e-39
186.40112 -947.42114 320 3.1342969e-39
164.06287 -946.42041 320 3.2261366e-39
150.85999 -941.35229 320 1.9451809e-38
146.7926 -932.2168 320 1.8440171e-38
-445.81726 -1469.7236 390 1.7055418e-38
-444.81653 -1447.3854 390 1.6500435e-38
-452.95129 -1429.1145 390 1.7145805e-38
-437.74707 -1389.506 390 1.8342183e-38
-455.01721 -1375.3025 390 1.9263047e-38
-416.474 -1314.3564 380 2.0001694e-38
-107.99927 -1023.7651 350 2.0185001e-38
-116.13403 -1005.4941 350 1.9359915e-38
-105.99792 -979.0885 340 5.4392059e-39
-114.13269 -960.81763 340 3.0417243e-39
-85.725586 -926.27722 340 3.5019836e-39
-19.776001 -853.12903 330 4.5143363e-39
22.834595 -801.31848 330 5.0689366e-39
14.699829 -783.04749 330 6.3578719e-39
15.700562 -760.70923 320 5.8068631e-39
11.633179 -751.57385 320 6.1738464e-39
-1.5697021 -746.50574 320 6.5426261e-39
-9.7044678 -728.23486 320 6.4489913e-39
-4.6363525 -715.03198 320 6.450792e-39
-21.906616 -700.82849 330 6.6333798e-39
-35.109375 -695.76038 330 6.8188599e-39
-48.312256 -690.69238 330 6.4504263e-39
-65.582397 -676.48877 330 7.1861948e-39
-87.920654 -675.48816 330 7.5542599e-39
-110.25903 -674.48743 330 7.2791149e-39
-141.73267 -677.55408 330 5.9916271e-39
-145.80005 -668.41858 340 3.4126788e-39
-163.07031 -654.21509 340 6.7183559e-39
-167.1377 -645.07971 340 1.1325272e-38
-184.40784 -630.8761 340 3.1310417e-39
-188.47522 -621.74072 340 1.6109684e-38
-196.60999 -603.46973 340 1.6204414e-38
-209.81287 -598.40173 340 1.3717685e-38
-217.94751 -580.13086 340 1.178624e-38
-226.08228 -561.85986 340 7.3720491e-40
-230.14966 -552.72449 340 1.0130715e-39
-247.41992 -538.52094 340 1.1056259e-39
-315.43542 -557.85706 350 1.105986e-39
-392.58643 -581.26062 350 1.1974614e-39
-409.85657 -567.05713 350 1.1056273e-39
-413.92395 -557.92163 350 1.1974628e-39
-449.46509 -551.85291 360 1.0137932e-39
-199.87036 -276.5304 320 1.1059832e-39
-271.95325 -286.73108 330 1.013789e-39
-248.61426 -265.39355 330 1.0134289e-39
-284.1554 -259.32477 330 9.2159196e-40
-560.28491 -327.534 360 1.1056273e-39
-604.96143 -325.53259 360 1.1978229e-39
-621.23096 -288.99078 360 1.3818484e-39
-633.43311 -261.58447 360 1.291099e-39
-242.67468 -32.875305 320 1.7506408e-39
-265.01294 -31.874603 320 1.5676802e-39
-308.68884 -7.5349426 320 1.4754902e-39
-285.34985 13.802643 320 1.5669628e-39
-462.05469 66.484802 330 1.6587955e-39
-438.7157 87.822357 330 1.7509925e-39
-433.64758 101.02521 330 1.5666082e-39
-441.78235 119.29611 330 1.6584381e-39
-445.84973 128.43155 330 1.4744126e-39
-422.51074 149.76913 330 1.4747671e-39
-435.71362 154.83719 330 1.4747671e-39
-434.71289 177.17548 330 1.3825715e-39
-479.3894 179.17688 330 1.2907346e-39
-147.51111 392.61722 290 1.2907332e-39
-84.563599 398.75055 290 1.4740455e-39
-115.03662 418.02216 290 1.38221e-39
-128.2395 423.09024 290 1.3818526e-39
-109.96863 431.22498 290 1.2900171e-39
-104.90051 444.42783 290 1.1985404e-39
-55.155884 455.62924 280 1.2900157e-39
-112.03455 485.03699 290 1.1059846e-39
113.70496 -1570.8914 330 2.3234379e-38
105.57019 -1552.6205 330 2.1763198e-38
92.367432 -1547.5525 330 2.1946866e-38
98.436157 -1512.0114 330 2.1118916e-38
99.43689 -1489.6731 330 2.1942543e-38
316.49255 -1141.267 300 1.8352314e-38
308.35779 -1122.9961 300 1.6591946e-38
309.35852 -1100.6577 300 1.4842364e-38
319.49463 -1074.2521 300 9.1298897e-39
315.42725 -1065.1167 300 1.0878699e-38
307.29248 -1046.8458 300 1.1709561e-38
317.42871 -1020.4401 290 1.0419208e-38
313.36133 -1011.3047 290 9.7738228e-39
305.22656 -993.03381 290 1.1429727e-38
301.15918 -983.89832 290 7.1894739e-39
287.9563 -978.8302 300 3.32197e-39
283.88892 -969.69482 300 4.6076137e-39
279.82166 -960.55933 300 9.128082e-39
262.55139 -946.35583 300 1.189107e-38
249.34851 -941.28772 300 1.3642079e-38
240.21313 -945.3551 300 1.5671098e-38
212.80676 -957.55725 300 1.6040951e-38
199.60388 -952.48914 300 1.6129549e-38
168.13025 -955.55579 300 9.9405871e-39
154.92737 -950.48779 300 3.5963512e-39
150.85999 -941.35229 300 1.8257945e-38
137.65723 -936.28418 310 1.7332742e-38
-459.02002 -1464.6555 370 1.6312455e-38
-452.95129 -1429.1145 370 1.6499346e-38
-437.74707 -1389.506 370 1.8065223e-38
-450.94983 -1384.4379 370 1.9077225e-38
-430.67761 -1331.6266 370 1.9352383e-38
-462.15137 -1334.6932 370 1.9632549e-38
-116.13403 -1005.4941 330 1.9079737e-38
-105.99792 -979.0885 330 4.429035e-39
-114.13269 -960.81763 330 3.1332039e-39
-80.657471 -913.07446 320 3.1342773e-39
-10.640625 -849.06165 310 4.1469859e-39
22.834595 -801.31848 310 5.712864e-39
14.699829 -783.04749 310 5.5288385e-39
15.700562 -760.70923 310 5.9901656e-39
11.633179 -751.57385 310 6.4511535e-39
7.5657959 -742.43835 310 6.6351706e-39
-0.56896973 -724.16748 310 6.818134e-39
-4.6363525 -715.03198 310 6.5433408e-39
-12.771118 -696.76111 310 8.2961297e-39
-25.973999 -691.69299 310 8.8474944e-39
-34.108643 -673.42212 310 8.2943305e-39
-47.311523 -668.354 310 8.3854485e-39
-78.785278 -671.42078 310 7.2809072e-39
-101.12354 -670.42004 320 5.8072289e-39
-141.73267 -677.55408 320 3.3175979e-39
-145.80005 -668.41858 320 1.1981831e-39
-163.07031 -654.21509 320 1.2603396e-38
-167.1377 -645.07971 320 2.0283249e-39
-175.27246 -626.80872 320 1.4726049e-39
-183.4071 -608.53784 320 1.298296e-38
-196.60999 -603.46973 320 1.6110026e-38
-204.74475 -585.19885 320 1.5284636e-38
-208.81213 -576.06348 320 1.3348897e-38
-216.9469 -557.79248 320 1.0127114e-39
-211.87878 -544.58972 320 8.290418e-40
-247.41992 -538.52094 320 9.2159476e-40
-306.29993 -553.78967 330 1.1059846e-39
-392.58643 -581.26062 340 1.1059818e-39
-442.33105 -592.46204 340 8.2975787e-40
-441.33032 -570.12378 340 7.382783e-40
-589.62817 -482.90125 350 1.0134317e-39
-575.42456 -465.63104 350 1.1063434e-39
-209.00586 -280.59778 310 1.1981803e-39
-271.95325 -286.73108 320 1.2900214e-39
-202.93701 -245.05664 310 1.3829358e-39
-293.29089 -263.39215 320 1.3829344e-39
-587.69116 -339.73615 340 1.6584409e-39
-586.69067 -317.39783 340 1.5673229e-39
-490.26794 -263.5213 330 1.750275e-39
-639.50195 -297.12555 350 1.566967e-39
-484.19922 -227.98016 330 1.3829373e-39
-556.28198 -238.18091 340 1.4751329e-39
-270.08105 -45.077454 310 1.5666012e-39
-287.3512 -30.873901 310 1.6591612e-39
-300.55408 -25.805847 310 1.4754902e-39
-336.09521 -19.737061 310 1.7509953e-39
-494.52905 41.079834 320 1.6587997e-39
-452.91919 70.552185 320 1.6588011e-39
-438.7157 87.822357 320 1.5669614e-39
-442.78308 96.957825 320 1.5669656e-39
-450.91785 115.22873 320 1.4744098e-39
-445.84973 128.43155 310 1.6580794e-39
-422.51074 149.76913 310 1.4747671e-39
-426.57812 158.90457 310 1.4747657e-39
-403.23914 180.24216 310 1.4744084e-39
-281.41162 201.64429 300 1.5658852e-39
-276.34351 214.84714 300 1.4736895e-39
-284.47827 233.11803 300 1.3825687e-39
-288.54565 242.25348 300 1.290736e-39
-337.28955 253.39034 300 1.1063462e-39
-105.90125 422.08954 280 1.565525e-39
-100.83313 435.29236 270 1.4736895e-39
-104.90051 444.42783 280 1.2910919e-39
-77.494141 456.62994 270 1.3818484e-39
-126.23804 467.76678 280 1.2896598e-39
-130.30542 476.90225 280 1.2892997e-39
-134.3728 486.03769 280 1.2900157e-39
104.56946 -1574.9587 320 2.3050708e-38
105.57019 -1552.6205 310 2.2039079e-38
92.367432 -1547.5525 310 2.1486615e-38
98.436157 -1512.0114 310 2.075121e-38
99.43689 -1489.6731 310 2.1114947e-38
320.55994 -1150.4023 290 1.94576e-38
316.49255 -1141.267 280 1.7704435e-38
317.49329 -1118.9287 280 1.5211517e-38
309.35852 -1100.6577 280 1.4288127e-38
328.63013 -1070.1847 280 8.3001248e-39
315.42725 -1065.1167 280 1.0788321e-38
307.29248 -1046.8458 280 1.2075116e-38
317.42871 -1020.4401 280 1.0605741e-38
313.36133 -1011.3047 280 9.6812684e-39
309.29395 -1002.1692 280 1.2167641e-38
301.15918 -983.89832 280 8.6638809e-39
287.9563 -978.8302 280 3.4126943e-39
274.75354 -973.76221 280 5.1622252e-39
279.82166 -960.55933 280 9.4950639e-39
271.68689 -942.28845 280 1.1799963e-38
253.41589 -950.42322 280 1.4195605e-38
240.21313 -945.3551 280 1.6311788e-38
212.80676 -957.55725 290 1.6131702e-38
199.60388 -952.48914 290 1.5578895e-38
177.26562 -951.4884 290 1.5854029e-38
164.06287 -946.42041 290 1.6120186e-38
150.85999 -941.35229 290 1.7336695e-38
137.65723 -936.28418 290 1.7332383e-38
-415.40881 -1390.5067 350 1.3463739e-38
-428.61157 -1385.4386 350 4.910814e-39
-455.01721 -1375.3025 350 3.3345116e-39
-439.81299 -1335.694 350 2.7716198e-39
-462.15137 -1334.6932 350 2.8598568e-39
-106.99854 -1001.4268 310 2.4907141e-39
-96.862427 -975.02112 310 3.503064e-39
-114.13269 -960.81763 310 3.1332011e-39
-62.386597 -904.9397 310 3.2232429e-39
3.5629883 -831.7915 300 4.5125356e-39
22.834595 -801.31848 300 4.884188e-39
14.699829 -783.04749 300 5.2544096e-39
10.632446 -773.91211 300 5.9898153e-39
11.633179 -751.57385 290 6.4515109e-39
3.4984131 -733.30286 290 5.4402456e-39
-0.56896973 -724.16748 290 5.0693051e-39
0.4317627 -701.82922 290 4.4246588e-39
-12.771118 -696.76111 290 5.162221e-39
-16.838501 -687.62561 290 4.8892242e-39
-24.973267 -669.35474 290 5.7179115e-39
-38.176025 -664.28674 300 3.8718563e-39
-60.514404 -663.28601 300 2.1212141e-39
-91.988037 -666.35266 300 2.858775e-39
-132.59729 -673.48669 300 4.4253748e-39
-140.73206 -655.21582 300 1.9346607e-39
-153.93481 -650.14771 300 1.7549554e-39
-167.1377 -645.07971 300 7.3756364e-40
-175.27246 -626.80872 300 6.3467078e-39
-183.4071 -608.53784 300 1.2802912e-38
-187.47449 -599.40247 300 1.3628673e-38
-186.47388 -577.06409 300 1.4086444e-38
-190.54126 -567.92871 300 1.537465e-38
-189.54053 -545.59039 300 9.2159336e-40
-202.74329 -540.52234 300 7.3648884e-40
-210.87805 -522.2514 300 6.4464634e-40
-219.01282 -503.98053 300 6.4464914e-40
-277.89294 -519.24933 310 6.4536661e-40
-409.85657 -567.05713 320 7.3756364e-40
-477.87207 -586.39331 330 8.2975787e-40
-476.87146 -564.05505 320 1.1056259e-39
-587.56201 -536.71326 330 1.1974614e-39
-577.42603 -510.30762 330 9.2159757e-40
-572.35791 -497.1048 330 9.2267376e-40
-562.22168 -470.6991 330 1.0141505e-39
-520.61182 -441.22681 320 1.1978243e-39
-199.87036 -276.5304 290 1.2907388e-39
-262.81787 -282.66376 300 1.5662439e-39
-276.02063 -277.59564 300 1.6580836e-39
-311.56177 -271.52686 300 1.6584423e-39
-587.69116 -339.73615 330 1.4758503e-39
-586.69067 -317.39783 320 1.6591626e-39
-535.94531 -283.85815 320 1.5684005e-39
-580.62183 -281.85675 320 1.566967e-39
-529.87646 -248.31708 320 1.4751287e-39
-578.62036 -237.18018 320 1.5669628e-39
-478.13037 -192.43909 310 1.3825743e-39
-617.22827 -199.6377 320 1.2910976e-39
-439.71631 65.4841 300 1.4747671e-39
-425.51282 82.754303 300 1.5669628e-39
-433.64758 101.02521 300 1.4747671e-39
-450.91785 115.22873 300 1.565888e-39
-445.84973 128.43155 300 1.5662439e-39
-431.64624 145.70175 300 1.4747713e-39
-426.57812 158.90457 300 1.3829316e-39
-277.34424 192.50885 290 1.4740497e-39
-263.14075 209.77905 280 1.3829302e-39
-258.07263 222.98187 280 1.2907346e-39
-262.14001 232.11732 280 1.4740511e-39
-266.2074 241.25278 280 1.381854e-39
-274.34216 259.52368 280 1.1063476e-39
-278.40955 268.65912 280 1.1981803e-39
-318.01794 283.86334 290 1.289657e-39
-166.78271 362.1442 270 1.1056273e-39
-170.8501 371.27963 270 1.1981803e-39
-197.25574 381.41577 270 1.29002e-39
-192.18762 394.61862 270 1.1063448e-39
-227.72876 400.68738 270 1.1059874e-39
-168.84863 415.95618 270 1.1063434e-39
-163.78064 429.15903 270 1.1981803e-39
-123.17139 436.29306 270 9.2230802e-40
-149.57703 446.42923 270 1.0141463e-39
-153.64441 455.56467 270 1.0134275e-39
-170.91467 469.76819 270 8.2975506e-40
-174.98206 478.90366 270 9.2123323e-40
-169.91394 492.10648 270 8.2939773e-40
104.56946 -1574.9587 300 2.2222389e-38
105.57019 -1552.6205 300 2.2587943e-38
97.435425 -1534.3496 300 2.1393356e-38
107.57166 -1507.944 300 2.1023848e-38
99.43689 -1489.6731 300 2.0471383e-38
320.55994 -1150.4023 270 1.9183168e-38
316.49255 -1141.267 270 1.6320776e-38
317.49329 -1118.9287 270 1.4106249e-38
318.4939 -1096.5905 270 1.3183216e-38
328.63013 -1070.1847 270 8.0192219e-39
315.42725 -1065.1167 270 1.1340064e-38
316.42798 -1042.7784 270 1.189217e-38
317.42871 -1020.4401 270 1.0970225e-38
313.36133 -1011.3047 270 9.6805523e-39
305.22656 -993.03381 270 1.1893226e-38
301.15918 -983.89832 270 7.9313619e-39
278.82092 -982.89758 270 3.5059661e-39
274.75354 -973.76221 270 5.7150332e-39
279.82166 -960.55933 270 8.7582275e-39
262.55139 -946.35583 270 1.1525188e-38
253.41589 -950.42322 270 1.4013727e-38
231.07764 -949.42249 270 1.5394856e-38
217.87488 -944.35437 270 1.5764357e-38
204.672 -939.28638 270 1.53963e-38
186.40112 -947.42114 270 1.4105566e-38
173.19824 -942.35303 280 1.6597343e-38
159.99548 -937.28491 280 1.3648458e-38
137.65723 -936.28418 280 1.6043084e-38
86.911865 -969.82397 280 1.4929525e-38
22.963745 -998.29553 290 1.3918254e-38
-423.54358 -1372.2358 330 2.0279409e-39
-431.67822 -1353.9648 330 1.843907e-39
-412.40674 -1323.4918 330 1.9357439e-39
-37.9823 -959.75232 290 2.0283039e-39
-60.320679 -958.75171 290 2.1204939e-39
-64.388062 -949.61621 290 2.9506147e-39
-86.726318 -948.61548 290 2.5811189e-39
-57.318481 -891.73682 290 3.0402866e-39
12.698364 -827.72412 280 3.6860147e-39
22.834595 -801.31848 280 3.7789292e-39
14.699829 -783.04749 280 4.6990876e-39
10.632446 -773.91211 280 5.6235481e-39
11.633179 -751.57385 280 4.1498683e-39
3.4984131 -733.30286 280 4.793793e-39
8.5664062 -720.1001 280 6.5429848e-39
0.4317627 -701.82922 280 4.9742312e-39
-12.771118 -696.76111 280 4.6076095e-39
-16.838501 -687.62561 280 4.606892e-39
-24.973267 -669.35474 280 3.8707647e-39
-38.176025 -664.28674 280 4.7941531e-39
-60.514404 -663.28601 280 4.6969338e-39
-77.784546 -649.08252 280 2.3942095e-39
-114.32629 -665.35193 290 2.0265004e-39
-122.46106 -647.08105 290 1.5662383e-39
-144.79944 -646.08032 290 9.2159336e-40
-152.93408 -627.80945 290 7.372007e-40
-166.13696 -622.74133 290 1.1968458e-38
-174.27173 -604.47046 290 6.7180266e-39
-169.20361 -591.2677 290 8.1052841e-39
-186.47388 -577.06409 290 1.114231e-38
-190.54126 -567.92871 290 1.0131052e-38
-189.54053 -545.59039 290 7.3756644e-40
-202.74329 -540.52234 290 6.4464914e-40
-210.87805 -522.2514 290 5.5281365e-40
-219.01282 -503.98053 290 6.4464634e-40
-250.48657 -507.04718 290 6.4500928e-40
-373.31482 -550.7876 300 6.4500787e-40
-432.19482 -566.0564 300 9.2123603e-40
-467.73596 -559.98767 310 1.1056245e-39
-588.56274 -559.05151 310 1.0141463e-39
-596.69751 -540.78064 310 8.301194e-40
-586.56152 -514.37494 310 1.0137904e-39
-581.49341 -501.17212 310 1.0137932e-39
-571.35718 -474.76648 310 1.1974628e-39
-566.28906 -461.56366 310 1.2903773e-39
-574.42383 -443.29279 310 1.2907416e-39
-181.59949 -268.39563 280 1.3836547e-39
-262.81787 -282.66376 280 1.5669656e-39
-276.02063 -277.59564 290 1.6588025e-39
-584.62451 -371.20984 310 1.750638e-39
-552.15015 -345.80493 310 1.7506366e-39
-523.74316 -311.26453 300 1.8431895e-39
-550.14868 -301.12836 300 1.6591612e-39
-535.94531 -283.85815 300 1.6598871e-39
-544.08008 -265.58728 300 1.750638e-39
-520.74097 -244.24969 300 1.566967e-39
-565.41748 -242.24829 300 1.4747713e-39
-527.875 -203.6405 300 1.5669642e-39
-608.09277 -195.57031 300 1.3832946e-39
-447.85107 83.755005 290 1.6588011e-39
-442.78308 96.957825 290 1.4747685e-39
-450.91785 115.22873 290 1.4747643e-39
-436.71423 132.49893 280 1.565881e-39
-409.30786 144.70105 280 1.3822128e-39
-395.10437 161.97125 280 1.2900186e-39
-277.34424 192.50885 270 1.2896598e-39
-249.93787 204.71097 270 1.3822128e-39
-254.00525 213.84644 270 1.1059874e-39
-262.14001 232.11732 270 9.2231363e-40
-257.0719 245.32016 270 1.1985404e-39
-261.13928 254.45561 270 9.2159476e-40
-269.27405 272.7265 270 7.372021e-40
-260.13855 276.79388 270 7.3756084e-40
-268.27332 295.06479 270 6.4536801e-40
-218.52869 306.2662 260 7.3792097e-40
-226.66345 324.53711 260 7.3684197e-40
-239.86633 329.60516 260 7.372035e-40
-212.45996 341.80731 260 8.2867747e-40
-198.25647 359.07751 260 8.2867887e-40
-202.32385 368.21295 260 8.2867747e-40
-219.59399 382.4165 260 8.2867887e-40
-192.18762 394.61862 260 8.290376e-40
-218.59326 404.75476 260 7.372035e-40
-177.98413 411.88882 260 9.2051296e-40
-284.60742 430.09515 260 9.2051436e-40
-145.50964 437.29376 260 8.290376e-40
-171.91541 447.42993 260 8.2867606e-40
-185.11816 452.49799 260 9.2051296e-40
-180.05005 465.70081 260 8.290376e-40
-184.11743 474.83627 260 7.3648464e-40
-179.04944 488.03909 260 8.2868027e-40
104.56946 -1574.9587 280 2.2039083e-38
96.434692 -1556.6879 280 2.13008e-38
92.367432 -1547.5525 280 2.1485184e-38
107.57166 -1507.944 280 2.102492e-38
90.301392 -1493.7405 280 2.0471381e-38
320.55994 -1150.4023 260 1.8721474e-38
