# .PCD v0.7 - Point Cloud Data file format
VERSION 0.7
FIELDS x y z rgb
SIZE 4 4 4 4
TYPE F F F F
COUNT 1 1 1 1
WIDTH 1210
HEIGHT 1
VIEWPOINT 0 0 0 1 0 0 0
POINTS 1210
DATA ascii
-357.36731 -294.61981 650 2.3509886e-38
-352.29932 -281.41699 650 2.3509886e-38
-356.3667 -272.28156 650 2.3509886e-38
-360.43408 -263.14609 650 2.3509886e-38
-364.50134 -254.01065 650 2.3509886e-38
-359.43335 -240.80783 650 2.3509886e-38
-372.63611 -235.73975 650 5.7186318e-39
-223.4668 -103.64691 580 4.425386e-39
-214.33142 -99.579529 570 4.2409962e-39
-209.26331 -86.376709 570 4.3317527e-39
-222.46619 -81.308624 570 3.7789348e-39
-217.39807 -68.105804 570 3.8711304e-39
-212.32996 -54.902985 570 3.7789306e-39
-203.19458 -50.835602 560 3.96261e-39
-207.26196 -41.700165 560 5.9928126e-39
-202.19385 -28.49733 560 8.5868585e-39
-183.92297 -20.362579 550 1.0984681e-38
-197.12573 -15.29451 560 8.7622829e-39
-210.32861 -10.226425 560 8.3895445e-39
-214.396 -1.0909729 560 3.3208363e-39
-186.98962 11.111145 550 3.5030626e-39
-191.05701 20.246597 550 3.8700557e-39
-195.12439 29.38205 550 3.5030724e-39
-195.12439 29.38205 550 3.5949023e-39
-199.19177 38.517502 550 4.238471e-39
-203.25916 47.652954 550 3.7796509e-39
-198.19104 60.855774 540 1.1138355e-38
-304.81433 79.062103 580 1.9636571e-38
-232.73145 89.262833 550 1.4193756e-38
-214.46057 97.397583 550 1.0785416e-38
-218.52795 106.53303 540 6.2689245e-39
-209.39246 110.6004 540 5.7139612e-39
-213.45984 119.73586 540 5.7146717e-39
-208.39172 132.93869 540 5.6228432e-39
-208.39172 132.93869 540 3.2257624e-39
-212.45911 142.07413 540 3.2253981e-39
-216.52649 151.20959 540 3.1328493e-39
-242.93213 161.34573 540 2.8594953e-39
-256.13501 166.41382 550 1.9914882e-38
-260.20239 175.54926 550 3.6870937e-39
-260.20239 175.54926 540 2.3509886e-38
-260.20239 175.54926 540 2.3509886e-38
-260.20239 175.54926 540 2.3509886e-38
-260.20239 175.54926 540 2.3509886e-38
-260.20239 175.54926 540 2.3509886e-38
-260.20239 175.54926 540 2.3509886e-38
-260.20239 175.54926 540 2.3509886e-38
-89.856689 -1018.3864 660 2.3509886e-38
-84.788696 -1005.1836 660 2.3509886e-38
-88.855957 -996.0481 660 2.3509886e-38
-96.990723 -977.77722 660 2.3509886e-38
-101.05811 -968.64172 660 2.3509886e-38
-95.990112 -955.43896 660 2.3509886e-38
-100.0575 -946.30347 660 2.3509886e-38
-99.056763 -923.96521 650 2.3509886e-38
-103.12415 -914.82971 650 2.3509886e-38
-98.05603 -901.62695 650 2.3509886e-38
-97.055298 -879.2887 640 2.3509886e-38
-91.987305 -866.08582 640 2.3509886e-38
-58.512146 -818.34265 620 1.843048e-38
-57.511414 -796.00433 620 1.3638088e-38
-52.443359 -782.80151 620 1.2441333e-38
-56.510742 -773.66608 610 1.0691064e-38
-60.578125 -764.53058 610 9.7705549e-39
-64.645508 -755.39514 610 8.7546164e-39
-68.71283 -746.2597 610 9.1244625e-39
-63.644775 -733.05688 610 8.8493077e-39
-67.712158 -723.92145 610 1.0046422e-38
-80.915039 -718.85333 610 1.0231525e-38
-94.117798 -713.78528 620 9.9502715e-39
-98.185181 -704.64984 620 1.0320475e-38
-102.25256 -695.5144 620 1.0504866e-38
-106.31995 -686.37891 620 1.1148092e-38
-110.38733 -677.24347 620 1.059707e-38
-114.45471 -668.10803 620 1.2714316e-38
-118.52209 -658.9726 620 1.4097965e-38
-122.58948 -649.8371 620 1.4281277e-38
-135.79224 -644.76904 620 1.4745846e-38
-144.92773 -648.83643 620 1.6220237e-38
-148.99512 -639.70099 620 2.3507232e-38
-153.0625 -630.56555 630 2.3509886e-38
-166.26526 -625.49744 630 2.3509886e-38
-170.33264 -616.362 630 2.3509886e-38
-174.40002 -607.22656 630 2.3509886e-38
-205.87378 -610.29321 640 2.3509886e-38
-1151.8286 -1140.9242 1040 2.3509886e-38
-1325.4023 -1218.2043 1110 2.3509886e-38
-1264.5208 -1158.259 1080 2.3509886e-38
-1263.52 -1135.9208 1080 2.3509886e-38
-1271.6548 -1117.6499 1080 2.3509886e-38
-1270.6541 -1095.3115 1080 2.3509886e-38
-1269.6533 -1072.9733 1070 2.3488533e-38
-1241.2463 -1038.4329 1060 2.3509886e-38
-1258.5166 -1024.2294 1060 2.0479314e-38
-1257.5159 -1001.8911 1060 2.3509886e-38
-839.35107 -760.9798 880 2.3509886e-38
-847.48584 -742.70892 880 2.3509886e-38
-851.55322 -733.57349 880 2.3509886e-38
-850.55249 -711.23517 870 2.3509886e-38
-845.4845 -698.03235 870 2.3509886e-38
-844.48376 -675.69409 870 2.3509886e-38
-839.41565 -662.49127 860 2.3509886e-38
-838.41504 -640.15302 860 2.3509886e-38
-846.54968 -621.88208 860 2.3509886e-38
-841.48169 -608.67926 860 2.3509886e-38
-840.48096 -586.341 850 2.3509886e-38
-826.27747 -569.0708 840 2.3509886e-38
-817.14197 -565.00342 840 2.3509886e-38
-807.00586 -538.59778 830 2.3509886e-38
-792.80225 -521.32758 830 2.3509886e-38
-791.80164 -498.98926 820 2.3509886e-38
-795.86902 -489.85382 820 2.3509886e-38
-799.9364 -480.71838 820 2.3509886e-38
-798.93567 -458.38013 820 2.3509886e-38
-352.29932 -281.41699 640 2.3509886e-38
-356.3667 -272.28156 640 2.3509886e-38
-360.43408 -263.14609 640 2.3509886e-38
-364.50134 -254.01065 640 2.3509886e-38
-359.43335 -240.80783 640 2.3509886e-38
-363.50073 -231.67236 640 6.450813e-39
-376.70349 -226.60428 640 4.2388368e-39
-223.4668 -103.64691 570 4.5161369e-39
-254.94055 -106.71359 580 4.1491593e-39
-249.87244 -93.510773 580 3.4130348e-39
-235.66895 -76.24057 570 3.6874581e-39
-226.53357 -72.173187 560 3.9622345e-39
-230.60083 -63.03772 560 3.5949065e-39
-194.05908 -46.768219 550 3.9622485e-39
-175.78821 -38.633484 540 8.1193811e-39
-179.85559 -29.498032 540 5.1589924e-39
-174.78748 -16.295197 540 4.4235896e-39
-187.99036 -11.227127 550 3.876887e-39
-196.125 7.0437775 550 3.5041402e-39
-186.98962 11.111145 540 3.5945492e-39
-191.05701 20.246597 540 3.6863819e-39
-195.12439 29.38205 540 3.6870965e-39
-185.98889 33.449432 540 3.8704088e-39
-190.05627 42.584869 540 3.7796481e-39
-194.12366 51.720322 540 3.9644079e-39
-189.05554 64.923157 530 8.288218e-39
-304.81433 79.062103 570 2.1203198e-38
-223.59595 93.330208 540 1.4103364e-38
-214.46057 97.397583 540 1.1979273e-38
-218.52795 106.53303 530 7.0050476e-39
-209.39246 110.6004 530 6.2674783e-39
-213.45984 119.73586 530 5.5317196e-39
-208.39172 132.93869 530 5.9901922e-39
-208.39172 132.93869 530 3.3219139e-39
-212.45911 142.07413 530 4.1520375e-39
-225.66199 147.14221 530 5.6253529e-39
-252.06763 157.27835 540 1.3028599e-38
-256.13501 166.41382 540 1.1236725e-38
-260.20239 175.54926 540 7.0986922e-39
-260.20239 175.54926 530 2.3509886e-38
-260.20239 175.54926 530 2.3509886e-38
-260.20239 175.54926 530 2.3509886e-38
-260.20239 175.54926 530 2.3509886e-38
-260.20239 175.54926 530 2.3509886e-38
-260.20239 175.54926 530 2.3509886e-38
-90.857422 -1040.7247 650 2.3509886e-38
-89.856689 -1018.3864 650 2.3509886e-38
-93.924072 -1009.251 650 2.3509886e-38
-92.92334 -986.91272 650 2.3509886e-38
-96.990723 -977.77722 650 2.3509886e-38
-91.922729 -964.57434 650 2.3509886e-38
-95.990112 -955.43896 640 2.3509886e-38
-100.0575 -946.30347 640 2.3509886e-38
-99.056763 -923.96521 640 2.3509886e-38
-103.12415 -914.82971 640 2.3509886e-38
-98.05603 -901.62695 640 2.3509886e-38
-97.055298 -879.2887 630 2.3509886e-38
-68.648254 -844.74829 620 2.3509886e-38
-58.512146 -818.34265 610 1.3270392e-38
-53.444031 -805.13977 610 1.2072553e-38
-61.578796 -786.8689 610 1.1244584e-38
-56.510742 -773.66608 610 9.5829267e-39
-60.578125 -764.53058 600 9.0329787e-39
-64.645508 -755.39514 600 8.9375741e-39
-68.71283 -746.2597 600 8.9382789e-39
-72.780212 -737.12427 600 8.568772e-39
-76.847595 -727.98883 600 8.6598942e-39
-80.915039 -718.85333 600 7.4681781e-39
-94.117798 -713.78528 610 7.5589388e-39
-98.185181 -704.64984 610 8.1124615e-39
-102.25256 -695.5144 610 9.3999732e-39
-106.31995 -686.37891 610 1.0783254e-38
-110.38733 -677.24347 610 1.1796678e-38
-114.45471 -668.10803 610 1.1612668e-38
-118.52209 -658.9726 610 1.2719342e-38
-122.58948 -649.8371 610 1.336077e-38
-126.65686 -640.70166 610 1.4378505e-38
-139.85962 -635.63361 610 1.4194835e-38
-143.927 -626.49817 610 1.4745495e-38
-157.12988 -621.43005 610 2.3494654e-38
-157.12988 -621.43005 620 2.3509886e-38
-170.33264 -616.362 620 2.3509886e-38
-174.40002 -607.22656 620 2.3509886e-38
-215.00916 -614.3606 630 2.3509886e-38
-1325.4023 -1218.2043 1090 2.3509886e-38
-1264.5208 -1158.259 1060 2.3509886e-38
-1254.3845 -1131.8534 1050 2.3509886e-38
-1262.5193 -1113.5825 1060 2.3509886e-38
-1270.6541 -1095.3115 1050 2.3509886e-38
-1260.5181 -1068.9059 1050 2.3499995e-38
-1232.1108 -1034.3655 1030 2.3509886e-38
-1249.3811 -1020.162 1030 2.3509886e-38
-798.74194 -753.84576 850 2.3509886e-38
-848.48657 -765.04718 860 2.3509886e-38
-856.62134 -746.77631 860 2.3509886e-38
-851.55322 -733.57349 860 2.3509886e-38
-850.55249 -711.23517 860 2.3509886e-38
-836.349 -693.96497 850 2.3509886e-38
-844.48376 -675.69409 850 2.3509886e-38
-839.41565 -662.49127 850 2.3509886e-38
-838.41504 -640.15302 840 2.3509886e-38
-846.54968 -621.88208 840 2.3509886e-38
-841.48169 -608.67926 840 2.3509886e-38
-840.48096 -586.341 840 2.3509886e-38
-826.27747 -569.0708 830 2.3509886e-38
-808.00659 -560.93604 820 2.3509886e-38
-807.00586 -538.59778 820 2.3509886e-38
-792.80225 -521.32758 810 2.3509886e-38
-791.80164 -498.98926 810 2.3509886e-38
-795.86902 -489.85382 810 2.3509886e-38
-799.9364 -480.71838 810 2.3509886e-38
-798.93567 -458.38013 800 2.3509886e-38
-361.43469 -285.48438 630 2.3509886e-38
-356.3667 -272.28156 630 2.3509886e-38
-360.43408 -263.14609 630 2.3509886e-38
-364.50134 -254.01065 630 2.3509886e-38
-359.43335 -240.80783 630 2.3509886e-38
-363.50073 -231.67236 630 5.8065184e-39
-367.56812 -222.53693 630 3.7796537e-39
-136.17969 -53.837708 520 3.5941876e-39
-149.38257 -48.769623 530 3.9626058e-39
-131.11157 -40.634888 520 3.6874581e-39
-116.90808 -23.364685 510 6.9146638e-39
-205.2605 2.9763947 540 3.6878084e-39
-186.98962 11.111145 530 3.4112327e-39
-191.05701 20.246597 530 3.6871063e-39
-185.98889 33.449432 530 3.3190357e-39
-185.98889 33.449432 530 3.7782131e-39
-190.05627 42.584869 530 3.7796565e-39
-194.12366 51.720322 530 4.0544385e-39
-184.98816 55.787704 520 7.2744472e-39
-246.93494 71.99263 540 2.3509886e-38
-228.66406 80.12738 540 2.1667045e-38
-223.59595 93.330208 530 1.4289908e-38
-214.46057 97.397583 530 1.1887803e-38
-218.52795 106.53303 530 6.7270244e-39
-209.39246 110.6004 530 6.4486424e-39
-213.45984 119.73586 520 5.7132284e-39
-208.39172 132.93869 520 7.5603752e-39
-208.39172 132.93869 520 9.6765614e-39
-212.45911 142.07413 520 6.6344784e-39
-238.86475 152.21028 530 8.9404397e-39
-252.06763 157.27835 530 2.3509886e-38
-256.13501 166.41382 530 6.9139394e-39
-260.20239 175.54926 530 8.1139147e-39
-69.390686 -1261.0408 670 2.3509886e-38
-85.789307 -1027.5219 640 2.3509886e-38
-80.721313 -1014.319 640 2.3509886e-38
-84.788696 -1005.1836 640 2.3509886e-38
-92.92334 -986.91272 640 2.3509886e-38
-87.855347 -973.70984 630 2.3509886e-38
-91.922729 -964.57434 630 2.3509886e-38
-95.990112 -955.43896 630 2.3509886e-38
-100.0575 -946.30347 630 2.3509886e-38
-99.056763 -923.96521 630 2.3509886e-38
-93.988647 -910.76245 630 2.3509886e-38
-78.784424 -871.15393 620 2.3509886e-38
-50.37738 -836.61353 600 2.3509886e-38
-45.309326 -823.41064 600 1.4934226e-38
-58.512146 -818.34265 600 1.0781826e-38
-57.511414 -796.00433 600 1.0044621e-38
-61.578796 -786.8689 600 9.7655271e-39
-65.646179 -777.73346 600 9.3081363e-39
-60.578125 -764.53058 600 9.0329955e-39
-64.645508 -755.39514 600 9.308481e-39
-77.848328 -750.32709 600 8.756766e-39
-81.915649 -741.19165 600 8.2025104e-39
-85.983032 -732.05615 600 8.1117511e-39
-90.050415 -722.92072 600 8.8475196e-39
-103.2533 -717.85266 600 8.8475253e-39
-107.32068 -708.71722 600 9.7683885e-39
-102.25256 -695.5144 600 9.9524239e-39
-106.31995 -686.37891 600 9.7701864e-39
-110.38733 -677.24347 600 1.1058401e-38
-114.45471 -668.10803 600 1.2164012e-38
-118.52209 -658.9726 600 1.474263e-38
-122.58948 -649.8371 600 1.6863098e-38
-126.65686 -640.70166 600 1.8061634e-38
-130.72424 -631.56622 600 1.9254777e-38
-143.927 -626.49817 600 1.8615168e-38
-147.99438 -617.36267 600 1.806306e-38
-152.06177 -608.22723 600 2.348171e-38
-161.19727 -612.29462 600 2.3509886e-38
-174.40002 -607.22656 610 2.3509886e-38
-215.00916 -614.3606 620 2.3509886e-38
-1325.4023 -1218.2043 1070 2.3509886e-38
-1264.5208 -1158.259 1040 2.3509886e-38
-1254.3845 -1131.8534 1030 2.3509886e-38
-1244.2485 -1105.4478 1030 2.3509886e-38
-1261.5186 -1091.2441 1030 2.3509886e-38
-1251.3826 -1064.8385 1030 2.3509674e-38
-753.0647 -733.50891 810 2.3509745e-38
-821.0802 -752.84509 840 2.3509886e-38
-829.21497 -734.57416 840 2.3509886e-38
-842.41772 -729.5061 840 2.3509886e-38
-841.41711 -707.16785 840 2.3509886e-38
-836.349 -693.96497 840 2.3509886e-38
-844.48376 -675.69409 830 2.3509886e-38
-839.41565 -662.49127 830 2.3509886e-38
-838.41504 -640.15302 830 2.3509886e-38
-846.54968 -621.88208 830 2.3509886e-38
-841.48169 -608.67926 820 2.3509886e-38
-840.48096 -586.341 820 2.3509886e-38
-826.27747 -569.0708 810 2.3509886e-38
-798.87109 -556.86865 800 2.3509886e-38
-797.87036 -534.5304 800 2.3509886e-38
-783.66687 -517.26019 790 2.3509886e-38
-791.80164 -498.98926 790 2.3509886e-38
-795.86902 -489.85382 790 2.3509886e-38
-790.8009 -476.651 790 2.3509886e-38
-789.80017 -454.31274 790 2.3509886e-38
-361.43469 -285.48438 620 2.3509886e-38
-365.50208 -276.34891 620 2.3509886e-38
-369.56946 -267.21347 620 2.3509886e-38
-364.50134 -254.01065 620 2.3509886e-38
-359.43335 -240.80783 620 2.3509886e-38
-372.63611 -235.73975 620 6.174938e-39
-367.56812 -222.53693 610 3.870406e-39
-226.46899 -170.66174 560 3.4101453e-39
-221.40088 -157.45892 560 4.6065389e-39
-225.46826 -148.32346 560 3.8740017e-39
-229.53564 -139.18802 560 4.4235784e-39
-136.17969 -53.837708 510 3.6867392e-39
-140.24707 -44.702271 510 3.5956212e-39
-131.11157 -40.634888 510 3.5963442e-39
-139.24634 -22.363983 510 3.6874595e-39
-196.125 7.0437775 530 3.5034325e-39
-186.98962 11.111145 520 3.4112355e-39
-181.92151 24.31398 520 3.5048647e-39
-185.98889 33.449432 520 3.7778586e-39
-185.98889 33.449432 520 3.5949051e-39
-190.05627 42.584869 520 3.7796579e-39
-194.12366 51.720322 520 3.7789362e-39
-246.93494 71.99263 530 2.3509886e-38
-237.79956 76.059998 530 2.3509886e-38
-232.73145 89.262833 520 1.5206494e-38
-223.59595 93.330208 520 1.1428618e-38
-218.52795 106.53303 520 7.3713176e-39
-222.59534 115.66848 520 6.2674825e-39
-213.45984 119.73586 520 5.8990588e-39
-217.52722 128.87131 510 7.3748965e-39
-208.39172 132.93869 510 8.1121252e-39
-221.5946 138.00676 520 4.4250259e-39
-248.00024 148.14291 520 2.3509761e-38
-261.203 153.21098 530 8.8435932e-39
-256.13501 166.41382 520 8.1114078e-39
-260.20239 175.54926 520 8.5748998e-39
-21.712036 -1196.0273 630 2.3509886e-38
-130.27222 -1320.9861 680 2.3509886e-38
-85.789307 -1027.5219 630 2.3509886e-38
-80.721313 -1014.319 630 2.3509886e-38
-84.788696 -1005.1836 620 2.3509886e-38
-83.787964 -982.84534 620 2.3509886e-38
-87.855347 -973.70984 620 2.3509886e-38
-91.922729 -964.57434 620 2.3509886e-38
-95.990112 -955.43896 620 2.3509886e-38
-94.98938 -933.10071 620 2.3509886e-38
-99.056763 -923.96521 620 2.3509886e-38
-88.920532 -897.55957 610 2.3509886e-38
-37.174561 -841.68164 590 2.3509886e-38
-45.309326 -823.41064 590 2.0554976e-38
-49.376709 -814.27527 590 1.0782913e-38
-49.376709 -814.27527 590 9.8609485e-39
-57.511414 -796.00433 590 9.399976e-39
-61.578796 -786.8689 590 9.0315564e-39
-65.646179 -777.73346 590 7.468904e-39
-69.713562 -768.59796 590 8.7556799e-39
-73.780945 -759.46252 590 7.2816443e-39
-77.848328 -750.32709 590 7.0947279e-39
-81.915649 -741.19165 590 8.9371887e-39
-85.983032 -732.05615 590 9.3059755e-39
-90.050415 -722.92072 590 8.7538821e-39
-99.185913 -726.9881 590 8.9368342e-39
-107.32068 -708.71722 590 9.2155735e-39
-102.25256 -695.5144 590 1.0227206e-38
-106.31995 -686.37891 590 1.0136085e-38
-110.38733 -677.24347 590 9.7691144e-39
-114.45471 -668.10803 590 1.2068963e-38
-118.52209 -658.9726 590 1.2346989e-38
-122.58948 -649.8371 590 1.3911774e-38
-126.65686 -640.70166 590 1.3635926e-38
-130.72424 -631.56622 590 1.2253712e-38
-143.927 -626.49817 590 1.0229717e-38
-147.99438 -617.36267 590 1.2630029e-38
-152.06177 -608.22723 590 1.5299026e-38
-165.26453 -603.15918 590 2.3509858e-38
-183.53552 -611.29395 600 2.3509886e-38
-215.00916 -614.3606 610 2.3509886e-38
-269.8219 -638.76483 630 2.3509886e-38
-1334.5376 -1222.2717 1050 2.3509886e-38
-1264.5208 -1158.259 1020 2.3509886e-38
-1245.2493 -1127.786 1010 2.3509886e-38
-1235.113 -1101.3804 1000 2.3509886e-38
-485.06995 -647.02875 700 2.3509886e-38
-489.13733 -637.89331 700 2.3509741e-38
-511.47559 -636.89258 710 2.3509886e-38
-707.38745 -713.172 780 1.4560836e-38
-784.53845 -736.57556 810 2.3509886e-38
-820.07947 -730.50677 820 2.3509886e-38
-833.28235 -725.43872 820 2.3509886e-38
-832.28162 -703.10046 820 2.3509886e-38
-836.349 -693.96497 820 2.3509886e-38
-835.34827 -671.62671 820 2.3509886e-38
-830.28027 -658.42389 810 2.3509886e-38
-838.41504 -640.15302 810 2.3509886e-38
-833.34692 -626.95013 810 2.3509886e-38
-832.34619 -604.61188 810 2.3509886e-38
-840.48096 -586.341 810 2.3509886e-38
-826.27747 -569.0708 800 2.3509886e-38
-789.7356 -552.80127 780 2.3509886e-38
-779.59949 -526.39563 780 2.3509886e-38
-783.66687 -517.26019 780 2.3509886e-38
-782.66614 -494.92188 780 2.350627e-38
-786.73352 -485.78644 780 1.8128326e-38
-790.8009 -476.651 770 8.6584537e-39
-780.66479 -450.24536 770 6.6366392e-39
-357.36731 -294.61981 610 1.8607178e-38
-361.43469 -285.48438 610 2.3509886e-38
-365.50208 -276.34891 610 2.3509886e-38
-369.56946 -267.21347 610 2.3509886e-38
-364.50134 -254.01065 610 2.3509886e-38
-359.43335 -240.80783 600 2.3509886e-38
-372.63611 -235.73975 610 5.719722e-39
-358.43262 -218.46954 600 3.8700486e-39
-226.46899 -170.66174 550 3.2243219e-39
-221.40088 -157.45892 550 3.9626002e-39
-225.46826 -148.32346 550 3.5030752e-39
-225.46826 -148.32346 550 4.0551588e-39
-136.17969 -53.837708 510 3.5949051e-39
-149.38257 -48.769623 510 3.6860273e-39
-144.31445 -35.566803 510 3.3194014e-39
-135.17896 -31.499435 500 3.7782131e-39
-139.24634 -22.363983 500 3.5037913e-39
-192.05774 -2.0916748 520 3.7785733e-39
-177.85413 15.178528 510 3.5027109e-39
-181.92151 24.31398 510 3.5037857e-39
-181.92151 24.31398 510 3.7774985e-39
-185.98889 33.449432 510 3.6867406e-39
-190.05627 42.584869 510 3.5037885e-39
-194.12366 51.720322 510 3.8714948e-39
-246.93494 71.99263 520 2.3509886e-38
-228.66406 80.12738 520 2.3509884e-38
-223.59595 93.330208 520 1.5577431e-38
-223.59595 93.330208 510 1.2072195e-38
-218.52795 106.53303 510 7.6486219e-39
-222.59534 115.66848 510 5.8979896e-39
-213.45984 119.73586 510 5.4387967e-39
-217.52722 128.87131 510 6.5455184e-39
-221.5946 138.00676 510 8.3908645e-39
-234.79736 143.07483 510 6.8271331e-39
-248.00024 148.14291 510 2.3509886e-38
-261.203 153.21098 520 9.6765671e-39
-256.13501 166.41382 510 8.7582107e-39
-260.20239 175.54926 510 9.8577157e-39
-50.11908 -1230.5677 630 2.3509886e-38
-73.458069 -1251.9053 650 2.3509886e-38
-134.3396 -1311.8507 670 2.3509886e-38
-85.789307 -1027.5219 620 2.3509886e-38
-80.721313 -1014.319 620 2.3509886e-38
-88.855957 -996.0481 610 2.3509886e-38
-83.787964 -982.84534 610 2.3509886e-38
-87.855347 -973.70984 610 2.3509886e-38
-91.922729 -964.57434 610 2.3509886e-38
-86.854614 -951.37158 610 2.3509886e-38
-94.98938 -933.10071 610 2.3509886e-38
-89.921265 -919.89783 600 2.3509886e-38
-65.581604 -876.22205 590 2.3509886e-38
-41.241943 -832.54614 580 2.3509886e-38
-45.309326 -823.41064 580 1.1524777e-38
-49.376709 -814.27527 580 9.2181e-39
-53.444031 -805.13977 580 8.9400852e-39
-57.511414 -796.00433 580 9.2166539e-39
-61.578796 -786.8689 580 9.2137756e-39
-65.646179 -777.73346 580 9.4918016e-39
-69.713562 -768.59796 580 8.1121126e-39
-73.780945 -759.46252 580 8.2932599e-39
-77.848328 -750.32709 580 5.9934222e-39
-81.915649 -741.19165 580 5.8065128e-39
-95.11853 -736.12354 580 5.8075988e-39
-95.11853 -736.12354 580 6.5426387e-39
-99.185913 -726.9881 580 7.0025435e-39
-103.2533 -717.85266 580 7.0032525e-39
-107.32068 -708.71722 580 7.5567892e-39
-115.45544 -690.44629 580 7.7451294e-39
-119.52271 -681.31085 580 9.0319095e-39
-123.59009 -672.17542 580 9.2170224e-39
-118.52209 -658.9726 580 9.863817e-39
-122.58948 -649.8371 580 9.6801446e-39
-126.65686 -640.70166 580 1.133967e-38
-139.85962 -635.63361 580 1.2441683e-38
-143.927 -626.49817 580 1.7138605e-38
-157.12988 -621.43005 580 2.3501865e-38
-157.12988 -621.43005 590 2.3509842e-38
-170.33264 -616.362 590 2.3509883e-38
-183.53552 -611.29395 590 2.3509881e-38
-205.87378 -610.29321 600 2.3509886e-38
-251.55103 -630.63007 620 2.3509886e-38
-1220.845 -1182.5988 990 2.3509886e-38
-453.59619 -643.9621 680 2.3509886e-38
-457.66357 -634.8266 680 2.3509886e-38
-438.39197 -604.35358 670 2.3509761e-38
-460.73022 -603.35291 670 2.3509886e-38
-533.81384 -635.89191 700 2.3509886e-38
-724.65759 -698.96851 770 2.3509886e-38
-756.13135 -702.03516 780 2.3509886e-38
-796.74048 -709.16919 800 2.3509886e-38
-804.87524 -690.89832 790 2.3509886e-38
-808.94263 -681.76288 790 2.3509886e-38
-807.94202 -659.42456 790 2.3509886e-38
-812.00928 -650.28912 790 2.3509886e-38
-811.00867 -627.95087 790 2.3509886e-38
-815.07605 -618.81543 790 2.3509886e-38
-804.93982 -592.40979 780 2.3509886e-38
-809.0072 -583.27429 780 2.3509886e-38
-808.00659 -560.93604 780 2.3005701e-38
-780.60022 -548.73389 770 9.7633551e-39
-779.59949 -526.39563 760 7.1890717e-39
-774.53137 -513.19281 760 6.3579013e-39
-782.66614 -494.92188 760 5.0653548e-39
-786.73352 -485.78644 760 3.5005529e-39
-781.66541 -472.58362 760 3.3208391e-39
-771.5293 -446.17798 750 5.6246411e-39
-357.36731 -294.61981 600 1.4579692e-38
-361.43469 -285.48438 600 2.3509886e-38
-365.50208 -276.34891 600 2.3509886e-38
-369.56946 -267.21347 600 2.3509886e-38
-373.63684 -258.078 600 2.3509886e-38
-350.29785 -236.74045 590 2.3509886e-38
-372.63611 -235.73975 600 5.441326e-39
-358.43262 -218.46954 590 3.2268442e-39
-226.46899 -170.66174 540 2.8591309e-39
-221.40088 -157.45892 540 3.7810858e-39
-225.46826 -148.32346 540 3.4112327e-39
-216.33276 -144.25607 540 3.595624e-39
-224.46753 -125.9852 540 3.7792921e-39
-210.26404 -108.715 530 1.0673067e-38
-223.4668 -103.64691 530 4.5165027e-39
-236.66968 -98.578827 540 4.1498809e-39
-100.63855 -59.906494 490 4.0562406e-39
-136.17969 -53.837708 500 3.5956226e-39
-149.38257 -48.769623 500 3.5034269e-39
-144.31445 -35.566803 500 3.6867392e-39
-144.31445 -35.566803 500 3.5945492e-39
-139.24634 -22.363983 500 3.5027067e-39
-152.44922 -17.295898 500 3.8696955e-39
-125.04285 -5.0937805 490 3.7785747e-39
-160.58398 0.97499084 500 3.5938275e-39
-182.92224 1.9756927 510 3.8718493e-39
-177.85413 15.178528 500 3.6878126e-39
-181.92151 24.31398 500 3.410511e-39
-181.92151 24.31398 500 3.5948995e-39
-185.98889 33.449432 500 3.6860259e-39
-190.05627 42.584869 500 3.7785817e-39
-194.12366 51.720322 500 3.8722066e-39
-184.98816 55.787704 500 5.252267e-39
-246.93494 71.99263 520 2.3509886e-38
-219.52856 84.194748 510 2.3509886e-38
-219.52856 84.194748 510 1.5389811e-38
-223.59595 93.330208 500 1.1612293e-38
-218.52795 106.53303 500 8.0170457e-39
-222.59534 115.66848 500 5.9908957e-39
-213.45984 119.73586 500 5.2547683e-39
-208.39172 132.93869 500 6.8199361e-39
-221.5946 138.00676 500 8.1074589e-39
-225.66199 147.14221 500 1.8458746e-38
-207.39111 155.27696 490 1.2898738e-38
-252.06763 157.27835 500 9.3099467e-39
-256.13501 166.41382 500 9.0365814e-39
-246.99951 170.48119 500 1.0319771e-38
-59.254517 -1234.6351 630 2.3509886e-38
-49.118408 -1208.2295 620 2.3509886e-38
-33.914185 -1168.621 610 2.3509886e-38
-138.40686 -1302.7152 660 2.3509886e-38
-76.65387 -1023.4545 600 2.3509886e-38
-80.721313 -1014.319 600 2.3509886e-38
-79.720581 -991.98071 600 2.3509886e-38
-83.787964 -982.84534 600 2.3509886e-38
-87.855347 -973.70984 600 2.3509886e-38
-82.787231 -960.50708 600 2.3509886e-38
-90.921997 -942.23608 600 2.3509886e-38
-85.853882 -929.03333 600 2.3509886e-38
-89.921265 -919.89783 590 2.3509886e-38
-42.242615 -854.8844 570 2.3509886e-38
-41.241943 -832.54614 570 1.3640976e-38
-45.309326 -823.41064 570 9.3996158e-39
-49.376709 -814.27527 570 8.6624193e-39
-53.444031 -805.13977 570 8.4819671e-39
-48.375977 -791.93695 570 9.2159378e-39
-61.578796 -786.8689 570 8.9411488e-39
-70.714233 -790.93628 570 8.6652864e-39
-69.713562 -768.59796 570 7.7436944e-39
-78.848999 -772.66534 570 7.0965271e-39
-82.916382 -763.52991 570 8.4805392e-39
-86.983765 -754.39447 570 5.3455459e-39
-100.18652 -749.32635 570 5.9901782e-39
-104.25391 -740.19092 570 6.5429946e-39
-108.32129 -731.05548 570 6.7277502e-39
-103.2533 -717.85266 570 7.6493394e-39
-107.32068 -708.71722 570 8.7563988e-39
-111.38806 -699.58173 570 9.862375e-39
-119.52271 -681.31085 570 1.1059475e-38
-123.59009 -672.17542 570 1.0047501e-38
-127.65747 -663.03998 570 1.1151671e-38
-131.72485 -653.90448 570 1.2437023e-38
-135.79224 -644.76904 570 1.6765875e-38
-139.85962 -635.63361 570 2.3509783e-38
-153.0625 -630.56555 570 2.3509848e-38
-153.0625 -630.56555 570 2.3509872e-38
-166.26526 -625.49744 580 2.350988e-38
-179.46814 -620.42938 580 2.3509886e-38
-183.53552 -611.29395 580 2.3509886e-38
-196.73828 -606.22583 580 2.3509862e-38
-219.07654 -605.22516 590 2.3509886e-38
-214.00854 -592.02234 590 2.3509886e-38
-250.55029 -608.29181 600 2.3509886e-38
-488.07202 -714.04358 690 2.3509886e-38
-422.12244 -640.89539 660 2.3509886e-38
-426.18982 -631.75995 660 2.3509886e-38
-416.05371 -605.35431 650 2.3509886e-38
-365.30835 -571.81458 630 2.3509684e-38
-364.30762 -549.47632 630 2.3509886e-38
-377.5105 -544.40826 630 2.3509886e-38
-372.44238 -531.20538 630 2.3509886e-38
-385.64526 -526.13733 630 2.3509879e-38
-389.71265 -517.00189 630 2.3509886e-38
-393.78003 -507.86646 630 2.3509886e-38
-397.84741 -498.73096 630 2.3509886e-38
-442.52393 -496.72955 640 2.3509886e-38
-669.90955 -576.07568 720 2.349691e-38
-719.65417 -587.2771 740 1.224616e-38
-760.26331 -594.41113 750 7.925576e-39
-768.39807 -576.14026 750 6.5451638e-39
-772.46545 -567.00482 750 5.6206838e-39
-771.46472 -544.6665 750 3.6849441e-39
-771.46472 -544.6665 750 3.5066625e-39
-770.46399 -522.32825 750 4.9814353e-39
-765.396 -509.12543 740 5.7190017e-39
-769.46338 -499.98999 740 6.728123e-39
-777.59802 -481.71906 740 6.1781876e-39
-781.66541 -472.58362 740 6.7284943e-39
-762.3938 -442.1106 730 5.8079547e-39
-357.36731 -294.61981 590 2.3509869e-38
-361.43469 -285.48438 590 2.3509886e-38
-365.50208 -276.34891 590 2.3509886e-38
-369.56946 -267.21347 590 2.3509886e-38
-364.50134 -254.01065 590 2.3509886e-38
-350.29785 -236.74045 580 2.3509886e-38
-363.50073 -231.67236 590 6.1731513e-39
-358.43262 -218.46954 580 3.4108656e-39
-226.46899 -170.66174 530 3.1335654e-39
-221.40088 -157.45892 530 4.237392e-39
-225.46826 -148.32346 530 3.6867364e-39
-216.33276 -144.25607 530 3.4094362e-39
-229.53564 -139.18802 530 3.7775013e-39
-224.46753 -125.9852 530 3.7782146e-39
-197.06116 -113.78305 520 1.0213517e-38
-223.4668 -103.64691 520 4.4239553e-39
-236.66968 -98.578827 530 4.3321156e-39
-231.60156 -85.376007 530 3.8722179e-39
-104.70593 -50.771027 480 3.8722108e-39
-145.31519 -57.90509 490 3.3179651e-39
-149.38257 -48.769623 490 3.1360821e-39
-153.44995 -39.634186 490 3.4108698e-39
-148.38184 -26.431351 490 3.503071e-39
-148.38184 -26.431351 490 3.5945422e-39
-152.44922 -17.295898 490 3.7774985e-39
-125.04285 -5.0937805 480 3.7785719e-39
-160.58398 0.97499084 490 3.4101579e-39
-182.92224 1.9756927 500 3.6867364e-39
-177.85413 15.178528 490 3.4105138e-39
-181.92151 24.31398 500 3.5945337e-39
-181.92151 24.31398 490 3.7778656e-39
-185.98889 33.449432 490 3.5952554e-39
-190.05627 42.584869 490 3.7767796e-39
-194.12366 51.720322 490 3.6867378e-39
-189.05554 64.923157 490 4.9781801e-39
-256.07043 67.925247 510 2.3509809e-38
-237.79956 76.059998 510 2.3509886e-38
-219.52856 84.194748 500 2.3509886e-38
-219.52856 84.194748 500 1.5945144e-38
-223.59595 93.330208 500 1.1979992e-38
-218.52795 106.53303 500 8.6634885e-39
-222.59534 115.66848 490 5.6231935e-39
-213.45984 119.73586 490 5.4384421e-39
-204.32434 123.80323 490 5.7157535e-39
-208.39172 132.93869 490 1.0046434e-38
-203.32373 146.14151 480 2.3509886e-38
-194.18823 150.20889 480 8.5770508e-39
-198.25562 159.34433 480 9.0362283e-39
-198.25562 159.34433 480 8.5727432e-39
-193.1875 172.54716 480 9.4921786e-39
-59.254517 -1234.6351 610 2.3509886e-38
-63.321899 -1225.4996 620 2.3509886e-38
-53.185791 -1199.094 610 2.3509886e-38
-85.660156 -1224.499 620 2.3509886e-38
-199.28845 -1362.6605 670 2.3509886e-38
-86.790039 -1049.8601 600 2.3509886e-38
-76.65387 -1023.4545 590 2.3509886e-38
-80.721313 -1014.319 590 2.3509886e-38
-79.720581 -991.98071 590 2.3509886e-38
-74.652466 -978.77795 590 2.3509886e-38
-78.719849 -969.64246 590 2.3509886e-38
-82.787231 -960.50708 590 2.3509886e-38
-90.921997 -942.23608 590 2.3509886e-38
-85.853882 -929.03333 580 2.3509886e-38
-80.785889 -915.83044 580 2.3509886e-38
-33.107178 -850.81702 560 1.6771673e-38
-41.241943 -832.54614 560 1.0598163e-38
-45.309326 -823.41064 560 8.572009e-39
-49.376709 -814.27527 560 7.9288017e-39
-53.444031 -805.13977 560 8.5695034e-39
-48.375977 -791.93695 550 8.7546094e-39
-61.578796 -786.8689 560 8.8482357e-39
-65.646179 -777.73346 560 9.0308375e-39
-69.713562 -768.59796 560 9.4910912e-39
-78.848999 -772.66534 560 8.0209904e-39
-82.916382 -763.52991 560 7.1887158e-39
-96.119263 -758.46185 560 7.9270109e-39
-100.18652 -749.32635 560 4.8827572e-39
-113.3894 -744.2583 570 5.2529719e-39
-117.45679 -735.12286 570 6.8199389e-39
-112.38867 -721.92004 560 6.266412e-39
-125.59155 -716.85193 570 6.2667679e-39
-120.52344 -703.64911 560 7.3713176e-39
-133.72632 -698.58105 570 9.0279564e-39
-146.92908 -693.513 570 9.7687361e-39
-174.33545 -705.71509 580 9.6812011e-39
-178.40283 -696.57965 580 1.667223e-38
-182.47021 -687.44421 580 2.3496842e-38
-177.4021 -674.24139 580 2.3509797e-38
-185.53687 -655.97046 580 2.350983e-38
-189.60425 -646.83502 580 2.3509821e-38
-184.53613 -633.6322 570 2.3509855e-38
-188.60352 -624.49677 570 2.3509862e-38
-192.6709 -615.36127 570 2.3509881e-38
-205.87378 -610.29321 580 2.3509879e-38
-209.94116 -601.15778 580 2.350988e-38
-223.14392 -596.08972 580 2.3509863e-38
-245.4823 -595.08899 590 2.3509886e-38
-272.88855 -607.29114 600 2.3509886e-38
-345.97217 -639.83014 620 2.3509886e-38
-413.98767 -659.16632 640 2.3509886e-38
-390.6488 -637.82874 630 2.3509886e-38
-353.1062 -599.22095 620 2.3509886e-38
-338.90271 -581.95074 610 2.3509886e-38
-333.83459 -568.74792 610 2.3509886e-38
-323.69849 -542.34229 600 2.3503186e-38
-346.03674 -541.34155 610 2.3509886e-38
-359.23962 -536.2735 610 2.3509886e-38
-363.30701 -527.13806 610 2.3509886e-38
-376.50977 -522.06995 610 2.3509667e-38
-380.57715 -512.93451 610 2.3509886e-38
-384.64453 -503.79907 610 2.3470274e-38
-383.6438 -481.46075 610 1.0222545e-38
-396.84668 -476.3927 620 7.8330118e-39
-410.04956 -471.32465 620 6.632319e-39
-423.25232 -466.25653 620 4.5132643e-39
-436.4552 -461.18848 620 3.4133879e-39
-467.92883 -464.25513 640 4.5211886e-39
-540.01184 -474.45587 660 5.9941565e-39
-690.24634 -530.39844 710 6.2710951e-39
-771.46472 -544.6665 730 6.2700189e-39
-762.32922 -540.59918 730 6.2710923e-39
-761.32861 -518.26086 730 6.7295523e-39
-765.396 -509.12543 730 6.17711e-39
-769.46338 -499.98999 730 6.1771086e-39
-768.46265 -477.65173 730 6.3607726e-39
-772.53003 -468.51624 720 6.4522465e-39
-749.19104 -447.17865 720 5.1597197e-39
-348.23193 -290.55246 580 2.3509886e-38
-352.29932 -281.41699 580 2.3509886e-38
-356.3667 -272.28156 580 2.3509886e-38
-360.43408 -263.14609 580 2.3509886e-38
-364.50134 -254.01065 580 2.3509886e-38
-350.29785 -236.74045 570 2.3509886e-38
-363.50073 -231.67236 570 5.6221257e-39
-358.43262 -218.46954 570 3.5938303e-39
-226.46899 -170.66174 520 2.6743865e-39
-221.40088 -157.45892 520 3.5949009e-39
-212.26538 -153.39154 520 3.9640435e-39
-216.33276 -144.25607 520 3.4101481e-39
-220.40015 -135.12064 520 3.5920282e-39
-215.33203 -121.91782 520 3.5023479e-39
-210.26404 -108.715 510 8.8363513e-39
-223.4668 -103.64691 510 4.1466425e-39
-227.53418 -94.511444 520 3.8732927e-39
-91.503174 -55.839111 470 4.057321e-39
-100.63855 -59.906494 470 4.0562406e-39
-136.17969 -53.837708 480 3.3186783e-39
-149.38257 -48.769623 490 3.5023465e-39
-144.31445 -35.566803 480 3.6860203e-39
-157.51733 -30.498734 490 3.1335724e-39
-148.38184 -26.431351 480 3.3179595e-39
-161.58459 -21.363281 480 3.4097964e-39
-147.3811 -4.0930786 480 3.0420943e-39
-169.71936 -3.0923767 490 3.0417327e-39
-182.92224 1.9756927 490 2.9509664e-39
-177.85413 15.178528 490 3.1342815e-39
-181.92151 24.31398 490 3.3183182e-39
-181.92151 24.31398 490 3.5016207e-39
-185.98889 33.449432 490 3.5934632e-39
-190.05627 42.584869 490 3.0420928e-39
-194.12366 51.720322 490 3.0424516e-39
-198.19104 60.855774 480 4.058386e-39
-252.00305 58.78981 500 2.3505082e-38
-237.79956 76.059998 500 2.3509886e-38
-219.52856 84.194748 490 2.3509886e-38
-219.52856 84.194748 490 1.6961126e-38
-223.59595 93.330208 490 1.1244229e-38
-218.52795 106.53303 490 9.4914471e-39
-218.52795 106.53303 480 6.2667693e-39
-191.12158 118.73515 480 5.5306378e-39
-195.18896 127.87061 480 6.358602e-39
-199.25635 137.00606 480 1.7806585e-38
-190.12085 141.07343 470 9.6729643e-39
-185.05273 154.27626 470 8.4841349e-39
-185.05273 154.27626 470 8.7571401e-39
-179.98474 167.47908 470 8.5749026e-39
-179.98474 167.47908 470 8.8500378e-39
-64.322632 -1247.8379 610 2.3509886e-38
-59.254517 -1234.6351 600 2.3509886e-38
-72.457336 -1229.567 610 2.3509886e-38
-85.660156 -1224.499 610 2.3509886e-38
-89.727539 -1215.3635 610 2.3509886e-38
-203.35571 -1353.5251 660 2.3509886e-38
-77.654602 -1045.7927 590 2.3509886e-38
-71.585815 -1010.2517 580 2.3509886e-38
-75.653198 -1001.1162 580 2.3509886e-38
-70.585083 -987.91333 580 2.3509886e-38
-74.652466 -978.77795 580 2.3509886e-38
-82.787231 -960.50708 580 2.3509886e-38
-86.854614 -951.37158 570 2.3509886e-38
-81.786499 -938.1687 570 2.3509886e-38
-85.853882 -929.03333 570 2.3509886e-38
-47.31073 -868.08728 550 2.3508809e-38
-33.107178 -850.81702 550 1.1983598e-38
-41.241943 -832.54614 550 8.9425963e-39
-45.309326 -823.41064 550 8.1099616e-39
-49.376709 -814.27527 550 8.2946962e-39
-53.444031 -805.13977 550 9.0308305e-39
-57.511414 -796.00433 550 8.7542464e-39
-61.578796 -786.8689 550 9.0322626e-39
-65.646179 -777.73346 550 8.9397069e-39
-69.713562 -768.59796 550 9.4006934e-39
-73.780945 -759.46252 550 8.2954319e-39
-82.916382 -763.52991 550 7.65151e-39
-86.983765 -754.39447 550 4.7019631e-39
-100.18652 -749.32635 550 7.2798394e-39
-113.3894 -744.2583 560 3.9615212e-39
-126.59229 -739.19025 560 5.0693037e-39
-126.59229 -739.19025 560 5.5302804e-39
-139.79504 -734.12213 560 5.8079491e-39
-143.86243 -724.98669 560 7.1865676e-39
-157.06531 -719.91864 570 7.1912255e-39
-179.40356 -718.91791 570 1.0601016e-38
-215.94531 -735.18744 590 1.492448e-38
-220.0127 -726.052 580 2.3393492e-38
-224.08008 -716.9165 580 2.3496496e-38
-219.01196 -703.71368 580 2.3504031e-38
-208.87585 -677.30804 580 2.3507617e-38
-212.94324 -668.17261 580 2.3509804e-38
-207.87512 -654.96979 570 2.3509816e-38
-206.87451 -632.63147 570 2.3509807e-38
-210.94189 -623.49603 570 2.3509799e-38
-215.00916 -614.3606 570 2.3509839e-38
-219.07654 -605.22516 570 2.3509856e-38
-223.14392 -596.08972 570 2.3509848e-38
-236.3468 -591.02161 570 2.3509856e-38
-258.68506 -590.02094 580 2.3509853e-38
-276.95593 -598.15564 580 2.3509856e-38
-281.02332 -589.0202 580 2.3509886e-38
-280.02271 -566.68195 580 2.3509886e-38
-293.22546 -561.61389 580 2.3509886e-38
-297.29285 -552.47839 590 2.3509886e-38
-310.49573 -547.41034 590 2.3509886e-38
-323.69849 -542.34229 590 2.3478093e-38
-336.90137 -537.27417 590 2.3509126e-38
-350.10413 -532.20612 600 1.6571442e-38
-363.30701 -527.13806 600 8.9350447e-39
-367.37439 -518.00256 600 7.8340978e-39
-371.44177 -508.86713 600 5.8962001e-39
-384.64453 -503.79907 600 3.7767852e-39
-392.7793 -485.52814 600 4.0619831e-39
-405.98218 -480.46008 610 5.4463665e-39
-419.18494 -475.39203 610 6.9164673e-39
-432.38782 -470.32391 610 6.7306355e-39
-436.4552 -461.18848 610 6.1817791e-39
-458.79346 -460.18781 620 6.7320676e-39
-521.74084 -466.32111 640 6.08778e-39
-671.97546 -522.26367 690 6.8199599e-39
-762.32922 -540.59918 720 6.4551346e-39
-762.32922 -540.59918 720 6.5451751e-39
-761.32861 -518.26086 710 6.0856388e-39
-765.396 -509.12543 710 5.5360496e-39
-760.32788 -495.92261 710 5.536058e-39
-768.46265 -477.65173 710 6.0852731e-39
-754.25916 -460.38153 710 6.0841787e-39
-749.19104 -447.17865 700 4.5175634e-39
-348.23193 -290.55246 570 2.3509886e-38
-352.29932 -281.41699 560 2.3509886e-38
-356.3667 -272.28156 560 2.3509886e-38
-351.29858 -259.0787 560 2.3509886e-38
-355.36597 -249.94327 560 2.3509886e-38
-350.29785 -236.74045 560 2.3509886e-38
-363.50073 -231.67236 560 5.0703981e-39
-358.43262 -218.46954 560 3.4087188e-39
-226.46899 -170.66174 510 2.5818336e-39
-212.26538 -153.39154 510 4.0544329e-39
-212.26538 -153.39154 510 3.9618785e-39
-216.33276 -144.25607 510 3.2279148e-39
-220.40015 -135.12064 510 3.1342829e-39
-215.33203 -121.91782 510 3.4101495e-39
-219.39941 -112.78235 510 8.3764507e-39
-223.4668 -103.64691 510 4.240636e-39
-46.826599 -57.840515 450 4.056242e-39
-46.826599 -57.840515 450 3.8718521e-39
-91.503174 -55.839111 460 3.7800208e-39
-145.31519 -57.90509 480 3.5927401e-39
-158.51794 -52.837006 480 3.0420914e-39
-162.58533 -43.701569 480 3.1350045e-39
-166.65271 -34.566101 480 3.1350087e-39
-177.85413 15.178528 480 3.227196e-39
-181.92151 24.31398 480 3.0428089e-39
-181.92151 24.31398 480 3.1346388e-39
-185.98889 33.449432 480 3.1339227e-39
-190.05627 42.584869 480 3.2257638e-39
-194.12366 51.720322 480 3.0420957e-39
-198.19104 60.855774 480 3.5956198e-39
-220.5293 61.856476 480 2.293751e-38
-224.59668 70.991928 480 2.3509886e-38
-219.52856 84.194748 480 2.3509886e-38
-219.52856 84.194748 480 1.8437324e-38
-214.46057 97.397583 480 1.152118e-38
-218.52795 106.53303 480 9.4925205e-39
-209.39246 110.6004 470 5.8072275e-39
-181.98608 122.80253 470 4.8877893e-39
-186.05347 131.93799 470 5.622832e-39
-186.05347 131.93799 460 2.2281105e-38
-180.98535 145.14081 460 6.6355686e-39
-171.84998 149.20819 460 8.3862038e-39
-175.91736 158.34363 460 8.6674542e-39
-175.91736 158.34363 460 8.3908729e-39
-170.84924 171.54646 460 1.0870801e-38
-60.255249 -1256.9734 600 2.3509886e-38
-64.322632 -1247.8379 600 2.3509886e-38
-68.390015 -1238.7025 600 2.3509886e-38
-81.592773 -1233.6344 600 2.3509886e-38
-85.660156 -1224.499 600 2.3509886e-38
-42.048889 -1150.3501 580 2.3509886e-38
-150.60901 -1275.3088 620 2.3509886e-38
-269.3053 -1426.6733 680 2.3509886e-38
-81.721924 -1036.6573 570 2.3509886e-38
-71.585815 -1010.2517 570 2.3509886e-38
-66.517761 -997.04883 570 2.3509886e-38
-70.585083 -987.91333 560 2.3509886e-38
-78.719849 -969.64246 560 2.3509886e-38
-82.787231 -960.50708 560 2.3509886e-38
-77.719177 -947.3042 560 2.3509886e-38
-81.786499 -938.1687 560 2.3509886e-38
-85.853882 -929.03333 560 2.3509886e-38
-38.175232 -864.0199 540 1.4008316e-38
-33.107178 -850.81702 540 9.8634638e-39
-41.241943 -832.54614 540 8.2050327e-39
-45.309326 -823.41064 540 8.0174073e-39
-49.376709 -814.27527 540 8.8464308e-39
-53.444031 -805.13977 540 9.1273379e-39
-57.511414 -796.00433 540 9.2162994e-39
-61.578796 -786.8689 540 9.6758314e-39
-56.510742 -773.66608 540 9.3070559e-39
-60.578125 -764.53058 540 8.9407887e-39
-73.780945 -759.46252 540 9.214863e-39
-82.916382 -763.52991 540 9.1230191e-39
-86.983765 -754.39447 540 7.6468227e-39
-100.18652 -749.32635 540 4.6123038e-39
-113.3894 -744.2583 550 4.5175733e-39
-131.66028 -752.39307 550 3.3165203e-39
-144.86316 -747.32495 550 4.4217791e-39
-148.93054 -738.18951 550 4.8838362e-39
-152.99792 -729.05408 560 6.0816507e-39
-166.20068 -723.98602 560 7.0036141e-39
-193.60706 -736.18811 570 1.1511458e-38
-225.08081 -739.25482 580 1.7773178e-38
-220.0127 -726.052 580 2.099893e-38
-224.08008 -716.9165 570 2.3487487e-38
-228.14746 -707.78107 570 2.3492172e-38
-223.07935 -694.57825 570 2.3499735e-38
-231.21411 -676.30737 570 2.3495773e-38
-226.14612 -663.10455 570 2.3499716e-38
-211.9425 -645.83435 560 2.3508695e-38
-216.00989 -636.69885 560 2.3505472e-38
-238.34814 -635.69818 570 2.3506911e-38
-219.07654 -605.22516 560 2.3509804e-38
-223.14392 -596.08972 560 2.3509827e-38
-236.3468 -591.02161 560 2.3509841e-38
-249.54956 -585.95355 560 2.3509832e-38
-253.61694 -576.81812 570 2.3509865e-38
-266.81982 -571.75 570 2.3509874e-38
-270.88721 -562.61456 570 2.3509841e-38
-274.95459 -553.47913 570 2.3509852e-38
-288.15735 -548.41101 570 2.3509046e-38
-301.36023 -543.34296 570 9.6812362e-39
-314.56299 -538.2749 580 7.7429742e-39
-318.63037 -529.13947 580 5.9883817e-39
-331.83325 -524.07135 580 4.5157768e-39
-345.03613 -519.0033 580 5.1669013e-39
-358.23889 -513.93518 590 6.6420272e-39
-371.44177 -508.86713 590 7.1004914e-39
-384.64453 -503.79907 590 7.5592976e-39
-388.71191 -494.66364 590 7.5632492e-39
-405.98218 -480.46008 600 7.4671215e-39
-419.18494 -475.39203 600 7.0994348e-39
-441.52319 -474.3913 600 7.2838163e-39
-454.72607 -469.32324 610 6.5484022e-39
-486.19983 -472.38989 620 6.4540584e-39
-512.60547 -462.25378 620 5.8101197e-39
-580.62097 -481.5899 650 6.084913e-39
-734.92297 -528.39703 690 6.2692916e-39
-753.19385 -536.5318 700 5.9916425e-39
-752.19312 -514.19348 700 5.4417086e-39
-747.125 -500.99066 690 5.7186416e-39
-742.05701 -487.78784 690 5.6242992e-39
-741.05627 -465.44958 690 5.6257369e-39
-726.85278 -448.17938 680 5.2551495e-39
-344.16455 -299.68787 560 7.0078908e-39
-339.09644 -286.48508 550 2.3509886e-38
-343.16382 -277.34961 550 2.3509886e-38
-347.2312 -268.21417 550 2.3509886e-38
-351.29858 -259.0787 550 2.3509886e-38
-355.36597 -249.94327 550 2.3509886e-38
-350.29785 -236.74045 550 2.3509886e-38
-354.36523 -227.60498 550 5.1618679e-39
-367.56812 -222.53693 550 2.8584219e-39
-226.46899 -170.66174 500 2.6733005e-39
-212.26538 -153.39154 500 3.6878098e-39
-212.26538 -153.39154 500 3.6870993e-39
-216.33276 -144.25607 500 3.3208265e-39
-220.40015 -135.12064 500 3.3176035e-39
-224.46753 -125.9852 500 3.318314e-39
-219.39941 -112.78235 500 7.9165628e-39
-42.759216 -66.975952 440 4.0566007e-39
-227.53418 -94.511444 500 4.1480789e-39
-240.73706 -89.44339 500 4.2388368e-39
-244.80444 -80.307922 500 4.0544497e-39
-185.92432 -65.039124 480 3.4115998e-39
-177.85413 15.178528 470 2.5811161e-39
-181.92151 24.31398 470 3.223966e-39
-181.92151 24.31398 470 3.3190371e-39
-185.98889 33.449432 470 2.9499e-39
-190.05627 42.584869 470 2.9491882e-39
-194.12366 51.720322 470 2.9509706e-39
-198.19104 60.855774 470 3.5956142e-39
-211.3938 65.923859 470 1.9345119e-38
-224.59668 70.991928 470 2.3509886e-38
-219.52856 84.194748 470 2.3509886e-38
-210.39319 88.262131 470 1.8899028e-38
-214.46057 97.397583 470 1.1518668e-38
-209.39246 110.6004 470 9.5854266e-39
-200.25696 114.66778 460 5.9901894e-39
-159.64783 121.80183 450 4.0555147e-39
-163.71521 130.93729 450 1.549524e-38
-176.91797 136.00536 450 1.6390287e-38
-180.98535 145.14081 450 5.8054282e-39
-171.84998 149.20819 450 7.374563e-39
-175.91736 158.34363 450 8.2961704e-39
-166.78186 162.41101 450 8.4816224e-39
-170.84924 171.54646 450 5.5270504e-39
-65.323303 -1270.1763 590 2.3509886e-38
-69.390686 -1261.0408 590 2.3509886e-38
-77.525452 -1242.7699 590 2.3509886e-38
-81.592773 -1233.6344 590 2.3509886e-38
-85.660156 -1224.499 590 2.3509886e-38
-89.727539 -1215.3635 590 2.3509886e-38
-93.794922 -1206.228 590 2.3509886e-38
-211.49048 -1335.2543 630 2.3509886e-38
-63.45105 -1028.5226 560 2.3509886e-38
-71.585815 -1010.2517 560 2.3509886e-38
-66.517761 -997.04883 550 2.3509886e-38
-65.517029 -974.71057 550 2.3509886e-38
-69.584412 -965.57507 550 2.3509886e-38
-73.651794 -956.4397 550 2.3509886e-38
-77.719177 -947.3042 550 2.3509886e-38
-72.651062 -934.10132 550 2.3509886e-38
-76.718445 -924.96594 550 2.0372398e-38
-33.107178 -850.81702 530 1.0047499e-38
-37.174561 -841.68164 530 8.8482399e-39
-41.241943 -832.54614 530 8.6659968e-39
-45.309326 -823.41064 530 8.6624039e-39
-49.376709 -814.27527 530 1.0046761e-38
-53.444031 -805.13977 530 9.1269778e-39
-57.511414 -796.00433 530 9.401771e-39
-61.578796 -786.8689 530 1.0137891e-38
-56.510742 -773.66608 520 8.9379174e-39
-69.713562 -768.59796 530 9.7665963e-39
-73.780945 -759.46252 530 8.4798203e-39
-82.916382 -763.52991 530 9.3967362e-39
-86.983765 -754.39447 530 8.2017985e-39
-100.18652 -749.32635 530 7.8319328e-39
-122.5249 -748.32568 540 6.084899e-39
-131.66028 -752.39307 540 3.3208363e-39
-144.86316 -747.32495 540 2.8562583e-39
-148.93054 -738.18951 540 4.1455495e-39
-152.99792 -729.05408 550 5.1604147e-39
-166.20068 -723.98602 550 6.5393849e-39
-211.87793 -744.32288 560 1.0404392e-38
-225.08081 -739.25482 570 1.4090043e-38
-229.14819 -730.11932 570 1.7960081e-38
-233.21558 -720.98389 560 2.0810234e-38
-237.28296 -711.84845 560 2.3486417e-38
-232.21484 -698.64563 560 2.3487857e-38
-236.28223 -689.51019 560 2.3491813e-38
-235.28149 -667.17188 560 2.349254e-38
-239.34888 -658.03644 560 2.3496495e-38
-234.28076 -644.83362 560 2.3501528e-38
-238.34814 -635.69818 560 2.3503689e-38
-209.94116 -601.15778 550 2.3509073e-38
-232.27942 -600.15704 550 2.3509789e-38
-236.3468 -591.02161 550 2.3509797e-38
-240.41418 -581.88617 550 2.3509814e-38
-244.48157 -572.75073 550 2.3509797e-38
-248.54895 -563.6153 550 2.3509832e-38
-261.75171 -558.54718 550 2.3509838e-38
-265.81909 -549.41174 550 2.3509821e-38
-279.02197 -544.34369 560 2.3509848e-38
-292.22473 -539.27557 560 2.3509845e-38
-314.56299 -538.2749 560 2.3509839e-38
-327.76587 -533.20679 570 2.3509837e-38
-340.96875 -528.13873 570 1.9092669e-38
-354.17151 -523.07068 580 8.0235225e-39
-367.37439 -518.00256 580 7.6529435e-39
-380.57715 -512.93451 580 8.8496636e-39
-384.64453 -503.79907 580 7.656521e-39
-397.84741 -498.73096 580 6.9139478e-39
-415.11755 -484.52747 590 6.8231885e-39
-419.18494 -475.39203 590 6.9139464e-39
-441.52319 -474.3913 590 6.3632921e-39
-454.72607 -469.32324 600 6.8199571e-39
-477.06433 -468.32251 600 6.086708e-39
-512.60547 -462.25378 610 6.4526193e-39
-571.48547 -477.52258 630 6.8199543e-39
-707.5166 -516.19489 670 6.4526053e-39
-744.05835 -532.46442 680 6.1771016e-39
-743.05762 -510.12616 680 6.0863451e-39
-737.98962 -496.92328 680 5.534972e-39
-723.78613 -479.65308 670 5.7172095e-39
-709.58252 -462.38287 670 5.6250026e-39
-594.88904 -400.37158 630 5.2551411e-39
-589.82104 -387.16876 620 2.2683111e-38
-339.09644 -286.48508 540 2.3509886e-38
-334.02832 -273.28226 540 2.3509886e-38
-338.0957 -264.14679 540 2.3509886e-38
-342.16309 -255.01135 540 2.3509886e-38
-346.23047 -245.87589 540 2.3509886e-38
-350.29785 -236.74045 540 2.3509886e-38
-354.36523 -227.60498 540 5.8969288e-39
-367.56812 -222.53693 540 2.4914386e-39
-217.3335 -166.59436 490 3.0395677e-39
-212.26538 -153.39154 490 3.7782117e-39
-212.26538 -153.39154 490 3.3186811e-39
-216.33276 -144.25607 490 3.3172364e-39
-220.40015 -135.12064 490 3.3168749e-39
-224.46753 -125.9852 490 3.2243233e-39
-219.39941 -112.78235 490 7.4566707e-39
-223.4668 -103.64691 490 4.0551784e-39
-227.53418 -94.511444 490 4.2388354e-39
-240.73706 -89.44339 490 3.3208405e-39
-272.21082 -92.510071 500 3.6867476e-39
-181.92151 24.31398 460 2.9495329e-39
-181.92151 24.31398 460 2.5818266e-39
-185.98889 33.449432 460 2.3974423e-39
-190.05627 42.584869 460 2.9491826e-39
-194.12366 51.720322 460 3.1332067e-39
-198.19104 60.855774 460 4.053721e-39
-211.3938 65.923859 460 1.5192018e-38
-215.46118 75.059311 460 2.3509886e-38
-219.52856 84.194748 460 2.3509886e-38
-219.52856 84.194748 460 1.936038e-38
-214.46057 97.397583 460 1.1336074e-38
-205.32507 101.46496 460 9.4021115e-39
-200.25696 114.66778 450 6.0834528e-39
-159.64783 121.80183 440 4.6097563e-39
-163.71521 130.93729 440 1.6765167e-38
-167.78259 140.07272 440 6.6309023e-39
-167.78259 140.07272 440 5.0693079e-39
-171.84998 149.20819 440 7.1004816e-39
-175.91736 158.34363 440 7.9266536e-39
-166.78186 162.41101 440 7.9295276e-39
-170.84924 171.54646 440 6.0816676e-39
-65.323303 -1270.1763 580 2.3509886e-38
-69.390686 -1261.0408 580 2.3509886e-38
-73.458069 -1251.9053 580 2.3509886e-38
-77.525452 -1242.7699 580 2.3509886e-38
-85.660156 -1224.499 580 2.3509886e-38
-89.727539 -1215.3635 580 2.3509886e-38
-93.794922 -1206.228 580 2.3509886e-38
-97.862305 -1197.0927 570 2.3509886e-38
-215.55786 -1326.1188 620 2.3509886e-38
