# .PCD v0.7 - Point Cloud Data file format
VERSION 0.7
FIELDS x y z rgb
SIZE 4 4 4 4
TYPE F F F F
COUNT 1 1 1 1
WIDTH 1192
HEIGHT 1
VIEWPOINT 0 0 0 1 0 0 0
POINTS 1192
DATA ascii
-370.20807 -1347.2971 -120 7.2838135e-39
-366.30078 -1338.092 -120 7.1934171e-39
-384.71088 -1330.2775 -120 7.8391523e-39
-202.19397 -951.47986 -30 8.9455068e-39
-202.19397 -951.47986 -30 9.6855998e-39
-211.39902 -947.57257 -30 9.9604001e-39
-220.60406 -943.66528 -30 1.0238077e-38
-216.69678 -934.46021 -30 9.9643685e-39
-225.90182 -930.55292 -30 1.0606505e-38
-235.10687 -926.64557 -30 1.0607583e-38
-244.31192 -922.73828 -30 7.2896107e-39
-240.4046 -913.53326 -30 4.2438927e-39
-249.60965 -909.62592 -30 1.4747798e-39
-258.81473 -905.71863 -30 1.105993e-39
-258.81473 -905.71863 -30 1.1067063e-39
-268.01978 -901.81134 -30 1.1059916e-39
-277.22482 -897.90399 -30 1.0141547e-39
-277.22482 -897.90399 -30 7.3721051e-40
-286.42987 -893.9967 -30 1.291815e-39
-295.63492 -890.08942 -30 3.0446236e-39
-295.63492 -890.08942 -30 5.0714967e-39
-350.6012 -942.80286 -40 6.1785575e-39
-396.36243 -999.42358 -60 6.2700329e-39
-442.12366 -1056.0444 -70 5.7179423e-39
-521.92426 -1141.6707 -90 5.9012476e-39
-567.68549 -1198.2915 -110 6.1781918e-39
-639.67145 -1265.5077 -130 5.9941635e-39
-681.52533 -1312.9233 -140 5.901965e-39
-703.84277 -1314.3138 -140 6.1760394e-39
-713.04779 -1310.4065 -140 5.9927229e-39
-722.25287 -1306.4993 -140 5.8079674e-39
-731.45795 -1302.5919 -140 5.2551607e-39
-740.66296 -1298.6846 -140 4.7019925e-39
-749.86804 -1294.7773 -140 4.149539e-39
-755.16577 -1281.6649 -140 4.1491803e-39
-756.55621 -1259.3475 -140 3.6892811e-39
-748.74158 -1240.9374 -130 2.6744005e-39
-754.03937 -1227.8251 -130 1.5676872e-39
-763.24438 -1223.9177 -130 5.5353391e-40
-772.44946 -1220.0105 -130 3.6878252e-40
-777.74719 -1206.8981 -130 2.7658689e-40
-786.95227 -1202.9908 -130 3.6842379e-40
-754.30334 -1151.6678 -120 1.1989117e-39
-729.46912 -1118.7549 -110 2.30706e-39
-776.62079 -1153.0582 -120 3.0467914e-39
-823.77246 -1187.3616 -130 3.5974597e-39
-832.97748 -1183.4543 -130 3.5081409e-39
-855.29492 -1184.8447 -130 3.7825586e-39
-872.31458 -1199.3475 -130 3.9662282e-39
-890.72473 -1191.533 -130 3.9658722e-39
-886.81738 -1182.3279 -130 3.9662282e-39
-892.11511 -1169.2155 -130 3.7818355e-39
-901.32019 -1165.3082 -130 3.6896385e-39
-1046.6825 -1277.4232 -160 3.5041724e-39
-1059.7949 -1282.7211 -170 3.0428327e-39
-1082.1123 -1284.1115 -170 2.3059782e-39
-1104.4297 -1285.502 -170 2.1201436e-39
-1117.542 -1290.7997 -170 1.8431951e-39
-1139.8595 -1292.1901 -170 1.56769e-39
-1149.0645 -1288.2828 -170 1.7502778e-39
420.03589 -1661.0079 -130 1.3184686e-38
409.4404 -1634.7832 -120 1.3920811e-38
392.42072 -1649.286 -130 1.419993e-38
383.2157 -1645.3787 -130 1.4659482e-38
396.85608 -1792.3955 -160 1.4753118e-38
383.74371 -1797.6932 -160 1.5585023e-38
373.14822 -1771.4685 -150 1.5495013e-38
335.27194 -1451.2102 -90 1.5774121e-38
330.23822 -1514.2551 -110 1.6971218e-38
319.64273 -1488.0304 -100 1.6510962e-38
305.13992 -1471.0107 -100 1.7338943e-38
297.32532 -1489.4208 -100 1.8263777e-38
288.12027 -1485.5135 -100 1.9369037e-38
284.21295 -1494.7186 -110 2.1121804e-38
280.30566 -1503.9236 -110 2.240786e-38
271.10062 -1500.0164 -110 2.2958873e-38
261.89557 -1496.109 -110 2.3509886e-38
247.39276 -1479.0894 -110 2.3509886e-38
243.48546 -1488.2944 -110 2.3509886e-38
234.2804 -1484.3871 -110 2.3509886e-38
228.98267 -1471.2748 -110 2.3509886e-38
215.8703 -1476.5725 -110 2.3509886e-38
202.75795 -1481.8702 -110 2.3509886e-38
142.30023 -1086.8451 -40 2.3234379e-38
137.00249 -1073.7327 -40 2.1122163e-38
127.79744 -1069.8254 -30 1.6048942e-38
127.79744 -1069.8254 -30 1.0511427e-38
118.59239 -1065.9182 -30 7.9263243e-39
113.29464 -1052.8058 -30 7.8341216e-39
113.29464 -1052.8058 -30 9.2163414e-39
104.08959 -1048.8984 -30 1.0323765e-38
94.884537 -1044.9912 -30 1.0693629e-38
94.884537 -1044.9912 -30 9.6827145e-39
81.772179 -1050.2889 -30 8.5720622e-39
72.567131 -1046.3816 -30 5.3466417e-39
72.567131 -1046.3816 -30 4.7941643e-39
67.269386 -1033.2693 -30 8.7614687e-39
56.673889 -1007.0446 -30 1.2082319e-38
56.673889 -1007.0446 -30 1.1803969e-38
47.468842 -1003.1372 -30 7.100902e-39
43.561539 -1012.3423 -30 4.4257574e-39
34.356491 -1008.435 -30 4.1437643e-39
25.151428 -1004.5276 -30 6.8127306e-39
21.244125 -1013.7327 -30 1.1147397e-38
12.039078 -1009.8254 -30 1.4475443e-38
8.1317749 -1019.0305 -40 1.7430411e-38
-1.0732727 -1015.1232 -40 1.7061651e-38
-14.185638 -1020.4209 -40 1.669465e-38
-29.81485 -1057.2412 -40 1.6140404e-38
-44.053635 -1116.3788 -60 1.5398865e-38
-71.40477 -1180.8141 -70 1.4566212e-38
-98.75589 -1245.2494 -90 1.2633328e-38
-126.10703 -1309.6848 -100 1.1802478e-38
-161.27277 -1392.5303 -120 1.1707407e-38
-178.29245 -1407.0331 -130 1.0512451e-38
-183.59018 -1393.9207 -120 1.0234432e-38
-184.98062 -1371.6033 -120 1.0141161e-38
-198.09299 -1376.901 -120 9.313918e-39
-215.11264 -1391.4038 -130 9.0340941e-39
-220.4104 -1378.2915 -130 7.6558358e-39
-229.61545 -1374.3842 -130 6.3665361e-39
-242.72781 -1379.6819 -130 5.7186556e-39
-255.84015 -1384.9797 -130 5.2569628e-39
-257.23059 -1362.6622 -130 4.7034317e-39
-262.52835 -1349.5499 -120 4.4261371e-39
-271.7334 -1345.6426 -120 3.8733263e-39
-280.93845 -1341.7354 -120 3.4123369e-39
-282.32889 -1319.4178 -120 3.3204986e-39
-295.44125 -1324.7157 -120 3.1357514e-39
-296.8317 -1302.3982 -120 4.2420892e-39
-317.75867 -1326.1061 -120 5.3477193e-39
-323.0564 -1312.9938 -120 6.7310097e-39
-336.16876 -1318.2915 -120 7.3760049e-39
-345.37378 -1314.3842 -120 7.3778168e-39
-366.30078 -1338.092 -130 7.5622109e-39
-354.57886 -1310.4768 -120 8.3880157e-39
-371.59851 -1324.9796 -130 7.9324395e-39
-202.19397 -951.47986 -40 8.9462397e-39
-202.19397 -951.47986 -40 9.5908903e-39
-211.39902 -947.57257 -40 9.592342e-39
-220.60406 -943.66528 -40 1.0328817e-38
-229.80911 -939.75793 -40 9.7796073e-39
-229.80911 -939.75793 -40 1.0332784e-38
-235.10687 -926.64557 -40 1.0790528e-38
-244.31192 -922.73828 -40 7.4704062e-39
-240.4046 -913.53326 -40 4.3346618e-39
-249.60965 -909.62592 -30 1.3825813e-39
-258.81473 -905.71863 -30 1.2896612e-39
-258.81473 -905.71863 -30 1.0148722e-39
-268.01978 -901.81134 -30 1.1981873e-39
-277.22482 -897.90399 -30 8.301222e-40
-277.22482 -897.90399 -30 7.3828531e-40
-286.42987 -893.9967 -30 1.2003439e-39
-299.54224 -899.29443 -40 3.229368e-39
-316.56189 -913.79724 -40 5.440268e-39
-440.73322 -1078.3618 -80 6.1782016e-39
-404.17706 -1017.8337 -70 6.2711105e-39
-459.14337 -1070.5471 -80 5.6282578e-39
-521.92426 -1141.6707 -100 6.084557e-39
-580.79785 -1203.5892 -120 5.6260998e-39
-626.55908 -1260.21 -140 6.0838466e-39
-681.52533 -1312.9233 -150 5.5321119e-39
-686.82312 -1299.811 -150 5.3495143e-39
-709.1405 -1301.2014 -150 5.4395478e-39
-722.25287 -1306.4993 -150 5.6239348e-39
-731.45795 -1302.5919 -150 5.1622434e-39
-736.75568 -1289.4796 -150 4.5175943e-39
-749.86804 -1294.7773 -150 3.9665771e-39
-755.16577 -1281.6649 -150 3.5063192e-39
-743.44385 -1254.0498 -140 3.5056031e-39
-744.83429 -1231.7324 -140 2.5832825e-39
-750.13202 -1218.62 -140 1.4762133e-39
-759.3371 -1214.7128 -140 5.5317518e-40
-772.44946 -1220.0105 -140 4.6097535e-40
-777.74719 -1206.8981 -140 2.7659109e-40
-783.04492 -1193.7858 -140 3.6878112e-40
-703.24438 -1108.1594 -110 1.3836589e-39
-712.44946 -1104.2521 -110 2.2152259e-39
-742.58142 -1124.0526 -120 3.4130586e-39
-819.86517 -1178.1565 -140 3.6910818e-39
-829.07019 -1174.2493 -140 3.9655135e-39
-846.08984 -1188.7521 -140 3.9673114e-39
-864.5 -1180.9374 -140 4.334659e-39
-890.72473 -1191.533 -150 4.4275608e-39
-882.91003 -1173.1228 -140 4.1502677e-39
-888.20776 -1160.0105 -140 4.0587881e-39
-1041.3848 -1290.5356 -180 3.7814712e-39
-1054.4971 -1295.8334 -180 3.4119782e-39
-1072.9072 -1288.0188 -180 2.951349e-39
-1103.0392 -1307.8193 -190 2.3981724e-39
-1125.3567 -1309.2097 -190 2.0290241e-39
-1126.7471 -1286.8923 -180 2.027585e-39
-1139.8595 -1292.1901 -190 1.8428336e-39
-1145.1572 -1279.0778 -180 1.7509953e-39
409.4404 -1634.7832 -130 1.4288169e-38
392.42072 -1649.286 -140 1.4844567e-38
383.2157 -1645.3787 -140 1.5399907e-38
395.46564 -1770.078 -160 1.5493569e-38
378.44598 -1784.5808 -170 1.6325484e-38
317.98828 -1389.5557 -90 1.8354169e-38
315.47141 -1421.0781 -100 1.8355603e-38
307.6568 -1439.4883 -100 1.9275763e-38
303.74951 -1448.6934 -110 1.946446e-38
290.63715 -1453.9911 -110 2.0938492e-38
282.82251 -1472.4011 -110 2.0938492e-38
269.71017 -1477.699 -110 2.2591531e-38
269.71017 -1477.699 -110 2.2224189e-38
256.59781 -1482.9967 -120 2.2775202e-38
252.69051 -1492.2017 -120 2.3509886e-38
239.57816 -1497.4995 -120 2.3509886e-38
230.37311 -1493.5922 -120 2.3509886e-38
221.16805 -1489.6848 -120 2.3509886e-38
211.963 -1485.7776 -120 2.3509886e-38
208.05569 -1494.9825 -120 2.3509886e-38
194.94333 -1500.2804 -130 2.3509886e-38
185.73828 -1496.373 -120 2.3509886e-38
181.83098 -1505.5781 -130 2.3509886e-38
167.32819 -1488.5585 -130 2.3509886e-38
158.12312 -1484.6511 -130 2.3509886e-38
156.46867 -1386.1764 -100 2.3509886e-38
147.26361 -1382.2692 -100 2.3509886e-38
132.76082 -1365.2495 -100 2.3509886e-38
128.85352 -1374.4546 -100 2.3326215e-38
121.03891 -1392.8646 -110 2.0660474e-38
131.70474 -1060.6204 -40 1.5402134e-38
131.70474 -1060.6204 -40 1.0605423e-38
122.49969 -1056.7131 -40 8.0246464e-39
113.29464 -1052.8058 -40 8.3019465e-39
109.38734 -1062.0107 -40 7.5643857e-39
100.18228 -1058.1035 -40 7.1934424e-39
90.977234 -1054.1963 -40 7.837723e-39
90.977234 -1054.1963 -40 8.0217639e-39
81.772179 -1050.2889 -40 6.6384693e-39
72.567131 -1046.3816 -40 5.1622462e-39
67.269386 -1033.2693 -40 5.4413414e-39
61.971634 -1020.1569 -40 9.5015617e-39
60.5812 -997.83948 -30 1.2731686e-38
60.5812 -997.83948 -30 1.1901917e-38
47.468842 -1003.1372 -30 7.3792769e-39
47.468842 -1003.1372 -40 4.7923889e-39
34.356491 -1008.435 -40 4.1452006e-39
25.151428 -1004.5276 -40 7.1818802e-39
21.244125 -1013.7327 -40 1.1333939e-38
12.039078 -1009.8254 -40 1.5027902e-38
8.1317749 -1019.0305 -40 1.6695367e-38
-4.9805908 -1024.3282 -40 1.641986e-38
-8.8878937 -1033.5332 -50 1.6234403e-38
-24.517105 -1070.3535 -60 1.6045693e-38
-51.86824 -1134.7888 -70 1.4665255e-38
-75.312073 -1190.0192 -80 1.364893e-38
-102.66321 -1254.4545 -100 1.2172715e-38
-126.10703 -1309.6848 -110 1.1800334e-38
-149.55087 -1364.9152 -130 1.1064201e-38
-166.57053 -1379.418 -130 1.0788694e-38
-164.05365 -1347.8955 -130 1.0785804e-38
-173.25873 -1343.9882 -120 1.0142235e-38
-190.27838 -1358.491 -130 9.5905063e-39
-203.39075 -1363.7887 -130 9.5915881e-39
-204.78116 -1341.4713 -130 9.1288177e-39
-221.80084 -1355.9741 -130 8.7593177e-39
-231.00589 -1352.0668 -130 7.6540422e-39
-244.11826 -1357.3645 -130 7.283452e-39
-249.41599 -1344.2522 -130 6.730997e-39
-254.71375 -1331.1398 -130 5.9026825e-39
-267.82608 -1336.4375 -130 5.1687258e-39
-277.03113 -1332.5303 -130 4.1549368e-39
-278.42157 -1310.2129 -130 3.7857914e-39
-291.53394 -1315.5106 -130 3.3255447e-39
-296.8317 -1302.3982 -130 4.9839814e-39
-317.75867 -1326.1061 -130 6.0903318e-39
-323.0564 -1312.9938 -130 7.8438452e-39
-336.16876 -1318.2915 -130 7.9342458e-39
-349.28113 -1323.5892 -130 8.5778159e-39
-358.48615 -1319.6819 -140 9.4050571e-39
-354.57886 -1310.4768 -130 8.6703703e-39
-359.87659 -1297.3645 -130 8.8576286e-39
-369.08167 -1293.4572 -130 9.1309897e-39
-202.19397 -951.47986 -50 9.5905455e-39
-211.39902 -947.57257 -50 9.5912602e-39
-220.60406 -943.66528 -50 9.5030162e-39
-229.80911 -939.75793 -50 1.0697243e-38
-229.80911 -939.75793 -50 1.0145526e-38
-235.10687 -926.64557 -40 1.0054047e-38
-244.31192 -922.73828 -40 7.3792854e-39
-240.4046 -913.53326 -40 4.1491873e-39
-249.60965 -909.62592 -40 1.2903829e-39
-258.81473 -905.71863 -40 1.1059888e-39
-258.81473 -905.71863 -40 1.3818554e-39
-268.01978 -901.81134 -40 1.106349e-39
-277.22482 -897.90399 -40 9.2232064e-40
-277.22482 -897.90399 -40 9.2123743e-40
-290.33716 -903.20178 -40 1.475493e-39
-303.44952 -908.49951 -50 3.7807397e-39
-320.46918 -923.00232 -50 5.5328252e-39
-419.80627 -1054.6539 -90 6.3640348e-39
-421.19672 -1032.3364 -80 6.3629502e-39
-463.05066 -1079.7522 -100 5.9034154e-39
-529.73883 -1160.0808 -120 5.8101352e-39
-580.79785 -1203.5892 -130 5.810847e-39
-626.55908 -1260.21 -150 5.716506e-39
-685.43268 -1322.1284 -160 5.532828e-39
-686.82312 -1299.811 -160 5.3484423e-39
-716.95514 -1319.6116 -170 5.1636868e-39
-743.17981 -1330.207 -170 5.1647545e-39
-752.38489 -1326.2998 -170 5.0693331e-39
-761.58997 -1322.3925 -170 4.3335659e-39
-762.98041 -1300.0751 -170 3.5970771e-39
-731.72192 -1226.4347 -150 2.5814888e-39
-740.927 -1222.5273 -150 1.2911074e-39
-759.3371 -1214.7128 -150 5.5317658e-40
-768.54211 -1210.8054 -150 3.6914265e-40
-764.63483 -1201.6003 -150 3.6842239e-40
-711.05902 -1126.5695 -130 2.7730576e-40
-699.3371 -1098.9543 -120 1.2914675e-39
-712.44946 -1104.2521 -120 2.3063467e-39
-755.69379 -1129.3503 -130 3.0453621e-39
-819.86517 -1178.1565 -150 3.5985218e-39
-829.07019 -1174.2493 -150 3.8747486e-39
-842.18256 -1179.547 -150 3.9673072e-39
-864.5 -1180.9374 -150 4.1506264e-39
-983.63757 -1282.457 -180 4.336454e-39
-1030.7893 -1316.7604 -190 4.059514e-39
-1049.1993 -1308.9457 -190 4.0591455e-39
-1062.3118 -1314.2435 -200 4.0577105e-39
-1067.6095 -1301.1311 -200 3.5963638e-39
-1106.9465 -1317.0244 -200 3.13502e-39
-1120.0588 -1322.3221 -200 2.5814818e-39
-1142.3763 -1323.7125 -200 2.1201394e-39
-1126.7471 -1286.8923 -200 1.9361054e-39
-1135.9521 -1282.985 -200 1.6598815e-39
-1141.2499 -1269.8727 -190 1.7506366e-39
421.42633 -1683.3253 -150 1.2815186e-38
405.53308 -1643.9883 -150 1.3921889e-38
396.32803 -1640.0809 -150 1.4384689e-38
383.2157 -1645.3787 -150 1.5861621e-38
379.30838 -1654.5837 -150 1.6417667e-38
371.49377 -1672.9938 -160 1.7153461e-38
345.86743 -1477.4349 -120 1.7614451e-38
331.36462 -1460.4153 -110 1.7987541e-38
326.06689 -1447.3029 -110 1.8538931e-38
316.86185 -1443.3956 -110 1.9000619e-38
303.74951 -1448.6934 -110 1.9925073e-38
295.93488 -1467.1034 -120 2.0295285e-38
295.93488 -1467.1034 -120 2.1305834e-38
282.82251 -1472.4011 -120 2.1948682e-38
273.61746 -1468.4939 -120 2.2040518e-38
269.71017 -1477.699 -120 2.3050708e-38
256.59781 -1482.9967 -130 2.3509886e-38
252.69051 -1492.2017 -130 2.3509886e-38
243.48546 -1488.2944 -130 2.3509886e-38
234.2804 -1484.3871 -130 2.3509886e-38
225.07535 -1480.4799 -130 2.3509886e-38
215.8703 -1476.5725 -130 2.3509886e-38
206.66525 -1472.6652 -130 2.3509886e-38
193.55289 -1477.9629 -130 2.3509886e-38
192.16245 -1455.6455 -130 2.3509886e-38
181.56696 -1429.4208 -120 2.3509886e-38
168.45461 -1434.7185 -120 2.3509886e-38
161.76642 -1399.2888 -120 2.3509886e-38
151.17093 -1373.0641 -110 2.3509886e-38
141.96587 -1369.1567 -110 2.3509886e-38
132.76082 -1365.2495 -110 2.3509886e-38
128.85352 -1374.4546 -110 2.3142544e-38
121.03891 -1392.8646 -120 2.1948682e-38
107.92654 -1398.1624 -120 1.7529816e-38
127.79744 -1069.8254 -50 1.309941e-38
118.59239 -1065.9182 -50 9.9611091e-39
109.38734 -1062.0107 -50 9.4039781e-39
101.57272 -1080.4209 -50 8.6682109e-39
97.665421 -1089.626 -60 8.2079502e-39
89.850807 -1108.0361 -60 7.5604242e-39
79.255318 -1081.8114 -50 6.4547815e-39
71.440712 -1100.2214 -60 4.9782249e-39
66.14296 -1087.1091 -60 3.9651324e-39
66.14296 -1087.1091 -60 7.8409642e-39
60.5812 -997.83948 -40 1.6510986e-38
60.5812 -997.83948 -40 1.263697e-38
47.468842 -1003.1372 -40 7.9324577e-39
47.468842 -1003.1372 -40 4.5179544e-39
38.263794 -999.22992 -40 4.6050956e-39
25.151428 -1004.5276 -40 6.8145453e-39
25.151428 -1004.5276 -40 1.0691806e-38
12.039078 -1009.8254 -50 1.4382901e-38
8.1317749 -1019.0305 -50 1.6141491e-38
-1.0732727 -1015.1232 -50 1.6233322e-38
-12.795197 -1042.7383 -50 1.5681236e-38
-32.331726 -1088.7635 -70 1.5222393e-38
-55.775543 -1143.9939 -80 1.4390825e-38
-83.126678 -1208.4292 -100 1.3557095e-38
-106.57053 -1263.6595 -110 1.2449295e-38
-126.10703 -1309.6848 -120 1.1525897e-38
-145.64355 -1355.7101 -130 1.1340416e-38
-154.8486 -1351.8027 -130 1.0878357e-38
-164.05365 -1347.8955 -130 9.6819803e-39
-169.35141 -1334.7831 -130 9.5908594e-39
-182.46378 -1340.0808 -130 9.9610853e-39
-191.66882 -1336.1736 -130 1.0790137e-38
-196.96655 -1323.0612 -130 1.0606839e-38
-206.1716 -1319.1539 -130 1.0053669e-38
-219.28397 -1324.4517 -140 9.7752745e-39
-240.21094 -1348.1594 -140 7.4725404e-39
-253.3233 -1353.4573 -140 7.5629185e-39
-262.52835 -1349.5499 -140 7.2845436e-39
-275.64069 -1354.8477 -150 7.5622095e-39
-280.93845 -1341.7354 -140 7.8413229e-39
-266.69968 -1282.5977 -130 8.6721766e-39
-279.81201 -1287.8954 -130 8.2133788e-39
-304.6463 -1320.8083 -140 8.9487817e-39
-317.75867 -1326.1061 -140 8.6750618e-39
-326.96371 -1322.1987 -140 9.5948714e-39
-340.07605 -1327.4966 -150 9.7799843e-39
-353.18842 -1332.7943 -150 1.0422471e-38
-362.39349 -1328.887 -150 1.0054031e-38
-354.57886 -1310.4768 -140 9.5916147e-39
-359.87659 -1297.3645 -140 9.4997722e-39
-369.08167 -1293.4572 -140 9.5916035e-39
-206.10126 -960.68494 -50 9.3175432e-39
-211.39902 -947.57257 -50 9.3157509e-39
-220.60406 -943.66528 -50 9.5941329e-39
-229.80911 -939.75793 -50 9.5948643e-39
-229.80911 -939.75793 -50 1.0329192e-38
-239.01416 -935.85065 -50 9.8678583e-39
-244.31192 -922.73828 -50 6.7346404e-39
-240.4046 -913.53326 -50 3.7814782e-39
-249.60965 -909.62592 -50 1.2907402e-39
-258.81473 -905.71863 -50 1.1978243e-39
-258.81473 -905.71863 -50 1.1989019e-39
-268.01978 -901.81134 -50 1.1985502e-39
-277.22482 -897.90399 -50 1.1059888e-39
-281.13211 -907.10907 -50 8.3012361e-40
-290.33716 -903.20178 -50 1.5673285e-39
-303.44952 -908.49951 -50 3.8725794e-39
-436.82593 -1069.1567 -100 6.5477058e-39
-461.66022 -1102.0696 -110 6.6377462e-39
-508.81189 -1136.3729 -120 6.4544326e-39
-550.66583 -1183.7887 -130 6.1782044e-39
-584.70514 -1212.7942 -140 6.3615153e-39
-639.67145 -1265.5077 -160 6.0863633e-39
-706.35962 -1345.8363 -180 5.7172221e-39
-740.39893 -1374.8419 -190 5.7168633e-39
-692.12085 -1286.6987 -170 5.2569586e-39
-743.17981 -1330.207 -180 5.4399107e-39
-760.19952 -1344.7098 -190 4.8878103e-39
-778.60962 -1336.8953 -190 4.3328485e-39
-766.8877 -1309.2802 -180 3.9651338e-39
-723.90735 -1208.0245 -150 2.6733243e-39
-733.11237 -1204.1172 -160 1.6580892e-39
-746.22473 -1209.415 -160 5.5353251e-40
-772.44946 -1220.0105 -160 2.7694422e-40
-764.63483 -1201.6003 -160 2.7659109e-40
-728.07867 -1141.0723 -140 2.7694702e-40
-695.42975 -1089.7493 -130 1.2918192e-39
-708.54211 -1095.0471 -130 2.1226729e-39
-738.67413 -1114.8477 -140 3.2297435e-39
-819.86517 -1178.1565 -160 3.5048899e-39
-798.93817 -1154.4487 -150 3.6903671e-39
-838.27527 -1170.3419 -160 3.966231e-39
-851.38763 -1175.6396 -160 4.4264889e-39
-1021.5842 -1320.6676 -210 4.3350121e-39
-1043.9016 -1322.0581 -210 4.3357296e-39
-1053.1067 -1318.1508 -210 4.3339415e-39
-1075.4241 -1319.5413 -210 4.1495474e-39
-1071.5167 -1310.3362 -210 3.6889196e-39
-1127.8735 -1340.7322 -220 3.0439019e-39
-1133.1713 -1327.6199 -220 2.5818392e-39
-1155.4886 -1329.0103 -220 2.3038117e-39
-1152.9718 -1297.4878 -210 1.7517184e-39
-1149.0645 -1288.2828 -210 1.6595213e-39
409.4404 -1634.7832 -150 1.428923e-38
396.32803 -1640.0809 -160 1.447868e-38
387.12299 -1636.1736 -160 1.5863786e-38
374.01062 -1641.4713 -160 1.7063781e-38
366.19604 -1659.8815 -160 1.8076519e-38
359.50781 -1624.4517 -160 1.8724754e-38
335.27194 -1451.2102 -120 1.946159e-38
322.15961 -1456.5079 -120 2.0196633e-38
312.95453 -1452.6006 -120 2.0753745e-38
305.13992 -1471.0107 -130 2.1122163e-38
305.13992 -1471.0107 -130 2.0936698e-38
292.02759 -1476.3085 -130 2.158134e-38
278.91522 -1481.6062 -130 2.2867037e-38
278.91522 -1481.6062 -130 2.3509886e-38
265.80286 -1486.9039 -140 2.3142544e-38
261.89557 -1496.109 -140 2.3234379e-38
248.7832 -1501.4067 -140 2.3234379e-38
243.48546 -1488.2944 -140 2.3050708e-38
230.37311 -1493.5922 -140 2.3509886e-38
221.16805 -1489.6848 -140 2.3509886e-38
211.963 -1485.7776 -140 2.3509886e-38
206.66525 -1472.6652 -140 2.3509886e-38
198.85065 -1491.0753 -140 2.3509886e-38
188.25514 -1464.8506 -140 2.3509886e-38
181.56696 -1429.4208 -130 2.3050708e-38
168.45461 -1434.7185 -130 2.3509886e-38
161.76642 -1399.2888 -120 2.3509886e-38
155.07823 -1363.859 -120 2.341805e-38
145.87317 -1359.9518 -120 2.3234379e-38
136.66812 -1356.0444 -120 2.3142544e-38
128.85352 -1374.4546 -120 2.1856847e-38
121.03891 -1392.8646 -130 2.1305834e-38
107.92654 -1398.1624 -130 1.8077958e-38
98.721497 -1394.2551 -130 1.3925178e-38
89.516449 -1390.3478 -130 1.0141913e-38
89.516449 -1390.3478 -130 9.49761e-39
80.047379 -1310.2832 -110 8.7611324e-39
72.232765 -1328.6932 -120 7.2863639e-39
66.93502 -1315.5809 -120 6.1803638e-39
53.822662 -1320.8787 -120 5.4388415e-39
38.193451 -1357.6989 -130 4.5190488e-39
38.193451 -1357.6989 -130 4.0566175e-39
21.173782 -1372.2017 -130 8.2064985e-39
18.392899 -1327.5669 -120 1.2450741e-38
60.5812 -997.83948 -50 1.6420563e-38
56.673889 -1007.0446 -50 1.20874e-38
47.468842 -1003.1372 -50 8.1154141e-39
38.263794 -999.22992 -50 3.8725976e-39
38.263794 -999.22992 -50 3.8686109e-39
25.151428 -1004.5276 -50 6.727746e-39
25.151428 -1004.5276 -50 1.1614496e-38
15.946381 -1000.6204 -50 1.5676885e-38
12.039078 -1009.8254 -50 1.7153111e-38
-12.795197 -1042.7383 -60 1.6327659e-38
-38.75589 -1129.4911 -80 1.7057311e-38
-40.146332 -1107.1737 -80 1.5678679e-38
-59.682846 -1153.199 -90 1.4295753e-38
-81.736237 -1230.7467 -110 1.3281222e-38
-106.57053 -1263.6595 -120 1.2725163e-38
-122.19974 -1300.4797 -130 1.2078338e-38
-131.40479 -1296.5725 -130 1.1249302e-38
-154.8486 -1351.8027 -140 1.0971639e-38
-164.05365 -1347.8955 -140 1.0602849e-38
-169.35141 -1334.7831 -140 1.0603562e-38
-178.55646 -1330.8759 -140 1.0604301e-38
-187.76151 -1326.9685 -140 1.0697604e-38
-196.96655 -1323.0612 -140 1.1343335e-38
-210.07892 -1328.3589 -140 1.1342972e-38
-219.28397 -1324.4517 -150 1.0878036e-38
-236.30362 -1338.9545 -150 9.3150194e-39
-253.3233 -1353.4573 -150 9.1281072e-39
-262.52835 -1349.5499 -150 8.6689382e-39
-275.64069 -1354.8477 -160 9.0398843e-39
-284.84576 -1350.9403 -160 9.0409591e-39
-294.05081 -1347.0331 -160 9.0442017e-39
-295.44125 -1324.7157 -150 9.50341e-39
-308.55359 -1330.0134 -150 9.9643783e-39
-317.75867 -1326.1061 -150 1.0149843e-38
-326.96371 -1322.1987 -150 1.0975283e-38
-336.16876 -1318.2915 -150 1.0424998e-38
-349.28113 -1323.5892 -160 1.0700492e-38
-354.57886 -1310.4768 -150 1.0146956e-38
-350.67157 -1301.2719 -150 8.9498565e-39
-359.87659 -1297.3645 -150 9.4086626e-39
-369.08167 -1293.4572 -150 9.4093731e-39
-202.19397 -951.47986 -60 9.1324387e-39
-211.39902 -947.57257 -60 9.2228294e-39
-220.60406 -943.66528 -60 9.0413164e-39
-229.80911 -939.75793 -60 9.4108248e-39
-229.80911 -939.75793 -60 9.9625651e-39
-239.01416 -935.85065 -60 9.408685e-39
-248.21921 -931.94336 -60 6.9168653e-39
-240.4046 -913.53326 -60 3.6892853e-39
-249.60965 -909.62592 -60 1.3818583e-39
-258.81473 -905.71863 -60 1.0141533e-39
-258.81473 -905.71863 -60 1.1985432e-39
-268.01978 -901.81134 -60 1.1056357e-39
-277.22482 -897.90399 -60 1.1056301e-39
-290.33716 -903.20178 -60 8.2976487e-40
-294.24448 -912.4068 -60 1.6609605e-39
-307.35684 -917.70459 -60 3.5974288e-39
-381.85962 -1016.4432 -90 5.7179325e-39
-415.89899 -1045.4489 -100 6.2729224e-39
-457.75293 -1092.8645 -110 6.0874549e-39
-512.71918 -1145.578 -130 5.9048587e-39
-562.38776 -1211.4038 -150 5.9952495e-39
-592.51978 -1231.2043 -160 5.7201017e-39
-647.48602 -1283.9178 -180 5.809782e-39
-731.19391 -1378.7491 -200 5.8083527e-39
-778.34558 -1413.0525 -220 5.6253838e-39
-764.10681 -1353.9149 -200 4.9796542e-39
-777.21918 -1359.2126 -200 4.8860237e-39
-782.51691 -1346.1003 -200 4.0576965e-39
-654.43823 -1172.3308 -150 3.5985176e-39
-663.64331 -1168.4235 -150 3.4130516e-39
-672.84833 -1164.5161 -150 3.2275757e-39
-685.96069 -1169.8138 -150 2.1208652e-39
-699.07306 -1175.1117 -160 1.3825799e-39
-725.29779 -1185.7072 -160 5.5317798e-40
-831.32306 -1281.929 -190 4.6061942e-40
-739.80054 -1168.6875 -160 2.7658829e-40
-735.89325 -1159.4824 -160 4.6025928e-40
-665.29773 -1069.9487 -130 1.2921808e-39
-687.61517 -1071.3392 -130 2.30706e-39
-666.68817 -1047.6313 -120 3.0446404e-39
-689.00562 -1049.0217 -130 3.2290261e-39
-706.02527 -1063.5247 -130 3.4155767e-39
-1048.9353 -1385.103 -240 4.1502607e-39
-1050.3258 -1362.7856 -230 4.0591455e-39
-1042.5112 -1344.3755 -230 4.1513467e-39
-1068.7358 -1354.9709 -230 4.7041533e-39
-1087.146 -1347.1564 -230 4.3353708e-39
-1109.4634 -1348.5469 -230 4.0573462e-39
-1118.6685 -1344.6395 -230 3.7803908e-39
-1199.8595 -1407.9485 -260 3.3183322e-39
-1379.2611 -1549.0691 -300 2.581842e-39
-1435.6178 -1579.4652 -310 2.3048907e-39
-1437.0083 -1557.1477 -310 2.0279451e-39
-1173.8988 -1321.1957 -230 2.1197764e-39
-1196.2162 -1322.5862 -240 1.9346691e-39
400.23535 -1630.8759 -160 1.3738235e-38
396.32803 -1640.0809 -170 1.567398e-38
387.12299 -1636.1736 -170 1.6324781e-38
377.91794 -1632.2664 -170 1.7891399e-38
370.10333 -1650.6764 -170 1.8448882e-38
359.50781 -1624.4517 -170 1.8998826e-38
328.58374 -1415.7804 -120 1.9644903e-38
316.86185 -1443.3956 -130 1.9836466e-38
316.86185 -1443.3956 -130 2.1121804e-38
309.04724 -1461.8057 -130 2.2132353e-38
295.93488 -1467.1034 -140 2.1673176e-38
292.02759 -1476.3085 -140 2.158134e-38
278.91522 -1481.6062 -140 2.2683366e-38
269.71017 -1477.699 -140 2.3326215e-38
265.80286 -1486.9039 -140 2.3509886e-38
261.89557 -1496.109 -150 2.3509886e-38
248.7832 -1501.4067 -150 2.3509886e-38
243.48546 -1488.2944 -150 2.3509886e-38
230.37311 -1493.5922 -150 2.3509886e-38
225.07535 -1480.4799 -150 2.3509886e-38
211.963 -1485.7776 -150 2.3509886e-38
206.66525 -1472.6652 -150 2.3509886e-38
193.55289 -1477.9629 -150 2.3509886e-38
188.25514 -1464.8506 -150 2.3509886e-38
182.9574 -1451.7383 -150 2.341805e-38
173.75235 -1447.8309 -140 2.3234379e-38
163.15686 -1421.6062 -140 2.3234379e-38
151.17093 -1373.0641 -130 2.2867037e-38
147.26361 -1382.2692 -130 2.2775202e-38
141.96587 -1369.1567 -130 2.2499695e-38
124.94621 -1383.6595 -130 2.1397669e-38
121.03891 -1392.8646 -140 2.066155e-38
111.83385 -1388.9573 -140 1.7064878e-38
102.6288 -1385.05 -140 1.4199247e-38
93.423752 -1381.1427 -140 1.06054e-38
85.609138 -1399.5529 -140 1.032989e-38
76.404091 -1395.6455 -140 9.7770682e-39
67.199043 -1391.7382 -140 9.130268e-39
55.477127 -1419.3534 -150 8.7589562e-39
42.364769 -1424.6511 -150 7.8373614e-39
33.159714 -1420.7438 -150 6.2682392e-39
26.471527 -1385.3141 -150 4.9789326e-39
22.564224 -1394.519 -150 6.915045e-39
15.876038 -1359.0894 -140 1.1159998e-38
6.67099 -1355.182 -140 1.5311337e-38
56.673889 -1007.0446 -50 1.2550529e-38
47.468842 -1003.1372 -50 8.5792607e-39
38.263794 -999.22992 -60 4.1491775e-39
38.263794 -999.22992 -60 3.5920282e-39
25.151428 -1004.5276 -60 7.5593102e-39
25.151428 -1004.5276 -60 1.2263468e-38
12.039078 -1009.8254 -60 1.7059821e-38
4.224472 -1028.2356 -60 1.6691777e-38
-19.21936 -1083.4658 -80 1.660318e-38
-38.75589 -1129.4911 -90 1.5958155e-38
-56.901978 -1197.8337 -110 1.5585426e-38
-77.828934 -1221.5416 -120 1.4479787e-38
-85.643539 -1239.9517 -120 1.3280504e-38
-106.57053 -1263.6595 -130 1.2723367e-38
-122.19974 -1300.4797 -140 1.244712e-38
-127.49747 -1287.3674 -140 1.1709916e-38
-154.8486 -1351.8027 -150 1.0695413e-38
-160.14636 -1338.6904 -150 1.0604297e-38
-169.35141 -1334.7831 -150 1.0879449e-38
-178.55646 -1330.8759 -150 1.0975247e-38
-187.76151 -1326.9685 -150 1.1711028e-38
-196.96655 -1323.0612 -150 1.1804674e-38
-206.1716 -1319.1539 -150 1.0793769e-38
-219.28397 -1324.4517 -150 1.0332413e-38
-228.48901 -1320.5443 -150 9.6841733e-39
-245.5087 -1335.0471 -160 8.6725269e-39
-254.71375 -1331.1398 -160 9.0416695e-39
-275.64069 -1354.8477 -170 9.7792318e-39
-284.84576 -1350.9403 -170 9.9625623e-39
-294.05081 -1347.0331 -170 1.0424275e-38
-303.25586 -1343.1257 -170 1.0700148e-38
-300.73898 -1311.6033 -160 9.8739736e-39
-306.03674 -1298.491 -160 1.0239892e-38
-323.0564 -1312.9938 -160 1.0242763e-38
-332.26144 -1309.0864 -160 1.060795e-38
-345.37378 -1314.3842 -160 1.0791978e-38
-350.67157 -1301.2719 -160 1.0607209e-38
-350.67157 -1301.2719 -160 1.0516084e-38
-355.9693 -1288.1594 -160 9.6866928e-39
-369.08167 -1293.4572 -160 9.6831013e-39
-206.10126 -960.68494 -70 9.682723e-39
-215.30634 -956.77759 -70 9.7756459e-39
-224.51138 -952.8703 -70 9.9614791e-39
-233.71643 -948.96301 -70 1.0237711e-38
-233.71643 -948.96301 -70 9.8707352e-39
-239.01416 -935.85065 -70 9.0388263e-39
-248.21921 -931.94336 -70 6.3636887e-39
-240.4046 -913.53326 -60 3.5038123e-39
-249.60965 -909.62592 -60 1.0148722e-39
-249.60965 -909.62592 -60 1.1978257e-39
-258.81473 -905.71863 -60 1.1070692e-39
-268.01978 -901.81134 -60 1.1067119e-39
-277.22482 -897.90399 -60 9.2231783e-40
-277.22482 -897.90399 -60 9.2159897e-40
-290.33716 -903.20178 -60 1.9357509e-39
-303.44952 -908.49951 -70 3.8736584e-39
-411.99164 -1036.2439 -110 7.0083196e-39
-446.03101 -1065.2494 -120 6.5477044e-39
-508.81189 -1136.3729 -140 6.4558717e-39
-550.66583 -1183.7887 -150 6.2704057e-39
-584.70514 -1212.7942 -160 6.4558731e-39
-813.51129 -1495.8979 -250 6.3622411e-39
-826.62366 -1501.1957 -250 6.0863703e-39
-828.0141 -1478.8783 -250 5.9019805e-39
-875.16577 -1513.1816 -260 5.9930943e-39
-775.82874 -1381.53 -220 5.5324637e-39
-794.23883 -1373.7155 -220 4.797421e-39
-699.07306 -1175.1117 -170 1.1985502e-39
-721.39044 -1176.5021 -170 5.5317798e-40
-615.62921 -1004.123 -120 2.3077774e-39
-645.76123 -1023.9235 -130 3.2290233e-39
-668.07861 -1025.314 -130 3.5974428e-39
-698.21063 -1045.1145 -140 4.0580609e-39
-1096.087 -1419.4064 -260 4.0584238e-39
-1054.2332 -1371.9906 -250 3.9683904e-39
-1059.5309 -1358.8783 -240 4.1506306e-39
-1085.7556 -1369.4738 -250 4.4275679e-39
-1440.6516 -1642.5101 -350 3.8711459e-39
-1288.8651 -1489.6675 -290 3.1346584e-39
-1430.3201 -1592.5775 -330 2.765513e-39
-1465.7499 -1599.2657 -340 2.2126965e-39
-1461.8425 -1590.0607 -330 2.1194233e-39
-1510.3846 -1602.0466 -340 2.1197778e-39
-1596.8734 -1652.2432 -360 1.8439084e-39
405.53308 -1643.9883 -180 1.355527e-38
396.32803 -1640.0809 -180 1.4848544e-38
387.12299 -1636.1736 -180 1.6698227e-38
374.01062 -1641.4713 -180 1.7986841e-38
370.10333 -1650.6764 -180 1.8817307e-38
359.50781 -1624.4517 -180 1.9093531e-38
338.05283 -1495.845 -150 1.982965e-38
327.45734 -1469.6202 -140 2.0569356e-38
312.95453 -1452.6006 -140 2.0751951e-38
310.43768 -1484.123 -150 2.2040518e-38
305.13992 -1471.0107 -150 2.1673176e-38
288.12027 -1485.5135 -150 2.1948682e-38
288.12027 -1485.5135 -150 2.240786e-38
278.91522 -1481.6062 -150 2.2867037e-38
271.10062 -1500.0164 -160 2.3509886e-38
261.89557 -1496.109 -160 2.3509886e-38
244.87589 -1510.6118 -160 2.3509886e-38
243.48546 -1488.2944 -160 2.3509886e-38
230.37311 -1493.5922 -160 2.3509886e-38
221.16805 -1489.6848 -160 2.3509886e-38
211.963 -1485.7776 -160 2.3509886e-38
206.66525 -1472.6652 -160 2.3509886e-38
193.55289 -1477.9629 -160 2.3509886e-38
186.8647 -1442.5332 -150 2.3509886e-38
176.26921 -1416.3085 -150 2.341805e-38
172.36191 -1425.5135 -150 2.3050708e-38
161.76642 -1399.2888 -140 2.3234379e-38
155.07823 -1363.859 -140 2.3050708e-38
151.17093 -1373.0641 -140 2.2683366e-38
141.96587 -1369.1567 -140 2.240786e-38
124.94621 -1383.6595 -140 2.2224189e-38
124.94621 -1383.6595 -140 2.0295285e-38
115.74116 -1379.7523 -140 1.6604606e-38
101.23837 -1362.7327 -140 1.3463488e-38
97.331055 -1371.9376 -140 1.1246813e-38
80.311394 -1386.4404 -150 1.1616656e-38
80.311394 -1386.4404 -150 1.1797813e-38
61.901291 -1378.6259 -150 1.0693981e-38
57.993988 -1387.8309 -150 9.4932856e-39
44.88163 -1393.1287 -160 8.2054139e-39
39.583893 -1380.0164 -150 6.8228494e-39
34.286133 -1366.9039 -150 5.2562369e-39
25.081085 -1362.9966 -150 7.1019558e-39
15.876038 -1359.0894 -150 1.1528422e-38
6.67099 -1355.182 -150 1.5682274e-38
-2.5340729 -1351.2748 -150 1.3561806e-38
47.468842 -1003.1372 -60 9.5919777e-39
47.468842 -1003.1372 -60 4.7967105e-39
38.263794 -999.22992 -60 3.4108698e-39
25.151428 -1004.5276 -60 7.6529561e-39
21.244125 -1013.7327 -70 1.1711741e-38
5.6149139 -1050.553 -80 1.5772332e-38
-13.921616 -1096.5781 -90 1.6142911e-38
-17.828918 -1105.7832 -90 1.6145073e-38
-33.458145 -1142.6034 -100 1.6142551e-38
-52.994659 -1188.6287 -120 1.5681937e-38
-81.736237 -1230.7467 -130 1.5220596e-38
-93.45816 -1258.3618 -130 1.4294682e-38
-102.66321 -1254.4545 -140 1.3647871e-38
-133.92166 -1328.095 -160 1.2635852e-38
-165.18008 -1401.7354 -180 1.2447862e-38
-174.38513 -1397.828 -180 1.1253622e-38
-183.59018 -1393.9207 -180 1.0974531e-38
-188.88794 -1380.8083 -180 1.1434427e-38
-186.37106 -1349.2859 -170 1.0791227e-38
-187.76151 -1326.9685 -160 1.1622078e-38
-196.96655 -1323.0612 -160 1.171536e-38
-206.1716 -1319.1539 -160 1.17168e-38
-219.28397 -1324.4517 -160 1.1068202e-38
-228.48901 -1320.5443 -160 1.0698685e-38
-241.60138 -1325.842 -170 1.0421371e-38
-262.52835 -1349.5499 -170 9.5015771e-39
-279.548 -1364.0527 -180 1.0147305e-38
-292.66037 -1369.3505 -180 1.0147689e-38
-301.86542 -1365.4431 -180 1.0700862e-38
-314.97778 -1370.7408 -180 1.0240608e-38
-320.27551 -1357.6285 -180 1.0516826e-38
-323.0564 -1312.9938 -170 1.0884171e-38
-345.37378 -1314.3842 -180 1.1252589e-38
-354.57886 -1310.4768 -170 1.0974556e-38
-348.15466 -1269.7494 -160 1.0328814e-38
-206.10126 -960.68494 -80 9.5012114e-39
-215.30634 -956.77759 -80 9.7763619e-39
-224.51138 -952.8703 -80 9.8696338e-39
-233.71643 -948.96301 -80 9.7774409e-39
-233.71643 -948.96301 -80 1.0145158e-38
-242.92148 -945.05573 -80 9.1335191e-39
-263.84845 -968.76355 -80 6.4548151e-39
-244.31192 -922.73828 -70 3.2272268e-39
-253.51697 -918.83099 -70 1.1067105e-39
-258.81473 -905.71863 -70 1.1981873e-39
-262.72202 -914.92371 -70 1.2907402e-39
-271.92706 -911.01636 -70 1.1070692e-39
-411.99164 -1036.2439 -110 6.5473555e-39
-421.19672 -1032.3364 -120 6.7313824e-39
-430.40179 -1028.4292 -120 6.2722035e-39
-868.47766 -1548.6115 -280 5.9952593e-39
-856.75574 -1520.9963 -270 6.2693196e-39
-903.90735 -1555.2996 -290 5.7183067e-39
-913.11243 -1551.3923 -290 5.3480836e-39
-702.98035 -1184.3167 -180 2.2123476e-39
-708.27814 -1171.2043 -180 1.106e-39
-637.94659 -1005.5134 -130 3.5056116e-39
-1134.0337 -1457.6169 -290 3.8754703e-39
-1067.3455 -1377.2885 -260 4.2435339e-39
-1063.4381 -1368.0834 -260 4.2424591e-39
-1098.8679 -1374.7715 -260 4.3353694e-39
-1487.8032 -1676.8135 -370 3.6881923e-39
-1421.115 -1596.4849 -350 3.1339382e-39
-1447.3397 -1607.0803 -350 2.5821923e-39
-1503.6965 -1637.4763 -370 2.2126923e-39
-1508.9943 -1624.364 -360 2.0279395e-39
-1544.424 -1631.0522 -370 2.0279423e-39
409.4404 -1634.7832 -190 1.4108798e-38
389.63983 -1604.6511 -180 1.5677951e-38
387.12299 -1636.1736 -190 1.7429691e-38
377.91794 -1632.2664 -190 1.8814429e-38
364.8056 -1637.5641 -190 1.9277919e-38
359.50781 -1624.4517 -190 1.9462667e-38
350.3028 -1620.5444 -190 2.0014397e-38
326.06689 -1447.3029 -150 2.0107667e-38
316.86185 -1443.3956 -150 2.0935981e-38
305.13992 -1471.0107 -160 2.1122163e-38
305.13992 -1471.0107 -160 2.1765011e-38
292.02759 -1476.3085 -160 2.1856847e-38
282.82251 -1472.4011 -160 2.2683366e-38
273.61746 -1468.4939 -160 2.3234379e-38
269.71017 -1477.699 -160 2.3509886e-38
256.59781 -1482.9967 -160 2.3509886e-38
244.87589 -1510.6118 -170 2.3509886e-38
243.48546 -1488.2944 -170 2.3509886e-38
230.37311 -1493.5922 -170 2.3509886e-38
221.16805 -1489.6848 -170 2.3509886e-38
217.26074 -1498.8899 -170 2.3509886e-38
208.05569 -1494.9825 -170 2.3509886e-38
198.85065 -1491.0753 -170 2.3509886e-38
189.64558 -1487.168 -170 2.3509886e-38
176.53323 -1492.4657 -170 2.2683366e-38
171.23549 -1479.3534 -170 2.3509886e-38
160.64 -1453.1287 -170 2.3234379e-38
159.24956 -1430.8113 -160 2.2040518e-38
146.13719 -1436.109 -160 2.1673176e-38
131.6344 -1419.0894 -160 2.2224189e-38
128.85352 -1374.4546 -150 2.2499695e-38
123.29175 -1285.1849 -130 2.1489505e-38
121.90131 -1262.8676 -120 1.8635788e-38
111.56984 -1312.8 -140 1.5310646e-38
94.550171 -1327.3029 -140 1.1803968e-38
89.252426 -1314.1906 -140 1.0325213e-38
87.861984 -1291.873 -140 9.2195784e-39
68.325462 -1337.8983 -150 9.2177847e-39
59.120407 -1333.9911 -150 8.1128693e-39
60.246834 -1280.1511 -140 7.650815e-39
44.617615 -1316.9714 -140 5.9912782e-39
40.710312 -1326.1764 -150 5.5360524e-39
31.505249 -1322.2692 -150 9.3189711e-39
22.300201 -1318.3618 -150 1.3748327e-38
17.002457 -1305.2495 -140 1.7158512e-38
52.766586 -1016.2496 -70 1.4480889e-38
43.561539 -1012.3423 -70 1.023483e-38
38.263794 -999.22992 -70 5.1626176e-39
38.263794 -999.22992 -70 3.9622471e-39
25.151428 -1004.5276 -70 8.116807e-39
25.151428 -1004.5276 -70 1.3096119e-38
-54.385101 -1166.3113 -120 1.5036574e-38
-76.438492 -1243.859 -140 1.5127677e-38
-89.550842 -1249.1567 -140 1.4387968e-38
-98.75589 -1245.2494 -140 1.4201775e-38
-159.88232 -1414.8477 -190 1.4018097e-38
-169.0874 -1410.9404 -190 1.3189401e-38
-174.38513 -1397.828 -190 1.2544027e-38
-183.59018 -1393.9207 -190 1.2542232e-38
-192.79523 -1390.0134 -190 1.1991935e-38
-190.27838 -1358.491 -180 1.2175602e-38
-191.66882 -1336.1736 -170 1.2544393e-38
-204.78116 -1341.4713 -180 1.2546558e-38
-210.07892 -1328.3589 -170 1.2636607e-38
-219.28397 -1324.4517 -170 1.1898676e-38
-232.39633 -1329.7494 -180 1.1252229e-38
-249.41599 -1344.2522 -180 1.0606841e-38
-266.43564 -1358.755 -190 1.0698328e-38
-287.36261 -1382.4628 -190 1.024023e-38
-300.47498 -1387.7606 -200 1.0425704e-38
-309.68002 -1383.8533 -200 1.1250419e-38
-318.88507 -1379.9459 -200 1.0793049e-38
-331.99744 -1385.2437 -200 1.033137e-38
-345.1098 -1390.5415 -200 1.070086e-38
-326.96371 -1322.1987 -190 1.0610098e-38
-202.19397 -951.47986 -80 9.3153838e-39
-202.19397 -951.47986 -80 9.6841691e-39
-211.39902 -947.57257 -80 9.500847e-39
-224.51138 -952.8703 -80 9.4090241e-39
-233.71643 -948.96301 -80 9.5019428e-39
-233.71643 -948.96301 -90 9.8714428e-39
-246.82877 -954.26074 -90 8.6714759e-39
-263.84845 -968.76355 -90 5.9956236e-39
-248.21921 -931.94336 -80 2.8595233e-39
-257.42429 -928.03601 -80 1.1067091e-39
-262.72202 -914.92371 -80 1.1067119e-39
-262.72202 -914.92371 -80 1.1978243e-39
-404.17706 -1017.8337 -120 6.731381e-39
-421.19672 -1032.3364 -120 6.6402616e-39
-417.28943 -1023.1315 -120 6.3622285e-39
-443.5141 -1033.7269 -130 6.6384651e-39
-831.92145 -1488.0834 -280 5.441717e-39
-903.90735 -1555.2996 -300 5.5324721e-39
-909.20508 -1542.1873 -300 5.3466389e-39
-702.98035 -1184.3167 -190 2.0286696e-39
-712.18542 -1180.4094 -190 1.1981873e-39
-725.29779 -1185.7072 -190 4.6134109e-40
-620.92694 -991.01062 -140 3.3197812e-39
-651.05896 -1010.8112 -140 3.6889224e-39
-1115.6235 -1465.4316 -300 3.8747472e-39
-1124.8286 -1461.5243 -300 4.2424591e-39
-1067.3455 -1377.2885 -280 4.0602231e-39
-1072.6432 -1364.176 -270 4.6119521e-39
-1102.7753 -1383.9766 -280 4.2442542e-39
-1474.6909 -1671.5156 -390 3.4119698e-39
-1460.4521 -1612.3781 -370 2.4889317e-39
-1533.8285 -1657.2769 -390 2.3041691e-39
-1546.9409 -1662.5746 -390 2.1197778e-39
316.86185 -1443.3956 -160 2.0660833e-38
306.53036 -1493.3281 -170 2.1765011e-38
297.32532 -1489.4208 -170 2.2132353e-38
298.71576 -1511.7383 -180 2.2775202e-38
288.12027 -1485.5135 -170 2.2867037e-38
281.69611 -1526.2411 -180 2.3050708e-38
272.49106 -1522.3337 -180 2.3509886e-38
257.98825 -1505.3141 -180 2.341805e-38
251.56409 -1546.0416 -190 2.3509886e-38
247.92081 -1631.4039 -210 2.3509886e-38
234.2804 -1484.3871 -180 2.3509886e-38
223.68491 -1458.1624 -170 2.3509886e-38
215.8703 -1476.5725 -180 2.3509886e-38
199.71304 -1361.0781 -150 2.2683366e-38
191.89844 -1379.4883 -150 2.2683366e-38
181.56696 -1429.4208 -170 2.2775202e-38
168.45461 -1434.7185 -170 2.2683366e-38
159.24956 -1430.8113 -170 2.2867037e-38
153.95181 -1417.6989 -170 2.2591531e-38
146.13719 -1436.109 -170 2.2499695e-38
135.5417 -1409.8843 -170 2.1489505e-38
128.85352 -1374.4546 -160 2.1856847e-38
115.74116 -1379.7523 -160 2.102961e-38
114.35072 -1357.4348 -160 2.0386044e-38
101.23837 -1362.7327 -160 2.0203808e-38
97.331055 -1371.9376 -160 1.7261485e-38
76.404091 -1395.6455 -170 9.6157549e-39
69.715904 -1360.2157 -160 8.0401573e-39
40.710312 -1326.1764 -160 9.9830927e-39
32.895691 -1344.5865 -160 1.4126865e-38
28.988388 -1353.7916 -170 1.8263423e-38
19.78334 -1349.8843 -160 1.835238e-38
64.488503 -988.63446 -70 1.7431854e-38
55.283447 -984.72711 -70 1.4294333e-38
55.283447 -984.72711 -70 9.6827328e-39
46.0784 -980.81982 -70 4.3357239e-39
42.171097 -990.0249 -70 3.5952638e-39
29.058731 -995.32263 -80 7.9306234e-39
25.151428 -1004.5276 -80 1.2819877e-38
-169.0874 -1410.9404 -200 1.3925904e-38
-170.47784 -1388.6229 -190 1.300536e-38
-179.68289 -1384.7157 -190 1.2631925e-38
-188.88794 -1380.8083 -190 1.2541145e-38
-190.27838 -1358.491 -190 1.2360362e-38
-191.66882 -1336.1736 -180 1.2729161e-38
-200.87387 -1332.2662 -180 1.282062e-38
-206.1716 -1319.1539 -180 1.254477e-38
-219.28397 -1324.4517 -180 1.1990153e-38
-232.39633 -1329.7494 -190 1.1527364e-38
-249.41599 -1344.2522 -190 1.106639e-38
-266.43564 -1358.755 -200 1.0607918e-38
-279.548 -1364.0527 -200 1.0883797e-38
-292.66037 -1369.3505 -200 1.0703003e-38
-301.86542 -1365.4431 -200 1.0976718e-38
-314.97778 -1370.7408 -200 1.0792331e-38
-324.18283 -1366.8336 -210 1.0883812e-38
-202.19397 -951.47986 -90 9.4079451e-39
-202.19397 -951.47986 -90 9.6830845e-39
-211.39902 -947.57257 -90 9.3175404e-39
-224.51138 -952.8703 -90 9.4090283e-39
-233.71643 -948.96301 -90 9.8682058e-39
-233.71643 -948.96301 -90 9.6856152e-39
-246.82877 -954.26074 -90 8.7636589e-39
-263.84845 -968.76355 -100 5.9927496e-39
-248.21921 -931.94336 -90 2.9499182e-39
-257.42429 -928.03601 -90 1.106349e-39
-266.62933 -924.12872 -90 1.2903773e-39
-275.83438 -920.22144 -90 1.1067105e-39
-275.83438 -920.22144 -90 1.1063546e-39
-404.17706 -1017.8337 -130 6.6395483e-39
-417.28943 -1023.1315 -130 6.3629572e-39
-417.28943 -1023.1315 -130 6.3625943e-39
-430.40179 -1028.4292 -130 6.1789163e-39
-443.5141 -1033.7269 -130 6.086013e-39
-831.92145 -1488.0834 -290 5.7179339e-39
-900.00012 -1546.0946 -310 5.4406296e-39
-901.3905 -1523.7772 -310 4.8870985e-39
-706.8877 -1193.5217 -200 1.9364754e-39
-712.18542 -1180.4094 -200 9.219605e-40
-725.29779 -1185.7072 -200 4.6097955e-40
-734.50281 -1181.7998 -200 3.6842379e-40
-1105.0281 -1491.6564 -320 3.0464313e-39
-1106.4185 -1469.3389 -320 3.8736724e-39
-1128.736 -1470.7294 -320 3.8743941e-39
-1137.9409 -1466.822 -320 4.4261259e-39
-1105.2921 -1415.499 -300 4.149909e-39
-1093.5702 -1387.8839 -290 4.424691e-39
-1123.7021 -1407.6844 -300 3.9629842e-39
-1351.646 -1560.791 -360 2.0243452e-39
-1301.9774 -1494.9652 -340 1.4726077e-39
-1430.3201 -1592.5775 -380 8.2868027e-40
-1520.7162 -1651.9791 -400 6.4465054e-40
313.21857 -1528.7579 -190 2.1762859e-38
313.48257 -1604.9152 -210 2.2040518e-38
301.49664 -1556.373 -200 2.2040518e-38
278.91522 -1481.6062 -180 2.2683366e-38
256.59781 -1482.9967 -180 2.3509886e-38
252.95453 -1568.359 -210 2.3509886e-38
249.31125 -1653.7213 -230 2.3509886e-38
164.5473 -1443.9236 -180 2.1948682e-38
101.23837 -1362.7327 -170 2.0478597e-38
25.081085 -1362.9966 -180 1.8814796e-38
15.876038 -1359.0894 -180 1.8446378e-38
2.7636871 -1364.3871 -180 1.7802094e-38
1.3732452 -1342.0697 -170 1.3560018e-38
55.283447 -984.72711 -80 8.5771195e-39
-31.275635 -1393.3927 -190 3.6885623e-39
39.390213 -945.39008 -70 8.3933938e-39
17.336823 -1022.9378 -90 1.3098632e-38
-165.18008 -1401.7354 -210 1.3283043e-38
-154.8486 -1351.8027 -190 1.3281598e-38
-160.14636 -1338.6904 -190 1.3097928e-38
-169.35141 -1334.7831 -190 1.2454368e-38
-186.37106 -1349.2859 -200 1.2728795e-38
-187.76151 -1326.9685 -190 1.2635161e-38
-159.28397 -1208.6932 -160 1.2453641e-38
-184.11823 -1241.6062 -170 1.2451135e-38
-193.32327 -1237.6989 -170 1.2449335e-38
-198.62103 -1224.5865 -170 1.1621005e-38
-241.60138 -1325.842 -200 1.1252572e-38
-271.7334 -1345.6426 -210 1.0793758e-38
-284.84576 -1350.9403 -210 1.0884524e-38
-297.9581 -1356.2382 -210 1.042427e-38
-307.16315 -1352.3308 -210 1.0977446e-38
-281.20245 -1265.578 -190 1.088417e-38
-298.22214 -1280.0808 -190 1.0700499e-38
-323.0564 -1312.9938 -200 1.0790179e-38
-202.19397 -951.47986 -100 9.4994219e-39
-211.39902 -947.57257 -100 9.4082941e-39
-224.51138 -952.8703 -100 9.4072207e-39
-229.80911 -939.75793 -100 9.227151e-39
-233.71643 -948.96301 -100 9.7763689e-39
-242.92148 -945.05573 -100 8.4845455e-39
-259.94113 -959.55847 -100 5.5306826e-39
-248.21921 -931.94336 -100 2.6704419e-39
-257.42429 -928.03601 -100 1.1059888e-39
-270.53662 -933.3338 -100 1.2900157e-39
-279.74167 -929.42645 -100 1.1992621e-39
-408.08435 -1027.0388 -140 6.6388224e-39
-408.08435 -1027.0388 -140 6.5462667e-39
-413.38208 -1013.9264 -140 6.4540794e-39
-430.40179 -1028.4292 -140 5.9026867e-39
-439.60681 -1024.522 -140 5.8097778e-39
-835.82874 -1497.2885 -310 5.2551663e-39
-907.8147 -1564.5046 -330 5.3469934e-39
-888.2782 -1518.4794 -320 4.5175985e-39
-702.98035 -1184.3167 -210 1.6598885e-39
-712.18542 -1180.4094 -210 1.0127156e-39
-721.39044 -1176.5021 -210 4.6062082e-40
-730.59552 -1172.5947 -210 3.6806646e-40
-1101.1207 -1482.4513 -330 1.1967481e-39
-1110.3258 -1478.5439 -330 1.1056301e-39
-1132.6432 -1479.9344 -330 9.2160457e-40
-1141.8483 -1476.0271 -330 1.0137946e-39
-1143.2386 -1453.7097 -330 9.2160317e-40
-1097.4774 -1397.089 -310 8.3012361e-40
-1153.8342 -1427.485 -320 9.219577e-40
-1218.0055 -1476.2911 -340 7.3792938e-40
-1236.4156 -1468.4766 -340 7.3720911e-40
-1283.5673 -1502.7799 -360 6.4501488e-40
-1298.0701 -1485.7601 -350 6.4501208e-40
-1409.3932 -1568.8696 -390 4.6098095e-40
-1537.7358 -1666.4819 -420 4.6097955e-40
313.48257 -1604.9152 -220 2.1669947e-38
289.51071 -1507.8309 -190 2.2958873e-38
282.82251 -1472.4011 -190 2.2132353e-38
269.71017 -1477.699 -190 2.2867037e-38
269.71017 -1477.699 -190 2.2775202e-38
261.89557 -1496.109 -190 2.3509886e-38
252.95453 -1568.359 -220 2.3509886e-38
242.62305 -1618.2915 -230 2.3509886e-38
235.93488 -1582.8618 -220 2.3142544e-38
175.67084 -1622.4629 -240 2.1947606e-38
110.44341 -1366.6399 -180 2.0379228e-38
101.23837 -1362.7327 -180 1.9831444e-38
28.988388 -1353.7916 -180 1.9183573e-38
21.173782 -1372.2017 -190 1.9094248e-38
5.5445709 -1409.0219 -200 1.9000978e-38
4.154129 -1386.7045 -200 1.7895006e-38
1.3732452 -1342.0697 -180 1.3653626e-38
-14.255981 -1378.8899 -200 8.9473271e-39
-31.275635 -1393.3927 -200 4.1495362e-39
-39.090256 -1411.8027 -210 5.7193745e-39
-44.388 -1398.6904 -200 1.0423142e-38
-57.500351 -1403.9882 -210 1.4943265e-38
-83.98909 -1338.4264 -190 1.5955996e-38
-93.194122 -1334.519 -190 1.5496813e-38
-102.3992 -1330.6118 -190 1.5311359e-38
-119.41885 -1345.1146 -200 1.5124453e-38
-128.6239 -1341.2073 -200 1.4480159e-38
-141.73627 -1346.505 -200 1.47553e-38
-147.034 -1333.3927 -200 1.4203201e-38
-150.94131 -1342.5977 -200 1.3740069e-38
-165.44409 -1325.578 -200 1.3282681e-38
-194.18567 -1367.696 -210 1.309614e-38
-151.46936 -1190.2832 -160 1.2639104e-38
-171.00586 -1236.3085 -170 1.2819186e-38
-180.21091 -1232.4011 -180 1.2451854e-38
-189.41599 -1228.4938 -180 1.2081609e-38
-198.62103 -1224.5865 -170 1.1070357e-38
-215.64069 -1239.0894 -180 1.1528449e-38
-224.84573 -1235.182 -180 1.1803948e-38
-236.56766 -1262.7971 -190 1.1069986e-38
-241.86539 -1249.6848 -190 1.1070349e-38
-297.9581 -1356.2382 -220 1.1527741e-38
-264.1828 -1251.0752 -190 1.1161108e-38
-273.38785 -1247.168 -190 1.0609012e-38
-290.40753 -1261.6708 -200 1.0700483e-38
-206.10126 -960.68494 -110 9.0391444e-39
-211.39902 -947.57257 -100 9.7752843e-39
-224.51138 -952.8703 -110 9.4990576e-39
-233.71643 -948.96301 -100 9.4086626e-39
-233.71643 -948.96301 -110 7.6537072e-39
-242.92148 -945.05573 -110 4.4279336e-39
-256.03384 -950.35345 -110 1.7513652e-39
-248.21921 -931.94336 -100 1.106349e-39
-257.42429 -928.03601 -100 1.1974642e-39
-275.83438 -920.22144 -100 1.1074266e-39
-353.11804 -974.32532 -130 4.7030631e-39
-394.97198 -1021.741 -140 6.3636733e-39
-404.17706 -1017.8337 -140 6.3622313e-39
-413.38208 -1013.9264 -140 5.9920041e-39
-426.49445 -1019.2241 -150 5.8065254e-39
-520.79779 -1087.8308 -180 3.5880696e-39
-699.07306 -1175.1117 -220 5.5317518e-40
-708.27814 -1171.2043 -220 3.6914405e-40
-721.39044 -1176.5021 -220 3.6878252e-40
-730.59552 -1172.5947 -220 2.7658689e-40
-1025.2275 -1406.03 -320 7.3828671e-40
-1089.3988 -1454.8361 -340 8.3012641e-40
-1132.6432 -1479.9344 -350 6.4645121e-40
-1134.0337 -1457.6169 -340 9.2160177e-40
-1177.2781 -1482.7153 -350 8.301208e-40
-1148.5365 -1440.5973 -340 8.301208e-40
