# .PCD v0.7 - Point Cloud Data file format
VERSION 0.7
FIELDS x y z rgb
SIZE 4 4 4 4
TYPE F F F F
COUNT 1 1 1 1
WIDTH 1211
HEIGHT 1
VIEWPOINT 0 0 0 1 0 0 0
POINTS 1211
DATA ascii
1348.0511 -1805.0251 930 1.8626813e-38
4791.4414 179.10284 1700 1.6873252e-38
4901.7041 150.08362 1740 1.6873601e-38
4768.7617 99.820808 1710 1.6964003e-38
4717.7812 71.519531 1690 1.6875755e-38
4680.4604 46.878506 1690 1.6966164e-38
4665.4604 20.897743 1690 1.7240583e-38
4645.4604 -13.743279 1690 1.7150552e-38
4577.1592 -32.044563 1670 1.6781764e-38
4593.1401 -64.365067 1680 1.7240939e-38
4578.1401 -90.345825 1680 1.7148023e-38
4576.8003 -112.66634 1680 1.7150541e-38
4123.6914 -197.47403 1540 1.7240581e-38
4033.0698 -214.43558 1520 1.668957e-38
3987.0889 -234.0766 1510 1.6779607e-38
3963.4287 -255.05737 1500 1.6136386e-38
3917.448 -274.69839 1490 1.5676127e-38
3857.8069 -297.99969 1470 1.7146944e-38
3749.8647 -304.96121 1440 1.7240223e-38
3667.9031 -326.92276 1410 1.7057624e-38
3621.9224 -346.56378 1400 1.6598452e-38
3598.2622 -367.54456 1400 1.6781045e-38
3596.9224 -389.86505 1400 1.6873957e-38
3595.5828 -412.18558 1410 1.6781395e-38
3594.2429 -434.50607 1410 1.7240926e-38
3579.2429 -460.48682 1410 1.6872153e-38
3546.9224 -476.46759 1400 1.6596646e-38
3523.2622 -497.44836 1400 1.6963983e-38
3504.6018 -509.76892 1400 1.6136022e-38
3480.9417 -530.74963 1390 1.6228932e-38
3457.2815 -551.73041 1390 1.5953066e-38
3486.9224 -580.39069 1400 1.6320057e-38
4738.1143 -933.26233 1900 1.6042035e-38
4811.0566 -986.92261 1940 1.5767611e-38
4768.7363 -1020.2239 1930 1.5582136e-38
4731.416 -1044.8649 1920 1.5399532e-38
4707.7554 -1065.8456 1920 1.5489569e-38
4665.4351 -1099.1469 1910 1.5305545e-38
4628.1147 -1123.788 1900 1.4846359e-38
4604.4541 -1144.7687 1900 1.512079e-38
4615.4351 -1185.7494 1910 1.5304462e-38
4595.4351 -1220.3905 1910 1.5119355e-38
4646.0566 -1272.7109 1940 1.4753096e-38
4631.0566 -1298.6918 1940 1.4660177e-38
4593.7363 -1323.3328 1930 1.4477582e-38
4582.3965 -1362.9738 1930 1.5027879e-38
4576.0566 -1393.9546 1940 1.4568342e-38
4587.0376 -1434.9353 1950 1.4566544e-38
4567.0376 -1469.5763 1950 1.4382515e-38
4560.6978 -1500.5571 1950 1.4013729e-38
4458.999 -1776.7045 1970 1.3645671e-38
4452.6597 -1807.6852 1970 1.3368364e-38
4415.3389 -1832.3263 1970 1.3184697e-38
4412.6597 -1876.9673 1980 1.3185767e-38
4406.3198 -1907.948 1980 1.355132e-38
4412.3003 -1957.589 1990 1.345912e-38
4397.3003 -1983.5698 1990 1.3276168e-38
4377.3008 -2018.2109 1990 1.3276518e-38
4339.98 -2042.8518 1980 1.3002456e-38
4368.2812 -2093.8325 2000 1.3092854e-38
4313.6401 -2108.4736 1990 1.2816992e-38
4215.6982 -2098.1147 1950 1.2724439e-38
4152.3965 -2107.7556 1930 1.2815551e-38
4106.416 -2127.3967 1920 1.2724082e-38
4039.4543 -2123.3774 1900 1.2815551e-38
4019.4546 -2158.0186 1900 1.2909189e-38
3969.8135 -2163.9993 1880 1.3001389e-38
3946.1533 -2184.98 1880 1.3093939e-38
3673.666 -2096.9417 1770 1.3186852e-38
3594.384 -2074.2622 1730 1.3279046e-38
3510.1021 -2060.2429 1700 1.3186497e-38
3451.8008 -2061.2236 1680 1.3646408e-38
3402.1597 -2067.2046 1670 1.3183997e-38
3369.8391 -2083.1853 1660 1.1700587e-38
3316.5378 -2075.5059 1640 7.6428836e-39
3292.8777 -2096.4866 1630 6.9996554e-39
3359.4802 -2181.1274 1670 6.4526039e-39
3318.4995 -2192.1084 1660 6.3600551e-39
3303.4995 -2218.0891 1660 6.5433618e-39
3271.179 -2234.0698 1650 6.2678567e-39
3230.1982 -2245.0505 1650 6.5433576e-39
3185.5571 -2242.3711 1630 6.0823808e-39
3140.9163 -2239.6917 1610 5.0696736e-39
3091.2751 -2245.6724 1600 7.5596703e-39
3029.3137 -2232.9929 1570 1.2632958e-38
2984.6726 -2230.3135 1560 1.797996e-38
2910.3906 -2198.9736 1530 1.9085244e-38
2865.7495 -2196.2942 1510 1.9822077e-38
2812.4482 -2188.6147 1490 1.8162203e-38
2699.865 -2123.6147 1440 1.5212661e-38
2608.2625 -2082.2751 1400 1.3553848e-38
2568.6213 -2070.9353 1380 1.3369109e-38
2532.6406 -2073.2559 1370 1.4751318e-38
2505.3201 -2080.5764 1360 1.4015553e-38
2486.6599 -2092.8967 1360 1.4755995e-38
2412.3779 -2061.5571 1330 1.5859827e-38
2364.0767 -2045.2173 1310 1.6688871e-38
2333.0959 -2038.8777 1290 1.6965466e-38
2284.7947 -2022.5378 1280 1.7700517e-38
2215.5125 -1982.538 1250 1.7337483e-38
2217.833 -2018.5186 1250 1.8070733e-38
2262.115 -2101.8198 1290 1.6875075e-38
2054.6279 -1901.1982 1170 1.6967638e-38
2140.8716 -2031.8201 1230 1.7060894e-38
2109.8906 -2025.4802 1220 1.696944e-38
2049.269 -1990.4802 1190 1.715311e-38
2009.6279 -1979.1405 1180 1.6877967e-38
1957.6664 -1949.1405 1150 1.8073627e-38
1910.7048 -1910.4802 1120 1.8628956e-38
1850.0831 -1875.4802 1100 1.8811197e-38
1831.4229 -1887.8008 1100 1.9547306e-38
1809.1023 -1886.4611 1090 1.9088482e-38
1786.7819 -1885.1213 1080 1.8905894e-38
1755.801 -1878.7815 1070 1.8815155e-38
1733.4806 -1877.4418 1060 1.9457286e-38
1707.4998 -1862.4418 1050 1.9640957e-38
1688.8396 -1874.7623 1040 1.9457633e-38
1675.1793 -1878.4226 1040 1.9734943e-38
1644.1985 -1872.0829 1030 1.9274331e-38
1618.2178 -1857.0829 1010 1.9182497e-38
1592.2371 -1842.0829 1000 1.8816947e-38
1557.5959 -1822.0829 990 1.9276843e-38
1531.6152 -1807.0829 970 1.9460513e-38
1500.6344 -1800.7432 960 1.9642033e-38
1474.6537 -1785.7432 950 1.9184649e-38
1452.3331 -1784.4033 950 1.9734943e-38
1459.6537 -1811.7239 950 1.9181406e-38
1421.3524 -1778.0636 930 1.9182484e-38
1411.3524 -1795.3842 930 1.9276113e-38
1389.0319 -1794.0444 930 1.9826411e-38
1371.7114 -1784.0444 920 1.9182138e-38
1358.0511 -1787.7047 910 1.9364723e-38
1360.3717 -1823.6854 920 1.8628949e-38
1360.3717 -1823.6854 920 1.8996298e-38
1360.3717 -1823.6854 920 1.9363635e-38
1360.3717 -1823.6854 920 1.8261612e-38
4791.4414 179.10284 1670 1.7057636e-38
4848.4028 157.76311 1690 1.6964719e-38
4878.0439 129.10286 1710 1.7611885e-38
4791.0825 98.481064 1680 1.6875037e-38
4767.4224 77.500305 1680 1.7333863e-38
4769.7427 41.519539 1690 1.7059422e-38
4710.1016 18.218258 1670 1.724309e-38
4681.4414 -11.42276 1670 1.7424613e-38
4621.8003 -34.724045 1650 1.6967952e-38
4615.4604 -65.704811 1660 1.678176e-38
4555.8198 -89.006088 1640 1.7056908e-38
4496.1787 -112.30737 1620 1.6965787e-38
4548.1401 -142.30736 1650 1.7240225e-38
4137.3516 -193.81378 1520 1.7149461e-38
4024.4094 -209.43558 1490 1.7150887e-38
3987.0889 -234.0766 1480 1.7244166e-38
3949.7686 -258.71762 1470 1.6871081e-38
3903.7876 -278.35864 1460 1.6226418e-38
3871.4673 -294.33942 1450 1.6411528e-38
3758.5249 -309.96121 1420 1.7242732e-38
3690.2236 -328.26251 1400 1.7700475e-38
3644.2429 -347.90353 1380 1.7424954e-38
3603.2622 -358.88431 1370 1.761079e-38
3610.5828 -386.2048 1380 1.7333136e-38
3609.2429 -408.52533 1390 1.7334566e-38
3594.2429 -434.50607 1390 1.7059417e-38
3570.5828 -455.48688 1380 1.751644e-38
3560.5828 -472.80737 1380 1.7240209e-38
3545.5828 -498.78815 1380 1.6964697e-38
3521.9224 -519.76886 1380 1.6779959e-38
3520.5828 -542.08942 1380 1.6412616e-38
3510.5828 -559.40991 1380 1.6596278e-38
3557.5442 -598.07013 1400 1.6961108e-38
4738.1143 -933.26233 1870 1.6227867e-38
4811.0566 -986.92261 1900 1.64101e-38
4760.0762 -1015.2239 1890 1.5949119e-38
4731.416 -1044.8649 1880 1.6224989e-38
4707.7554 -1065.8456 1880 1.5949112e-38
4696.416 -1105.4867 1880 1.54885e-38
4667.7554 -1135.1277 1880 1.5397375e-38
4661.416 -1166.1084 1880 1.5120801e-38
4681.0566 -1212.0892 1900 1.5213001e-38
4657.3965 -1233.0699 1900 1.530447e-38
4685.6978 -1284.0507 1920 1.5487781e-38
4639.7173 -1303.6918 1900 1.5303386e-38
4611.0566 -1333.3328 1900 1.5212635e-38
4630.6978 -1379.3135 1920 1.5118644e-38
4633.0186 -1415.2943 1920 1.4476502e-38
4469.98 -1817.6852 1950 1.355382e-38
4432.6597 -1842.3263 1940 1.309358e-38
4434.98 -1878.307 1940 1.3643876e-38
4406.3198 -1907.948 1940 1.309393e-38
4403.6401 -1952.589 1950 1.3092497e-38
4388.6401 -1978.5698 1950 1.3276524e-38
4368.6401 -2013.2109 1950 1.3367289e-38
4357.3008 -2052.8518 1950 1.2999588e-38
4385.6021 -2103.8325 1970 1.2725152e-38
4374.2622 -2143.4736 1980 1.290632e-38
4310.9609 -2153.1147 1960 1.3275811e-38
4195.6982 -2132.7556 1910 1.2998159e-38
4115.0762 -2132.3967 1890 1.2815187e-38
4048.1147 -2128.3774 1860 1.2816274e-38
4002.134 -2148.0186 1860 1.3184325e-38
3952.4929 -2153.9993 1840 1.2816627e-38
3902.8521 -2159.98 1820 1.3001387e-38
3757.948 -2110.9609 1760 1.2818071e-38
3673.666 -2096.9417 1740 1.2908834e-38
3594.384 -2074.2622 1700 1.3276894e-38
3518.7622 -2065.2429 1680 1.3737865e-38
3460.4609 -2066.2236 1660 1.3280847e-38
3410.8201 -2072.2046 1640 1.1891807e-38
3378.4995 -2088.1853 1630 8.8461113e-39
3299.2175 -2065.5059 1600 5.9894719e-39
3266.897 -2081.4866 1590 6.451885e-39
3359.4802 -2181.1274 1640 6.4547619e-39
3318.4995 -2192.1084 1630 7.930608e-39
3303.4995 -2218.0891 1630 9.4997316e-39
3271.179 -2234.0698 1630 9.8732029e-39
3230.1982 -2245.0505 1610 8.9530584e-39
3185.5571 -2242.3711 1600 7.3803293e-39
3132.2559 -2234.6917 1580 5.4395408e-39
3082.615 -2240.6724 1560 7.1908892e-39
3029.3137 -2232.9929 1540 1.2539675e-38
2984.6726 -2230.3135 1530 1.7702304e-38
2919.0508 -2203.9736 1500 1.9728087e-38
2848.429 -2186.2942 1470 2.0099042e-38
2782.8074 -2159.9546 1450 1.8071436e-38
2699.865 -2123.6147 1410 1.5582878e-38
2625.583 -2092.2751 1380 1.3648562e-38
2572.2817 -2084.5955 1360 1.4386135e-38
2549.9612 -2083.2559 1350 1.4753834e-38
2496.6599 -2075.5764 1340 1.5123693e-38
2469.3394 -2082.8967 1330 1.5678317e-38
2408.7175 -2047.897 1300 1.6963301e-38
2355.4163 -2040.2173 1280 1.6779271e-38
2324.4355 -2033.8777 1270 1.6874712e-38
2276.1343 -2017.5378 1250 1.7242406e-38
2168.551 -1943.8777 1200 1.8348033e-38
2175.8716 -1971.1981 1210 1.6691404e-38
2076.9485 -1902.538 1160 1.6599215e-38
2054.6279 -1901.1982 1150 1.6966916e-38
2090.2498 -1979.4995 1180 1.7519731e-38
2050.6089 -1968.1597 1160 1.7521158e-38
2007.3075 -1943.1597 1140 1.8351633e-38
1988.6472 -1955.4802 1140 1.8443848e-38
1957.6664 -1949.1405 1130 1.8811543e-38
1923.0254 -1929.1405 1120 1.9179244e-38
1879.7241 -1904.1405 1090 1.8810106e-38
1848.7434 -1897.8008 1080 1.9360054e-38
1817.7626 -1891.4611 1070 1.9178876e-38
1783.1216 -1871.4611 1060 1.9730623e-38
1752.1409 -1865.1213 1050 1.9455482e-38
1729.8203 -1863.7815 1040 1.9550197e-38
1707.4998 -1862.4418 1030 1.9550915e-38
1688.8396 -1874.7623 1030 1.9367956e-38
1675.1793 -1878.4226 1020 1.9183932e-38
1640.5383 -1858.4226 1010 1.9825704e-38
1614.5575 -1843.4226 990 1.9276484e-38
1583.5768 -1837.0829 980 1.9551991e-38
1557.5959 -1822.0829 970 1.9551631e-38
1526.6152 -1815.7432 960 2.0105156e-38
1496.9742 -1787.0829 940 1.9825345e-38
1483.314 -1790.7432 940 1.9457637e-38
1460.9934 -1789.4033 930 1.9182847e-38
1459.6537 -1811.7239 940 1.9185358e-38
1433.673 -1796.7239 920 1.991968e-38
1420.0127 -1800.3842 920 1.9916102e-38
1397.6921 -1799.0444 910 1.9551274e-38
1375.3717 -1797.7047 910 1.9732419e-38
1374.0319 -1820.0251 910 1.9457277e-38
1369.0319 -1828.6854 910 1.9824621e-38
1369.0319 -1828.6854 910 1.8907703e-38
1369.0319 -1828.6854 910 1.8995579e-38
1369.0319 -1828.6854 910 1.8719356e-38
4733.1401 178.12207 1620 1.7518257e-38
4834.7427 154.10284 1660 1.7242389e-38
4864.3838 125.4426 1670 1.6965802e-38
4768.7617 99.820808 1640 1.7427136e-38
4740.1016 70.179787 1640 1.7241672e-38
4738.7617 47.85928 1650 1.7061587e-38
4701.4414 23.218258 1640 1.7426413e-38
4659.1211 -10.083023 1630 1.7150181e-38
4608.1401 -38.3843 1620 1.6967587e-38
4606.8003 -60.704811 1620 1.7148746e-38
4555.8198 -89.006088 1610 1.7610434e-38
4442.8774 -104.62788 1580 1.6689915e-38
4414.2173 -134.26891 1570 1.7146942e-38
4555.4604 -169.62787 1620 1.7148021e-38
4272.6147 -179.53172 1530 1.6965418e-38
4137.3516 -193.81378 1490 1.7239498e-38
4024.4094 -209.43558 1460 1.687323e-38
4023.0698 -231.7561 1460 1.7149093e-38
3985.7493 -256.39713 1450 1.7056546e-38
3962.0889 -277.37787 1450 1.6594845e-38
3916.1082 -297.01892 1440 1.6227493e-38
3798.166 -321.30096 1400 1.7148382e-38
3721.2043 -334.60223 1380 1.7885225e-38
3666.5635 -349.24329 1370 1.7424968e-38
3634.2429 -365.22403 1360 1.7334206e-38
3641.5635 -392.54456 1370 1.7700836e-38
3640.2236 -414.86505 1370 1.7978488e-38
3638.884 -437.18558 1370 1.7702257e-38
3601.5635 -461.8266 1370 1.8439426e-38
3591.5635 -479.14709 1370 1.8991861e-38
3567.9031 -500.12787 1360 1.9726915e-38
3544.2429 -521.10864 1360 1.8619494e-38
3542.9031 -543.42914 1360 1.6871397e-38
3541.5635 -565.74963 1370 1.6593018e-38
3628.166 -615.74963 1400 1.6414038e-38
4693.4736 -930.58282 1820 1.6686666e-38
4780.0762 -980.58276 1850 1.6226431e-38
4742.7554 -1005.2239 1850 1.6043823e-38
4745.0762 -1041.2046 1850 1.5859082e-38
4747.3965 -1077.1853 1860 1.5950546e-38
4758.3774 -1118.1661 1870 1.5213714e-38
4738.3774 -1152.8071 1870 1.6038067e-38
4749.3579 -1193.7878 1880 1.5855123e-38
4760.3389 -1234.7687 1890 1.5214063e-38
4714.3579 -1254.4097 1880 1.5487424e-38
4694.3579 -1289.0507 1880 1.5489218e-38
4665.6978 -1318.6918 1880 1.4844931e-38
4659.3579 -1349.6725 1880 1.4754531e-38
4504.6211 -1837.6852 1930 1.3370157e-38
4432.6597 -1842.3263 1900 1.41052e-38
4434.98 -1878.307 1910 1.3644226e-38
4414.98 -1912.948 1910 1.3461634e-38
4403.6401 -1952.589 1910 1.34602e-38
4397.3003 -1983.5698 1920 1.336908e-38
4359.98 -2008.2109 1910 1.3002094e-38
4339.98 -2042.8518 1910 1.3276171e-38
4337.3008 -2087.4929 1920 1.3366214e-38
4287.6597 -2093.4736 1900 1.2907744e-38
4276.3198 -2133.1147 1910 1.2633674e-38
4195.6982 -2132.7556 1880 1.29081e-38
4132.3965 -2142.3967 1860 1.2631873e-38
4082.7559 -2148.3774 1840 1.263225e-38
4028.1147 -2163.0186 1830 1.2723361e-38
3961.1533 -2158.9993 1810 1.2907394e-38
3890.5315 -2141.3198 1780 1.2908469e-38
3745.6277 -2092.3005 1720 1.2818427e-38
3661.3455 -2078.2815 1690 1.3367652e-38
3585.7239 -2069.2622 1670 1.2908834e-38
3527.4226 -2070.2429 1650 1.2075477e-38
3477.7815 -2076.2236 1630 1.077898e-38
3419.4802 -2077.2046 1610 7.4606504e-39
3369.8391 -2083.1853 1600 4.8838559e-39
3281.897 -2055.5059 1560 5.1622392e-39
3249.5764 -2071.4866 1560 7.2787674e-39
3342.1597 -2171.1274 1610 8.7567688e-39
3335.8201 -2202.1084 1610 8.4790987e-39
3303.4995 -2218.0891 1600 8.2943515e-39
3279.8394 -2239.0698 1600 8.1095959e-39
3247.5188 -2255.0505 1590 8.2028719e-39
3194.2175 -2247.3711 1570 8.5705768e-39
3140.9163 -2239.6917 1550 8.2954361e-39
3091.2751 -2245.6724 1540 9.3092167e-39
3037.9739 -2237.9929 1520 1.2998494e-38
2984.6726 -2230.3135 1500 1.779484e-38
2931.3713 -2222.634 1480 1.9821358e-38
2848.429 -2186.2942 1440 1.9639855e-38
2744.5061 -2126.2942 1400 1.8441665e-38
2670.2239 -2094.9546 1370 1.6044216e-38
2608.2625 -2082.2751 1350 1.4293212e-38
2572.2817 -2084.5955 1340 1.4476893e-38
2532.6406 -2073.2559 1320 1.5398129e-38
2487.9998 -2070.5764 1310 1.5948077e-38
2448.3586 -2059.2366 1290 1.6321523e-38
2391.3972 -2037.897 1270 1.6692116e-38
2355.4163 -2040.2173 1260 1.7151298e-38
2324.4355 -2033.8777 1240 1.6968689e-38
2276.1343 -2017.5378 1230 1.6873279e-38
2185.8716 -1953.8777 1180 1.6140027e-38
2167.2112 -1966.1981 1180 1.6505927e-38
2068.2881 -1897.538 1140 1.6785769e-38
2054.6279 -1901.1982 1130 1.7705911e-38
2056.9485 -1937.179 1140 1.8164365e-38
2046.9485 -1954.4995 1140 1.816581e-38
2015.9677 -1948.1597 1130 1.8626428e-38
1997.3075 -1960.4802 1120 1.8626793e-38
1974.9869 -1959.1405 1120 1.8904095e-38
1926.6857 -1942.8008 1100 1.9088848e-38
1879.7241 -1904.1405 1070 1.8628231e-38
1848.7434 -1897.8008 1070 1.881155e-38
1826.4229 -1896.4611 1050 1.9454402e-38
1778.1216 -1880.1213 1040 1.9269656e-38
1755.801 -1878.7815 1030 1.9547667e-38
1733.4806 -1877.4418 1020 1.9642375e-38
1707.4998 -1862.4418 1010 1.9457635e-38
1688.8396 -1874.7623 1010 1.927576e-38
1666.519 -1873.4226 1000 1.9367244e-38
1631.8781 -1853.4226 990 1.9736378e-38
1605.8972 -1838.4226 970 1.982678e-38
1583.5768 -1837.0829 960 1.936832e-38
1557.5959 -1822.0829 950 2.0010451e-38
1526.6152 -1815.7432 940 1.9277202e-38
1491.9742 -1795.7432 930 2.0011886e-38
1486.9742 -1804.4033 930 1.9643826e-38
1460.9934 -1789.4033 920 1.9828574e-38
1463.314 -1825.3842 920 1.9367241e-38
1433.673 -1796.7239 910 1.937047e-38
1420.0127 -1800.3842 900 1.9918613e-38
1394.0319 -1785.3842 890 2.0193399e-38
1380.3717 -1789.0444 890 1.8997381e-38
1370.3717 -1806.3649 890 1.8999898e-38
1360.3717 -1823.6854 890 1.9548387e-38
4733.1401 178.12207 1590 1.7243111e-38
4834.7427 154.10284 1630 1.7977802e-38
4878.0439 129.10286 1640 1.7334237e-38
4777.4219 94.820816 1620 1.7700846e-38
4740.1016 70.179787 1610 1.7701922e-38
4738.7617 47.85928 1610 1.7518969e-38
4710.1016 18.218258 1610 1.7700125e-38
4659.1211 -10.083023 1600 1.7150174e-38
4608.1401 -38.3843 1590 1.7334566e-38
4615.4604 -65.704811 1590 1.7057981e-38
4555.8198 -89.006088 1580 1.6872869e-38
4442.8774 -104.62788 1550 1.6964345e-38
4400.5566 -137.92917 1540 1.7149447e-38
4309.9351 -154.8907 1510 1.7149099e-38
4174.6724 -169.17276 1470 1.7239841e-38
4137.3516 -193.81378 1460 1.74246e-38
4033.0698 -214.43558 1440 1.7517517e-38
4076.3711 -239.43558 1450 1.779159e-38
4030.3901 -259.0766 1440 1.7518591e-38
4001.73 -288.71762 1440 1.6596994e-38
3947.0889 -303.35864 1420 1.6319338e-38
3834.1467 -318.98044 1390 1.6964338e-38
3765.8455 -337.28174 1370 1.7702264e-38
3688.8838 -350.58301 1350 1.7977779e-38
3651.5635 -375.22403 1340 1.7426049e-38
3663.884 -393.88428 1350 1.7239841e-38
3657.5442 -424.86505 1350 1.5028242e-38
3656.2043 -447.18555 1360 1.1895383e-38
3632.5442 -468.16632 1350 9.4946981e-39
3622.5442 -485.48682 1350 8.8468078e-39
3598.884 -506.46759 1350 9.398897e-39
3575.2236 -527.44836 1350 8.6598942e-39
3582.5442 -554.76886 1350 7.2776786e-39
3589.8647 -582.08936 1360 8.9393593e-39
4771.416 -975.58276 1810 1.6044192e-38
4760.0762 -1015.2239 1820 1.6503732e-38
4793.3774 -1057.5443 1830 1.6409372e-38
4795.6978 -1093.5251 1840 1.5762565e-38
4798.0186 -1129.5059 1850 1.5854388e-38
4800.3389 -1165.4866 1860 1.5301584e-38
4819.98 -1211.4674 1870 1.5305537e-38
4799.98 -1246.1084 1870 1.5580319e-38
4784.98 -1272.0891 1870 1.5397381e-38
4773.6401 -1311.7302 1880 1.5764005e-38
4767.3003 -1342.7109 1880 1.5581413e-38
4804.2617 -1398.6917 1900 1.5213708e-38
4458.6401 -1857.3263 1880 1.410592e-38
4452.3003 -1888.307 1880 1.318469e-38
4432.3003 -1922.948 1880 1.2447129e-38
4420.9609 -1962.589 1890 1.272191e-38
4414.6211 -1993.5698 1890 1.3368355e-38
4385.9609 -2023.2109 1890 1.3461275e-38
4348.6401 -2047.8518 1870 1.3092494e-38
4350.9609 -2083.8325 1880 1.3091055e-38
4313.6401 -2108.4736 1880 1.3183981e-38
4302.3008 -2148.1147 1880 1.3091415e-38
4230.3389 -2152.7556 1860 1.30003e-38
4158.3774 -2157.3967 1840 1.2816625e-38
4091.416 -2153.3774 1810 1.2724083e-38
4036.7749 -2168.0186 1800 1.3093216e-38
3978.4736 -2168.9993 1780 1.2815557e-38
3728.3071 -2082.3005 1680 1.2725875e-38
3665.0059 -2091.9417 1660 1.2077997e-38
3598.0442 -2087.9224 1640 9.2181351e-39
3553.4033 -2085.2429 1630 4.9756928e-39
3495.1021 -2086.2236 1610 3.2254079e-39
3436.8008 -2087.2046 1590 2.8577044e-39
3361.179 -2078.1853 1570 4.8852824e-39
3281.897 -2055.5059 1530 8.018852e-39
3249.5764 -2071.4866 1530 1.169947e-38
3350.8201 -2176.1274 1580 9.4871381e-39
3356.8008 -2225.7686 1590 8.7535332e-39
3312.1597 -2223.0891 1580 8.753166e-39
3297.1597 -2249.0698 1570 9.0293984e-39
3264.8394 -2265.0505 1570 9.0308333e-39
3211.5381 -2257.3711 1550 9.1223087e-39
3144.5764 -2253.3518 1530 8.8453687e-39
3091.2751 -2245.6724 1510 8.5720132e-39
3037.9739 -2237.9929 1490 1.2077981e-38
2984.6726 -2230.3135 1470 1.6967241e-38
2922.7112 -2217.634 1450 1.9268549e-38
2857.0894 -2191.2942 1420 1.9453292e-38
2744.5061 -2126.2942 1380 1.7978526e-38
2678.8843 -2099.9546 1350 1.5952017e-38
2616.9226 -2087.2751 1330 1.4016273e-38
2589.6023 -2094.5955 1320 1.4478685e-38
2541.301 -2078.2559 1300 1.5769069e-38
2496.6599 -2075.5764 1290 1.6411921e-38
2477.9998 -2087.8967 1280 1.7057296e-38
2408.7175 -2047.897 1250 1.7333888e-38
2355.4163 -2040.2173 1240 1.7704822e-38
2324.4355 -2033.8777 1220 1.7244578e-38
2284.7947 -2022.5378 1210 1.6966901e-38
2198.1919 -1972.538 1170 1.6415885e-38
2179.5317 -1984.8584 1170 1.687686e-38
2115.2498 -1936.1981 1140 1.7336408e-38
2075.6086 -1924.8584 1120 1.8348054e-38
2056.9485 -1937.179 1120 1.8351637e-38
2046.9485 -1954.4995 1120 1.8717554e-38
2015.9677 -1948.1597 1110 1.8444199e-38
1988.6472 -1955.4802 1100 1.8904814e-38
1966.3267 -1954.1405 1090 1.9274681e-38
1923.0254 -1929.1405 1070 1.9364359e-38
1879.7241 -1904.1405 1060 1.8810481e-38
1852.4036 -1911.4611 1050 1.8995946e-38
1817.7626 -1891.4611 1030 1.9733507e-38
1783.1216 -1871.4611 1020 1.9730977e-38
1755.801 -1878.7815 1010 1.9824985e-38
1738.4806 -1868.7815 1000 2.0005404e-38
1707.4998 -1862.4418 990 1.9824269e-38
1688.8396 -1874.7623 990 1.9367961e-38
1666.519 -1873.4226 980 2.0011163e-38
1640.5383 -1858.4226 970 2.0011527e-38
1609.5575 -1852.0829 960 1.9920766e-38
1592.2371 -1842.0829 950 2.0012245e-38
1561.2562 -1835.7432 940 1.9920768e-38
1543.9357 -1825.7432 930 1.9737097e-38
1500.6344 -1800.7432 910 2.0103004e-38
1490.6344 -1818.0636 920 1.9644185e-38
1452.3331 -1784.4033 900 1.9551632e-38
1463.314 -1825.3842 910 2.0103003e-38
1433.673 -1796.7239 890 1.9921485e-38
1415.0127 -1809.0444 890 2.0010451e-38
1389.0319 -1794.0444 880 2.0101928e-38
1384.0319 -1802.7047 880 1.9734227e-38
1379.0319 -1811.3649 880 1.9641315e-38
1360.3717 -1823.6854 870 1.9273601e-38
1360.3717 -1823.6854 870 1.9184285e-38
1360.3717 -1823.6854 870 1.9551632e-38
1360.3717 -1823.6854 870 1.9733861e-38
4719.48 174.46182 1550 1.7886679e-38
4812.4219 155.4426 1590 1.751897e-38
4842.063 126.78235 1600 1.779447e-38
4755.1016 96.160553 1580 1.7520768e-38
4731.4414 75.179787 1570 1.7701922e-38
4725.1016 44.199024 1580 1.7611155e-38
4696.4414 14.558002 1570 1.7428207e-38
4659.1211 -10.083023 1570 1.7979207e-38
4608.1401 -38.3843 1560 1.6876464e-38
4606.8003 -60.704811 1560 1.7333845e-38
4555.8198 -89.006088 1550 1.7059053e-38
4451.5376 -109.62788 1520 1.7148016e-38
4400.5566 -137.92917 1510 1.7147657e-38
4318.5952 -159.8907 1480 1.7516801e-38
4263.9541 -174.53174 1470 1.7700462e-38
4189.3135 -223.81378 1460 1.7607915e-38
4107.3516 -245.77533 1440 1.7978484e-38
4025.3901 -267.73685 1410 1.7520031e-38
3993.0698 -283.71762 1410 1.7424963e-38
3916.1082 -297.01892 1390 1.6779949e-38
3834.1467 -318.98044 1360 1.6778873e-38
3788.166 -338.62146 1350 1.807069e-38
3733.5249 -353.26251 1340 1.8529506e-38
3696.2043 -377.90353 1330 1.7334555e-38
3694.8647 -400.22403 1340 1.7150168e-38
3684.8647 -417.54453 1340 1.5766876e-38
3669.8647 -443.5253 1340 1.3369452e-38
3654.8647 -469.50604 1330 9.218484e-39
3644.8647 -486.8266 1330 7.5596731e-39
3621.2043 -507.80737 1330 7.3749259e-39
3597.5442 -528.78809 1330 7.5607451e-39
3604.8647 -556.10864 1330 8.8558027e-39
3612.1853 -583.42914 1340 1.2083008e-38
4780.0762 -980.58276 1780 1.7240569e-38
4773.7363 -1011.5636 1790 1.6595927e-38
4815.6978 -1058.884 1800 1.5305182e-38
4826.6787 -1099.8649 1820 1.1893243e-38
4828.999 -1135.8456 1820 8.8471777e-39
4831.3198 -1171.8264 1830 8.1992874e-39
4850.9604 -1217.8071 1850 1.0043901e-38
4830.9604 -1252.4481 1850 1.1523718e-38
4815.9604 -1278.429 1850 1.216802e-38
4804.6211 -1318.0699 1850 1.2993087e-38
4798.2812 -1349.0507 1860 1.4284551e-38
4852.563 -1415.0315 1880 1.4933153e-38
4480.9609 -1858.666 1850 1.3554546e-38
4486.9414 -1908.307 1860 1.1894671e-38
4458.2812 -1937.948 1860 9.2199203e-39
4443.2812 -1963.9288 1860 8.8518567e-39
4440.6021 -2008.5698 1860 1.1709916e-38
4429.2622 -2048.2109 1860 1.3091768e-38
4365.9609 -2057.8518 1850 1.2449294e-38
4359.6211 -2088.8325 1850 1.2634027e-38
4330.9609 -2118.4736 1850 1.2631879e-38
4328.2812 -2163.1147 1850 1.2725151e-38
4247.6597 -2162.7556 1830 1.2815907e-38
4180.6982 -2158.7366 1810 1.2907027e-38
4117.3965 -2168.3774 1790 1.318217e-38
4062.7559 -2183.0186 1770 1.2817704e-38
4004.4546 -2183.9993 1760 1.2725147e-38
3745.6277 -2092.3005 1660 1.1339351e-38
3673.666 -2096.9417 1640 8.7557066e-39
3615.3647 -2097.9224 1620 5.4355821e-39
3557.0635 -2098.9031 1600 4.6097731e-39
3495.1021 -2086.2236 1580 4.0576825e-39
3445.4609 -2092.2043 1560 4.8881648e-39
3361.179 -2078.1853 1540 6.3661648e-39
3281.897 -2055.5059 1500 9.4043004e-39
3249.5764 -2071.4866 1500 1.0413412e-38
3307.5188 -2151.1274 1530 1.040729e-38
3356.8008 -2225.7686 1560 8.6631284e-39
3303.4995 -2218.0891 1540 8.6616893e-39
3297.1597 -2249.0698 1550 8.9386433e-39
3264.8394 -2265.0505 1540 8.6624165e-39
3223.8584 -2276.0312 1530 8.6631368e-39
3161.897 -2263.3518 1500 8.9379244e-39
3108.5957 -2255.6724 1490 8.6645647e-39
3037.9739 -2237.9929 1460 1.2078692e-38
2976.0125 -2225.3135 1440 1.7057273e-38
2922.7112 -2217.634 1420 1.6408692e-38
2857.0894 -2191.2942 1400 1.4654795e-38
2774.147 -2154.9546 1360 1.2904871e-38
2682.5444 -2113.6147 1330 1.3737512e-38
2625.583 -2092.2751 1300 1.3557455e-38
2606.9226 -2104.5955 1300 1.521553e-38
2541.301 -2078.2559 1280 1.5766911e-38
2487.9998 -2070.5764 1260 1.5768362e-38
2460.6792 -2077.8967 1250 1.6228966e-38
2391.3972 -2037.897 1220 1.6784298e-38
2360.4163 -2031.5571 1210 1.7795575e-38
2324.4355 -2033.8777 1200 1.7428242e-38
2288.4548 -2036.1982 1190 1.7611551e-38
2177.2112 -1948.8777 1140 1.7059458e-38
2167.2112 -1966.1981 1140 1.7705541e-38
2094.269 -1912.538 1100 1.8166533e-38
2084.269 -1929.8584 1100 1.8629303e-38
2056.9485 -1937.179 1100 1.8626072e-38
2046.9485 -1954.4995 1100 1.8537466e-38
2024.6279 -1953.1597 1090 1.8810833e-38
1988.6472 -1955.4802 1080 1.9731332e-38
1957.6664 -1949.1405 1070 1.8630754e-38
1914.3651 -1924.1405 1050 1.9640933e-38
1874.7241 -1912.8008 1040 1.9272517e-38
1852.4036 -1911.4611 1030 1.9549832e-38
1817.7626 -1891.4611 1020 1.9826058e-38
1783.1216 -1871.4611 1000 2.0193763e-38
1755.801 -1878.7815 990 1.9643826e-38
1738.4806 -1868.7815 980 1.9914291e-38
1707.4998 -1862.4418 970 1.9451154e-38
1693.8396 -1866.1021 970 1.9912504e-38
1675.1793 -1878.4226 970 1.9730267e-38
1649.1985 -1863.4226 960 2.0187275e-38
1609.5575 -1852.0829 940 2.0193752e-38
1583.5768 -1837.0829 930 1.9828574e-38
1557.5959 -1822.0829 920 1.9828932e-38
1526.6152 -1815.7432 910 1.9830009e-38
1500.6344 -1800.7432 900 1.9921485e-38
1507.955 -1828.0636 900 1.9367961e-38
1473.314 -1808.0636 890 2.0196273e-38
1492.955 -1854.0444 900 1.9919333e-38
1461.9742 -1847.7046 890 2.0382098e-38
1432.3331 -1819.0444 880 1.9734944e-38
1385.3717 -1780.3842 860 2.0104439e-38
1380.3717 -1789.0444 860 1.9551632e-38
1370.3717 -1806.3649 860 1.9551259e-38
1360.3717 -1823.6854 860 1.9736021e-38
1360.3717 -1823.6854 860 1.9184289e-38
1360.3717 -1823.6854 860 2.0099058e-38
1360.3717 -1823.6854 860 1.9178891e-38
4790.1016 156.78235 1550 1.7514643e-38
4842.063 126.78235 1570 1.7518235e-38
4777.4219 94.820816 1550 1.7242734e-38
4776.0825 72.500305 1560 1.7794103e-38
4761.0825 46.519539 1560 1.7335651e-38
4718.7617 13.218262 1550 1.7336003e-38
4681.4414 -11.42276 1540 1.7885938e-38
4630.4604 -39.724045 1530 1.8067823e-38
4606.8003 -60.704811 1530 1.7426043e-38
4555.8198 -89.006088 1520 1.7425322e-38
4473.8579 -110.96762 1500 1.7795162e-38
4391.8965 -132.92917 1480 1.7610063e-38
4309.9351 -154.8907 1450 1.724093e-38
4317.2554 -182.21121 1460 1.7152319e-38
3963.4287 -255.05737 1360 1.8622414e-38
3970.7493 -282.37787 1370 1.8161446e-38
3911.1082 -305.67917 1360 1.6965058e-38
3834.1467 -318.98044 1340 1.7239484e-38
3810.4863 -339.96121 1330 1.8344765e-38
3755.8455 -354.60223 1320 1.8440547e-38
3740.8455 -380.58301 1320 1.7794104e-38
3708.5249 -396.56378 1310 1.7243439e-38
3693.5249 -422.54453 1310 1.806889e-38
3669.8647 -443.5253 1310 1.751716e-38
3646.2043 -464.50604 1310 1.742567e-38
3644.8647 -486.8266 1310 1.567684e-38
3621.2043 -507.80737 1310 1.5121517e-38
3606.2043 -533.78809 1300 1.4938209e-38
3613.5249 -561.10864 1310 1.7426756e-38
3674.1467 -596.10858 1340 1.7702978e-38
4766.416 -984.24304 1740 1.7148742e-38
4782.3965 -1016.5636 1750 1.6871796e-38
4824.3579 -1063.884 1780 1.5764727e-38
4874.98 -1116.2046 1800 1.2906657e-38
4908.2812 -1158.525 1820 9.0348102e-39
4901.9414 -1189.5059 1820 8.1124713e-39
4912.9224 -1230.4866 1830 8.8482399e-39
4892.9224 -1265.1276 1830 9.1237338e-39
4872.9224 -1299.7687 1830 8.5716544e-39
4835.6016 -1324.4097 1820 9.1233807e-39
4815.6016 -1359.0507 1820 8.8460805e-39
4874.8838 -1416.3712 1850 9.1230149e-39
4498.2812 -1868.666 1820 9.4903765e-39
4495.6016 -1913.307 1820 8.1117581e-39
4489.2622 -1944.2877 1830 7.1898088e-39
4460.6016 -1973.9288 1820 6.9128618e-39
4440.6021 -2008.5698 1820 9.2137812e-39
4420.6021 -2043.2109 1820 1.1519405e-38
4357.3008 -2052.8518 1810 1.2813386e-38
4337.3008 -2087.4929 1810 1.2909892e-38
4296.3198 -2098.4736 1800 1.3092847e-38
4310.9609 -2153.1147 1810 1.3275089e-38
4264.98 -2172.7556 1800 1.2722993e-38
4198.0186 -2168.7366 1780 1.2723353e-38
4134.7173 -2178.3774 1760 1.2264174e-38
4088.7366 -2198.0186 1750 1.2815181e-38
4021.7749 -2193.9993 1730 1.2447136e-38
3766.6084 -2115.9609 1630 7.4689222e-39
3699.6467 -2111.9417 1610 3.9640534e-39
3632.6853 -2107.9224 1590 3.1353787e-39
3557.0635 -2098.9031 1570 2.3045348e-39
3495.1021 -2086.2236 1550 2.950256e-39
3445.4609 -2092.2043 1530 7.8348097e-39
3343.8584 -2068.1853 1500 1.0784357e-38
3281.897 -2055.5059 1470 1.2072954e-38
3240.9163 -2066.4866 1460 9.1212367e-39
3277.8777 -2122.4673 1490 1.0594195e-38
3344.4802 -2207.1084 1520 9.0315522e-39
3294.8394 -2213.0891 1510 9.031192e-39
3297.1597 -2249.0698 1510 9.0311906e-39
3264.8394 -2265.0505 1510 9.0301158e-39
3223.8584 -2276.0312 1500 9.2152204e-39
3161.897 -2263.3518 1470 8.9386447e-39
3117.2559 -2260.6724 1460 8.941153e-39
3037.9739 -2237.9929 1430 1.1985786e-38
2955.0315 -2201.6531 1400 1.5949485e-38
2919.0508 -2203.9736 1390 1.4378928e-38
2865.7495 -2196.2942 1370 1.1335381e-38
2782.8074 -2159.9546 1340 1.1798873e-38
2691.2048 -2118.6147 1310 1.2910254e-38
2625.583 -2092.2751 1280 1.4016984e-38
2619.2432 -2123.2559 1280 1.4660914e-38
2553.6213 -2096.916 1260 1.4294298e-38
2505.3201 -2080.5764 1240 1.5491391e-38
2460.6792 -2077.8967 1230 1.6322972e-38
2408.7175 -2047.897 1200 1.6693188e-38
2364.0767 -2045.2173 1190 1.6596318e-38
2324.4355 -2033.8777 1180 1.6596664e-38
2297.115 -2041.1982 1170 1.6781784e-38
2194.5317 -1958.8777 1120 1.7614773e-38
2158.551 -1961.1981 1110 1.8349831e-38
2097.9292 -1926.1981 1090 1.8349102e-38
2087.9292 -1943.5187 1090 1.8626066e-38
2065.6089 -1942.179 1080 1.8536376e-38
2038.2882 -1949.4995 1070 1.8444564e-38
2015.9677 -1948.1597 1070 1.8629309e-38
1984.9869 -1941.8199 1060 1.9367223e-38
1954.0061 -1935.4802 1040 1.9365438e-38
1914.3651 -1924.1405 1030 1.9549117e-38
1883.3844 -1917.8008 1020 1.9363648e-38
1861.0638 -1916.4611 1010 1.9367587e-38
1821.4229 -1905.1213 1000 2.0013321e-38
1786.7819 -1885.1213 980 2.0012602e-38
1764.4613 -1883.7815 980 1.9825345e-38
1733.4806 -1877.4418 970 1.9277561e-38
1707.4998 -1862.4418 960 2.0102284e-38
1693.8396 -1866.1021 950 1.9918615e-38
1675.1793 -1878.4226 950 1.9736379e-38
1649.1985 -1863.4226 940 2.0195198e-38
1618.2178 -1857.0829 930 2.0196633e-38
1592.2371 -1842.0829 920 1.9923279e-38
1557.5959 -1822.0829 900 1.992292e-38
1535.2755 -1820.7432 900 2.0656169e-38
1496.9742 -1787.0829 880 2.0379228e-38
1495.6344 -1809.4033 880 1.9737814e-38
1460.9934 -1789.4033 870 2.0012245e-38
1471.9742 -1830.3842 880 1.982965e-38
1445.9934 -1815.3842 870 2.0378869e-38
1407.6921 -1781.7239 850 2.0197351e-38
1381.7114 -1766.7239 840 2.0107667e-38
1371.7114 -1784.0444 840 1.9554143e-38
1358.0511 -1787.7047 840 2.0011168e-38
1356.7114 -1810.0251 840 1.9824977e-38
4790.1016 156.78235 1520 1.705511e-38
4850.7231 121.78235 1540 1.6963274e-38
4804.7427 102.14133 1530 1.724129e-38
4798.4028 71.160561 1530 1.724094e-38
4761.0825 46.519539 1530 1.7887017e-38
4723.7617 21.878513 1520 1.7794819e-38
4681.4414 -11.42276 1510 1.8070688e-38
4644.1211 -36.063789 1500 1.788665e-38
4606.8003 -60.704811 1500 1.7978855e-38
4569.48 -85.345825 1490 1.7610783e-38
4518.499 -113.64711 1480 1.760899e-38
4427.8774 -130.60866 1460 1.7426758e-38
4376.8965 -158.90993 1450 1.7886293e-38
4384.2173 -186.23044 1450 1.7333839e-38
4617.063 -262.92914 1540 1.7887363e-38
3927.448 -257.3779 1330 1.7889887e-38
3939.7686 -276.03815 1340 1.8164315e-38
3911.1082 -305.67917 1330 1.7607912e-38
3865.1274 -325.32019 1320 1.7700462e-38
3841.4673 -346.30096 1320 1.742532e-38
3795.4866 -365.94199 1310 1.8346197e-38
3780.4866 -391.92273 1310 1.8069238e-38
3725.8455 -406.56378 1290 1.7793384e-38
3715.8455 -423.88428 1290 1.8255433e-38
3678.5249 -448.5253 1290 1.8161445e-38
3668.5249 -465.84583 1290 1.7702619e-38
3675.8455 -493.16632 1290 1.6686319e-38
3660.8455 -519.14709 1290 1.401587e-38
3650.8455 -536.46759 1290 1.3185044e-38
3675.4866 -573.78809 1310 1.723947e-38
3767.0891 -615.12781 1340 1.7795186e-38
4645.1724 -914.2431 1660 1.733312e-38
4757.7554 -979.24304 1700 1.7794105e-38
4782.3965 -1016.5636 1720 1.760719e-38
4833.0186 -1068.884 1740 1.6041665e-38
4874.98 -1116.2046 1760 1.3000646e-38
4916.9414 -1163.525 1780 9.5886944e-39
4919.2617 -1199.5059 1790 5.5320839e-39
4930.2427 -1240.4866 1800 4.0558762e-39
4901.5825 -1270.1276 1800 4.4239357e-39
4881.5825 -1304.7687 1800 4.5172089e-39
4861.5825 -1339.4097 1790 4.332103e-39
4824.2617 -1364.0507 1790 4.6086871e-39
4914.5249 -1427.7109 1830 4.700161e-39
4449.98 -1852.3263 1760 7.8319272e-39
4469.6211 -1898.307 1770 7.2798408e-39
4475.6016 -1947.948 1790 6.7291866e-39
4469.2622 -1978.9288 1790 7.0043245e-39
4449.2622 -2013.5698 1790 7.2809142e-39
4429.2622 -2048.2109 1790 6.9139267e-39
4383.2812 -2067.8518 1780 8.4805336e-39
4350.9609 -2083.8325 1770 1.1061658e-38
4287.6597 -2093.4736 1750 1.2631156e-38
4302.3008 -2148.1147 1770 1.2999927e-38
4264.98 -2172.7556 1760 1.3091777e-38
4198.0186 -2168.7366 1740 1.3089977e-38
4152.0381 -2188.3774 1730 1.2354929e-38
4114.7173 -2213.0186 1720 1.253825e-38
4056.416 -2213.9993 1700 1.2260584e-38
3937.4929 -2179.98 1660 1.0232283e-38
3809.9097 -2140.9609 1620 7.2816639e-39
3716.9673 -2121.9417 1590 4.2417164e-39
3650.0059 -2117.9224 1570 3.4123173e-39
3557.0635 -2098.9031 1540 4.1487963e-39
3495.1021 -2086.2236 1510 4.2420682e-39
3436.8008 -2087.2046 1500 8.7571289e-39
3340.1982 -2054.5249 1460 9.4957855e-39
3290.5571 -2060.5059 1450 1.1889293e-38
3240.9163 -2066.4866 1440 9.1219541e-39
3269.2175 -2117.4673 1450 1.0961547e-38
3335.8201 -2202.1084 1490 9.1219429e-39
3286.179 -2208.0891 1470 8.4791015e-39
3288.4995 -2244.0698 1480 8.7556884e-39
3264.8394 -2265.0505 1480 9.2145001e-39
3223.8584 -2276.0312 1470 8.9397069e-39
3153.2368 -2258.3518 1440 8.6634913e-39
3125.9163 -2265.6724 1430 8.7563974e-39
3037.9739 -2237.9929 1400 1.0137203e-38
2955.0315 -2201.6531 1370 1.1980398e-38
2910.3906 -2198.9736 1360 1.0501305e-38
2869.4099 -2209.9546 1350 1.0226871e-38
2821.1086 -2193.6147 1330 1.2075095e-38
2708.5251 -2128.6147 1290 1.2725868e-38
2634.2432 -2097.2751 1260 1.4293215e-38
2619.2432 -2123.2559 1260 1.4477966e-38
2549.9612 -2083.2559 1230 1.484568e-38
2487.9998 -2070.5764 1210 1.5767274e-38
2469.3394 -2082.8967 1200 1.659632e-38
2391.3972 -2037.897 1170 1.6322235e-38
2355.4163 -2040.2173 1160 1.7149845e-38
2324.4355 -2033.8777 1150 1.6045312e-38
2297.115 -2041.1982 1150 1.7060537e-38
2215.5125 -1982.538 1110 1.7982135e-38
2146.2305 -1942.538 1080 1.8440597e-38
2089.269 -1921.1982 1060 1.8622829e-38
2079.269 -1938.5187 1060 1.7888837e-38
2056.9485 -1937.179 1060 1.8255459e-38
2038.2882 -1949.4995 1050 1.8812608e-38
2015.9677 -1948.1597 1050 1.8444922e-38
1984.9869 -1941.8199 1040 1.9181771e-38
1945.3459 -1930.4802 1020 1.9548398e-38
1914.3651 -1924.1405 1010 1.9364719e-38
1883.3844 -1917.8008 1000 1.9640228e-38
1861.0638 -1916.4611 990 1.9459437e-38
1821.4229 -1905.1213 980 2.0193403e-38
1786.7819 -1885.1213 970 1.9917898e-38
1764.4613 -1883.7815 960 2.0471781e-38
1742.1409 -1882.4418 950 1.9733865e-38
1711.16 -1876.1021 940 1.9459435e-38
1685.1793 -1861.1021 930 1.9917539e-38
1666.519 -1873.4226 930 2.0192687e-38
1640.5383 -1858.4226 920 2.0193763e-38
1605.8972 -1838.4226 900 2.0013321e-38
1571.2562 -1818.4226 890 2.0015115e-38
1545.2755 -1803.4226 880 2.0472498e-38
1526.6152 -1815.7432 880 2.0656528e-38
1496.9742 -1787.0829 860 2.0287751e-38
1486.9742 -1804.4033 860 2.0563258e-38
1440.0127 -1765.7432 840 2.010408e-38
1426.3524 -1769.4034 840 2.0472498e-38
1412.6921 -1773.0636 830 2.0011168e-38
1374.3909 -1739.4034 820 1.9828932e-38
1369.3909 -1748.0636 820 1.9921127e-38
1368.0511 -1770.3842 820 2.0012962e-38
1342.0704 -1755.3842 810 1.9277202e-38
1356.7114 -1810.0251 820 1.9185362e-38
4790.1016 156.78235 1480 1.6503732e-38
4864.3838 125.4426 1510 1.6871795e-38
4813.4028 97.141327 1500 1.6504806e-38
4820.7236 69.820816 1510 1.7148386e-38
4769.7427 41.519539 1500 1.7791241e-38
4723.7617 21.878513 1490 1.7980642e-38
4681.4414 -11.42276 1480 1.8528436e-38
4652.7812 -41.063782 1480 1.7977049e-38
4606.8003 -60.704811 1470 1.7888808e-38
4569.48 -85.345825 1460 1.7609707e-38
4532.1592 -109.98686 1450 1.7886291e-38
4472.5186 -133.28813 1440 1.8255053e-38
4421.5376 -161.58942 1430 1.788737e-38
4451.1787 -190.24966 1440 1.8347976e-38
4578.7617 -229.26889 1490 1.8346555e-38
4653.0439 -260.60861 1510 1.8069605e-38
4638.0439 -286.58939 1510 1.8624214e-38
4654.0249 -318.90988 1520 1.8439098e-38
3926.1082 -279.69839 1310 1.8991916e-38
3911.1082 -305.67917 1300 1.8349419e-38
3878.7876 -321.65994 1300 1.7701176e-38
3872.448 -352.64069 1300 1.7148009e-38
3826.4673 -372.28171 1290 1.8619533e-38
3838.7878 -390.94199 1300 1.8895047e-38
3779.1467 -414.24326 1280 1.7885578e-38
3746.8262 -430.22403 1280 1.862457e-38
3700.8455 -449.86505 1270 1.8716415e-38
3690.8455 -467.18555 1270 1.8254363e-38
3684.5056 -498.16632 1270 1.5856205e-38
3674.5056 -515.48682 1270 1.4378897e-38
3659.5056 -541.46759 1270 1.4932789e-38
3711.4673 -571.46759 1290 1.6317521e-38
3798.0698 -621.46759 1320 1.8436236e-38
4676.1528 -920.58282 1630 1.8528057e-38
4757.7554 -979.24304 1670 1.760971e-38
4782.3965 -1016.5636 1680 1.6871073e-38
4855.3389 -1070.2239 1710 1.6134572e-38
4897.3003 -1117.5443 1730 1.4199181e-38
4925.6016 -1168.525 1750 1.0786152e-38
4927.9224 -1204.5059 1750 6.8213794e-39
4938.9028 -1245.4866 1760 4.702675e-39
4910.2427 -1275.1276 1760 4.7916336e-39
4881.5825 -1304.7687 1760 4.5172047e-39
4861.5825 -1339.4097 1760 4.6083157e-39
4846.5825 -1365.3904 1760 5.0682177e-39
4487.3003 -1827.6852 1730 6.2664063e-39
4449.98 -1852.3263 1720 5.4388051e-39
4460.9609 -1893.307 1740 4.8859956e-39
4475.6016 -1947.948 1750 4.5175719e-39
4486.5825 -1988.9287 1760 4.2402689e-39
4466.5825 -2023.5698 1760 4.9781899e-39
4455.2427 -2063.2109 1760 6.3600369e-39
4400.6021 -2077.8518 1750 8.8500364e-39
4376.9414 -2098.8325 1750 1.096945e-38
4296.3198 -2098.4736 1720 1.1617356e-38
4276.3198 -2133.1147 1720 1.2631512e-38
4256.3198 -2167.7556 1720 1.2633298e-38
4198.0186 -2168.7366 1700 1.2263804e-38
4143.3774 -2183.3774 1690 1.2445328e-38
4132.0381 -2223.0186 1690 1.1061325e-38
4065.0762 -2218.9993 1670 8.5706006e-39
3972.134 -2199.98 1640 5.1593595e-39
3835.8904 -2155.9609 1600 3.6881825e-39
3742.948 -2136.9417 1570 3.5019906e-39
3667.3264 -2127.9224 1540 4.333182e-39
3565.7239 -2103.9031 1510 4.7001737e-39
3495.1021 -2086.2236 1480 4.7023288e-39
3445.4609 -2092.2043 1470 8.299029e-39
3331.5378 -2049.5249 1430 1.1159976e-38
3290.5571 -2060.5059 1420 1.1615942e-38
3232.2559 -2061.4866 1400 8.7528269e-39
3269.2175 -2117.4673 1420 1.0409448e-38
3327.1597 -2197.1084 1450 9.3063342e-39
3294.8394 -2213.0891 1450 8.7560443e-39
3288.4995 -2244.0698 1450 9.030106e-39
3264.8394 -2265.0505 1450 9.3049021e-39
3232.5188 -2281.0312 1440 8.7549695e-39
3153.2368 -2258.3518 1410 9.0304774e-39
3125.9163 -2265.6724 1410 8.5698636e-39
3029.3137 -2232.9929 1370 1.0322672e-38
2955.0315 -2201.6531 1340 1.198075e-38
2901.7302 -2193.9736 1330 1.1332138e-38
2886.7305 -2219.9546 1330 1.2439207e-38
2850.7495 -2222.2749 1320 1.3826095e-38
2746.8264 -2162.2749 1280 1.428818e-38
2655.2239 -2120.9353 1240 1.5030418e-38
2627.9036 -2128.2559 1240 1.6045645e-38
2544.9612 -2091.916 1210 1.6598106e-38
2505.3201 -2080.5764 1190 1.6322615e-38
2477.9998 -2087.8967 1190 1.631866e-38
2400.0574 -2042.897 1160 1.6137851e-38
2351.7561 -2026.5571 1140 1.604637e-38
2315.7754 -2028.8777 1130 1.733496e-38
2288.4548 -2036.1982 1120 1.7244209e-38
2236.4934 -2006.1982 1100 1.7886705e-38
2175.8716 -1971.1981 1080 1.7148425e-38
2115.2498 -1936.1981 1050 1.6320452e-38
2087.9292 -1943.5187 1040 1.7056938e-38
2065.6089 -1942.179 1040 1.8350904e-38
2046.9485 -1954.4995 1040 1.8537102e-38
2028.2882 -1966.8199 1030 1.9178885e-38
1988.6472 -1955.4802 1020 1.8538915e-38
1941.6857 -1916.8199 1000 1.9364354e-38
1902.0447 -1905.4802 980 1.954911e-38
1871.0638 -1899.1405 980 1.8996644e-38
1848.7434 -1897.8008 970 1.936687e-38
1826.4229 -1896.4611 960 1.9275045e-38
1795.4421 -1890.1213 950 2.000794e-38
1773.1216 -1888.7815 940 2.0103363e-38
1750.801 -1887.4418 940 2.0010088e-38
1719.8203 -1881.1021 930 2.0096526e-38
1693.8396 -1866.1021 920 2.0191241e-38
1671.519 -1864.7623 910 2.0748722e-38
1640.5383 -1858.4226 900 2.0382815e-38
1597.2369 -1833.4226 880 2.0475368e-38
1571.2562 -1818.4226 870 2.0379587e-38
1545.2755 -1803.4226 860 2.0471781e-38
1526.6152 -1815.7432 860 2.0197351e-38
1512.955 -1819.4033 860 2.0105515e-38
1507.955 -1828.0636 860 2.0379228e-38
1481.9742 -1813.0636 840 2.0288827e-38
1484.2947 -1849.0444 850 1.992005e-38
1388.0511 -1735.7432 810 1.9921844e-38
1370.7306 -1725.7432 800 1.9828932e-38
1369.3909 -1748.0636 800 2.0289545e-38
1359.3909 -1765.3842 800 2.0199503e-38
1342.0704 -1755.3842 790 2.0473575e-38
1356.7114 -1810.0251 810 2.0747646e-38
4798.7617 151.78235 1460 1.6504804e-38
4855.7231 130.4426 1480 1.6780674e-38
4827.063 100.80158 1470 1.6873577e-38
4848.0439 77.141335 1480 1.7240926e-38
4805.7236 43.840054 1470 1.7611138e-38
4732.4224 16.878517 1460 1.7888095e-38
4695.1016 -7.7625046 1450 1.7977063e-38
4666.4414 -37.403526 1450 1.8346545e-38
4606.8003 -60.704811 1430 1.8620263e-38
4564.48 -94.006088 1430 1.8069968e-38
4554.48 -111.3266 1430 1.7978484e-38
4525.8198 -140.96762 1430 1.8346542e-38
4510.8198 -166.94838 1430 1.8346544e-38
4540.4604 -195.60864 1440 1.8255427e-38
4601.0825 -230.60861 1460 1.843945e-38
4608.4028 -257.92914 1470 1.8896838e-38
4607.063 -280.24963 1470 1.8073554e-38
3752.5442 -260.32022 1220 1.9084104e-38
3782.1851 -288.98047 1240 1.8717836e-38
3825.4863 -313.98044 1250 1.8161803e-38
3863.7876 -347.64069 1270 1.8069598e-38
3862.448 -369.96121 1270 1.7792278e-38
3892.0891 -398.62146 1290 1.8528784e-38
3854.7686 -423.26248 1280 1.8530216e-38
3800.1274 -437.9035 1270 1.9082685e-38
3714.5056 -446.2048 1240 1.9267062e-38
3690.8455 -467.18555 1240 1.8156043e-38
3675.8455 -493.16632 1240 1.5474095e-38
3669.5056 -524.14709 1240 1.3163065e-38
3650.8455 -536.46759 1240 1.1236673e-38
3706.4673 -580.12787 1260 1.4655111e-38
3806.73 -626.46759 1300 1.7883398e-38
4693.4736 -930.58282 1610 1.8069964e-38
4757.7554 -979.24304 1630 1.7056173e-38
4751.416 -1010.2239 1630 1.7053664e-38
4824.3579 -1063.884 1670 1.6318255e-38
4866.3198 -1111.2046 1690 1.4842757e-38
4899.6211 -1153.525 1700 1.142936e-38
4919.2617 -1199.5059 1710 7.4656628e-39
4938.9028 -1245.4866 1730 9.5864972e-39
4923.9028 -1271.4674 1730 1.0230779e-38
4903.9028 -1306.1084 1730 8.2039313e-39
4901.2236 -1350.7494 1730 4.977457e-39
4886.2236 -1376.7301 1730 5.2526089e-39
4443.999 -1802.6852 1680 5.3451591e-39
4432.6597 -1842.3263 1680 5.344443e-39
4452.3003 -1888.307 1690 5.0678562e-39
4466.9414 -1942.948 1710 4.4246517e-39
4486.5825 -1988.9287 1720 5.9923306e-39
4449.2622 -2013.5698 1720 6.9146484e-39
4437.9224 -2053.2109 1720 7.834804e-39
4400.6021 -2077.8518 1710 9.3092167e-39
4368.2812 -2093.8325 1710 1.0512074e-38
4287.6597 -2093.4736 1680 1.2166939e-38
4250.3389 -2118.1147 1680 1.1985771e-38
4238.9995 -2157.7556 1680 1.235313e-38
4172.0381 -2153.7366 1660 1.2446403e-38
4134.7173 -2178.3774 1650 1.2262019e-38
4123.3774 -2218.0186 1660 1.1062398e-38
4056.416 -2213.9993 1630 7.7440756e-39
3998.1147 -2214.98 1620 3.8725878e-39
3844.5508 -2160.9609 1560 2.8580631e-39
3742.948 -2136.9417 1530 4.1480789e-39
3632.6853 -2107.9224 1500 4.3313897e-39
3527.4226 -2070.2429 1460 4.2413591e-39
3469.1213 -2071.2236 1440 8.1135714e-39
3428.1404 -2082.2046 1430 1.1248586e-38
3343.8584 -2068.1853 1410 1.1893599e-38
3290.5571 -2060.5059 1390 1.0235148e-38
3240.9163 -2066.4866 1380 8.8460945e-39
3251.897 -2107.4673 1390 1.0685313e-38
3309.8394 -2187.1084 1420 8.9393495e-39
3294.8394 -2213.0891 1410 8.937916e-39
3288.4995 -2244.0698 1420 8.6624179e-39
3264.8394 -2265.0505 1410 8.7549667e-39
3232.5188 -2281.0312 1410 9.2134267e-39
3144.5764 -2253.3518 1380 8.4787441e-39
3125.9163 -2265.6724 1380 8.5698552e-39
3029.3137 -2232.9929 1340 1.0046797e-38
2955.0315 -2201.6531 1320 1.2999559e-38
2901.7302 -2193.9736 1300 1.36435e-38
2895.3906 -2224.9546 1300 1.5576738e-38
2871.7305 -2245.9353 1300 1.5394515e-38
2776.4675 -2190.9353 1260 1.4475075e-38
2646.5637 -2115.9353 1210 1.4753463e-38
2610.583 -2118.2559 1200 1.5399209e-38
2541.301 -2078.2559 1180 1.5490319e-38
2505.3201 -2080.5764 1170 1.567686e-38
2477.9998 -2087.8967 1160 1.6414792e-38
2391.3972 -2037.897 1130 1.7427523e-38
2343.0959 -2021.5571 1110 1.8161118e-38
2312.115 -2015.2173 1100 1.7336035e-38
2276.1343 -2017.5378 1090 1.6965096e-38
2206.8523 -1977.538 1070 1.6596676e-38
2167.2112 -1966.1981 1050 1.678071e-38
2118.9102 -1949.8584 1030 1.6966534e-38
2087.9292 -1943.5187 1030 1.7336767e-38
2069.269 -1955.8392 1020 1.79807e-38
2059.269 -1973.1597 1020 1.8902657e-38
2036.9485 -1971.8199 1010 1.9823528e-38
1964.0061 -1918.1597 990 1.9640224e-38
1912.0447 -1888.1598 970 1.9364721e-38
1881.0638 -1881.8199 960 1.9457621e-38
1871.0638 -1899.1405 960 1.9640941e-38
1852.4036 -1911.4611 950 1.9367603e-38
1821.4229 -1905.1213 940 1.9916806e-38
1799.1023 -1903.7815 940 2.0004326e-38
1776.7819 -1902.4418 930 2.009761e-38
1754.4613 -1901.1021 920 2.0286316e-38
1711.16 -1876.1021 910 2.0747646e-38
1685.1793 -1861.1021 890 2.0838405e-38
1662.8588 -1859.7623 890 2.0746211e-38
1631.8781 -1853.4226 880 2.0564334e-38
1597.2369 -1833.4226 870 2.0190165e-38
1579.9165 -1823.4226 860 2.0096544e-38
1548.9357 -1817.0829 850 2.1022794e-38
1538.9357 -1834.4033 850 2.0380304e-38
1525.2755 -1838.0636 850 2.0013321e-38
1499.2947 -1823.0636 840 2.0470705e-38
1460.9934 -1789.4033 820 2.0195557e-38
1435.0127 -1774.4034 810 2.0290262e-38
1412.6921 -1773.0636 800 2.0839123e-38
1374.3909 -1739.4034 790 2.001368e-38
1373.0511 -1761.7239 790 2.0014038e-38
1355.7306 -1751.7239 780 2.0196633e-38
1333.4102 -1750.3842 780 2.0472857e-38
1353.0511 -1796.3649 790 1.9553067e-38
4776.4414 153.12207 1420 1.6962187e-38
4878.0439 129.10286 1450 1.6872498e-38
4849.3838 99.461838 1450 1.696289e-38
4915.0054 73.122108 1470 1.7608988e-38
4828.0439 42.500313 1450 1.8161796e-38
4746.0825 20.538773 1430 1.8437662e-38
4703.7617 -12.762505 1420 1.8712818e-38
4680.1016 -33.743271 1420 1.8529503e-38
4584.48 -59.365067 1400 1.8439818e-38
4569.48 -85.345825 1400 1.843767e-38
4576.8003 -112.66634 1400 1.816109e-38
4561.8003 -138.64711 1410 1.7977762e-38
4564.1211 -174.62787 1410 1.8162503e-38
4585.1016 -198.28812 1420 1.8531302e-38
4609.7427 -235.60861 1430 1.8808235e-38
4608.4028 -257.92914 1440 1.8532743e-38
4624.3838 -290.24963 1450 1.8715681e-38
4631.7041 -317.57013 1450 1.8991553e-38
3957.0889 -286.03815 1260 1.9450017e-38
3804.5056 -290.32019 1220 1.9266705e-38
3767.1851 -314.96121 1210 1.9450751e-38
3855.1274 -342.64069 1240 1.8345109e-38
3862.448 -369.96121 1250 1.7240912e-38
3914.4094 -399.96118 1270 1.8438735e-38
3890.7493 -420.94196 1260 1.8439105e-38
3808.7878 -442.9035 1240 1.9361769e-38
3700.8455 -449.86505 1210 1.8623498e-38
3699.5056 -472.18555 1220 1.778618e-38
3662.1853 -496.8266 1210 1.5378654e-38
3660.8455 -519.14709 1210 1.435585e-38
3637.1853 -540.12787 1210 1.2251548e-38
3706.4673 -580.12787 1240 1.5391235e-38
3806.73 -626.46759 1270 1.6317902e-38
4693.4736 -930.58282 1570 1.7515715e-38
4749.0952 -974.24304 1590 1.6689176e-38
4720.4351 -1003.8842 1590 1.6594469e-38
4815.6978 -1058.884 1620 1.6595908e-38
4866.3198 -1111.2046 1650 1.4843119e-38
4916.9414 -1163.525 1670 1.1338239e-38
4936.5825 -1209.5059 1680 7.6489751e-39
4978.5439 -1256.8263 1700 1.0774606e-38
4980.8643 -1292.8071 1710 1.4556038e-38
4952.2041 -1322.4481 1710 1.3085951e-38
4954.5249 -1358.4288 1710 5.714306e-39
4943.1851 -1398.0699 1720 5.2533264e-39
4513.2812 -1842.6852 1670 5.5288357e-39
4498.2812 -1868.666 1670 5.0689366e-39
