# .PCD v0.7 - Point Cloud Data file format
VERSION 0.7
FIELDS x y z rgb
SIZE 4 4 4 4
TYPE F F F F
COUNT 1 1 1 1
WIDTH 1208
HEIGHT 1
VIEWPOINT 0 0 0 1 0 0 0
POINTS 1208
DATA ascii
4637.79 1392.8811 2130 1.7981409e-38
4997.7925 1100.1389 2290 1.9823516e-38
4925.7412 1042.6184 2260 1.9821363e-38
4493.1797 117.15077 2090 1.7057999e-38
4482.1387 87.518044 2080 1.6872532e-38
4410.7852 49.985371 2050 1.6413712e-38
4339.7808 22.446609 2020 1.6231829e-38
4298.4092 -16.133041 2000 1.6505186e-38
3568.156 -10.644234 1680 1.6504824e-38
3567.458 -30.63205 1680 1.6135325e-38
3556.417 -60.264786 1680 1.6319352e-38
3545.7251 -79.90361 1670 1.6134241e-38
3544.6782 -109.88533 1670 1.6134246e-38
3533.6372 -139.51805 1670 1.4103417e-38
3512.6025 -168.80179 1660 1.5765814e-38
3461.9351 -187.04465 1640 1.5490316e-38
3411.2673 -205.28748 1620 1.5399198e-38
4500.0005 -833.6665 2100 1.4015538e-38
4468.9717 -862.60126 2090 1.3737515e-38
4467.5757 -902.57684 2090 1.4012662e-38
4484.7397 -1843.7493 2110 1.1063485e-38
4463.7051 -1873.033 2100 1.0603228e-38
4373.7598 -1869.892 2070 1.0603221e-38
4323.4414 -1878.141 2040 1.0694703e-38
4332.0396 -1918.4656 2050 1.0695055e-38
4222.8042 -1894.6388 2000 1.0326999e-38
4023.6243 -1867.6711 1910 1.0602147e-38
3924.3831 -1844.1934 1870 1.0418116e-38
3955.9829 -2085.4431 1880 1.0141879e-38
3925.3032 -2104.384 1870 1.004934e-38
3875.3335 -2102.6389 1850 9.7741941e-39
3844.6538 -2121.5798 1840 1.0326283e-38
3833.9619 -2141.2185 1830 1.0418478e-38
3803.2822 -2160.1594 1820 1.0234088e-38
3831.519 -2211.176 1830 1.0603589e-38
3821.874 -2200.833 1810 2.3509886e-38
3821.874 -2200.833 1810 2.3509886e-38
3821.874 -2200.833 1810 2.3509886e-38
3821.874 -2200.833 1810 2.3509886e-38
3821.874 -2200.833 1810 2.3509886e-38
3821.874 -2200.833 1810 2.3509886e-38
3821.874 -2200.833 1810 2.3509886e-38
3821.874 -2200.833 1810 2.3509886e-38
3821.874 -2200.833 1810 2.3509886e-38
3821.874 -2200.833 1810 2.3509886e-38
3821.874 -2200.833 1810 2.3509886e-38
3821.874 -2200.833 1810 2.3509886e-38
3821.874 -2200.833 1810 2.3509886e-38
3821.874 -2200.833 1810 2.1390136e-38
3821.874 -2200.833 1810 2.010695e-38
5027.7744 1099.0918 2260 1.9546928e-38
4946.0781 1051.9143 2230 1.9913911e-38
4372.2056 91.356987 2000 1.6873262e-38
4390.7974 50.683361 2010 1.6778905e-38
4329.7871 22.795609 1980 1.6782127e-38
4328.3911 -17.180031 1980 1.6962211e-38
3548.1682 -9.9462433 1650 1.6595943e-38
3567.458 -30.63205 1660 1.6137478e-38
3566.4109 -60.61377 1660 1.6504101e-38
3565.364 -90.595505 1660 1.6136039e-38
3564.666 -110.58331 1660 1.631971e-38
3563.6191 -140.56505 1660 1.3830432e-38
3552.5781 -170.19778 1650 1.5767246e-38
3531.5435 -199.48151 1640 1.6134241e-38
3490.8696 -218.07333 1630 1.5673628e-38
4509.9946 -834.0155 2070 1.4565838e-38
4478.9658 -862.95026 2060 1.4014106e-38
4418.3042 -880.84406 2030 1.3830795e-38
3511.3018 -779.12817 1640 1.3369805e-38
4425.8232 -1811.6736 2050 1.1065634e-38
4394.7949 -1840.6083 2040 1.1063118e-38
4314.8433 -1837.8163 2010 1.1063122e-38
4294.1577 -1857.1061 1990 1.0696134e-38
4273.123 -1886.3899 1990 1.0693977e-38
4193.1714 -1883.5979 1950 1.0694337e-38
4201.7695 -1923.9225 1960 1.0601791e-38
3994.3403 -1846.6362 1870 1.0786889e-38
3875.1116 -1822.4606 1810 1.0510665e-38
3794.4622 -1839.6564 1780 1.0234082e-38
3957.0298 -2055.4614 1850 1.0050418e-38
3936.344 -2074.7512 1850 1.0324485e-38
3915.6582 -2094.041 1840 1.0143681e-38
3875.3335 -2102.6389 1820 9.9592944e-39
3854.6477 -2121.9287 1810 9.9600119e-39
3823.968 -2140.8696 1800 1.0235521e-38
3793.6372 -2149.8167 1790 1.0233726e-38
3802.2354 -2190.1411 1790 1.0236965e-38
3782.5964 -2179.4492 1770 2.3509886e-38
3782.5964 -2179.4492 1770 2.3509886e-38
3782.5964 -2179.4492 1770 2.3509886e-38
3782.5964 -2179.4492 1770 2.3509886e-38
3782.5964 -2179.4492 1770 2.3509886e-38
3782.5964 -2179.4492 1770 2.3509886e-38
3782.5964 -2179.4492 1770 2.3509886e-38
3782.5964 -2179.4492 1770 2.3509886e-38
3782.5964 -2179.4492 1770 2.3509886e-38
3782.5964 -2179.4492 1770 2.3509886e-38
3782.5964 -2179.4492 1770 2.1304758e-38
3782.5964 -2179.4492 1770 2.3326215e-38
3782.5964 -2179.4492 1770 2.3509886e-38
3782.5964 -2179.4492 1770 2.3509886e-38
3782.5964 -2179.4492 1770 2.3509886e-38
4996.3965 1060.1632 2210 1.8994836e-38
4480.7427 47.542408 2010 1.6874332e-38
4329.7871 22.795609 1950 1.6228964e-38
4338.3848 -17.529022 1950 1.6413707e-38
3577.4519 -30.981049 1630 1.6320797e-38
3596.3928 -61.660767 1640 1.641299e-38
3585.3518 -91.293488 1640 1.6503383e-38
3584.6538 -111.28131 1640 1.6411917e-38
3583.6069 -141.26303 1640 1.5859446e-38
3572.5659 -170.89575 1630 1.4654779e-38
3571.519 -200.8775 1630 1.5583945e-38
3520.8516 -219.12033 1610 1.6316837e-38
3489.8228 -248.05508 1600 1.5858018e-38
3631.3555 -493.1438 1660 1.4935702e-38
3589.6348 -541.71735 1640 1.4569068e-38
3498.9917 -558.56421 1610 1.4475077e-38
3498.2937 -578.55206 1610 1.4568356e-38
3447.6262 -596.79486 1590 1.4475436e-38
4568.2129 -886.07898 2060 1.3555648e-38
3461.6812 -767.38928 1600 1.3737864e-38
3470.6279 -797.72003 1600 1.3644239e-38
4554.2529 -1285.8353 2060 1.2723001e-38
4533.2183 -1315.119 2050 1.2906312e-38
4541.8164 -1355.4437 2060 1.2539327e-38
4520.7812 -1384.7274 2050 1.2813403e-38
4460.1201 -1402.6212 2020 1.2262754e-38
4439.4341 -1421.9111 2010 1.2354219e-38
4467.6709 -1472.9276 2030 1.2354572e-38
4426.9976 -1491.5194 2010 1.1985798e-38
4545.0522 -1835.8492 2060 1.0972365e-38
4386.1968 -1800.2837 2000 1.0880172e-38
4394.7949 -1840.6083 2000 1.1063481e-38
4314.8433 -1837.8163 1970 1.0696492e-38
4313.7964 -1867.798 1970 1.0787612e-38
4302.7554 -1897.4308 1960 1.0512105e-38
4222.8042 -1894.6388 1930 1.0511755e-38
4211.7637 -1924.2715 1930 1.0603228e-38
4082.8896 -1889.7529 1870 1.023552e-38
4032.571 -1898.0018 1850 1.0510668e-38
3923.3362 -1874.175 1810 1.0327351e-38
3922.2891 -1904.1567 1800 1.0418836e-38
3754.1377 -1848.2543 1730 1.0234088e-38
3821.6521 -1920.6547 1760 1.0050768e-38
4015.9463 -2087.5371 1850 1.0049692e-38
3965.6277 -2095.7859 1830 1.0326285e-38
3935.2971 -2104.7329 1810 1.0052203e-38
3894.9724 -2113.3308 1800 1.032556e-38
3864.2927 -2132.2717 1790 1.0142972e-38
3823.968 -2140.8696 1770 1.0144403e-38
3783.6433 -2149.4675 1750 1.0419199e-38
3772.9514 -2169.1064 1750 1.0052577e-38
3782.9453 -2169.4553 1730 2.3509886e-38
3782.9453 -2169.4553 1730 2.3509886e-38
3782.9453 -2169.4553 1730 2.3509886e-38
3782.9453 -2169.4553 1730 2.3509886e-38
3782.9453 -2169.4553 1730 2.3509886e-38
3782.9453 -2169.4553 1730 2.3509886e-38
3782.9453 -2169.4553 1730 2.3509886e-38
3782.9453 -2169.4553 1730 2.3509886e-38
3782.9453 -2169.4553 1730 2.3509886e-38
3782.9453 -2169.4553 1730 2.3509886e-38
3782.9453 -2169.4553 1730 2.3509886e-38
3782.9453 -2169.4553 1730 2.3509886e-38
3782.9453 -2169.4553 1730 2.3509886e-38
3782.9453 -2169.4553 1730 2.3509886e-38
3782.9453 -2169.4553 1730 2.3509886e-38
3782.9453 -2169.4553 1730 2.3509886e-38
5026.3784 1059.1162 2180 1.751933e-38
5004.9946 1019.8386 2170 1.8440208e-38
4943.2861 971.96301 2150 1.844237e-38
4931.8965 932.33636 2150 1.8533131e-38
3747.3484 -36.913956 1670 1.6504469e-38
3626.3745 -62.707748 1620 1.6505183e-38
3615.3335 -92.340469 1620 1.6962931e-38
3604.2927 -121.97321 1620 1.6228241e-38
3603.5947 -141.96103 1620 1.6044926e-38
3592.5537 -171.59375 1610 1.4198134e-38
3591.5068 -201.57547 1610 1.604277e-38
3570.4719 -230.85922 1610 1.6134248e-38
3569.425 -260.84094 1610 1.5767266e-38
3465.2981 -377.27789 1560 1.5306277e-38
3623.4556 -432.83136 1630 1.5855863e-38
3572.7881 -451.07422 1610 1.5213008e-38
3561.7471 -480.70691 1610 1.48453e-38
3531.0674 -499.64777 1590 1.5394882e-38
3360.822 -503.70874 1520 1.5026807e-38
3300.5095 -511.6087 1500 1.4934621e-38
3349.083 -553.32928 1520 1.4199573e-38
3457.6201 -597.14386 1560 1.4290686e-38
4584.3618 -996.70996 2030 1.3921903e-38
4642.5801 -1048.7734 2060 1.3830076e-38
4532.2983 -1054.9285 2010 1.3737508e-38
4583.8857 -1296.8762 2030 1.244893e-38
4523.2246 -1314.77 2010 1.3182899e-38
4502.1895 -1344.0538 2000 1.2448209e-38
4501.1426 -1374.0355 2000 1.2630448e-38
4440.4814 -1391.9293 1980 1.2355298e-38
4399.8076 -1410.5212 1960 1.2446048e-38
4398.4116 -1450.4968 1960 1.2353503e-38
4347.7441 -1468.7397 1940 1.2262376e-38
4457.5503 -1762.751 1990 1.1524455e-38
4407.2314 -1770.9999 1970 1.1339342e-38
4356.9131 -1779.2488 1950 1.1248953e-38
4365.1621 -1829.5674 1960 1.097272e-38
4305.1987 -1827.4734 1930 1.0972363e-38
4293.8086 -1867.1001 1930 1.1063125e-38
4282.7676 -1896.7328 1920 1.1063834e-38
4232.7983 -1894.9878 1900 1.0786182e-38
4211.7637 -1924.2715 1890 1.1063478e-38
4141.8062 -1921.8286 1870 1.042062e-38
4120.7715 -1951.1123 1860 1.0693625e-38
4080.4468 -1959.7102 1840 1.1061322e-38
4069.4058 -1989.343 1840 1.0692549e-38
3891.6094 -1923.0977 1760 1.0786174e-38
3910.2012 -1963.7712 1770 1.0603575e-38
4036.6321 -2068.2473 1820 1.0325926e-38
4035.5852 -2098.229 1820 1.0234079e-38
3975.2727 -2106.1289 1800 1.0325196e-38
3944.9419 -2115.0759 1780 9.7749088e-39
3914.6111 -2124.0227 1770 1.0417393e-38
3883.9314 -2142.9636 1760 1.0419912e-38
3843.6069 -2151.5615 1740 1.0327352e-38
3793.6372 -2149.8167 1720 1.0419917e-38
3792.5903 -2179.7983 1730 1.0510669e-38
3802.2354 -2190.1411 1720 2.3509886e-38
3802.2354 -2190.1411 1720 2.3509886e-38
3802.2354 -2190.1411 1720 2.3509886e-38
3802.2354 -2190.1411 1720 2.3509886e-38
3802.2354 -2190.1411 1720 2.3509886e-38
3802.2354 -2190.1411 1720 2.3509886e-38
3802.2354 -2190.1411 1720 2.3509886e-38
3802.2354 -2190.1411 1720 2.3509886e-38
3802.2354 -2190.1411 1720 2.3509886e-38
3802.2354 -2190.1411 1720 2.3509886e-38
3802.2354 -2190.1411 1720 2.3509886e-38
3802.2354 -2190.1411 1720 2.3509886e-38
3802.2354 -2190.1411 1720 2.3509886e-38
3802.2354 -2190.1411 1720 2.3509886e-38
3802.2354 -2190.1411 1720 2.3509886e-38
3802.2354 -2190.1411 1720 2.3509886e-38
4913.6851 1843.527 2090 1.7797386e-38
5036.7212 1068.7611 2150 1.8533492e-38
4995.0005 1020.1876 2130 1.908739e-38
4440.7671 48.938389 1920 1.7150198e-38
3687.3848 -34.819992 1620 1.6688858e-38
3636.3684 -63.056747 1600 1.6688852e-38
3635.3213 -93.038467 1600 1.6688501e-38
3634.2744 -123.02019 1600 1.7145166e-38
3623.5825 -142.65901 1600 1.6138201e-38
3622.5354 -172.64075 1600 1.6317556e-38
3621.4885 -202.62247 1600 1.4933165e-38
3600.4536 -231.90619 1590 1.6317557e-38
3599.4067 -261.88791 1590 1.6318991e-38
3637.2883 -323.24734 1600 1.6134961e-38
3596.6147 -341.8392 1590 1.5766181e-38
3585.574 -371.47192 1590 1.5673627e-38
3564.5391 -400.75565 1580 1.5673616e-38
3603.4678 -432.13336 1590 1.5489239e-38
3512.8245 -448.98022 1560 1.5672903e-38
3412.5364 -455.48419 1520 1.5672182e-38
3391.8506 -474.77399 1510 1.5212639e-38
3341.1831 -493.01685 1490 1.4936056e-38
3320.4973 -512.3067 1480 1.5026824e-38
3329.4443 -542.63739 1490 1.4661259e-38
3427.6384 -596.09686 1520 1.484458e-38
3516.1875 -639.2135 1560 1.4659476e-38
4496.1616 -943.59949 1960 1.447507e-38
4604.0005 -1007.4019 2000 1.4380362e-38
4622.5923 -1048.0756 2010 1.4106287e-38
4541.9434 -1065.2714 1980 1.3644963e-38
4511.2637 -1084.2122 1970 1.3554557e-38
4480.2349 -1113.147 1960 1.3460923e-38
4468.8447 -1152.7736 1950 1.3275818e-38
4537.0571 -1205.186 1980 1.4011225e-38
4614.9146 -1267.9415 2010 1.3184698e-38
4564.2471 -1286.1843 1990 1.2816997e-38
4533.2183 -1315.119 1980 1.3183612e-38
4512.1836 -1344.4028 1970 1.3550238e-38
4501.1426 -1374.0355 1970 1.2722645e-38
4450.4751 -1392.2783 1950 1.2631168e-38
4409.4526 -1420.8641 1930 1.2540758e-38
4408.4058 -1450.8458 1930 1.2629372e-38
4377.377 -1479.7806 1920 1.2169467e-38
4356.3418 -1509.0643 1910 1.244569e-38
4384.9277 -1550.0869 1920 1.1986518e-38
4506.8218 -1784.4838 1980 1.1983642e-38
4407.2314 -1770.9999 1940 1.1614857e-38
4356.564 -1789.2428 1920 1.1339709e-38
4375.1558 -1829.9164 1920 1.1157472e-38
4314.8433 -1837.8163 1900 1.0880888e-38
4313.7964 -1867.798 1900 1.0880526e-38
4302.7554 -1897.4308 1890 1.0787976e-38
4242.4434 -1905.3307 1870 1.0786893e-38
4231.4023 -1934.9634 1870 1.0880169e-38
4171.0898 -1942.8634 1840 1.0511389e-38
4140.4102 -1961.8042 1830 1.078689e-38
4119.7241 -1981.094 1820 1.0970204e-38
4079.0508 -1999.6858 1810 1.0601063e-38
3970.1646 -1965.8652 1760 1.0419545e-38
3939.4849 -1984.8062 1750 1.005077e-38
4065.9158 -2089.282 1800 1.0418113e-38
4084.5078 -2129.9556 1810 1.0051124e-38
4024.5442 -2127.8618 1790 1.005149e-38
3974.2256 -2136.1106 1770 1.0234089e-38
3953.5398 -2155.4004 1760 1.0145115e-38
3923.2092 -2164.3474 1750 1.0234808e-38
3882.8845 -2172.9453 1730 1.0510313e-38
3822.9211 -2170.8513 1700 1.0051131e-38
3812.2292 -2190.4902 1700 1.0234812e-38
3831.8679 -2201.1821 1690 2.3509886e-38
3831.8679 -2201.1821 1690 2.3509886e-38
3831.8679 -2201.1821 1690 2.3509886e-38
3831.8679 -2201.1821 1690 2.3509886e-38
3831.8679 -2201.1821 1690 2.3509886e-38
3831.8679 -2201.1821 1690 2.3509886e-38
3831.8679 -2201.1821 1690 2.3509886e-38
3831.8679 -2201.1821 1690 2.3509886e-38
3831.8679 -2201.1821 1690 2.3509886e-38
3831.8679 -2201.1821 1690 2.3509886e-38
3831.8679 -2201.1821 1690 2.3509886e-38
3831.8679 -2201.1821 1690 2.3509886e-38
3831.8679 -2201.1821 1690 2.3509886e-38
3831.8679 -2201.1821 1690 2.3509886e-38
3831.8679 -2201.1821 1690 2.3509886e-38
3831.8679 -2201.1821 1690 2.3509886e-38
4925.0752 1883.1537 2060 1.7982841e-38
4923.6792 1843.178 2050 1.844059e-38
5049.5073 1148.3634 2110 1.4746999e-38
5036.7212 1068.7611 2110 1.9178859e-38
5004.9946 1019.8386 2100 1.9548364e-38
3799.0627 11.310608 1640 1.7242749e-38
3766.2891 -67.593674 1620 1.6689573e-38
3685.291 -94.783447 1590 1.6598818e-38
3674.25 -124.41617 1590 1.6872536e-38
3653.2153 -153.69989 1580 1.6872523e-38
3642.5234 -173.33871 1580 1.6506269e-38
3641.4763 -203.32047 1580 1.4107023e-38
3630.4355 -232.95319 1570 1.6779249e-38
3619.3945 -262.58591 1570 1.613532e-38
3528.7515 -279.43277 1530 1.622572e-38
3537.6982 -309.76349 1540 1.6227871e-38
3517.0125 -329.05331 1530 1.6317917e-38
3495.9778 -358.33707 1520 1.5768342e-38
3484.9368 -387.96979 1520 1.5673987e-38
3494.2327 -408.30658 1520 1.576617e-38
3483.1919 -437.93933 1520 1.5856935e-38
3392.5486 -454.78619 1480 1.5305912e-38
3421.4834 -485.81488 1490 1.5490299e-38
3351.177 -493.36584 1470 1.5488506e-38
3350.1301 -523.3476 1470 1.512008e-38
3349.083 -553.32928 1470 1.511901e-38
3398.0056 -585.05597 1490 1.4936052e-38
3436.5852 -626.42761 1500 1.5025735e-38
4526.1436 -944.64648 1940 1.4842775e-38
4574.3682 -996.36096 1950 1.4197774e-38
4582.9658 -1036.6857 1960 1.4473994e-38
4522.3042 -1054.5795 1940 1.4198486e-38
4491.2759 -1083.5142 1920 1.3738594e-38
4450.2529 -1112.1 1910 1.373679e-38
4459.2002 -1142.4307 1910 1.3736426e-38
4497.4307 -1193.7961 1930 1.3644234e-38
4585.2817 -1256.9006 1960 1.3368366e-38
4564.2471 -1286.1843 1960 1.3186127e-38
4533.2183 -1315.119 1940 1.2907394e-38
4502.1895 -1344.0538 1930 1.3090709e-38
4501.1426 -1374.0355 1930 1.3183256e-38
4490.1016 -1403.6682 1930 1.3734624e-38
4488.7056 -1443.6439 1930 1.2723354e-38
4516.9424 -1494.6604 1940 1.2446414e-38
4525.5405 -1534.9851 1940 1.253896e-38
4524.4937 -1564.9668 1940 1.2261308e-38
4495.7808 -1814.1165 1940 1.1524817e-38
4346.9189 -1778.8999 1880 1.1891445e-38
4365.5112 -1819.5735 1880 1.1524106e-38
4305.1987 -1827.4734 1860 1.1615935e-38
4313.7964 -1867.798 1860 1.1156034e-38
4302.7554 -1897.4308 1860 1.1063843e-38
4252.437 -1905.6797 1840 1.1063837e-38
4241.0474 -1945.3064 1840 1.0603223e-38
4190.7285 -1953.5552 1820 1.1062761e-38
4180.0366 -1973.1941 1810 1.0327711e-38
4159.002 -2002.4778 1810 1.0418833e-38
4128.3223 -2021.4187 1790 1.0603219e-38
4107.6362 -2040.7085 1790 1.0418119e-38
4057.3179 -2048.9575 1770 1.0325922e-38
4124.832 -2121.3577 1790 1.0235514e-38
4084.5078 -2129.9556 1780 1.0051123e-38
4034.1892 -2138.2046 1760 9.8678163e-39
3993.8645 -2146.8025 1740 1.0050414e-38
3983.1726 -2166.4414 1740 1.0693258e-38
3952.4929 -2185.3821 1730 1.0509597e-38
3902.5234 -2183.6372 1710 1.0141891e-38
3842.5598 -2181.5432 1680 1.0051134e-38
3851.5068 -2211.874 1690 1.041776e-38
3861.1516 -2222.2168 1670 2.3509886e-38
3861.1516 -2222.2168 1670 2.3509886e-38
3861.1516 -2222.2168 1670 2.3509886e-38
3861.1516 -2222.2168 1670 2.3509886e-38
3861.1516 -2222.2168 1670 2.3509886e-38
3861.1516 -2222.2168 1670 2.3509886e-38
3861.1516 -2222.2168 1670 2.3509886e-38
3861.1516 -2222.2168 1670 2.3509886e-38
3861.1516 -2222.2168 1670 2.3509886e-38
3861.1516 -2222.2168 1670 2.3509886e-38
3861.1516 -2222.2168 1670 2.3509886e-38
3861.1516 -2222.2168 1670 2.3509886e-38
3861.1516 -2222.2168 1670 2.3509886e-38
3861.1516 -2222.2168 1670 2.3509886e-38
3861.1516 -2222.2168 1670 2.3509886e-38
3861.1516 -2222.2168 1670 2.3509886e-38
5019.1763 1139.4165 2060 1.6312869e-38
5048.1113 1108.3877 2080 1.6687394e-38
5016.3843 1059.4652 2060 1.9639107e-38
4964.6699 1011.2407 2040 1.9916432e-38
5003.5986 979.86298 2060 2.0284141e-38
4624.75 732.93414 1910 1.9914639e-38
4623.7031 702.95239 1920 1.9179941e-38
4512.0254 656.82184 1870 1.8811521e-38
4500.6353 617.19519 1870 1.9455461e-38
3830.0916 40.245346 1620 1.770228e-38
3689.1299 15.149551 1560 1.7794119e-38
3748.0464 -16.92614 1590 1.7428205e-38
3686.3379 -64.801712 1560 1.7333147e-38
3685.291 -94.783447 1560 1.7058708e-38
3704.2317 -125.46315 1570 1.7240946e-38
3683.197 -154.74689 1560 1.7239519e-38
3672.156 -184.37961 1560 1.7056203e-38
3671.1091 -214.36136 1560 1.5674714e-38
3660.4172 -234.00015 1560 1.5487411e-38
3649.3762 -263.6329 1550 1.696615e-38
3578.7209 -281.17773 1520 1.6411188e-38
3498.0718 -298.3736 1490 1.6134242e-38
3497.0247 -328.35532 1490 1.6226791e-38
3475.99 -357.63907 1490 1.6226791e-38
3465.2981 -377.27789 1480 1.6410826e-38
3454.2571 -406.91061 1480 1.6410106e-38
3453.2102 -436.89233 1480 1.6317193e-38
3382.9038 -444.4433 1450 1.6225712e-38
3401.8445 -475.12299 1460 1.5582145e-38
3351.177 -493.36584 1440 1.5489586e-38
3350.1301 -523.3476 1440 1.5212652e-38
3339.0891 -552.98029 1440 1.5395598e-38
3388.0117 -584.70697 1450 1.5394886e-38
3446.5791 -626.77661 1480 1.4477595e-38
4476.5229 -932.90759 1880 1.4661253e-38
4544.7354 -985.32007 1910 1.4565483e-38
4563.3271 -1025.9938 1920 1.4751298e-38
4512.3105 -1054.2305 1900 1.4289965e-38
4481.2817 -1083.1652 1880 1.4289968e-38
4450.6021 -1102.1061 1870 1.392046e-38
4449.2061 -1142.0817 1870 1.3829695e-38
4467.7979 -1182.7552 1880 1.3919741e-38
4526.0166 -1234.8188 1900 1.3553479e-38
4544.2593 -1285.4863 1910 1.3461275e-38
4523.2246 -1314.77 1900 1.3275089e-38
4492.5449 -1333.7109 1890 1.3460206e-38
4520.7812 -1384.7274 1900 1.2998872e-38
4529.3794 -1425.052 1910 1.3367635e-38
4607.2368 -1487.8075 1940 1.30003e-38
4307.6416 -1757.516 1830 1.1524818e-38
4355.5171 -1819.2245 1850 1.124967e-38
4295.2046 -1827.1244 1820 1.1432618e-38
4313.7964 -1867.798 1830 1.143047e-38
4302.7554 -1897.4308 1830 1.1064553e-38
4271.7271 -1926.3655 1820 1.0972367e-38
4251.041 -1945.6553 1810 1.0879807e-38
4210.3677 -1964.2471 1790 1.0787609e-38
4189.6816 -1983.5371 1780 1.0786536e-38
4178.6406 -2013.1697 1780 1.0695412e-38
4128.3223 -2021.4187 1760 1.0326997e-38
4136.9199 -2061.7432 1770 1.0693611e-38
4106.5894 -2070.6902 1750 1.0601786e-38
4174.104 -2143.0906 1780 1.0510305e-38
4114.1401 -2140.9966 1750 1.0418831e-38
4063.8218 -2149.2456 1740 1.0418117e-38
4033.1421 -2168.1863 1730 9.8663841e-39
4012.4563 -2187.4761 1720 1.0234086e-38
3972.1316 -2196.074 1700 1.0417399e-38
3912.1682 -2193.9802 1680 9.8660268e-39
3842.5598 -2181.5432 1650 1.0234455e-38
3870.7966 -2232.5598 1660 1.0326276e-38
3880.7905 -2232.9087 1650 2.3509886e-38
3880.7905 -2232.9087 1650 2.3509886e-38
3880.7905 -2232.9087 1650 2.3509886e-38
3880.7905 -2232.9087 1650 2.3509886e-38
3880.7905 -2232.9087 1650 2.3509886e-38
3880.7905 -2232.9087 1650 2.3509886e-38
3880.7905 -2232.9087 1650 2.3509886e-38
3880.7905 -2232.9087 1650 2.3509886e-38
3880.7905 -2232.9087 1650 2.3509886e-38
3880.7905 -2232.9087 1650 2.3509886e-38
3880.7905 -2232.9087 1650 2.3509886e-38
3880.7905 -2232.9087 1650 2.3509886e-38
3880.7905 -2232.9087 1650 2.3509886e-38
3880.7905 -2232.9087 1650 2.3509886e-38
3880.7905 -2232.9087 1650 2.3509886e-38
3880.7905 -2232.9087 1650 2.3509886e-38
3880.7905 -2232.9087 1650 2.3509886e-38
3880.7905 -2232.9087 1650 2.3509886e-38
3880.7905 -2232.9087 1650 2.3509886e-38
3880.7905 -2232.9087 1650 2.3509886e-38
3880.7905 -2232.9087 1650 2.3509886e-38
3880.7905 -2232.9087 1650 2.3509886e-38
3880.7905 -2232.9087 1650 2.3509886e-38
3880.7905 -2232.9087 1650 1.8629327e-38
3880.7905 -2232.9087 1650 1.9181744e-38
3880.7905 -2232.9087 1650 1.8904087e-38
3880.7905 -2232.9087 1650 1.9179582e-38
3880.7905 -2232.9087 1650 1.7799897e-38
3880.7905 -2232.9087 1650 2.0562151e-38
3880.7905 -2232.9087 1650 2.2591531e-38
3880.7905 -2232.9087 1650 2.3509886e-38
3880.7905 -2232.9087 1650 2.3509886e-38
3880.7905 -2232.9087 1650 2.3509886e-38
5050.9033 1188.339 2040 1.945583e-38
4988.8457 1130.4696 2010 1.7511046e-38
5017.7803 1099.4409 2020 1.7702284e-38
4996.3965 1060.1632 2020 1.9545116e-38
4954.6763 1011.5897 2000 2.0378133e-38
4923.2983 972.66101 1990 2.0654363e-38
4961.8779 931.28937 2000 2.0469603e-38
4514.4683 726.77917 1840 2.0193019e-38
4543.4028 695.75049 1850 1.9641643e-38
4542.0068 655.77484 1850 1.9732384e-38
4570.9414 624.74609 1860 1.9455456e-38
4589.8823 594.06641 1870 1.9364337e-38
4658.793 561.64172 1890 1.9453307e-38
4697.7217 530.26404 1910 1.9088115e-38
4430.5508 329.46582 1810 1.8991963e-38
3861.1204 69.180084 1600 1.8439841e-38
3790.116 41.641327 1570 1.7519329e-38
3709.1177 14.451561 1540 1.7518984e-38
3678.0889 -14.483177 1530 1.7336032e-38
3636.3684 -63.056747 1520 1.7701564e-38
3705.2788 -95.48143 1540 1.760973e-38
3744.2073 -126.85913 1560 1.7241666e-38
3713.1787 -155.79388 1550 1.7425334e-38
3712.1316 -185.7756 1540 1.6964004e-38
3701.0908 -215.40833 1540 1.733278e-38
3690.0498 -245.04105 1540 1.4933528e-38
3669.364 -264.33087 1530 1.6689561e-38
3608.3538 -292.21863 1510 1.6322945e-38
3507.7166 -308.71652 1470 1.6507334e-38
3487.0308 -328.00635 1460 1.6871443e-38
3475.99 -357.63907 1460 1.696255e-38
3475.292 -377.62689 1460 1.6411181e-38
3464.251 -407.25964 1450 1.6135676e-38
3453.2102 -436.89233 1450 1.61346e-38
3412.5364 -455.48419 1430 1.5860154e-38
3411.4895 -485.46588 1440 1.576617e-38
3370.8159 -504.05774 1420 1.613279e-38
3350.1301 -523.3476 1410 1.5675044e-38
3339.4382 -542.98639 1410 1.5304479e-38
3388.0117 -584.70697 1430 1.5120445e-38
3446.5791 -626.77661 1450 1.4661986e-38
4496.1616 -943.59949 1850 1.5303751e-38
4554.3799 -995.66296 1870 1.4843138e-38
4563.3271 -1025.9938 1880 1.4476147e-38
4512.3105 -1054.2305 1860 1.4472916e-38
4481.2817 -1083.1652 1850 1.4381445e-38
4450.2529 -1112.1 1840 1.4196338e-38
4468.8447 -1152.7736 1850 1.401338e-38
4467.7979 -1182.7552 1850 1.3460931e-38
4506.0288 -1234.1208 1860 1.3736789e-38
4524.6206 -1274.7944 1870 1.3921532e-38
4523.2246 -1314.77 1870 1.3644593e-38
4502.5386 -1334.0599 1860 1.3828621e-38
4560.4082 -1396.1173 1880 1.3368728e-38
4579 -1436.7909 1890 1.3643513e-38
4278.0088 -1746.4751 1780 1.1892526e-38
4385.1499 -1830.2654 1820 1.1983271e-38
4305.1987 -1827.4734 1790 1.1708122e-38
4333.4355 -1878.49 1800 1.1340783e-38
4312.4004 -1907.7737 1800 1.1523733e-38
4311.3535 -1937.7554 1800 1.1154239e-38
4290.3188 -1967.0391 1790 1.0971279e-38
4240 -1975.2881 1770 1.0512108e-38
4189.6816 -1983.5371 1750 1.0787256e-38
4198.2798 -2023.8616 1750 1.06947e-38
4128.3223 -2021.4187 1730 1.0695405e-38
4146.9141 -2062.0923 1730 1.0419187e-38
4096.5957 -2070.3413 1720 1.0510307e-38
4075.9097 -2089.6311 1710 1.0142961e-38
4074.5137 -2129.6067 1710 1.050959e-38
4063.8218 -2149.2456 1710 1.032592e-38
4043.136 -2168.5354 1700 1.0142248e-38
4022.4502 -2187.8252 1690 9.682346e-39
3981.7766 -2206.417 1670 1.0050405e-38
3931.8071 -2204.6721 1660 1.0233723e-38
3862.1987 -2192.2351 1630 1.0051496e-38
3890.4355 -2243.2517 1640 9.9557015e-39
3900.0803 -2253.5945 1630 2.3509886e-38
3900.0803 -2253.5945 1630 2.3509886e-38
3900.0803 -2253.5945 1630 2.3509886e-38
3900.0803 -2253.5945 1630 2.3509886e-38
3900.0803 -2253.5945 1630 2.3509886e-38
3900.0803 -2253.5945 1630 2.3509886e-38
3900.0803 -2253.5945 1630 2.3509886e-38
3900.0803 -2253.5945 1630 2.3509886e-38
3900.0803 -2253.5945 1630 2.3509886e-38
3900.0803 -2253.5945 1630 2.3509886e-38
3900.0803 -2253.5945 1630 2.3509886e-38
3900.0803 -2253.5945 1630 2.3509886e-38
3900.0803 -2253.5945 1630 2.3509886e-38
3900.0803 -2253.5945 1630 2.3509886e-38
3900.0803 -2253.5945 1630 2.3509886e-38
3900.0803 -2253.5945 1630 2.3509886e-38
3900.0803 -2253.5945 1630 2.3509886e-38
3900.0803 -2253.5945 1630 2.3509886e-38
3900.0803 -2253.5945 1630 2.3509886e-38
3900.0803 -2253.5945 1630 2.3509886e-38
3900.0803 -2253.5945 1630 2.3509886e-38
3900.0803 -2253.5945 1630 2.3509886e-38
3900.0803 -2253.5945 1630 2.3509886e-38
3900.0803 -2253.5945 1630 1.8994867e-38
3900.0803 -2253.5945 1630 2.000971e-38
3900.0803 -2253.5945 1630 1.9734932e-38
3900.0803 -2253.5945 1630 2.0008279e-38
3900.0803 -2253.5945 1630 1.9182113e-38
3900.0803 -2253.5945 1630 2.2037289e-38
3900.0803 -2253.5945 1630 2.3509886e-38
3900.0803 -2253.5945 1630 2.3509886e-38
3900.0803 -2253.5945 1630 2.3509886e-38
3900.0803 -2253.5945 1630 2.3509886e-38
5050.9033 1188.339 1990 2.0191231e-38
4928.5332 1122.5696 1950 1.7785125e-38
4897.1558 1083.641 1940 1.8903704e-38
4835.0981 1025.7715 1920 1.93618e-38
4813.7144 986.49384 1910 2.0284841e-38
4792.3306 947.21619 1900 2.047141e-38
4720.6284 899.68964 1870 2.0929864e-38
4606.1582 773.60779 1830 2.0561436e-38
4665.0747 741.53204 1860 2.0374902e-38
4653.6851 701.90546 1850 2.0375251e-38
4642.644 672.27271 1850 1.9825311e-38
4651.2417 631.94806 1860 1.9456176e-38
4649.8457 591.97241 1850 1.9824228e-38
4638.8052 562.33972 1850 1.9640197e-38
4607.4272 523.41107 1840 1.9547999e-38
4383.0244 401.16815 1760 1.973094e-38
4411.959 370.13943 1770 1.9086665e-38
4370.5874 331.55978 1750 1.9088453e-38
4479.4736 297.73911 1800 1.8903718e-38
4548.3838 265.31442 1820 1.9544396e-38
3750.1404 43.037308 1530 1.7610095e-38
3789.0688 11.659599 1540 1.7612248e-38
3758.0403 -17.275139 1530 1.7793764e-38
3756.2952 -67.244675 1530 1.7425701e-38
3755.2483 -97.22641 1530 1.7793755e-38
3814.1648 -129.30209 1550 1.7426776e-38
3763.1482 -157.53885 1530 1.7424617e-38
3742.1135 -186.82257 1530 1.7241666e-38
3731.0725 -216.45532 1520 1.7515739e-38
3720.0317 -246.08804 1520 1.52123e-38
3708.9907 -275.72076 1510 1.6685223e-38
3628.3416 -292.91663 1490 1.6964366e-38
3517.7104 -309.06549 1450 1.6595569e-38
3487.0308 -328.00635 1430 1.6964718e-38
3475.99 -357.63907 1430 1.7147312e-38
3475.292 -377.62689 1430 1.6595925e-38
3464.251 -407.25964 1430 1.6778883e-38
3463.2041 -437.24133 1430 1.6594497e-38
3422.5305 -455.83319 1410 1.6501574e-38
3421.4834 -485.81488 1410 1.5766883e-38
3390.8037 -504.75574 1400 1.5949843e-38
3360.124 -523.69659 1390 1.576545e-38
3349.083 -553.32928 1380 1.5673261e-38
3388.0117 -584.70697 1400 1.5764735e-38
3466.5671 -627.47461 1430 1.5397025e-38
4506.1558 -943.94849 1820 1.5028969e-38
4564.374 -996.01196 1840 1.4845652e-38
4572.9722 -1036.3367 1850 1.4936408e-38
4551.937 -1065.6204 1840 1.4935336e-38
4550.8901 -1095.6021 1840 1.4291759e-38
4549.4941 -1135.5778 1840 1.4381804e-38
4587.7246 -1186.9432 1850 1.4107365e-38
4586.6777 -1216.9249 1850 1.4106282e-38
4585.2817 -1256.9006 1850 1.3921176e-38
4554.2529 -1285.8353 1840 1.3738219e-38
4552.8574 -1325.8109 1840 1.3552752e-38
4561.4551 -1366.1356 1850 1.355419e-38
4405.8354 -1810.9756 1790 1.2262009e-38
4454.0601 -1862.6901 1810 1.1801404e-38
4324.8374 -1838.1653 1760 1.1708123e-38
4353.0742 -1889.1819 1770 1.1799963e-38
4322.3945 -1908.1227 1760 1.1432622e-38
4311.3535 -1937.7554 1760 1.1249299e-38
4290.3188 -1967.0391 1750 1.1432258e-38
4220.3613 -1964.5962 1730 1.0879807e-38
4179.6875 -1983.188 1710 1.0696855e-38
4198.2798 -2023.8616 1720 1.0695059e-38
4118.6772 -2011.0757 1690 1.0419905e-38
4137.269 -2051.7493 1700 1.0695416e-38
4126.228 -2081.3821 1690 1.0602866e-38
4105.1934 -2110.6658 1690 1.041703e-38
4064.8689 -2119.2637 1670 1.0233718e-38
4083.4604 -2159.9375 1680 1.0141886e-38
4062.7749 -2179.2273 1670 9.9596462e-39
4032.0952 -2198.168 1660 9.7741815e-39
3991.7705 -2206.7659 1650 1.005076e-38
3951.4458 -2215.364 1630 1.0418472e-38
3891.4824 -2213.27 1610 8.3862192e-39
3900.0803 -2253.5945 1610 3.3172392e-39
3910.0742 -2253.9436 1600 2.3509886e-38
3910.0742 -2253.9436 1600 2.3509886e-38
3910.0742 -2253.9436 1600 2.3509886e-38
3910.0742 -2253.9436 1600 2.3509886e-38
3910.0742 -2253.9436 1600 2.3509886e-38
3910.0742 -2253.9436 1600 2.3509886e-38
3910.0742 -2253.9436 1600 2.3509886e-38
3910.0742 -2253.9436 1600 2.3509886e-38
3910.0742 -2253.9436 1600 2.3509886e-38
3910.0742 -2253.9436 1600 2.3509886e-38
3910.0742 -2253.9436 1600 2.3509886e-38
3910.0742 -2253.9436 1600 2.3509886e-38
3910.0742 -2253.9436 1600 2.3509886e-38
3910.0742 -2253.9436 1600 2.3509886e-38
3910.0742 -2253.9436 1600 2.3509886e-38
3910.0742 -2253.9436 1600 2.3509886e-38
3910.0742 -2253.9436 1600 2.3509886e-38
3910.0742 -2253.9436 1600 2.3509886e-38
3910.0742 -2253.9436 1600 2.3509886e-38
3910.0742 -2253.9436 1600 2.3509886e-38
3910.0742 -2253.9436 1600 2.3509886e-38
3910.0742 -2253.9436 1600 2.3509886e-38
3910.0742 -2253.9436 1600 2.3509886e-38
3910.0742 -2253.9436 1600 1.9827139e-38
3910.0742 -2253.9436 1600 2.1397669e-38
3910.0742 -2253.9436 1600 2.2867037e-38
3910.0742 -2253.9436 1600 2.3509886e-38
3910.0742 -2253.9436 1600 2.3509886e-38
3910.0742 -2253.9436 1600 2.3509886e-38
3910.0742 -2253.9436 1600 2.3509886e-38
3910.0742 -2253.9436 1600 2.3509886e-38
3910.0742 -2253.9436 1600 2.3509886e-38
3910.0742 -2253.9436 1600 2.3509886e-38
3910.0742 -2253.9436 1600 2.3509886e-38
3910.0742 -2253.9436 1600 2.3509886e-38
3910.0742 -2253.9436 1600 2.3050708e-38
5050.9033 1188.339 1950 2.1203944e-38
4898.2026 1113.6227 1900 1.908198e-38
4846.4878 1065.3982 1880 1.9638038e-38
4794.7734 1017.1736 1860 1.862712e-38
4773.3896 977.89594 1860 2.0006115e-38
4742.0122 938.96729 1850 2.1390112e-38
4579.6665 874.59381 1790 2.0747271e-38
4686.4585 780.80969 1830 2.047211e-38
4695.4053 750.479 1830 2.0469607e-38
4674.0215 711.20135 1820 1.9918233e-38
4662.6318 671.57471 1820 2.0836581e-38
4671.2295 631.25006 1830 2.0008258e-38
4670.1826 601.26837 1820 1.9641631e-38
4658.793 561.64172 1820 1.9824586e-38
4657.397 521.66608 1820 1.9640194e-38
4513.2944 406.62512 1770 1.9546565e-38
4501.9043 366.99847 1770 1.9729512e-38
4420.5571 329.81482 1740 1.9270696e-38
4509.4551 296.69214 1770 1.9178504e-38
4538.3901 265.66342 1780 1.8808637e-38
4536.9941 225.68777 1780 1.9178843e-38
4405.6772 190.24908 1730 1.9085216e-38
4424.6182 159.56937 1740 1.8808994e-38
3950.0186 36.057411 1570 1.8345856e-38
3755.2483 -97.22641 1500 1.8162885e-38
3853.7913 -140.69199 1540 1.7611516e-38
3803.1238 -158.93481 1520 1.7428198e-38
3782.0891 -188.21857 1510 1.7424254e-38
3761.0542 -217.50229 1500 1.7518958e-38
3740.0195 -246.78604 1500 1.7609008e-38
3728.9785 -276.41876 1490 1.530267e-38
3648.3293 -293.61462 1460 1.6781051e-38
3547.6921 -310.11249 1430 1.7147671e-38
3497.0247 -328.35532 1410 1.724022e-38
3475.99 -357.63907 1400 1.7240942e-38
3474.9429 -387.62079 1400 1.6871442e-38
3454.2571 -406.91061 1400 1.6873231e-38
3463.2041 -437.24133 1400 1.7054035e-38
3432.5244 -456.18219 1390 1.6687409e-38
3431.4773 -486.16388 1390 1.6686685e-38
3410.7915 -505.45374 1380 1.6043117e-38
3380.1118 -524.39453 1370 1.5674332e-38
3369.0708 -554.02728 1370 1.5122243e-38
3388.0117 -584.70697 1380 1.5582496e-38
3486.2058 -638.1665 1410 1.5856212e-38
4536.1372 -944.99548 1790 1.5488503e-38
4564.374 -996.01196 1810 1.4937483e-38
4592.96 -1037.0347 1820 1.5487062e-38
4601.5576 -1077.3593 1820 1.4936418e-38
4620.1494 -1118.0328 1830 1.4843852e-38
4628.7476 -1158.3575 1830 1.4383592e-38
4656.9844 -1209.374 1840 1.4383592e-38
4655.937 -1239.3557 1840 1.410593e-38
4654.541 -1279.3314 1840 1.3737871e-38
4643.5005 -1308.9641 1840 1.3920821e-38
4642.1045 -1348.9397 1840 1.3922256e-38
4709.9678 -1411.3462 1860 1.4195965e-38
4484.7397 -1843.7493 1790 1.1891447e-38
4454.0601 -1862.6901 1780 1.207655e-38
4314.8433 -1837.8163 1730 1.2077618e-38
4353.0742 -1889.1819 1740 1.1525166e-38
4312.4004 -1907.7737 1730 1.1338985e-38
4301.3594 -1937.4064 1720 9.1216164e-39
4280.6738 -1956.6963 1710 1.1062755e-38
4210.3677 -1964.2471 1690 1.1247505e-38
4170.043 -1972.8452 1680 1.0879083e-38
4188.6348 -2013.5188 1680 1.0695052e-38
4108.6836 -2010.7268 1650 1.0694697e-38
4146.9141 -2062.0923 1670 1.0511026e-38
4116.2344 -2081.0332 1660 1.0786523e-38
4056.271 -2078.9392 1640 1.0417036e-38
4045.23 -2108.5718 1630 1.0418829e-38
4073.4668 -2159.5884 1640 1.0326272e-38
4052.781 -2178.8782 1630 1.0142247e-38
4022.4502 -2187.8252 1620 1.0233721e-38
3991.7705 -2206.7659 1610 9.9582126e-39
3961.4397 -2215.7129 1600 9.8609835e-39
3891.4824 -2213.27 1580 4.6991087e-39
3919.7192 -2264.2864 1590 3.5963526e-39
3919.7192 -2264.2864 1570 2.3509886e-38
3919.7192 -2264.2864 1570 2.3509886e-38
3919.7192 -2264.2864 1570 2.3509886e-38
3919.7192 -2264.2864 1570 2.3509886e-38
3919.7192 -2264.2864 1570 2.3509886e-38
3919.7192 -2264.2864 1570 2.3509886e-38
3919.7192 -2264.2864 1570 2.3509886e-38
3919.7192 -2264.2864 1570 2.3509886e-38
3919.7192 -2264.2864 1570 2.3509886e-38
3919.7192 -2264.2864 1570 2.3509886e-38
3919.7192 -2264.2864 1570 2.3509886e-38
3919.7192 -2264.2864 1570 2.3509886e-38
3919.7192 -2264.2864 1570 2.3509886e-38
3919.7192 -2264.2864 1570 2.3509886e-38
3919.7192 -2264.2864 1570 2.3509886e-38
3919.7192 -2264.2864 1570 2.3509886e-38
3919.7192 -2264.2864 1570 2.3509886e-38
3919.7192 -2264.2864 1570 2.3509886e-38
3919.7192 -2264.2864 1570 2.3509886e-38
3919.7192 -2264.2864 1570 2.3509886e-38
3919.7192 -2264.2864 1570 2.3509886e-38
3919.7192 -2264.2864 1570 2.3509886e-38
3919.7192 -2264.2864 1570 2.3509886e-38
3919.7192 -2264.2864 1570 2.3509886e-38
3919.7192 -2264.2864 1570 2.3509886e-38
3919.7192 -2264.2864 1570 2.3509886e-38
3919.7192 -2264.2864 1570 2.3509886e-38
3919.7192 -2264.2864 1570 2.3509886e-38
3919.7192 -2264.2864 1570 2.3509886e-38
3919.7192 -2264.2864 1570 2.3509886e-38
3919.7192 -2264.2864 1570 2.3509886e-38
3919.7192 -2264.2864 1570 2.3509886e-38
3919.7192 -2264.2864 1570 2.3509886e-38
3919.7192 -2264.2864 1570 2.3509886e-38
3919.7192 -2264.2864 1570 2.3509886e-38
3919.7192 -2264.2864 1570 2.3509886e-38
3919.7192 -2264.2864 1570 2.3509886e-38
3919.7192 -2264.2864 1570 2.2775202e-38
3919.7192 -2264.2864 1570 2.2775202e-38
3919.7192 -2264.2864 1570 2.2775202e-38
5040.9092 1188.688 1910 2.0190522e-38
4857.8779 1105.0248 1850 1.9083395e-38
4806.1636 1056.8003 1830 1.9730598e-38
4764.792 1018.2205 1820 1.9824223e-38
4753.4019 978.59393 1810 2.0099014e-38
4732.0181 939.31628 1800 2.0929856e-38
4579.6665 874.59381 1750 2.0930573e-38
4516.9111 796.73651 1730 2.093094e-38
4746.771 788.70966 1810 2.0928795e-38
4725.3872 749.43201 1800 2.0929138e-38
4684.0156 710.85236 1790 2.0102263e-38
4682.6196 670.87671 1790 2.0010413e-38
4681.2236 630.90106 1790 2.0285925e-38
4670.1826 601.26837 1790 2.0009705e-38
4658.793 561.64172 1790 2.0467434e-38
4647.4028 522.01508 1780 2.0100461e-38
4563.2637 404.88013 1750 1.9456156e-38
4572.2104 374.54941 1760 1.9638755e-38
4540.833 335.62079 1740 1.9914257e-38
4638.3291 262.17346 1780 1.9087378e-38
4505.9653 196.75305 1740 1.8811863e-38
4484.5815 157.4754 1730 1.9085214e-38
3928.9836 6.773674 1530 1.8436965e-38
3957.5693 -34.248947 1540 1.7794114e-38
3894.814 -112.10625 1520 1.797562e-38
3943.7366 -143.83293 1540 1.7334934e-38
3872.7322 -171.3717 1510 1.7425319e-38
3831.7095 -199.95746 1500 1.7610443e-38
3811.0237 -219.24728 1490 1.7151621e-38
3779.9951 -248.18201 1480 1.7242011e-38
3768.9541 -277.81473 1480 1.6318632e-38
3668.3171 -294.31262 1440 1.5765072e-38
3577.6738 -311.15948 1410 1.696722e-38
3507.0186 -328.70432 1390 1.7242376e-38
3475.99 -357.63907 1380 1.7058348e-38
3474.9429 -387.62079 1380 1.7241297e-38
3464.251 -407.25964 1370 1.7882714e-38
3473.198 -437.59033 1380 1.6872507e-38
3452.5122 -456.88019 1370 1.7146947e-38
3451.4651 -486.86188 1370 1.7151582e-38
3430.4304 -516.14563 1360 1.8987912e-38
3399.7507 -535.08643 1350 1.9173027e-38
3379.0647 -554.37628 1350 1.9078309e-38
3427.6384 -596.09686 1360 1.6126625e-38
4516.1494 -944.29749 1750 1.530662e-38
4564.374 -996.01196 1770 1.5303401e-38
4602.9536 -1037.3835 1780 1.4937847e-38
4651.1782 -1089.0981 1800 1.5120085e-38
4679.415 -1140.1146 1810 1.5120438e-38
4688.0127 -1180.4393 1820 1.4843841e-38
4716.5986 -1221.4619 1830 1.4375686e-38
4705.209 -1261.0885 1820 1.4012292e-38
4704.1616 -1291.0703 1820 1.4011201e-38
4682.7778 -1330.3479 1820 1.3645668e-38
4681.731 -1360.3296 1810 1.401229e-38
4818.854 -1445.1669 1870 1.3645302e-38
4465.1011 -1833.0574 1740 1.235385e-38
4473.6992 -1873.382 1750 1.2077619e-38
4344.4761 -1848.8572 1700 1.1802115e-38
4362.7192 -1899.5248 1710 1.1341499e-38
4322.3945 -1908.1227 1700 1.0232643e-38
4311.3535 -1937.7554 1690 4.9810751e-39
4280.6738 -1956.6963 1680 9.6823292e-39
4210.3677 -1964.2471 1660 1.106275e-38
4180.0366 -1973.1941 1640 1.0787245e-38
4188.6348 -2013.5188 1650 1.0879089e-38
4099.0386 -2000.3838 1620 1.0328438e-38
4156.5591 -2072.4353 1640 1.0787966e-38
4106.5894 -2070.6902 1620 1.0786174e-38
4007.3484 -2047.2124 1580 1.0417745e-38
4005.9524 -2087.188 1590 9.9592832e-39
4053.8279 -2148.8965 1600 1.0050045e-38
4033.1421 -2168.1863 1600 9.8663813e-39
4012.4563 -2187.4761 1590 9.8642205e-39
3991.7705 -2206.7659 1580 7.9245222e-39
3951.4458 -2215.364 1570 2.9506189e-39
3901.4763 -2213.6189 1550 3.7796649e-39
3929.7131 -2264.6355 1560 2.6718796e-39
3929.7131 -2264.6355 1540 2.3509886e-38
3929.7131 -2264.6355 1540 2.3509886e-38
3929.7131 -2264.6355 1540 2.3509886e-38
3929.7131 -2264.6355 1540 2.3509886e-38
3929.7131 -2264.6355 1540 2.3509886e-38
3929.7131 -2264.6355 1540 2.3509886e-38
3929.7131 -2264.6355 1540 2.3509886e-38
3929.7131 -2264.6355 1540 2.3509886e-38
3929.7131 -2264.6355 1540 2.3509886e-38
3929.7131 -2264.6355 1540 2.3509886e-38
3929.7131 -2264.6355 1540 2.3509886e-38
3929.7131 -2264.6355 1540 2.3509886e-38
3929.7131 -2264.6355 1540 2.3509886e-38
3929.7131 -2264.6355 1540 2.3509886e-38
3929.7131 -2264.6355 1540 2.3509886e-38
3929.7131 -2264.6355 1540 2.3509886e-38
3929.7131 -2264.6355 1540 2.3509886e-38
3929.7131 -2264.6355 1540 2.3509886e-38
3929.7131 -2264.6355 1540 2.3509886e-38
3929.7131 -2264.6355 1540 2.3509886e-38
3929.7131 -2264.6355 1540 2.3509886e-38
3929.7131 -2264.6355 1540 2.3509886e-38
3929.7131 -2264.6355 1540 2.3509886e-38
3929.7131 -2264.6355 1540 2.3509886e-38
3929.7131 -2264.6355 1540 2.3509886e-38
3929.7131 -2264.6355 1540 2.3509886e-38
3929.7131 -2264.6355 1540 2.3509886e-38
3929.7131 -2264.6355 1540 2.3509886e-38
3929.7131 -2264.6355 1540 2.3509886e-38
3929.7131 -2264.6355 1540 2.3509886e-38
3929.7131 -2264.6355 1540 2.3509886e-38
3929.7131 -2264.6355 1540 2.3509886e-38
3929.7131 -2264.6355 1540 2.3509886e-38
3929.7131 -2264.6355 1540 2.3509886e-38
3929.7131 -2264.6355 1540 2.3509886e-38
3929.7131 -2264.6355 1540 2.3509886e-38
3929.7131 -2264.6355 1540 2.3509886e-38
3929.7131 -2264.6355 1540 2.3509886e-38
3929.7131 -2264.6355 1540 2.3509886e-38
3929.7131 -2264.6355 1540 2.341805e-38
5040.9092 1188.688 1870 2.0740069e-38
4837.8901 1105.7228 1800 1.9269966e-38
4786.1758 1057.4982 1790 2.0286278e-38
4754.7979 1018.5695 1770 2.010044e-38
4743.4082 978.94293 1770 2.0376675e-38
4711.6812 930.02032 1760 2.1019543e-38
4559.6787 875.29181 1710 2.1116405e-38
4516.9111 796.73651 1700 2.1113172e-38
4756.7651 788.36066 1780 2.1022418e-38
4735.3813 749.08301 1770 2.0284849e-38
4694.0093 710.50336 1760 2.0746535e-38
4682.6196 670.87671 1750 2.0193018e-38
4681.5728 640.89502 1760 2.0744035e-38
4680.1768 600.91937 1750 2.056072e-38
4678.7808 560.94373 1760 2.0378114e-38
4677.3848 520.96814 1750 2.0471744e-38
4462.9756 398.37619 1680 1.9824572e-38
4390.5752 330.86179 1660 1.9731668e-38
4509.4551 296.69214 1700 1.9914611e-38
4528.396 266.01239 1710 1.9179569e-38
4527 226.03677 1710 1.9823141e-38
4505.9653 196.75305 1700 1.9271036e-38
4554.5391 155.03244 1710 1.9452925e-38
4523.5103 126.09769 1710 1.8992304e-38
4442.1631 88.914017 1680 1.8350167e-38
4560.6938 44.75045 1720 1.8530961e-38
4499.6836 16.862694 1700 1.8438756e-38
4628.208 -27.649872 1740 1.7978498e-38
4457.2646 -51.698685 1690 1.7792673e-38
4586.1387 -86.217346 1730 1.8068536e-38
3975.8123 -84.916473 1520 1.7424606e-38
4034.7288 -116.99217 1540 1.770226e-38
3983.7122 -145.22891 1520 1.7977052e-38
3912.7078 -172.76767 1500 1.7516805e-38
3881.6792 -201.70242 1490 1.7702267e-38
3850.6504 -230.63715 1480 1.7425322e-38
3829.6157 -259.9209 1470 1.7424967e-38
3808.9299 -279.21072 1460 1.7975624e-38
3698.2988 -295.35959 1420 1.5211194e-38
3597.6619 -311.85745 1390 1.7333125e-38
3546.6453 -340.09421 1370 1.7701915e-38
3495.9778 -358.33707 1350 1.7884506e-38
3494.9307 -388.31879 1350 1.7426402e-38
3474.2449 -407.60858 1350 1.7424607e-38
3493.1858 -438.28833 1350 1.4934237e-38
3472.1509 -467.57208 1350 1.5310228e-38
3461.459 -487.21088 1350 9.4054018e-39
3450.4182 -516.84363 1340 7.0072224e-39
3429.7324 -536.13342 1340 6.915747e-39
3408.6975 -565.41718 1330 6.5469673e-39
3487.2529 -608.18475 1360 5.9919957e-39
4545.7822 -955.33838 1730 1.5672528e-38
4584.3618 -996.70996 1740 1.585764e-38
4622.5923 -1048.0756 1750 1.5581416e-38
4710.4438 -1111.1799 1780 1.5947327e-38
4719.0415 -1151.5045 1790 1.5670023e-38
4737.6333 -1192.1781 1800 1.2910276e-38
4756.2251 -1232.8518 1800 7.0983432e-39
4744.8354 -1272.4784 1800 7.002905e-39
4743.4395 -1312.4541 1800 8.1038477e-39
4722.4048 -1341.7378 1790 1.1057332e-38
4731.0024 -1382.0624 1800 1.1887115e-38
4514.3726 -1854.7902 1730 9.488936e-39
4473.6992 -1873.382 1710 1.0225432e-38
4374.1089 -1859.8981 1680 8.9368496e-39
4392.3516 -1910.5657 1680 7.9280885e-39
4342.0332 -1918.8146 1670 7.0065063e-39
4311.3535 -1937.7554 1660 4.9778381e-39
4280.6738 -1956.6963 1650 7.3756364e-39
4210.3677 -1964.2471 1620 8.4812623e-39
4180.0366 -1973.1941 1610 8.7564114e-39
4178.6406 -2013.1697 1610 1.0510651e-38
4089.0444 -2000.0349 1580 1.0878372e-38
4146.9141 -2062.0923 1600 1.0601784e-38
4086.6016 -2069.9922 1580 1.0603212e-38
3967.7217 -2035.8225 1540 1.0694326e-38
3996.3074 -2076.8452 1550 9.8660198e-39
4053.8279 -2148.8965 1570 1.0233718e-38
4023.4973 -2157.8435 1560 9.5908636e-39
4012.4563 -2187.4761 1560 9.9574868e-39
3991.7705 -2206.7659 1550 7.3738651e-39
3961.0908 -2225.7068 1540 3.9651338e-39
3901.4763 -2213.6189 1520 2.6743977e-39
3929.7131 -2264.6355 1530 1.7528002e-39
3910.0742 -2253.9436 1510 2.3509886e-38
3910.0742 -2253.9436 1510 2.3509886e-38
3910.0742 -2253.9436 1510 2.3509886e-38
3910.0742 -2253.9436 1510 2.3509886e-38
3910.0742 -2253.9436 1510 2.3509886e-38
3910.0742 -2253.9436 1510 2.3509886e-38
3910.0742 -2253.9436 1510 2.3509886e-38
3910.0742 -2253.9436 1510 2.3509886e-38
3910.0742 -2253.9436 1510 2.3509886e-38
3910.0742 -2253.9436 1510 2.3509886e-38
3910.0742 -2253.9436 1510 2.3509886e-38
3910.0742 -2253.9436 1510 2.3509886e-38
3910.0742 -2253.9436 1510 2.3509886e-38
3910.0742 -2253.9436 1510 2.3509886e-38
3910.0742 -2253.9436 1510 2.3509886e-38
3910.0742 -2253.9436 1510 2.3509886e-38
3910.0742 -2253.9436 1510 2.3509886e-38
3910.0742 -2253.9436 1510 2.3509886e-38
3910.0742 -2253.9436 1510 2.3509886e-38
3910.0742 -2253.9436 1510 2.3509886e-38
3910.0742 -2253.9436 1510 2.3509886e-38
3910.0742 -2253.9436 1510 2.3509886e-38
3910.0742 -2253.9436 1510 2.3509886e-38
3910.0742 -2253.9436 1510 2.3509886e-38
3910.0742 -2253.9436 1510 2.3509886e-38
3910.0742 -2253.9436 1510 2.3509886e-38
3910.0742 -2253.9436 1510 2.3509886e-38
3910.0742 -2253.9436 1510 2.3509886e-38
3910.0742 -2253.9436 1510 2.3509886e-38
3910.0742 -2253.9436 1510 2.3509886e-38
3910.0742 -2253.9436 1510 2.3509886e-38
3910.0742 -2253.9436 1510 2.3509886e-38
3910.0742 -2253.9436 1510 2.3509886e-38
3910.0742 -2253.9436 1510 2.3509886e-38
3910.0742 -2253.9436 1510 2.3509886e-38
3910.0742 -2253.9436 1510 2.3509886e-38
3910.0742 -2253.9436 1510 2.3509886e-38
3910.0742 -2253.9436 1510 2.3509886e-38
3910.0742 -2253.9436 1510 2.3509886e-38
3910.0742 -2253.9436 1510 2.3509886e-38
5062.293 1227.9657 1840 2.2587585e-38
5030.5664 1179.0431 1830 2.0646439e-38
4827.896 1106.0718 1760 2.0282324e-38
4776.1816 1057.8472 1740 2.0838014e-38
4744.4551 1008.9246 1730 2.074474e-38
4723.0713 969.64697 1730 2.0653612e-38
4691.6934 930.71832 1720 2.0286287e-38
4499.3662 867.39191 1650 2.0929146e-38
4546.8931 795.68958 1670 2.1023133e-38
4827.4204 805.90552 1760 2.1391209e-38
4805.6875 756.63397 1760 2.1298991e-38
4713.9971 709.80536 1730 2.0743315e-38
4702.6074 670.17871 1720 2.0286283e-38
4701.5605 640.19702 1720 2.0378475e-38
4690.1704 600.57037 1720 2.0745826e-38
4698.7686 560.24573 1720 2.0651838e-38
4687.7275 530.61304 1720 2.02845e-38
4706.3193 489.93939 1730 2.0102249e-38
4805.2114 456.46771 1760 2.0377394e-38
4633.5703 412.43109 1700 2.0102596e-38
4459.4858 298.4371 1650 1.9918204e-38
4558.3779 264.96542 1680 1.9454007e-38
4587.3125 233.93672 1690 1.9548352e-38
4605.9043 193.26309 1700 2.0098276e-38
4584.5205 153.98544 1690 1.9268887e-38
4603.4614 123.30574 1700 1.9268164e-38
4612.0596 82.98111 1700 1.8718227e-38
4520.7183 46.146427 1670 1.8348009e-38
4489.6895 17.211685 1660 1.8346558e-38
4498.2876 -23.112946 1660 1.8070697e-38
4457.2646 -51.698685 1650 1.7700481e-38
4466.2119 -82.029404 1650 1.7608993e-38
4405.2012 -109.91716 1630 1.7426039e-38
4402.7583 -179.87451 1630 1.7241648e-38
3992.6592 -175.55963 1490 1.8160011e-38
3931.6487 -203.44739 1470 1.7791946e-38
3880.6321 -231.68414 1460 1.8249326e-38
3859.5974 -260.96786 1450 1.7610432e-38
3848.5564 -290.60062 1450 1.7884866e-38
3727.9316 -306.40048 1410 1.6964722e-38
3627.2944 -322.89835 1370 1.5487771e-38
3566.6331 -340.79221 1350 1.7977783e-38
3505.9717 -358.68607 1330 1.8068897e-38
3494.9307 -388.31879 1330 1.7608269e-38
3484.2388 -407.95758 1320 1.7055471e-38
3512.8245 -448.98022 1330 1.5581751e-38
3502.1326 -468.61902 1330 1.7423892e-38
3491.0918 -498.25177 1330 1.0695782e-38
3480.3999 -517.89056 1320 7.1008628e-39
3479.3528 -547.87231 1320 6.9150366e-39
3458.3181 -577.15607 1320 6.8224682e-39
3536.8733 -619.92365 1350 6.729195e-39
4427.9492 -891.18695 1650 1.5859079e-38
4545.7822 -955.33838 1690 1.5675772e-38
4574.3682 -996.36096 1700 1.6041671e-38
4622.5923 -1048.0756 1720 1.613207e-38
4720.4375 -1111.5289 1750 1.5858363e-38
4739.0293 -1152.2025 1760 1.5949118e-38
4757.6211 -1192.8761 1770 1.4655502e-38
4775.8643 -1243.5437 1770 8.6688947e-39
4764.8232 -1273.1764 1770 7.4678376e-39
4763.4272 -1313.1521 1770 8.387259e-39
4732.3984 -1342.0868 1760 8.3861884e-39
4760.6353 -1393.1033 1770 8.569851e-39
4563.644 -1876.5229 1710 7.0961628e-39
4463.7051 -1873.033 1670 7.0958055e-39
4393.7476 -1870.59 1650 6.8199361e-39
4411.9907 -1921.2576 1660 6.26857e-39
4351.6782 -1929.1575 1640 6.4508004e-39
4320.9985 -1948.0984 1630 5.9912558e-39
4290.3188 -1967.0391 1620 6.4504389e-39
4220.3613 -1964.5962 1590 6.358246e-39
4189.6816 -1983.5371 1580 5.9912628e-39
4178.6406 -2013.1697 1580 7.3738357e-39
4099.0386 -2000.3838 1550 1.0049673e-38
4215.8242 -2094.5171 1590 1.0326631e-38
4096.5957 -2070.3413 1550 1.041811e-38
3958.0769 -2025.4797 1500 1.0325197e-38
3966.6748 -2065.8042 1510 9.590149e-39
4044.1831 -2138.5537 1530 9.7730955e-39
4013.5034 -2157.4944 1520 9.7723822e-39
4002.4624 -2187.1272 1520 8.0181527e-39
3991.7705 -2206.7659 1520 3.8722193e-39
3961.4397 -2215.7129 1510 2.7658717e-39
3891.4824 -2213.27 1480 2.9498986e-39
3890.4355 -2243.2517 1480 3.4119572e-39
3880.7905 -2232.9087 1460 2.3509886e-38
3880.7905 -2232.9087 1460 2.3509886e-38
3880.7905 -2232.9087 1460 2.3509886e-38
3880.7905 -2232.9087 1460 2.3509886e-38
3880.7905 -2232.9087 1460 2.3509886e-38
3880.7905 -2232.9087 1460 2.3509886e-38
3880.7905 -2232.9087 1460 2.3509886e-38
3880.7905 -2232.9087 1460 2.3509886e-38
3880.7905 -2232.9087 1460 2.3509886e-38
3880.7905 -2232.9087 1460 2.3509886e-38
3880.7905 -2232.9087 1460 2.3509886e-38
3880.7905 -2232.9087 1460 2.3509886e-38
3880.7905 -2232.9087 1460 2.3509886e-38
3880.7905 -2232.9087 1460 2.3509886e-38
3880.7905 -2232.9087 1460 2.3509886e-38
3880.7905 -2232.9087 1460 2.3509886e-38
3880.7905 -2232.9087 1460 2.3509886e-38
3880.7905 -2232.9087 1460 2.3509886e-38
3880.7905 -2232.9087 1460 2.3509886e-38
3880.7905 -2232.9087 1460 2.3509886e-38
