# .PCD v0.7 - Point Cloud Data file format
VERSION 0.7
FIELDS x y z rgb
SIZE 4 4 4 4
TYPE F F F F
COUNT 1 1 1 1
WIDTH 1239
HEIGHT 1
VIEWPOINT 0 0 0 1 0 0 0
POINTS 1239
DATA ascii
786.64526 1097.2142 -20 1.2914577e-39
785.08081 1107.0911 -20 1.4754874e-39
791.82898 1128.4092 -20 1.935388e-39
780.3877 1136.7217 -20 2.7691143e-39
777.25903 1156.4755 -20 1.8479441e-39
784.00732 1177.7936 -20 1.0145107e-39
772.56592 1186.1062 -20 1.7509939e-39
708.61157 1206.3507 -30 2.026506e-39
695.60596 1224.54 -30 1.1059874e-39
684.16479 1232.8525 -30 7.372035e-40
681.03613 1252.6063 -30 1.1988977e-39
677.90747 1272.3601 -30 1.3182414e-38
676.34302 1282.2371 -30 1.7509995e-39
581.1936 1307.6653 -40 1.1978271e-39
507.36255 1326.3455 -50 1.9350222e-39
463.16187 1349.7188 -50 1.7520701e-39
368.01245 1375.1471 -60 1.7513554e-39
1595.476 1296.1938 40 1.7517156e-39
1646.4247 1294.1388 40 1.935025e-39
1664.6141 1307.1443 50 1.7513554e-39
1674.491 1308.7087 50 1.8428308e-39
1682.8035 1320.1499 50 2.0268591e-39
1692.6804 1321.7142 50 1.8424721e-39
1691.116 1331.5912 50 1.105986e-39
1699.4286 1343.0323 50 9.2123603e-40
1697.8641 1352.9093 50 8.2940334e-40
1707.7411 1354.4736 50 8.2940054e-40
1706.1768 1364.3505 50 6.4537081e-40
1716.0536 1365.9149 50 7.3720491e-40
1724.3661 1377.3561 50 8.290404e-40
1722.8018 1387.233 50 9.2159336e-40
1732.6786 1388.7974 50 7.3756364e-40
1740.9912 1400.2385 50 8.290404e-40
1740.9912 1400.2385 50 1.1981817e-39
1739.4268 1410.1155 60 1.3818526e-39
1747.7394 1421.5566 60 1.1063476e-39
1746.175 1431.4336 60 1.1059874e-39
1746.175 1431.4336 60 1.1974614e-39
1744.6106 1441.3104 60 1.1978243e-39
1743.0463 1451.1874 60 1.1978215e-39
1752.9232 1452.7517 60 1.1059888e-39
1751.3588 1462.6285 60 1.1063476e-39
1749.7944 1472.5055 60 1.2900186e-39
1749.7944 1472.5055 60 1.1981831e-39
1769.5482 1475.6342 60 1.1978215e-39
1746.6658 1492.2593 60 1.381854e-39
-112.70239 -1151.1572 -160 3.6845896e-39
-319.04321 -1254.7112 -180 2.5822049e-39
-277.48047 -1197.5051 -180 2.7687556e-39
113.79102 -791.29504 -130 7.3720491e-40
137.16431 -747.09448 -130 7.3756364e-40
142.34814 -715.89941 -130 1.105986e-39
157.40869 -683.14014 -130 8.2940754e-40
162.59253 -651.94507 -130 1.5680516e-39
159.46387 -632.19141 -130 1.3822142e-39
82.013184 -654.58313 -130 1.198539e-39
24.316162 -673.84607 -140 9.2123743e-40
11.310547 -655.65662 -140 9.2159476e-40
62.750244 -596.88611 -130 8.290418e-40
58.057129 -567.25549 -130 8.2939913e-40
0.36010742 -586.51855 -140 8.2976067e-40
41.922852 -529.31238 -140 1.2907416e-39
47.106689 -498.11731 -130 1.106349e-39
15.911621 -492.93347 -140 9.219549e-40
-25.160156 -489.31409 -140 7.3756644e-40
-28.289062 -469.5603 -140 7.3684477e-40
-41.294678 -451.37085 -140 7.372021e-40
-36.11084 -420.1759 -140 8.301208e-40
-58.993164 -403.55078 -140 1.1985446e-39
-71.998779 -385.36145 -140 1.3832946e-39
-85.004395 -367.172 -150 1.1989061e-39
-126.07617 -363.55249 -150 1.1989047e-39
-185.33765 -372.93872 -160 1.1981859e-39
-227.97388 -359.44226 -160 1.0141561e-39
-212.91309 -326.68298 -160 1.1063518e-39
-65.833496 -232.51514 -140 3.6914125e-40
-134.48096 -182.63989 -150 6.4536941e-40
-185.42969 -180.58484 -150 7.3756504e-40
-218.18896 -165.52417 -150 5.5317378e-40
-325.27026 -192.60889 -170 6.4464914e-40
-461.00098 -102.73547 -180 8.2868027e-40
-454.25269 -81.417358 -180 1.472249e-39
-209.47778 99.096558 -150 3.4990941e-39
-174.66333 134.98462 -150 3.5920086e-39
-159.60278 167.74402 -140 3.5916513e-39
-124.78833 203.63208 -140 3.866799e-39
-119.60449 234.82703 -140 3.8675193e-39
-132.61011 253.01642 -140 3.7760411e-39
-348.33716 208.72375 -160 3.8675123e-39
-390.97339 222.22009 -170 3.8685997e-39
-413.85571 238.84515 -170 3.9597093e-39
-380.60571 284.61011 -160 3.59201e-39
-276.65308 331.44867 -150 1.1049028e-39
-271.46924 362.64368 -150 9.2123183e-40
-256.40845 395.40302 -150 8.290362e-40
-239.78345 418.28546 -150 4.9727823e-39
-195.09204 455.73792 -140 5.0646164e-39
-257.48218 466.10553 -150 5.2486475e-39
-329.74902 474.90881 -160 5.2486461e-39
642.29565 730.11316 -60 5.3412018e-39
658.92065 752.99561 -60 5.4341121e-39
655.79199 772.74939 -60 5.5252344e-39
662.54004 794.0675 -60 5.6174258e-39
708.7959 821.64307 -50 5.61743e-39
740.48169 877.28485 -50 5.5255945e-39
738.91724 887.16174 -50 5.4333989e-39
735.78857 906.91553 -50 5.4341163e-39
744.10107 918.35675 -50 7.1872977e-39
772.16724 932.9267 -40 2.579307e-39
749.28491 949.55176 -50 3.8689612e-39
747.72046 959.42859 -50 4.5211788e-39
744.5918 979.18237 -50 4.4271699e-39
731.58618 997.37183 -50 2.3081305e-39
730.02197 1007.2487 -50 1.0152337e-39
736.77002 1028.5668 -50 9.2339403e-40
713.88745 1045.1919 -50 1.2914577e-39
722.2002 1056.6331 -50 1.382933e-39
760.14331 1072.7673 -40 1.2914535e-39
786.64526 1097.2142 -40 1.5680446e-39
785.08081 1107.0911 -40 1.3832932e-39
791.82898 1128.4092 -40 1.5673257e-39
780.3877 1136.7217 -40 1.3843736e-39
777.25903 1156.4755 -40 2.2213229e-39
784.00732 1177.7936 -40 2.5915474e-39
762.68921 1184.5417 -40 7.1915996e-39
729.92969 1199.6025 -40 7.7429826e-39
716.92407 1217.7919 -40 1.1989005e-39
713.79541 1237.5457 -40 1.0137932e-39
710.66675 1257.2994 -40 1.2907458e-39
709.10229 1267.1763 -40 3.8714906e-39
696.09692 1285.3657 -50 2.0279451e-39
632.14258 1305.6102 -50 1.751717e-39
527.11621 1329.4742 -60 1.381847e-39
453.28491 1348.1544 -70 1.8431909e-39
358.13574 1373.5828 -80 1.9353852e-39
1585.599 1294.6295 30 1.9353824e-39
1634.9834 1302.4513 30 1.9353866e-39
1674.491 1308.7087 40 1.842835e-39
1684.3678 1310.2731 40 1.9353824e-39
1692.6804 1321.7142 40 1.936104e-39
1692.6804 1321.7142 40 1.9357397e-39
1700.9929 1333.1555 40 1.2896584e-39
1699.4286 1343.0323 40 1.0137876e-39
1709.3054 1344.5968 40 7.3756084e-40
1717.6179 1356.038 40 7.3720631e-40
1727.4949 1357.6023 40 7.3756364e-40
1725.9304 1367.4792 40 8.290404e-40
1724.3661 1377.3561 50 6.4536661e-40
1734.243 1378.9204 50 8.2940194e-40
1732.6786 1388.7974 50 7.3720491e-40
1740.9912 1400.2385 50 6.4536661e-40
1739.4268 1410.1155 50 7.372035e-40
1739.4268 1410.1155 50 1.1063476e-39
1737.8624 1419.9923 50 1.1056245e-39
1726.4213 1428.3049 50 1.1978257e-39
1672.3438 1450.1138 40 1.1978229e-39
1670.7794 1459.9906 40 1.1978257e-39
1659.3381 1468.3031 40 1.1978243e-39
1657.7738 1478.1801 40 1.0141547e-39
1656.2095 1488.0569 40 1.1059874e-39
1654.6451 1497.9338 40 1.1978243e-39
1653.0807 1507.8107 40 1.1059888e-39
1662.9576 1509.375 40 1.1059888e-39
1661.3933 1519.252 40 1.2903787e-39
-99.696777 -1169.3467 -180 2.1234282e-39
-84.635986 -1136.5872 -180 4.333175e-39
150.16992 -765.28394 -150 7.3720911e-40
137.16431 -747.09448 -150 9.2159056e-40
115.84619 -740.34631 -160 1.1059874e-39
147.53198 -684.70447 -150 1.0134359e-39
198.97144 -625.93396 -140 1.9368397e-39
169.34082 -630.62695 -150 1.2914591e-39
82.013184 -654.58313 -160 1.1070636e-39
42.505615 -660.84045 -160 1.0137932e-39
56.001953 -618.20422 -160 1.0137932e-39
16.494385 -624.46167 -160 8.2975927e-40
11.801514 -594.83105 -160 7.3720771e-40
-37.583008 -602.65283 -170 9.2123743e-40
-22.522217 -569.89343 -170 1.106349e-39
-17.338379 -538.69849 -170 9.2267937e-40
-48.533447 -533.51465 -170 8.2975927e-40
-43.349609 -502.31958 -170 7.3756644e-40
-56.355225 -484.13025 -170 7.3720491e-40
-59.483887 -464.37646 -170 8.2976067e-40
-45.987549 -421.74023 -170 1.1067091e-39
-67.305664 -414.99207 -170 1.1989047e-39
-71.998779 -385.36145 -170 1.106349e-39
-75.127441 -365.60767 -170 1.1989019e-39
-78.256348 -345.85388 -170 1.1989019e-39
-139.08179 -345.36316 -170 7.3828671e-40
-142.21069 -325.60938 -180 9.2231503e-40
-146.90356 -295.97876 -180 8.2975787e-40
-93.899902 -247.08508 -170 5.5281224e-40
-83.532227 -184.69507 -170 4.6062082e-40
-162.54712 -197.20984 -180 9.208773e-40
-241.56226 -209.72473 -180 2.8519366e-39
-226.50146 -176.96533 -180 7.3684477e-40
-426.18628 -66.847412 -200 7.372021e-40
-191.7793 51.276489 -170 2.209084e-39
-196.47217 80.907104 -170 2.7618962e-39
-171.53467 115.23083 -170 3.2221527e-39
-146.59717 149.55457 -170 3.4079775e-39
-129.97217 172.43701 -170 3.5909324e-39
-105.03442 206.76074 -160 3.866799e-39
-89.973877 239.52008 -160 3.9597107e-39
-102.97925 257.70953 -160 4.0504714e-39
-290.64014 227.98676 -180 3.9597135e-39
-333.27637 241.48309 -190 3.9597093e-39
-366.03564 256.54382 -190 4.0515462e-39
-331.22119 292.43188 -190 3.6834868e-39
-266.77612 333.013 -180 1.1967383e-39
-261.59229 364.20801 -180 9.2051436e-40
-256.40845 395.40302 -180 8.2796e-40
-249.6604 416.72113 -170 5.0646135e-39
-204.96899 454.17352 -170 4.7887497e-39
-267.35889 464.5412 -180 4.9731424e-39
-339.62598 473.34448 -180 5.1560931e-39
622.54199 726.98444 -80 5.2493649e-39
658.92065 752.99561 -70 5.3415592e-39
655.79199 772.74939 -70 3.7746048e-39
652.66333 792.50317 -70 5.4330387e-39
689.04199 818.51428 -70 5.4330373e-39
738.91724 887.16174 -60 5.1578882e-39
735.78857 906.91553 -60 5.2497293e-39
753.97803 919.92108 -60 7.0054175e-39
782.04419 934.49103 -60 4.3324631e-39
749.28491 949.55176 -60 4.0583986e-39
747.72046 959.42859 -60 8.4790889e-39
744.5918 979.18237 -60 9.2181084e-39
721.70923 995.80743 -60 8.3876303e-39
730.02197 1007.2487 -60 5.6239292e-39
726.89307 1027.0024 -60 4.7945217e-39
713.88745 1045.1919 -60 4.885281e-39
722.2002 1056.6331 -60 4.8860054e-39
760.14331 1072.7673 -60 4.7019715e-39
786.64526 1097.2142 -50 4.6101318e-39
785.08081 1107.0911 -60 4.793807e-39
791.82898 1128.4092 -50 5.070754e-39
778.82349 1146.5986 -60 5.9012266e-39
777.25903 1156.4755 -60 9.2173756e-39
774.13037 1176.2292 -50 1.1703785e-38
751.2478 1192.8544 -60 7.3742071e-39
739.80664 1201.1669 -60 7.7426182e-39
736.67798 1220.9207 -60 3.5949093e-39
723.67236 1239.11 -60 1.3829401e-39
722.10791 1248.9869 -60 1.2007152e-39
718.97925 1268.7407 -60 2.8584064e-39
705.97363 1286.9301 -60 3.7793496e-39
653.46069 1298.8621 -70 1.8431895e-39
517.23926 1327.9099 -80 1.7513568e-39
431.9668 1354.9026 -90 1.8435497e-39
358.13574 1373.5828 -100 1.8431923e-39
1605.3528 1297.7582 20 1.935025e-39
1656.3015 1295.7031 30 2.0268633e-39
1685.9323 1300.3961 30 2.0272179e-39
1694.2448 1311.8374 30 1.9350264e-39
1694.2448 1311.8374 30 2.0272207e-39
1702.5573 1323.2787 30 2.0272193e-39
1710.8698 1334.7198 30 1.9353866e-39
1720.7467 1336.2842 40 1.1981831e-39
1729.0592 1347.7255 40 9.2123323e-40
1729.0592 1347.7255 40 9.2123603e-40
1727.4949 1357.6023 40 7.3792237e-40
1735.8074 1369.0436 40 7.3720491e-40
1734.243 1378.9204 40 7.3756224e-40
1734.243 1378.9204 40 9.2159336e-40
1742.5555 1390.3617 40 1.0137918e-39
1731.1143 1398.6742 40 8.290418e-40
1729.5499 1408.5511 40 6.4572814e-40
1729.5499 1408.5511 40 1.105986e-39
1727.9856 1418.428 40 1.1056273e-39
1716.5443 1426.7405 40 1.1056315e-39
1629.7075 1463.6101 30 1.1981831e-39
1639.5844 1465.1744 30 1.1981817e-39
1638.02 1475.0513 30 1.1059888e-39
1646.3325 1486.4926 30 1.105986e-39
1646.3325 1486.4926 30 1.1974628e-39
1634.8914 1494.8051 30 1.1056287e-39
1643.2039 1506.2463 30 1.1978215e-39
1631.7626 1514.5588 30 1.2900186e-39
1608.8801 1531.1838 30 1.1978229e-39
236.02515 -923.80469 -170 4.981106e-39
223.01953 -905.61523 -170 5.2591404e-39
219.89087 -885.86157 -170 2.9506427e-39
225.07471 -854.6665 -170 3.5052234e-39
131.98047 -778.28943 -180 6.4572954e-40
137.16431 -747.09448 -180 8.2976347e-40
142.34814 -715.89941 -180 1.1059888e-39
93.945068 -602.06995 -180 1.0134317e-39
34.683838 -611.45605 -190 9.2159616e-40
3.4887695 -606.27222 -190 9.2123463e-40
-37.583008 -602.65283 -190 8.2939913e-40
-30.834717 -581.33472 -190 9.2231643e-40
-45.404785 -553.26843 -190 9.2231503e-40
-76.599854 -548.08459 -200 1.0134303e-39
-89.605469 -529.89514 -200 7.3756644e-40
-94.29834 -500.26453 -200 8.2940054e-40
-79.237793 -467.50513 -200 9.2231783e-40
-64.177002 -434.74585 -190 1.2903801e-39
-67.305664 -414.99207 -190 1.1996222e-39
-62.121826 -383.797 -190 1.1992621e-39
-47.061279 -351.03772 -190 1.1981831e-39
-51.754395 -321.4071 -190 1.0134359e-39
-101.13867 -329.22888 -200 7.3864404e-40
-133.89795 -314.16809 -200 9.219563e-40
-137.02686 -294.41431 -200 5.5317238e-40
-159.90918 -277.78931 -200 5.5281224e-40
-126.65918 -232.02441 -200 5.5281224e-40
-131.35229 -202.39368 -200 5.5281505e-40
-144.35791 -184.20435 -200 6.4536661e-40
-195.30664 -182.14917 -200 9.2123743e-40
-208.31226 -163.95984 -200 5.5317518e-40
-186.01245 -49.056641 -200 7.3684477e-40
-151.198 -13.168579 -200 6.4537081e-40
-155.89111 16.462036 -200 7.372035e-40
-196.96289 20.081543 -200 6.4501208e-40
-143.95923 68.975098 -190 8.2939773e-40
-156.96484 87.164551 -190 2.2094441e-39
-151.78101 118.35962 -190 3.4054636e-39
-126.84326 152.68323 -190 3.5905723e-39
-121.65942 183.8783 -190 3.6831252e-39
-96.721924 218.20203 -180 3.6838413e-39
-80.096924 241.08447 -180 3.9589919e-39
-102.97925 257.70953 -180 3.9597079e-39
-232.94312 247.24976 -200 3.9593478e-39
-265.70264 262.31049 -200 4.0508344e-39
-298.46191 277.37115 -210 3.8678752e-39
-293.27808 308.56616 -210 3.683128e-39
-258.46362 344.45422 -200 1.2885752e-39
-261.59229 364.20801 -200 9.208759e-40
-256.40845 395.40302 -200 9.2087309e-40
-249.6604 416.72113 -200 4.9731382e-39
-214.84595 452.60919 -190 4.9727795e-39
-267.35889 464.5412 -200 5.0649751e-39
-329.74902 474.90881 -210 4.9731424e-39
-344.31885 502.9751 -210 4.973141e-39
612.66504 725.42004 -100 5.2490034e-39
649.0437 751.43127 -90 5.1575322e-39
655.79199 772.74939 -90 3.7789194e-39
652.66333 792.50317 -90 2.6711453e-39
689.04199 818.51428 -90 4.1426643e-39
738.91724 887.16174 -80 5.1578896e-39
735.78857 906.91553 -80 5.2500866e-39
753.97803 919.92108 -80 7.7419064e-39
782.04419 934.49103 -70 4.3306597e-39
759.16187 951.11609 -80 8.0195582e-39
737.84375 957.86426 -80 2.7644186e-39
724.83813 976.05371 -80 1.8428308e-39
622.94043 980.16388 -90 2.4874771e-39
698.8269 1012.4325 -80 1.6595129e-39
707.1394 1023.8737 -80 1.7535176e-39
723.7644 1046.7562 -80 2.4917931e-39
722.2002 1056.6331 -80 3.7774747e-39
748.70215 1081.08 -80 2.7629822e-39
786.64526 1097.2142 -70 2.0257787e-39
785.08081 1107.0911 -70 1.1052644e-39
781.95215 1126.8448 -70 1.1981817e-39
768.94653 1145.0343 -70 1.1974628e-39
777.25903 1156.4755 -70 2.0268577e-39
774.13037 1176.2292 -70 2.2123406e-39
751.2478 1192.8544 -70 1.1992579e-39
749.68359 1202.7312 -70 7.4660285e-39
746.55493 1222.485 -70 2.577149e-39
733.54932 1240.6743 -70 3.0453327e-39
731.98486 1250.5513 -70 3.3276649e-39
728.8562 1270.3051 -70 1.6602416e-39
705.97363 1286.9301 -80 1.5309071e-38
653.46069 1298.8621 -80 2.1194163e-39
517.23926 1327.9099 -100 1.8435497e-39
441.84375 1356.4669 -110 1.2896528e-39
387.76636 1378.2758 -110 1.7517156e-39
1595.476 1296.1938 10 1.7509967e-39
1707.2504 1293.6479 20 1.935388e-39
1705.6859 1303.5249 20 1.7517114e-39
1705.6859 1303.5249 30 2.0275808e-39
1713.9985 1314.9661 30 1.7524288e-39
1722.311 1326.4073 30 1.935025e-39
1732.1879 1327.9717 30 1.9350278e-39
1730.6235 1337.8486 30 1.9346691e-39
1729.0592 1347.7255 30 1.105986e-39
1738.936 1349.2898 30 7.3756644e-40
1737.3717 1359.1667 30 5.5389405e-40
1735.8074 1369.0436 30 8.2940054e-40
1735.8074 1369.0436 30 8.2940334e-40
1744.1199 1380.4849 30 6.4536941e-40
1742.5555 1390.3617 30 7.3792237e-40
1731.1143 1398.6742 30 8.290418e-40
1729.5499 1408.5511 30 2.5767903e-39
1675.4724 1430.36 20 1.1974628e-39
1632.8362 1443.8563 20 1.1978243e-39
1609.9537 1460.4814 20 1.1059874e-39
1598.5126 1468.7939 20 1.1971069e-39
1628.1432 1473.4869 20 1.1063462e-39
1638.02 1475.0513 20 1.1978229e-39
1636.4557 1484.9282 20 1.1978159e-39
1644.7682 1496.3694 20 1.105986e-39
1633.327 1504.682 20 1.1063448e-39
1643.2039 1506.2463 20 1.1978243e-39
1631.7626 1514.5588 20 1.105986e-39
1630.1982 1524.4358 20 1.1989033e-39
270.34888 -948.74243 -190 5.3506144e-39
275.53271 -917.54736 -190 4.9811116e-39
315.53101 -850.46436 -180 5.1673049e-39
304.08984 -842.15161 -180 5.1644322e-39
292.64844 -833.83911 -180 3.3266335e-39
287.95557 -804.2085 -180 3.69e-39
276.51416 -795.896 -180 3.4137761e-39
103.91406 -792.85938 -200 6.4573235e-40
155.35376 -734.08887 -200 9.219577e-40
115.84619 -740.34631 -200 1.1059888e-39
50.818115 -649.39929 -210 1.0145107e-39
102.25781 -590.62866 -200 9.219563e-40
52.873291 -598.45044 -210 9.2159476e-40
39.867676 -580.26111 -210 9.2159476e-40
8.6726074 -575.07727 -210 9.2123603e-40
-4.3330078 -556.88782 -210 9.2124024e-40
-25.651123 -550.13965 -220 9.2123463e-40
-58.4104 -535.07898 -220 7.3792517e-40
-89.605469 -529.89514 -220 8.30118e-40
-84.421631 -498.7002 -220 9.219605e-40
-79.237793 -467.50513 -220 1.1989033e-39
-64.177002 -434.74585 -220 1.2911004e-39
-67.305664 -414.99207 -220 1.1985432e-39
-62.121826 -383.797 -220 1.1059902e-39
-37.184326 -349.47339 -210 8.2976487e-40
-51.754395 -321.4071 -210 9.2231503e-40
-92.826172 -317.7876 -220 1.1059846e-39
-124.02124 -312.60376 -220 6.4465054e-40
-137.02686 -294.41431 -220 4.6097815e-40
-179.66309 -280.91797 -230 5.5281365e-40
-202.54541 -264.29297 -230 6.4536801e-40
-139.66479 -213.83496 -220 5.5281505e-40
-144.35791 -184.20435 -220 5.5281224e-40
-165.67603 -177.45618 -230 9.208759e-40
-188.55835 -160.83105 -230 5.5353251e-40
-183.37451 -129.63611 -230 5.5281365e-40
-178.19067 -98.44104 -230 6.4537081e-40
-153.25317 -64.117432 -220 6.4500928e-40
-120.00317 -18.352417 -220 6.4536941e-40
-103.37793 4.5300293 -210 9.208759e-40
-108.07104 34.160645 -210 6.4536661e-40
-168.89673 34.651489 -220 8.2939633e-40
-124.20532 72.103882 -220 6.4500928e-40
-147.08789 88.728882 -220 2.2098014e-39
-151.78101 118.35962 -220 2.7622563e-39
-126.84326 152.68323 -210 3.2232303e-39
-121.65942 183.8783 -210 3.4983766e-39
-96.721924 218.20203 -210 3.4987354e-39
-80.096924 241.08447 -210 3.6831266e-39
-93.102539 259.27386 -210 3.7749621e-39
-183.55884 255.07153 -220 3.775681e-39
-208.00562 281.57349 -220 4.0515434e-39
-240.76489 296.63422 -220 3.8678724e-39
-273.52441 311.69489 -230 3.5916527e-39
-248.58667 346.01862 -220 1.2889325e-39
-241.83862 367.33673 -220 1.1045441e-39
-256.40845 395.40302 -230 8.290362e-40
-259.53711 415.1568 -220 4.8805824e-39
-244.47656 447.91614 -220 4.8813013e-39
-306.86646 458.28375 -230 5.0649765e-39
-359.37964 470.21576 -240 5.0646178e-39
-324.56519 506.10382 -230 5.1571707e-39
650.60815 741.55438 -110 5.2493677e-39
678.67456 756.12433 -110 5.0646192e-39
675.54565 775.87805 -110 5.2493635e-39
672.41699 795.63184 -110 5.1568134e-39
689.04199 818.51428 -100 4.9731396e-39
740.48169 877.28485 -100 5.2504425e-39
738.91724 887.16174 -100 5.3415606e-39
735.78857 906.91553 -100 5.1571721e-39
753.97803 919.92108 -90 7.6500639e-39
782.04419 934.49103 -90 4.9828828e-39
759.16187 951.11609 -90 1.6598801e-39
747.72046 959.42859 -90 1.5662439e-39
774.22241 983.87549 -90 1.8413875e-39
721.70923 995.80743 -100 3.1306871e-39
732.0769 1058.1974 -90 1.933946e-39
738.8252 1079.5155 -90 1.6584381e-39
786.64526 1097.2142 -90 1.1978187e-39
785.08081 1107.0911 -90 1.013789e-39
781.95215 1126.8448 -90 9.208787e-40
768.94653 1145.0343 -90 1.4754888e-39
777.25903 1156.4755 -90 8.2940194e-40
774.13037 1176.2292 -90 7.3756364e-40
751.2478 1192.8544 -90 2.8580491e-39
749.68359 1202.7312 -90 7.3741958e-39
756.43164 1224.0493 -90 4.055879e-39
744.99048 1232.3618 -90 3.1353675e-39
741.86182 1252.1156 -90 3.1353675e-39
728.8562 1270.3051 -90 2.581835e-39
705.97363 1286.9301 -90 6.6351973e-39
632.14258 1305.6102 -100 1.6620367e-39
495.92114 1334.6581 -120 1.936104e-39
431.9668 1354.9026 -120 1.382217e-39
399.20752 1369.9633 -130 1.8435539e-39
447.02759 1387.6619 -120 1.9350236e-39
1595.476 1296.1938 0 2.0275808e-39
1707.2504 1293.6479 20 1.936104e-39
1717.1272 1295.2124 20 1.9350278e-39
1725.4397 1306.6536 20 2.0272207e-39
1723.8754 1316.5305 20 2.0275836e-39
1733.7522 1318.0948 20 2.2112462e-39
1742.0648 1329.536 20 2.0279381e-39
1742.0648 1329.536 20 2.0279409e-39
1750.3773 1340.9773 20 1.4733308e-39
1748.813 1350.8541 20 1.1063504e-39
1747.2485 1360.7311 20 1.0130757e-39
1747.2485 1360.7311 20 1.1045469e-39
1745.6842 1370.6079 20 1.1049098e-39
1744.1199 1380.4849 20 8.290418e-40
1742.5555 1390.3617 20 6.4501348e-40
1731.1143 1398.6742 20 7.3756224e-40
1667.1599 1418.9187 10 7.3863983e-40
1624.5237 1432.415 10 1.2929347e-39
1611.5181 1450.6045 10 1.1974642e-39
1600.0769 1458.917 10 1.105986e-39
1598.5126 1468.7939 10 1.1056301e-39
1628.1432 1473.4869 10 1.1059902e-39
1638.02 1475.0513 10 1.1978229e-39
1636.4557 1484.9282 10 1.1059902e-39
1634.8914 1494.8051 10 1.1981831e-39
1633.327 1504.682 10 1.1981845e-39
1633.327 1504.682 10 1.2921751e-39
1631.7626 1514.5588 10 3.4166263e-39
1630.1982 1524.4358 10 5.2544194e-39
323.35278 -899.84863 -200 5.4442505e-39
302.03467 -893.10059 -200 4.7041631e-39
317.09546 -860.34106 -200 5.2576957e-39
322.27905 -829.14624 -200 5.166579e-39
309.27368 -810.95679 -200 4.4301014e-39
324.33423 -778.19739 -200 3.7825712e-39
329.51807 -747.00232 -200 3.3219406e-39
372.64502 -699.6731 -190 3.8747514e-39
314.94824 -718.93604 -200 4.3353694e-39
148.11475 -816.23267 -220 2.9520762e-39
80.541016 -837.06006 -230 1.2911214e-39
122.10352 -779.85388 -230 7.3720911e-40
110.66235 -771.54126 -230 9.2159897e-40
79.467285 -766.35742 -230 1.1063462e-39
183.91064 -658.69324 -220 8.2976627e-40
169.34082 -630.62695 -220 1.6595213e-39
50.818115 -649.39929 -230 1.1981817e-39
120.44702 -577.62317 -220 1.0137918e-39
80.939697 -583.88049 -230 8.2976207e-40
67.934082 -565.69116 -230 7.3792517e-40
26.862061 -562.07166 -230 7.3684477e-40
13.856445 -543.88232 -230 7.3684477e-40
-17.338379 -538.69849 -240 5.5317238e-40
-58.4104 -535.07898 -240 5.5317378e-40
-79.728516 -528.33081 -250 1.0137932e-39
-84.421631 -498.7002 -250 1.198546e-39
-69.36084 -465.9408 -240 1.1989019e-39
-64.177002 -434.74585 -240 9.2123743e-40
-67.305664 -414.99207 -240 7.3756784e-40
-52.245117 -382.23267 -240 8.2976207e-40
-28.871826 -338.0321 -240 1.0141561e-39
-32.000488 -318.27832 -240 1.1063518e-39
-64.759766 -303.21765 -240 7.3648324e-40
-86.078125 -296.46948 -240 5.5281224e-40
-118.8374 -281.40881 -250 5.5317378e-40
-159.90918 -277.78931 -250 5.5352971e-40
-200.49048 -213.34424 -250 5.5281224e-40
-203.61914 -193.59045 -260 7.3720631e-40
-284.19849 -196.22839 -270 6.4537081e-40
-231.19458 -147.33472 -260 5.5281224e-40
-196.38013 -111.44666 -250 7.3684757e-40
-201.07324 -81.81604 -250 6.4536941e-40
-176.13574 -47.49231 -250 6.4501208e-40
-123.13184 1.4013672 -240 9.2051717e-40
-108.07104 34.160645 -240 7.3720631e-40
-159.01978 36.21582 -240 7.372035e-40
-115.89282 83.545044 -240 8.29039e-40
-148.6521 98.605835 -240 9.2087169e-40
-141.90405 119.92395 -240 2.30236e-39
-126.84326 152.68323 -240 3.1306759e-39
-121.65942 183.8783 -240 3.2228716e-39
-96.721924 218.20203 -230 3.4994556e-39
-80.096924 241.08447 -230 3.499457e-39
-84.790039 270.71509 -230 3.5912911e-39
-115.98486 275.89893 -230 3.683128e-39
-158.62109 289.39526 -240 3.7753167e-39
-191.38062 304.45599 -240 3.6831308e-39
-243.89355 316.38794 -250 3.683484e-39
-228.83301 349.14728 -250 1.3807694e-39
-231.96167 368.90106 -250 1.1967383e-39
-256.40845 395.40302 -250 9.2051576e-40
-259.53711 415.1568 -250 4.7883882e-39
-254.35352 446.35175 -250 4.696194e-39
-316.74341 456.71942 -260 4.6054375e-39
-329.74902 474.90881 -260 4.6969156e-39
670.36182 744.68311 -120 5.0649737e-39
688.55127 757.68866 -120 5.0653352e-39
695.29956 779.00677 -120 5.2490104e-39
692.1709 798.76056 -120 5.2486489e-39
698.91895 820.07867 -120 4.8813055e-39
726.98535 834.64862 -120 4.8813055e-39
740.48169 877.28485 -110 5.1575252e-39
738.91724 887.16174 -110 5.6156321e-39
735.78857 906.91553 -110 5.2490076e-39
753.97803 919.92108 -110 8.2028761e-39
782.04419 934.49103 -110 4.5118013e-39
769.03857 952.68042 -110 1.8413917e-39
767.47437 962.55737 -110 1.3807694e-39
813.72998 990.13287 -100 1.3807708e-39
812.16565 1000.0098 -100 1.4729665e-39
732.0769 1058.1974 -110 1.5655208e-39
738.8252 1079.5155 -110 1.3818554e-39
786.64526 1097.2142 -100 1.3814939e-39
785.08081 1107.0911 -100 1.2903801e-39
781.95215 1126.8448 -100 1.3818554e-39
768.94653 1145.0343 -100 1.4740469e-39
777.25903 1156.4755 -100 1.4744084e-39
774.13037 1176.2292 -100 1.8449804e-39
751.2478 1192.8544 -110 4.7909119e-39
759.5603 1204.2955 -100 7.2816457e-39
767.87305 1215.7368 -100 3.5895045e-39
744.99048 1232.3618 -100 2.9455728e-39
741.86182 1252.1156 -110 2.4846017e-39
738.73315 1271.8694 -110 2.0243396e-39
664.90186 1290.5496 -110 1.8410259e-39
476.16748 1331.5293 -140 2.027585e-39
422.09009 1353.3381 -140 1.6588025e-39
409.08447 1371.5276 -140 1.9361068e-39
427.27368 1384.5332 -140 2.0272221e-39
1728.5685 1286.8998 10 2.0279409e-39
1736.881 1298.3411 10 1.9357481e-39
1735.3167 1308.2179 10 2.2116105e-39
1735.3167 1308.2179 10 1.8439126e-39
1733.7522 1318.0948 10 2.0283011e-39
1742.0648 1329.536 10 2.0279409e-39
1751.9417 1331.1005 10 1.9332286e-39
1750.3773 1340.9773 20 2.1215841e-39
1748.813 1350.8541 20 1.1067105e-39
1748.813 1350.8541 20 1.0130729e-39
1747.2485 1360.7311 20 7.3756644e-40
1745.6842 1370.6079 20 7.3756364e-40
1744.1199 1380.4849 20 6.4501348e-40
1742.5555 1390.3617 10 7.372021e-40
1721.2374 1397.1099 10 7.3828391e-40
1635.965 1424.1025 0 2.8660365e-39
1613.0825 1440.7277 0 1.8500769e-39
1611.5181 1450.6045 0 1.1978257e-39
1600.0769 1458.917 0 1.1056273e-39
1598.5126 1468.7939 0 1.1059874e-39
1618.2662 1471.9226 0 1.0137918e-39
1638.02 1475.0513 0 1.1981817e-39
1636.4557 1484.9282 0 1.1989005e-39
1634.8914 1494.8051 0 2.3106389e-39
1633.327 1504.682 0 4.8798804e-39
1633.327 1504.682 0 5.2472238e-39
1631.7626 1514.5588 0 2.3988716e-39
1630.1982 1524.4358 0 9.1291526e-39
278.66138 -937.30103 -230 5.2584257e-39
293.72217 -904.54175 -230 4.8881929e-39
325.40796 -848.8999 -220 5.3495256e-39
340.46851 -816.14062 -220 4.7985182e-39
327.46289 -797.95117 -220 4.7038142e-39
350.83618 -753.75049 -220 3.6900084e-39
357.58447 -732.43237 -220 3.3212175e-39
380.95752 -688.23181 -210 3.8736696e-39
349.7627 -683.04797 -220 3.8733137e-39
144.98608 -796.47888 -250 1.2903927e-39
123.66797 -789.73071 -250 6.4501068e-40
72.719238 -787.67566 -250 9.219549e-40
43.088623 -792.36865 -260 1.0141519e-39
121.03003 -709.15125 -250 8.3012501e-40
208.84839 -624.36963 -230 9.2159476e-40
69.007568 -636.39368 -250 5.5353111e-40
130.32397 -576.05872 -240 5.5317238e-40
80.939697 -583.88049 -250 4.6097955e-40
67.934082 -565.69116 -250 5.5317238e-40
36.739014 -560.50732 -260 5.5281505e-40
13.856445 -543.88232 -260 4.6097675e-40
-27.215332 -540.26282 -260 5.5281505e-40
-48.533447 -533.51465 -270 6.4572674e-40
-89.605469 -529.89514 -270 1.2900214e-39
-92.734131 -510.14136 -270 8.2940194e-40
-79.237793 -467.50513 -270 7.3864404e-40
-64.177002 -434.74585 -270 8.3047673e-40
-58.993164 -403.55078 -270 1.0145149e-39
-53.809326 -372.35583 -260 1.1985474e-39
-18.994873 -336.46777 -260 1.1067077e-39
-13.811035 -305.27271 -260 6.4500928e-40
-8.6271973 -274.07776 -260 5.5209478e-40
-67.888672 -283.46387 -260 6.4464774e-40
-108.96045 -279.84436 -270 6.4536801e-40
-216.13403 -114.57544 -280 6.4500928e-40
-201.07324 -81.81604 -280 7.3684477e-40
-157.94629 -34.486694 -270 7.3720491e-40
-95.06543 15.971313 -260 8.29039e-40
-98.194092 35.725098 -260 7.3720631e-40
-140.83032 49.221436 -270 5.5281505e-40
-106.01587 85.109497 -260 6.4500787e-40
-119.02148 103.29883 -260 8.2939773e-40
-123.7146 132.92957 -260 2.3019985e-39
-97.212646 157.37634 -260 2.5782252e-39
-92.028809 188.57129 -260 3.1295983e-39
-47.337646 226.02374 -250 3.4061824e-39
-22.399902 260.34747 -250 3.4987354e-39
-45.282471 276.97253 -250 3.4998172e-39
-49.975586 306.60315 -250 3.683128e-39
-62.981201 324.7926 -250 3.5920072e-39
-133.68359 323.71899 -260 3.6838427e-39
-215.82739 330.95789 -270 3.5909352e-39
-209.0791 352.276 -270 1.1967397e-39
-194.01855 385.0354 -270 1.1049014e-39
-236.65479 398.53174 -270 9.2051436e-40
-239.78345 418.28546 -270 4.6047144e-39
-234.59961 449.48047 -270 4.8802209e-39
-316.74341 456.71942 -280 4.972062e-39
-222.66772 501.99359 -270 4.696194e-39
670.36182 744.68311 -140 4.9727795e-39
688.55127 757.68866 -140 4.6050787e-39
685.42261 777.44244 -140 5.0649737e-39
682.29395 797.19617 -140 4.9727823e-39
689.04199 818.51428 -140 5.0638975e-39
717.1084 833.08423 -130 5.1564546e-39
733.7334 855.96674 -130 4.9724221e-39
740.48169 877.28485 -130 5.1564518e-39
738.91724 887.16174 -130 5.156812e-39
735.78857 906.91553 -130 5.0646164e-39
763.85474 921.48547 -130 8.2025132e-39
772.16724 932.9267 -120 3.8685997e-39
759.16187 951.11609 -130 2.2094553e-39
747.72046 959.42859 -130 1.8403085e-39
774.22241 983.87549 -120 1.2896584e-39
731.58618 997.37183 -130 1.7488359e-39
698.8269 1012.4325 -130 3.8617698e-39
707.1394 1023.8737 -130 3.8653571e-39
745.08252 1040.0081 -130 2.3005649e-39
741.95386 1059.7618 -130 4.1383511e-39
738.8252 1079.5155 -130 2.9455672e-39
786.64526 1097.2142 -120 2.7647759e-39
785.08081 1107.0911 -120 3.7699343e-39
781.95215 1126.8448 -120 3.8621299e-39
768.94653 1145.0343 -120 1.3814897e-39
777.25903 1156.4755 -120 1.4736839e-39
774.13037 1176.2292 -120 2.2080078e-39
762.68921 1184.5417 -120 2.1183275e-39
769.43726 1205.8599 -120 7.2809212e-39
767.87305 1215.7368 -120 1.9317852e-39
744.99048 1232.3618 -120 1.3807722e-39
741.86182 1252.1156 -120 1.7477555e-39
718.97925 1268.7407 -120 3.2181954e-39
645.14795 1287.4208 -130 1.2903745e-39
476.16748 1331.5293 -160 2.1194205e-39
422.09009 1353.3381 -160 1.7499163e-39
399.20752 1369.9633 -170 2.2112518e-39
323.81201 1398.5203 -180 2.1201351e-39
248.41626 1427.0773 -180 1.9357509e-39
1736.881 1298.3411 0 2.2119734e-39
1735.3167 1308.2179 0 2.2116105e-39
1735.3167 1308.2179 0 2.2116147e-39
1733.7522 1318.0948 0 1.9368257e-39
1742.0648 1329.536 10 1.7524358e-39
1751.9417 1331.1005 10 1.1974614e-39
1750.3773 1340.9773 10 9.2159196e-40
1758.6898 1352.4186 10 7.3756364e-40
1758.6898 1352.4186 10 8.290418e-40
1757.1255 1362.2954 10 6.4572954e-40
1745.6842 1370.6079 10 9.2051857e-40
1744.1199 1380.4849 10 8.301194e-40
1752.4324 1391.926 10 1.3022617e-39
1721.2374 1397.1099 0 5.5303519e-39
1635.965 1424.1025 0 2.4976169e-39
1613.0825 1440.7277 0 2.222095e-39
1611.5181 1450.6045 0 1.1981873e-39
1600.0769 1458.917 0 1.1978215e-39
1588.6356 1467.2295 0 1.1981817e-39
1606.8251 1480.2351 0 1.5694809e-39
1638.02 1475.0513 0 4.1459111e-39
1636.4557 1484.9282 0 3.3157931e-39
1634.8914 1494.8051 0 2.0272221e-39
1633.327 1504.682 0 4.3662849e-39
1631.7626 1514.5588 0 1.0136466e-38
1599.0033 1529.6195 0 8.850758e-39
1533.4845 1559.741 -10 9.3085034e-39
323.35278 -899.84863 -250 4.6101514e-39
328.53662 -868.65356 -240 4.1444944e-39
333.72046 -837.45874 -240 3.4987592e-39
348.78101 -804.69922 -240 2.3030985e-39
337.33984 -796.38672 -240 1.8428392e-39
352.40063 -763.62744 -240 1.1989075e-39
365.89697 -720.99121 -240 1.1981873e-39
389.27002 -676.79065 -230 1.0141533e-39
367.9519 -670.04248 -230 1.0141561e-39
265.56372 -726.75781 -250 9.219577e-40
194.86108 -727.83142 -260 6.4500928e-40
145.47681 -735.6532 -270 7.3792798e-40
87.779785 -754.91626 -280 1.1059874e-39
403.74805 -512.50305 -230 8.3012361e-40
400.61914 -492.74927 -230 7.3756784e-40
201.02661 -574.98511 -260 6.4536801e-40
141.76514 -584.37134 -260 5.5317378e-40
176.57959 -548.48328 -260 5.5317518e-40
89.252197 -572.43933 -270 5.5317378e-40
77.810791 -564.12683 -270 5.5281224e-40
36.739014 -560.50732 -280 4.6097815e-40
13.856445 -543.88232 -280 4.6097815e-40
-25.651123 -550.13965 -290 6.4536801e-40
-38.656494 -531.95032 -290 1.1070664e-39
-79.728516 -528.33081 -300 1.1063518e-39
-102.61084 -511.70581 -300 1.2914591e-39
-69.36084 -465.9408 -290 1.7513582e-39
-64.177002 -434.74585 -290 1.5655292e-39
-21.050049 -387.4165 -280 1.1049112e-39
-15.866211 -356.22156 -280 7.372035e-40
17.383789 -310.45654 -280 5.5317238e-40
32.44458 -277.69727 -270 4.6061942e-40
-11.756104 -254.32397 -280 5.5281224e-40
-44.515381 -239.26331 -280 7.3720491e-40
-211.44092 -144.20605 -310 6.4500928e-40
-178.19067 -98.44104 -300 6.4465194e-40
-173.00684 -67.246094 -300 8.2868307e-40
-120.00317 -18.352417 -290 6.4608687e-40
-85.188721 17.535645 -280 6.4572814e-40
-98.194092 35.725098 -280 7.3648744e-40
-140.83032 49.221436 -290 7.372035e-40
-115.89282 83.545044 -290 7.3648604e-40
-109.14478 104.86328 -290 7.3720491e-40
-123.7146 132.92957 -290 2.1172499e-39
-107.0896 155.81201 -280 2.6696992e-39
-92.028809 188.57129 -280 2.8544492e-39
-29.148193 239.02936 -270 3.2228702e-39
5.6662598 274.91742 -260 3.1310333e-39
22.291504 297.79987 -260 3.4065426e-39
-0.59106445 314.42493 -260 3.4990955e-39
-56.23291 346.11072 -270 3.5905737e-39
-138.37671 353.34961 -280 3.4069055e-39
-151.38232 371.539 -290 1.105263e-39
-207.02417 403.22479 -290 1.0127086e-39
-211.71704 432.85541 -290 4.4214035e-39
670.36182 744.68311 -160 4.7887497e-39
688.55127 757.68866 -160 4.5125272e-39
695.29956 779.00677 -160 4.8805866e-39
692.1709 798.76056 -160 4.880588e-39
698.91895 820.07867 -150 4.880588e-39
717.1084 833.08423 -150 4.9734955e-39
733.7334 855.96674 -150 4.7894658e-39
740.48169 877.28485 -150 4.9731424e-39
738.91724 887.16174 -150 4.8809426e-39
735.78857 906.91553 -150 4.9731382e-39
753.97803 919.92108 -140 8.1106749e-39
752.41357 929.79797 -140 3.8696899e-39
729.53101 946.42303 -150 1.9335845e-39
647.38745 953.66199 -160 1.9321426e-39
724.83813 976.05371 -150 1.5662467e-39
591.74561 985.34772 -170 1.8421077e-39
759.65259 1011.9418 -140 3.3111113e-39
726.89307 1027.0024 -140 4.7840764e-39
713.88745 1045.1919 -150 2.2101672e-39
732.0769 1058.1974 -140 5.8839415e-39
738.8252 1079.5155 -140 3.223589e-39
776.76831 1095.6499 -140 3.1313948e-39
785.08081 1107.0911 -140 2.6693461e-39
781.95215 1126.8448 -130 4.3213046e-39
768.94653 1145.0343 -140 1.4736839e-39
777.25903 1156.4755 -130 1.7502708e-39
784.00732 1177.7936 -130 3.4947837e-39
772.56592 1186.1062 -140 2.3967052e-39
769.43726 1205.8599 -130 7.3727511e-39
767.87305 1215.7368 -130 3.3107582e-39
733.54932 1240.6743 -140 2.0239766e-39
710.66675 1257.2994 -140 2.9426889e-39
687.78418 1273.9244 -140 3.8610481e-39
645.14795 1287.4208 -150 1.5644432e-39
581.1936 1307.6653 -160 8.2975787e-40
495.92114 1334.6581 -170 1.1992579e-39
422.09009 1353.3381 -180 1.569841e-39
368.01245 1375.1471 -190 1.3858099e-39
292.61694 1403.7041 -200 1.3843764e-39
238.53955 1425.5129 -200 9.2159616e-40
174.58521 1445.7574 -210 7.3756644e-40
181.33325 1467.0756 -210 9.208759e-40
1735.3167 1308.2179 0 9.2159476e-40
1735.3167 1308.2179 0 8.2975787e-40
1733.7522 1318.0948 0 8.2940054e-40
1742.0648 1329.536 0 9.2123603e-40
1742.0648 1329.536 0 1.2896584e-39
1750.3773 1340.9773 0 2.2108958e-39
1748.813 1350.8541 0 7.3756644e-40
1748.813 1350.8541 0 7.3792657e-40
1757.1255 1362.2954 0 9.2628071e-40
1745.6842 1370.6079 0 2.8833047e-39
1753.9967 1382.0492 0 5.6218231e-39
1763.8737 1383.6135 0 2.5883692e-39
1742.5555 1390.3617 0 2.4032591e-39
1645.8418 1425.6669 0 2.3960144e-39
1613.0825 1440.7277 -10 1.4744112e-39
1621.395 1452.1688 -10 1.7513638e-39
1609.9537 1460.4814 -10 3.2307889e-39
1598.5126 1468.7939 -10 2.5839944e-39
1596.9481 1478.6708 -10 2.1190533e-39
1657.7738 1478.1801 0 1.1883841e-38
1656.2095 1488.0569 0 8.850049e-39
1549.6189 1521.7979 -20 9.7691242e-39
1557.9314 1533.239 -10 9.0329927e-39
1535.049 1549.864 -20 8.5738194e-39
1630.1982 1524.4358 0 8.8478882e-39
368.04419 -862.39624 -260 1.3836561e-39
364.91528 -842.64258 -260 1.1989089e-39
353.47412 -834.32983 -260 1.1067091e-39
358.65796 -803.13501 -260 1.1989103e-39
345.65234 -784.94556 -260 1.1063532e-39
369.02563 -740.745 -260 1.0141533e-39
375.77368 -719.42688 -260 1.0145121e-39
399.14697 -675.2262 -250 1.0141533e-39
396.01831 -655.47253 -250 1.0141547e-39
401.20215 -624.27747 -250 1.013796e-39
416.2627 -591.51807 -250 1.0141505e-39
421.44653 -560.32312 -240 1.1985404e-39
373.62646 -578.02173 -250 1.4740525e-39
425.06616 -519.25122 -240 1.3825743e-39
420.37305 -489.62061 -240 1.2903787e-39
172.96021 -589.55505 -280 1.0137946e-39
133.45264 -595.8125 -290 9.2123743e-40
166.70288 -550.04761 -280 7.3756644e-40
135.50781 -544.86377 -290 7.3792517e-40
132.37915 -525.10999 -290 6.4536941e-40
127.68604 -495.47937 -290 6.4536801e-40
124.55737 -475.72559 -290 6.4500787e-40
85.049805 -481.98303 -290 9.2267516e-40
-46.478271 -482.56592 -310 1.1067049e-39
4.9611816 -423.79529 -300 8.2976347e-40
10.14502 -392.60034 -300 8.2976207e-40
53.271973 -345.271 -300 4.6097955e-40
50.143311 -325.51721 -300 4.6097815e-40
-203.12842 -132.76477 -330 6.4536801e-40
-112.1814 -67.736816 -310 6.4500787e-40
-105.43311 -46.418701 -310 7.3684477e-40
-52.429199 2.4749756 -300 6.4500928e-40
-66.999268 30.54126 -300 6.4500928e-40
-42.061523 64.86499 -300 7.3684477e-40
-73.256592 70.048706 -310 7.372035e-40
-86.262207 88.238159 -310 6.4572814e-40
-90.955322 117.86877 -310 8.29039e-40
-84.207031 139.18689 -300 1.749189e-39
-72.275146 191.70007 -300 2.8544492e-39
624.1062 717.10754 -180 4.5121656e-39
660.48511 743.11871 -180 4.6958352e-39
678.67456 756.12433 -170 4.6965569e-39
685.42261 777.44244 -170 4.7883938e-39
692.1709 798.76056 -170 4.7887469e-39
698.91895 820.07867 -170 4.6972716e-39
717.1084 833.08423 -170 4.6976331e-39
723.85645 854.40234 -170 4.7880337e-39
730.60474 875.72046 -160 3.0410068e-39
729.04028 885.59741 -160 2.3963535e-39
725.91162 905.35114 -160 2.4871128e-39
744.10107 918.35675 -160 7.8337363e-39
732.65991 926.66925 -160 3.0388573e-39
611.00854 927.65076 -180 3.6870965e-39
517.42358 943.20221 -200 3.2185584e-39
385.89526 942.61938 -210 2.6668321e-39
451.90479 973.32361 -200 3.7702916e-39
568.86304 1001.9728 -190 5.240377e-39
666.06763 1027.4932 -170 3.3118316e-39
644.74951 1034.2413 -170 3.1277977e-39
712.32324 1055.0687 -160 5.8835842e-39
719.07129 1076.3868 -160 2.852294e-39
766.89136 1094.0854 -150 3.497662e-39
775.20386 1105.5267 -150 4.8730392e-39
772.0752 1125.2805 -150 5.3332901e-39
768.94653 1145.0343 -150 1.6573535e-39
777.25903 1156.4755 -150 1.7491932e-39
784.00732 1177.7936 -150 4.5978887e-39
772.56592 1186.1062 -150 3.6834854e-39
779.31421 1207.4243 -150 7.6482646e-39
767.87305 1215.7368 -150 4.4131429e-39
713.79541 1237.5457 -160 2.1158149e-39
690.91309 1254.1708 -160 3.7695741e-39
668.03052 1270.7958 -160 4.3205871e-39
635.27124 1285.8564 -170 1.7491918e-39
600.94751 1310.7941 -170 1.3840092e-39
517.23926 1327.9099 -190 2.3988772e-39
441.84375 1356.4669 -200 3.2275603e-39
387.76636 1378.2758 -200 3.2271932e-39
292.61694 1403.7041 -220 3.0395733e-39
228.6626 1423.9486 -230 1.4740497e-39
1723.8754 1316.5305 0 8.2975927e-40
1733.7522 1318.0948 0 9.2159336e-40
1732.1879 1327.9717 0 8.2976067e-40
1730.6235 1337.8486 0 1.4758545e-39
1730.6235 1337.8486 0 1.2957877e-39
1738.936 1349.2898 0 2.9661172e-39
1747.2485 1360.7311 0 7.0083673e-39
1747.2485 1360.7311 0 2.7713199e-39
1745.6842 1370.6079 0 2.1252331e-39
1744.1199 1380.4849 0 1.5680502e-39
1742.5555 1390.3617 0 1.9357467e-39
1740.9912 1400.2385 0 1.8439112e-39
1729.5499 1408.5511 0 1.4751259e-39
1739.4268 1410.1155 0 1.4769293e-39
1747.7394 1421.5566 0 1.8457231e-39
1736.2981 1429.8693 0 2.1258777e-39
1724.8568 1438.1818 0 9.8634652e-39
1734.7338 1439.7461 0 9.3999774e-39
1733.1694 1449.623 0 9.2177483e-39
1688.9688 1472.9962 -10 9.2184672e-39
1634.8914 1494.8051 -10 8.7574876e-39
1570.937 1515.0496 -20 8.9404411e-39
1536.6133 1539.9872 -30 8.9418831e-39
1515.2952 1546.7354 -30 5.5184142e-39
412.73535 -824.94385 -270 1.291099e-39
417.91919 -793.74878 -270 1.1067133e-39
388.28857 -798.44189 -280 1.0145107e-39
385.15991 -778.68811 -280 1.1056301e-39
372.1543 -760.49866 -280 8.301208e-40
387.21509 -727.73938 -280 1.0137918e-39
384.08643 -707.9856 -280 9.219563e-40
407.45947 -663.78503 -270 1.0137932e-39
414.20776 -642.46692 -270 9.2267657e-40
419.3916 -611.27185 -270 1.0145121e-39
542.02441 -490.60205 -240 1.1063462e-39
538.89551 -470.84839 -240 1.105986e-39
509.26489 -475.54138 -250 1.1978229e-39
479.63428 -480.2345 -260 1.3822142e-39
503.00757 -436.03381 -250 8.2976207e-40
161.51904 -581.24255 -310 1.1063462e-39
453.34692 133.20581 -240 7.3720491e-40
472.0271 207.03711 -240 5.5353251e-40
506.84155 242.92511 -230 5.5389124e-40
495.40015 251.23767 -230 8.2940054e-40
502.14844 272.55579 -230 7.3684477e-40
624.1062 717.10754 -200 4.1451824e-39
652.17261 731.67749 -200 4.5128817e-39
678.67456 756.12433 -190 4.2366592e-39
685.42261 777.44244 -190 4.6047172e-39
682.29395 797.19617 -190 4.8802265e-39
689.04199 818.51428 -190 4.6965583e-39
707.23145 831.5199 -190 4.7883896e-39
694.22583 849.70935 -190 2.5800315e-39
661.46655 864.77002 -190 3.2225226e-39
640.14844 871.51819 -190 3.225045e-39
617.26587 888.14325 -200 4.6097689e-39
586.07104 893.32703 -200 7.8348083e-39
543.43481 906.82336 -210 2.947019e-39
540.30591 926.57715 -210 1.4718861e-39
428.53149 929.12305 -230 3.2185584e-39
366.1416 939.49066 -240 2.483873e-39
392.64355 963.9375 -230 2.7586648e-39
558.98608 1000.4084 -200 2.2994845e-39
587.05249 1014.9783 -200 2.207649e-39
684.25684 1040.4988 -180 2.2991258e-39
691.00513 1061.8169 -180 2.2072889e-39
709.19458 1074.8225 -180 2.0236207e-39
727.38403 1087.8281 -180 2.2991244e-39
744.00903 1110.7106 -170 2.2991258e-39
752.32153 1122.1519 -170 2.2994845e-39
768.94653 1145.0343 -170 2.2080078e-39
777.25903 1156.4755 -170 2.3916788e-39
784.00732 1177.7936 -170 2.3916788e-39
772.56592 1186.1062 -170 4.3295596e-39
779.31421 1207.4243 -170 7.3734742e-39
767.87305 1215.7368 -170 3.6784547e-39
703.9187 1235.9813 -180 3.6777386e-39
681.03613 1252.6063 -180 2.3012838e-39
658.15356 1269.2314 -180 4.7966755e-39
625.39429 1284.2921 -190 8.2097004e-39
600.94751 1310.7941 -190 9.9595971e-39
517.23926 1327.9099 -200 3.0406537e-39
443.4082 1346.59 -210 2.2108944e-39
399.20752 1369.9633 -220 4.6029277e-39
313.93506 1396.9559 -230 2.7615431e-39
279.61133 1421.8936 -240 1.4736867e-39
204.21582 1450.4506 -250 9.2231643e-40
304.54883 1456.2173 -230 1.0145107e-39
332.61523 1470.7871 -230 7.3792657e-40
1722.311 1326.4073 -10 1.0137904e-39
1720.7467 1336.2842 -10 2.3070698e-39
1719.1823 1346.1611 -10 4.1513677e-39
1727.4949 1357.6023 -10 2.3096173e-39
1727.4949 1357.6023 -10 1.5662523e-39
1735.8074 1369.0436 -10 1.937183e-39
1735.8074 1369.0436 -10 2.3048893e-39
1734.243 1378.9204 -10 2.2126909e-39
1742.5555 1390.3617 -10 2.1212184e-39
1740.9912 1400.2385 -10 2.3056068e-39
1739.4268 1410.1155 -10 8.2968598e-39
1749.3037 1411.6798 -10 1.51053e-38
1749.3037 1411.6798 -10 8.9386377e-39
1747.7394 1421.5566 -10 8.9400754e-39
1746.175 1431.4336 -10 8.8496818e-39
1744.6106 1441.3104 -10 8.8503965e-39
1743.0463 1451.1874 -10 9.2159448e-39
1710.2869 1466.248 -10 8.3883548e-39
1762.8 1454.316 0 8.0120109e-39
1761.2357 1464.193 0 5.9019468e-39
1771.1125 1465.7573 0 7.0075741e-39
1779.425 1477.1985 0 3.3194434e-39
1767.9839 1485.5111 0 1.5666054e-39
449.11426 -798.93262 -290 1.106349e-39
442.85693 -759.42505 -290 8.2975787e-40
411.66187 -754.24133 -290 9.2231503e-40
408.5332 -734.48755 -290 1.1063476e-39
413.71704 -703.29248 -290 1.1985418e-39
410.58813 -683.53882 -290 1.5680418e-39
453.71533 -636.20947 -280 1.3822156e-39
576.34814 -515.53967 -260 1.2903759e-39
599.72119 -471.33911 -260 1.1059888e-39
614.78198 -438.57971 -250 1.0141505e-39
593.46387 -431.83154 -250 1.0137918e-39
608.52441 -399.07214 -250 1.1052672e-39
597.08325 -390.75964 -250 1.1989019e-39
585.64209 -382.44714 -260 7.3792657e-40
564.32397 -375.69897 -260 7.3792237e-40
597.57397 -329.93408 -250 9.219549e-40
594.44531 -310.1803 -250 8.301194e-40
599.62915 -278.98523 -250 9.2159616e-40
551.80908 -296.68396 -260 1.105986e-39
512.30151 -302.94128 -260 1.1056287e-39
700.36108 -20.039185 -230 2.6725845e-39
576.65454 -70.006348 -250 3.2254149e-39
573.52588 -50.252686 -250 2.85661e-39
580.27393 -28.93457 -250 7.3792798e-40
540.7666 -35.191895 -250 8.3047953e-40
509.57153 -30.008057 -260 5.5389124e-40
541.25732 25.633667 -250 6.4500787e-40
584.875 133.7887 -240 6.4572814e-40
535.49048 125.96692 -250 9.208745e-40
570.30518 161.85498 -240 7.3756364e-40
539.11011 167.03882 -250 7.3684477e-40
507.91504 172.22253 -250 7.3792237e-40
504.78638 191.97632 -250 8.2976067e-40
501.65771 211.7301 -250 7.3756504e-40
506.84155 242.92511 -250 8.2939913e-40
495.40015 251.23767 -250 8.2939913e-40
502.14844 272.55579 -250 7.3684477e-40
508.89648 293.8739 -250 5.5317238e-40
505.76782 313.62762 -250 6.4572394e-40
482.88525 330.25269 -250 8.2867887e-40
394.48413 376.99915 -270 1.4748064e-39
411.10913 399.88159 -260 9.2087309e-40
445.92383 435.76971 -260 9.2087309e-40
618.43164 625.08691 -220 9.2087309e-40
614.22925 715.54321 -220 4.145181e-39
642.29565 730.11316 -220 4.4203301e-39
668.79761 754.55994 -210 4.5128845e-39
675.54565 775.87805 -210 4.6961954e-39
672.41699 795.63184 -210 4.8805866e-39
679.16528 816.94995 -210 4.6972716e-39
697.35474 829.95557 -200 3.7753307e-39
694.22583 849.70935 -200 3.6842056e-39
651.5896 863.20569 -210 2.6707838e-39
580.88721 862.13208 -220 2.7654905e-39
548.12769 877.19275 -230 2.3034558e-39
526.80957 883.94092 -230 7.6493422e-39
484.17334 897.43726 -240 3.2236044e-39
481.04468 917.19104 -240 1.3800492e-39
418.65479 927.55865 -250 3.6773799e-39
395.77222 944.18372 -250 3.5862591e-39
442.02783 971.75928 -240 3.8617684e-39
580.3042 993.66022 -220 3.4944264e-39
616.68311 1019.6714 -210 3.2182024e-39
694.13379 1042.0631 -200 2.9426959e-39
641.62061 1053.9951 -210 2.8508605e-39
582.8501 1105.4346 -220 3.1267229e-39
701.3728 1124.2069 -190 3.6777372e-39
749.19287 1141.9055 -190 4.4134988e-39
777.25903 1156.4755 -180 4.6893668e-39
774.13037 1176.2292 -180 5.6084393e-39
762.68921 1184.5417 -180 5.9836762e-39
769.43726 1205.8599 -180 7.6486261e-39
756.43164 1224.0493 -180 4.5964523e-39
703.9187 1235.9813 -190 3.493346e-39
681.03613 1252.6063 -200 4.6215916e-39
658.15356 1269.2314 -200 1.2358449e-38
635.27124 1285.8564 -200 1.5118588e-38
612.38867 1302.4816 -200 1.7603547e-38
548.43433 1322.7261 -220 4.704484e-39
453.28491 1348.1544 -230 1.8446245e-39
377.8894 1376.7114 -240 3.0410153e-39
292.61694 1403.7041 -260 1.8428364e-39
248.41626 1427.0773 -260 1.6580738e-39
235.41064 1445.2667 -270 1.6591612e-39
304.54883 1456.2173 -250 1.5644418e-39
342.49219 1472.3516 -250 1.1052686e-39
1699.4286 1343.0323 -20 1.2900157e-39
1709.3054 1344.5968 -20 1.0137918e-39
1717.6179 1356.038 -20 1.1981789e-39
1727.4949 1357.6023 -20 1.3836533e-39
1735.8074 1369.0436 -20 1.7531449e-39
1735.8074 1369.0436 -20 2.6736691e-39
1744.1199 1380.4849 -20 3.2333154e-39
1742.5555 1390.3617 -10 8.3102002e-39
1740.9912 1400.2385 -10 9.4921674e-39
1740.9912 1400.2385 -20 8.4790973e-39
1749.3037 1411.6798 -10 8.5702223e-39
1747.7394 1421.5566 -10 8.2972255e-39
1747.7394 1421.5566 -10 8.389068e-39
1746.175 1431.4336 -10 8.7571177e-39
1744.6106 1441.3104 -10 8.4697618e-39
1743.0463 1451.1874 -10 5.7157563e-39
1710.2869 1466.248 -20 5.9941425e-39
1772.6769 1455.8804 -10 6.5440834e-39
1771.1125 1465.7573 -10 7.9316884e-39
1771.1125 1465.7573 -10 9.5912112e-39
1779.425 1477.1985 -10 9.5894245e-39
1767.9839 1485.5111 -10 1.3840092e-39
471.41382 -684.02954 -300 1.4747685e-39
441.7832 -688.72253 -310 1.014875e-39
483.34595 -631.51636 -300 1.6595157e-39
621.03931 -478.08728 -270 1.1985418e-39
636.1001 -445.32788 -270 1.0141533e-39
642.84814 -424.00977 -260 1.0137946e-39
611.65332 -418.82593 -270 1.1059874e-39
618.40137 -397.50781 -270 1.1059846e-39
597.08325 -390.75964 -270 8.290418e-40
584.07764 -372.57031 -270 7.372021e-40
564.32397 -375.69897 -280 1.1981789e-39
624.07593 -305.48718 -270 1.105986e-39
612.63477 -297.17468 -270 1.1067063e-39
702.01733 -222.26978 -250 1.105986e-39
670.82251 -217.08606 -250 9.2231363e-40
603.24854 -237.91333 -270 1.0141477e-39
649.99512 -149.51221 -260 2.7644101e-39
628.677 -142.76404 -260 1.7618147e-39
749.74536 -12.217407 -240 1.2903773e-39
710.23779 -18.474731 -240 2.0272235e-39
669.16602 -14.855347 -250 2.4889107e-39
722.16992 34.03833 -240 3.409788e-39
608.34033 -14.364502 -260 1.5669628e-39
568.83276 -20.621948 -270 2.4867597e-39
537.6377 -15.43811 -270 1.5676872e-39
534.50903 4.3155518 -270 6.4536801e-40
531.38037 24.069336 -270 6.4500787e-40
525.12305 63.576904 -270 7.3756224e-40
559.9375 99.464966 -260 7.372021e-40
632.69507 151.4873 -250 6.4500787e-40
619.68945 169.67676 -250 8.2940054e-40
598.37134 176.42493 -260 8.2975927e-40
539.11011 167.03882 -270 8.2940054e-40
498.03809 170.6582 -270 8.2939913e-40
485.03247 188.84766 -280 8.2939913e-40
481.90381 208.60144 -280 7.372035e-40
506.84155 242.92511 -270 6.4500787e-40
513.5896 264.24323 -270 7.3720491e-40
530.2146 287.12573 -270 5.5281224e-40
612.84912 340.7124 -250 9.208745e-40
