# .PCD v0.7 - Point Cloud Data file format
VERSION 0.7
FIELDS x y z rgb
SIZE 4 4 4 4
TYPE F F F F
COUNT 1 1 1 1
WIDTH 1227
HEIGHT 1
VIEWPOINT 0 0 0 1 0 0 0
POINTS 1227
DATA ascii
-213.7345 603.60565 340 1.3818526e-39
-207.09521 616.09241 340 1.3825729e-39
-333.54663 619.25989 360 1.2903773e-39
-310.70496 647.1571 350 1.4736951e-39
-124.49963 756.37061 330 1.8424693e-39
-146.54944 760.08618 330 1.7517156e-39
-152.39685 779.21228 330 1.8442671e-39
-155.32056 788.77533 330 1.8428336e-39
500.57013 832.44818 250 9.2231503e-40
16.81311 -800.33447 350 1.2824591e-38
36.731079 -762.87415 350 3.6871105e-39
24.244263 -756.23486 350 3.6878182e-39
21.320557 -746.67175 350 4.0558888e-39
18.396851 -737.10876 350 4.6086997e-39
-3.6529541 -733.39319 350 4.701617e-39
-6.5766602 -723.83008 350 5.8979854e-39
-12.424194 -704.70398 350 4.7959692e-39
-15.3479 -695.14099 350 4.9760375e-39
-30.758423 -678.9386 350 5.8047149e-39
-33.682129 -669.37561 350 6.1752925e-39
-36.605835 -659.8125 350 6.8199431e-39
-49.092651 -653.17322 350 6.542996e-39
-71.142456 -649.45764 360 6.1745793e-39
-106.47083 -670.71558 360 4.7952447e-39
-135.16003 -679.48669 360 4.7016086e-39
-141.00745 -660.3606 370 4.9764018e-39
-163.05725 -656.64502 370 4.240643e-39
-182.18335 -662.49255 370 1.825037e-38
-210.87244 -671.26367 370 2.3509886e-38
-210.08057 -639.65088 370 2.3509886e-38
-203.44128 -627.16406 370 2.3509838e-38
-391.83911 -318.771 380 2.948821e-39
-378.56055 -293.79749 380 2.7662276e-39
-365.28186 -268.82397 380 2.8623791e-39
-371.12927 -249.69788 380 3.0442593e-39
-402.74219 -248.90601 380 2.3996059e-39
-181.20837 -118.43457 350 2.4889261e-39
-196.6189 -102.23218 350 2.3056138e-39
-244.43408 -116.85083 360 1.9379103e-39
-205.39014 -73.543091 350 2.1215729e-39
-189.18774 -58.132568 350 1.8446385e-39
-249.48975 -66.111877 360 2.2123364e-39
-297.30493 -80.73053 360 2.3041775e-39
-331.84155 -70.37561 370 2.1201408e-39
-306.07617 -52.041382 360 2.0290227e-39
-302.3606 -29.991577 360 2.120861e-39
-279.51892 -2.0942993 360 2.0286584e-39
-282.44263 7.46875 360 2.1204981e-39
-278.72705 29.518555 360 2.0286668e-39
-284.57446 48.644653 360 2.2119791e-39
-287.49817 58.207703 360 2.1205009e-39
-274.21948 83.181213 350 2.2119791e-39
-296.26941 86.896851 360 1.9375544e-39
-273.42773 114.79407 350 1.9379075e-39
-266.78833 127.28088 350 2.0283053e-39
-272.63586 146.40698 350 2.304532e-39
-68.096313 229.85504 330 1.8449986e-39
-35.691528 260.67603 320 2.3066872e-39
-57.741333 264.3916 320 2.8587834e-39
-79.791138 268.10724 330 2.580749e-39
-37.823364 301.85193 320 2.6729474e-39
-50.310181 308.49127 320 1.9350278e-39
-131.87012 335.84039 330 1.1992593e-39
-125.23083 348.32715 330 1.1981845e-39
-89.902344 369.58511 330 1.1063434e-39
-111.95215 373.30069 330 1.2889353e-39
-114.87585 382.86374 330 1.3814897e-39
-117.79968 392.42679 330 1.2900143e-39
-101.59729 407.83728 330 1.4740483e-39
166.16797 489.70163 290 1.4740455e-39
163.24426 499.26468 290 1.5655264e-39
141.19446 502.98026 300 1.658078e-39
39.716553 492.86908 310 1.4744098e-39
91.247314 529.53754 300 1.4740511e-39
-178.64978 488.84909 330 1.4740525e-39
-191.13647 495.48843 330 1.4744126e-39
-235.23621 502.91959 340 1.2903829e-39
-320.51172 508.21893 350 1.4747685e-39
-272.69653 522.83752 340 1.4744112e-39
-319.71985 539.83179 340 1.5662495e-39
-271.90466 554.45044 340 1.6580808e-39
-284.39136 561.08972 340 1.4751273e-39
-229.93689 588.19513 330 1.2903829e-39
-223.29749 600.68188 330 1.4754888e-39
-226.22119 610.24493 330 1.3825771e-39
-343.10962 616.33612 340 1.5669698e-39
-131.13892 743.88385 320 1.8424721e-39
-124.49963 756.37061 320 1.7513512e-39
-146.54944 760.08618 320 1.9350236e-39
-152.39685 779.21228 320 1.8421175e-39
-174.44666 782.92786 320 2.0268577e-39
478.52032 836.16376 250 1.1063448e-39
72.05957 -741.61621 330 1.0329166e-38
43.370361 -750.38733 330 3.6885413e-39
30.883667 -743.74805 330 3.87005e-39
27.959839 -734.18506 330 3.7796593e-39
15.473145 -727.54565 340 4.6994534e-39
2.9863281 -720.90637 340 4.6101402e-39
0.06262207 -711.34338 340 5.0682373e-39
-5.78479 -692.21729 340 7.0021763e-39
-8.7084961 -682.65417 340 7.279845e-39
-11.632324 -673.09119 340 7.373114e-39
-24.119019 -666.45178 340 6.4540444e-39
-29.966553 -647.32581 340 6.7259496e-39
-42.453247 -640.6864 340 6.0841857e-39
-54.940063 -634.04712 340 5.71432e-39
-99.831543 -658.22876 340 5.2555012e-39
-128.52063 -667 350 4.8845649e-39
-150.57043 -663.28442 350 4.2399158e-39
-153.49426 -653.72131 350 6.356451e-39
-172.62036 -659.56885 350 2.2860852e-38
-194.67017 -655.85315 350 2.0938492e-38
-184.31519 -621.31665 350 1.7692158e-38
-171.03662 -596.34302 350 1.5931424e-38
-141.55554 -555.95898 350 1.5568035e-38
-901.2998 -704.58167 430 1.8442699e-39
-382.27612 -315.84729 360 2.212335e-39
-394.76282 -309.20801 360 2.2130538e-39
-304.18799 -229.23181 350 2.1201478e-39
-368.20557 -259.26086 360 2.2123322e-39
-418.94458 -264.31653 370 2.1205023e-39
-181.20837 -118.43457 340 1.9375544e-39
-222.38428 -120.56641 340 1.937546e-39
-279.76257 -138.10876 350 2.2119861e-39
-285.61011 -118.98273 350 2.0286626e-39
-278.9707 -106.49591 350 2.1204995e-39
-313.50732 -96.140991 350 2.0283039e-39
-316.43103 -86.578003 350 1.9361166e-39
-293.58936 -58.680725 350 2.396729e-39
-251.62158 -24.935974 340 1.9364726e-39
-257.46899 -5.8098755 340 3.2236058e-39
-234.62732 22.087402 340 2.3038174e-39
-237.55115 31.650391 340 2.1197848e-39
-269.16394 32.442261 340 2.0283053e-39
-310.33984 30.310425 340 1.9364684e-39
-316.18726 49.436523 340 2.1201323e-39
-293.34558 77.333801 340 1.7513554e-39
-369.84998 53.94397 350 1.6591556e-39
-375.69739 73.070068 350 1.1996166e-39
-381.54492 92.196167 350 1.2907346e-39
-384.46863 101.75922 350 1.3818512e-39
-19.489136 276.08655 310 1.381854e-39
-446.1106 166.56866 350 1.6588039e-39
-59.873291 305.5675 310 1.9339516e-39
-378.37744 218.64758 350 1.7509981e-39
-422.47705 226.0788 350 1.7513582e-39
-444.52686 229.79437 350 1.6588053e-39
-134.79382 345.40344 320 1.7524344e-39
-99.465454 366.66138 310 1.5680418e-39
-121.51526 370.37698 320 1.8428336e-39
-134.00195 377.0163 320 1.7509995e-39
-136.92578 386.57935 320 1.7510023e-39
-133.21008 408.62915 320 1.7509939e-39
172.80725 502.18842 280 1.4754874e-39
141.19446 502.98026 280 1.3825757e-39
157.39685 518.39075 280 1.6587997e-39
164.03613 530.87756 280 1.6588011e-39
122.86023 528.74567 290 1.4744126e-39
-19.793579 516.50262 300 1.566604e-39
-181.57349 498.41214 320 1.5669642e-39
-235.23621 502.91959 320 1.4747657e-39
-301.38562 514.06641 330 1.3829316e-39
-294.74634 526.55316 330 1.4744084e-39
-357.97205 528.13684 330 1.4744084e-39
-271.90466 554.45044 320 1.7499177e-39
-274.82837 564.01343 330 1.5666026e-39
-220.37378 591.1189 320 1.5673215e-39
-213.7345 603.60565 320 1.6584381e-39
-235.7843 607.32123 320 1.5666068e-39
-137.7782 731.39709 310 1.5669628e-39
-131.13892 743.88385 310 1.9346649e-39
-134.06262 753.4469 300 1.7509967e-39
-136.98645 763.00995 310 1.8435497e-39
-152.39685 779.21228 310 1.7509981e-39
-174.44666 782.92786 310 1.935025e-39
456.47046 839.87933 240 9.2160037e-40
666.06561 872.5885 220 2.3970878e-39
107.38794 -720.35828 310 2.2585711e-38
49.217896 -769.51343 320 1.1986154e-38
36.731079 -762.87415 320 3.87042e-39
33.807373 -753.31116 320 3.5023535e-39
27.959839 -734.18506 320 3.9640421e-39
18.396851 -737.10876 320 4.7019687e-39
2.9863281 -720.90637 320 5.8050751e-39
0.06262207 -711.34338 320 7.0064909e-39
3.7781982 -689.29358 320 6.5473148e-39
0.85449219 -679.73047 320 7.0968943e-39
-14.55603 -663.52808 320 6.8221025e-39
-17.479736 -653.96509 320 6.7284691e-39
-20.403442 -644.40198 320 6.820292e-39
-32.890259 -637.7627 320 6.3604083e-39
-54.940063 -634.04712 320 5.8072359e-39
-90.268555 -655.30505 330 5.3466193e-39
-138.08374 -669.92371 330 5.2533474e-39
-157.20984 -675.77112 340 4.6079766e-39
-160.13354 -666.20813 340 7.002528e-39
-182.18335 -662.49255 340 1.5105981e-38
-194.67017 -655.85315 340 1.5750981e-38
-184.31519 -621.31665 340 1.6115817e-38
-171.03662 -596.34302 340 1.3526092e-38
-167.32104 -574.29321 330 6.3488798e-39
-173.16846 -555.16711 330 5.8018199e-39
-159.88977 -530.1936 330 8.0199254e-39
-198.14197 -541.88855 340 4.7120623e-39
-220.19177 -538.17297 340 3.4227682e-39
-905.01538 -726.63147 410 1.5676858e-39
-916.71021 -688.37927 410 2.1197904e-39
-922.55786 -669.25317 410 2.028664e-39
-378.56055 -293.79749 350 2.3048907e-39
-310.82727 -241.71851 340 2.1215813e-39
-326.23779 -225.51624 340 2.2134196e-39
-438.07068 -270.16394 350 2.2126993e-39
-542.47229 -270.71204 360 1.5684033e-39
-545.396 -261.14905 360 1.5687606e-39
-317.2229 -118.19086 330 1.7506338e-39
-329.70972 -111.55151 340 1.3818512e-39
-351.75952 -107.83594 340 1.3829274e-39
-331.84155 -70.37561 330 1.2896612e-39
-216.29309 -3.6780396 320 1.0141463e-39
-267.0321 -8.7336426 330 1.1056259e-39
-234.62732 22.087402 320 1.4729693e-39
-266.24023 22.879211 330 1.6573591e-39
-278.72705 29.518555 330 1.7495576e-39
-339.02893 21.539246 330 1.5666096e-39
-344.87646 40.665344 330 2.1194177e-39
-338.23718 53.1521 330 1.8435511e-39
-423.5127 58.451416 340 2.0279479e-39
-435.99939 65.090759 340 2.0275878e-39
-505.8645 54.187683 350 1.9353922e-39
-473.45972 85.008667 340 1.8442769e-39
-421.13708 153.28998 340 1.752803e-39
-455.67371 163.6449 340 1.7520855e-39
-420.34521 184.90289 340 2.0272291e-39
-387.94043 215.72388 330 1.9364698e-39
-384.22485 237.77368 330 1.936111e-39
-434.96387 232.71808 340 1.9361026e-39
-144.35693 342.47971 310 1.8435567e-39
-118.59155 360.81393 300 1.8435567e-39
-150.20435 361.6058 310 2.0275878e-39
-143.56506 374.09256 300 2.0272179e-39
-136.92578 386.57935 300 1.7517128e-39
185.29407 495.54907 270 1.842835e-39
157.39685 518.39075 270 1.8421175e-39
113.29712 525.82196 280 1.6587997e-39
-203.62329 502.12775 310 1.6580836e-39
-266.849 503.71146 310 1.3840078e-39
-310.94861 511.14264 320 1.6580808e-39
-304.30933 523.62939 320 1.5666082e-39
-348.40894 531.06061 320 1.8428322e-39
-281.46765 551.52673 310 1.4758503e-39
-287.31506 570.65277 310 1.2911004e-39
-239.49988 585.27142 310 1.6584409e-39
-242.42358 594.83447 310 1.5673215e-39
-248.27112 613.96057 310 1.5669656e-39
-140.70203 740.96014 290 1.567683e-39
-134.06262 753.4469 290 1.842835e-39
-146.54944 760.08618 290 1.8431867e-39
-161.95996 776.28857 290 1.751717e-39
-174.44666 782.92786 300 1.7513554e-39
446.90747 836.95563 240 1.1059888e-39
656.50256 869.66473 220 6.6254737e-39
653.57886 879.22778 220 1.1687238e-38
107.38794 -720.35828 300 2.1388258e-38
55.857178 -757.02673 300 1.2907029e-38
52.933472 -747.46362 300 3.4115998e-39
50.009766 -737.90063 300 3.3179581e-39
37.522949 -731.26123 300 4.3324631e-39
15.473145 -727.54565 310 5.4366555e-39
12.549438 -717.98267 310 6.4515081e-39
9.6257324 -708.41956 310 6.8220997e-39
13.341309 -686.36975 310 6.9132177e-39
-2.0692139 -670.16748 310 6.5444408e-39
-4.9929199 -660.60437 310 6.6348357e-39
-7.916626 -651.04138 310 6.7295509e-39
-13.76416 -631.91528 310 7.0961712e-39
-32.890259 -637.7627 310 6.1774547e-39
-45.376953 -631.12341 310 6.0841829e-39
-83.62915 -642.81824 310 6.0823822e-39
-128.52063 -667 320 6.6351973e-39
-147.64673 -672.84741 320 6.2667819e-39
-163.05725 -656.64502 320 4.9799989e-39
-172.62036 -659.56885 320 3.0535989e-39
-188.03076 -643.36646 320 2.3117319e-39
-184.31519 -621.31665 320 1.7538834e-39
-180.59961 -599.26685 320 1.4765664e-39
-176.88403 -577.21692 320 1.3829344e-39
-179.80774 -567.65393 320 1.3818512e-39
-185.65515 -548.52783 320 1.1063476e-39
-198.14197 -541.88855 320 1.2903801e-39
-203.98938 -522.76245 320 1.1978285e-39
-232.67859 -531.53357 320 1.1981859e-39
-254.72839 -527.81799 320 1.2900186e-39
-926.27344 -691.30298 390 1.6580794e-39
-932.12085 -672.17688 390 1.6580808e-39
-343.23206 -272.53955 330 1.105986e-39
-320.39038 -244.64233 320 1.1981803e-39
-418.94458 -264.31653 330 1.197467e-39
-521.21436 -306.04053 340 1.4747657e-39
-527.06177 -286.91443 340 1.6587983e-39
-513.78308 -261.94092 340 2.0261445e-39
-484.30212 -221.55688 340 1.7517198e-39
-496.78894 -214.9176 340 1.7517198e-39
-475.04346 21.782959 330 2.2123336e-39
-477.96716 31.346008 330 2.2119748e-39
-502.9408 44.624634 330 2.2126909e-39
-486.7384 60.035156 330 2.0293857e-39
-483.02283 82.084961 330 2.0286626e-39
-441.05505 115.82971 320 2.0279549e-39
-446.90247 134.95581 320 2.213414e-39
-421.13708 153.28998 320 1.8453517e-39
-446.1106 166.56866 320 2.2123392e-39
-410.7821 187.8266 320 2.1201422e-39
-416.62964 206.9527 320 1.8446413e-39
-134.79382 345.40344 290 2.120138e-39
-147.28064 352.04276 290 2.0272221e-39
-217.14563 341.13971 300 1.8442741e-39
-134.00195 377.0163 290 2.0283011e-39
144.91003 525.03009 260 1.6595213e-39
113.29712 525.82196 270 1.7509925e-39
-181.57349 498.41214 290 1.4744112e-39
-266.849 503.71146 300 1.5673229e-39
-279.33582 510.35077 300 1.5673257e-39
-294.74634 526.55316 300 1.5676844e-39
-348.40894 531.06061 300 1.5673229e-39
-281.46765 551.52673 300 1.5669656e-39
-284.39136 561.08972 300 1.658085e-39
-271.11279 586.06323 300 1.7502806e-39
-283.59949 592.70264 300 1.4758461e-39
-286.52319 602.26562 300 1.7509939e-39
-147.34131 728.47333 280 1.6595213e-39
-131.13892 743.88385 280 1.7509981e-39
-143.62573 750.52319 280 1.6598745e-39
-136.98645 763.00995 280 1.6584451e-39
-161.95996 776.28857 280 1.7509981e-39
-177.37048 792.49097 280 1.8435525e-39
456.47046 839.87933 230 1.0134317e-39
656.50256 869.66473 210 4.7175147e-39
653.57886 879.22778 210 4.9941394e-39
91.185669 -735.7688 290 2.0467728e-38
49.217896 -769.51343 290 1.1252914e-38
43.370361 -750.38733 290 2.8595037e-39
40.446655 -740.82434 290 3.8693354e-39
27.959839 -734.18506 290 4.4243084e-39
15.473145 -727.54565 290 5.5310021e-39
12.549438 -717.98267 290 6.6344798e-39
6.7019043 -698.85657 290 7.0965286e-39
10.41748 -676.80676 290 6.4515221e-39
7.4937744 -667.24365 290 6.9121345e-39
4.5700684 -657.68066 290 7.9252102e-39
-1.2773438 -638.55457 290 6.8195843e-39
-4.2010498 -628.99158 290 6.7299054e-39
-26.250854 -625.27588 290 7.5564277e-39
-38.737671 -618.6366 290 8.1081553e-39
-67.426758 -627.40784 300 8.3872604e-39
-102.75525 -648.66577 300 7.8337349e-39
-141.00745 -660.3606 300 6.1785435e-39
-153.49426 -653.72131 300 3.5063066e-39
-175.54407 -650.00574 310 1.29075e-39
-178.46777 -640.44275 310 1.0152295e-39
-184.31519 -621.31665 310 1.3818512e-39
-180.59961 -599.26685 300 1.1981859e-39
-183.52332 -589.70374 300 1.291099e-39
-189.37085 -570.57764 300 1.1063504e-39
-192.29456 -561.01465 300 1.105986e-39
-198.14197 -541.88855 300 1.1063504e-39
-203.98938 -522.76245 300 1.1056315e-39
-206.91321 -513.19934 300 1.1978215e-39
-203.19751 -491.14954 300 1.3814953e-39
-241.44971 -502.84448 310 1.3814995e-39
-352.79504 -275.46326 310 1.7509953e-39
-418.94458 -264.31653 320 2.0275878e-39
-476.32275 -281.85889 320 2.1205009e-39
-527.06177 -286.91443 320 1.936474e-39
-523.34619 -264.86462 320 1.843914e-39
-474.73914 -218.63318 320 1.844993e-39
-515.91504 -220.76501 320 1.936111e-39
-486.7384 60.035156 310 2.0286654e-39
-473.45972 85.008667 310 2.0286612e-39
-421.92896 121.67712 310 2.0283039e-39
-437.33948 137.87952 310 2.2130482e-39
-421.13708 153.28998 310 2.1205037e-39
-436.54761 169.49237 310 2.2119819e-39
-401.21912 190.75031 300 2.1197848e-39
-198.8114 315.37433 280 2.3030901e-39
-173.04602 333.7085 280 1.8446385e-39
-223.78503 328.65295 290 1.9361096e-39
-296.57373 327.31293 290 2.1187072e-39
-166.16296 482.20978 280 1.5673285e-39
-188.21277 485.92538 280 1.6595199e-39
-203.62329 502.12775 280 1.4751329e-39
-305.1012 492.01657 290 1.7506338e-39
-279.33582 510.35077 290 1.7506338e-39
-294.74634 526.55316 290 1.5673313e-39
-288.10693 539.03992 290 1.6588067e-39
-281.46765 551.52673 280 1.4747727e-39
-255.70227 569.8609 280 1.750638e-39
-258.62598 579.42395 280 1.5669656e-39
-293.1626 589.77887 280 1.7506352e-39
-299.01001 608.90497 280 1.4751301e-39
-326.90723 631.74664 290 1.2914563e-39
-129.00708 702.70795 270 1.2903787e-39
-163.5437 713.06287 270 1.1985404e-39
-147.34131 728.47333 270 1.1059846e-39
-140.70203 740.96014 270 1.1978243e-39
-153.18872 747.59943 270 1.1978243e-39
-146.54944 760.08618 270 1.0141491e-39
-161.95996 776.28857 270 1.1988977e-39
-186.93347 789.5672 270 1.1978173e-39
459.39429 830.31628 220 1.5658838e-39
456.47046 839.87933 220 1.1978243e-39
646.93951 866.74103 210 4.439846e-39
612.40295 877.09595 210 5.1796097e-39
91.185669 -735.7688 270 7.2117643e-39
55.857178 -757.02673 280 4.619875e-39
52.933472 -747.46362 280 3.1339325e-39
50.009766 -737.90063 280 3.6863777e-39
34.599243 -721.69824 280 4.3324771e-39
25.036133 -724.62195 280 5.5299245e-39
12.549438 -717.98267 280 5.623918e-39
16.265015 -695.93286 280 6.1767359e-39
10.41748 -676.80676 280 7.4638747e-39
7.4937744 -667.24365 280 7.8319328e-39
1.6463623 -648.11755 280 7.0979691e-39
-1.2773438 -638.55457 280 8.6677989e-39
-4.2010498 -628.99158 280 9.1241065e-39
-16.687866 -622.35217 280 9.3084964e-39
-38.737671 -618.6366 280 8.7585596e-39
-57.86377 -624.48401 280 6.6434691e-39
-96.115967 -636.17896 280 5.5328168e-39
-141.00745 -660.3606 290 3.964052e-39
-153.49426 -653.72131 290 3.1325004e-39
-165.98096 -647.08203 290 1.7506408e-39
-171.82849 -627.95593 290 1.2896612e-39
-174.7522 -618.39282 290 1.198539e-39
-180.59961 -599.26685 290 1.1992621e-39
-183.52332 -589.70374 290 1.1996166e-39
-189.37085 -570.57764 290 9.2231643e-40
-192.29456 -561.01465 290 9.2267516e-40
-207.70508 -544.81226 290 9.2124024e-40
-201.06567 -532.32544 290 1.0141477e-39
-206.91321 -513.19934 290 1.0137946e-39
-203.19751 -491.14954 290 9.2159616e-40
-215.68433 -484.51025 290 1.0134317e-39
-85.27356 -329.6134 280 1.0141491e-39
-104.39966 -335.46082 280 9.219563e-40
-560.5022 -485.36279 310 1.3829358e-39
-601.67798 -487.49463 320 1.198553e-39
-519.87427 -378.82935 310 1.7520785e-39
-505.01196 -290.63 310 2.1204995e-39
-517.49866 -283.99072 310 2.303816e-39
-542.47229 -270.71204 310 1.8457161e-39
-538.75671 -248.66223 310 2.0283109e-39
-579.93262 -250.79419 310 2.0286668e-39
-557.09094 -222.89685 310 1.7527974e-39
-524.9906 48.340271 300 1.9368285e-39
-483.02283 82.084961 300 2.0290227e-39
-431.49194 118.75342 290 2.1205037e-39
-456.46558 132.03204 290 2.2123364e-39
-440.26318 147.44257 290 2.0279535e-39
-417.42151 175.33984 290 1.9361124e-39
-308.51245 229.55066 280 2.211256e-39
-292.31006 244.96112 280 1.936111e-39
-276.10767 260.37164 280 2.1194205e-39
-281.95508 279.49774 280 1.9361096e-39
-284.87891 289.06079 280 2.0283039e-39
-290.72632 308.18683 280 1.9357481e-39
-281.16321 311.1106 280 2.1197806e-39
-306.13684 324.38922 280 2.0268689e-39
-347.31274 322.25732 280 1.9350306e-39
-334.03406 347.2309 280 1.8435553e-39
-320.75549 372.20444 280 1.7513526e-39
-326.60291 391.33054 280 1.751354e-39
-291.27441 412.58847 280 1.6595213e-39
-344.93713 417.09595 280 1.7513526e-39
-242.66736 458.81998 270 1.5680404e-39
-267.64087 472.0986 270 1.5662411e-39
-213.1864 499.20401 270 1.3818554e-39
-244.79919 499.99588 270 1.1985446e-39
-231.52063 524.96942 270 1.1066979e-39
-220.37378 591.1189 270 1.1059846e-39
-242.42358 594.83447 270 1.1974586e-39
-235.7843 607.32123 270 1.2896542e-39
-254.11853 633.08667 270 1.1971013e-39
-158.48804 662.32391 260 1.0137848e-39
-119.44397 705.63165 260 1.104907e-39
-176.0304 719.70215 260 1.2889438e-39
-210.56702 730.05707 260 1.1052658e-39
-172.31482 741.75195 260 1.1049056e-39
-184.80164 748.3913 260 1.1974614e-39
-190.64905 767.5174 260 1.0137876e-39
-193.57275 777.08044 260 1.1056287e-39
-186.93347 789.5672 260 1.0137862e-39
-199.42029 796.20654 260 1.1056259e-39
459.39429 830.31628 210 1.7524358e-39
459.39429 830.31628 210 1.4747685e-39
456.47046 839.87933 210 1.1981789e-39
646.93951 866.74103 200 4.5316829e-39
599.9162 883.73523 200 4.9937863e-39
74.983276 -751.1792 260 2.674025e-39
49.217896 -769.51343 260 2.397085e-39
46.294067 -759.95044 260 2.6736775e-39
40.446655 -740.82434 260 3.3190343e-39
37.522949 -731.26123 260 4.1480817e-39
25.036133 -724.62195 260 4.7948748e-39
19.188721 -705.49585 260 5.532444e-39
22.904297 -683.44604 260 6.26857e-39
19.980591 -673.88306 260 6.2696405e-39
7.4937744 -667.24365 260 5.2558656e-39
4.5700684 -657.68066 260 4.6108577e-39
-1.2773438 -638.55457 260 4.9789241e-39
-4.2010498 -628.99158 260 4.7974027e-39
-26.250854 -625.27588 260 5.5320881e-39
-29.174683 -615.71289 260 3.8689767e-39
-51.224487 -611.99731 270 2.3041663e-39
-63.711182 -605.35803 270 2.1212212e-39
-108.60266 -629.53967 270 2.5847188e-39
-127.72876 -635.38708 270 2.6776347e-39
-149.77856 -631.67151 270 2.2126979e-39
-155.6261 -612.54541 270 8.3048514e-40
-165.18909 -615.46912 270 1.1056301e-39
-180.59961 -599.26685 270 9.219577e-40
-183.52332 -589.70374 270 1.0137946e-39
-189.37085 -570.57764 270 1.0145093e-39
-192.29456 -561.01465 270 1.1974642e-39
-207.70508 -544.81226 270 9.2159476e-40
-210.62878 -535.24927 270 1.0137946e-39
-206.91321 -513.19934 270 8.301194e-40
-212.76062 -494.07324 270 9.2159757e-40
-215.68433 -484.51025 270 1.0141547e-39
-139.72815 -356.71887 270 9.2267657e-40
-545.09155 -501.56519 290 1.0145135e-39
-560.5022 -485.36279 300 1.29002e-39
-572.98877 -478.72351 300 1.2914535e-39
-578.83643 -459.59741 300 1.3825799e-39
-549.35535 -419.21338 290 1.6577221e-39
-536.07666 -394.23975 290 1.8428322e-39
-561.05029 -380.96118 290 1.8431951e-39
-522.00623 -337.65344 290 2.0275836e-39
-499.16443 -309.7561 290 1.9357495e-39
-530.77734 -308.96423 290 2.1201422e-39
-536.62476 -289.83813 290 2.3041649e-39
-549.11157 -283.19885 290 2.2116161e-39
-564.52197 -266.99646 290 2.0282969e-39
-589.49561 -253.7179 290 2.0286668e-39
-582.8562 -241.23108 290 1.8446357e-39
-598.26685 -225.02869 290 1.8435581e-39
-483.02283 82.084961 280 1.8442741e-39
-450.61804 112.90594 280 1.7524428e-39
-482.23096 113.69781 280 2.1194261e-39
-468.95227 138.67139 280 1.8446343e-39
-407.8584 178.26355 270 2.0286612e-39
-289.38635 235.39807 260 2.1205009e-39
-282.74695 247.88483 260 1.6598815e-39
-285.67065 257.44788 260 1.4754916e-39
-291.51819 276.57397 260 1.1992635e-39
-294.44189 286.13702 260 1.106349e-39
-290.72632 308.18683 260 1.1981817e-39
-300.28931 305.26312 260 1.1981746e-39
-306.13684 324.38922 260 9.2231643e-40
-289.93445 339.79968 260 9.2159897e-40
-292.85815 349.36276 260 1.1052658e-39
-289.14258 371.41257 260 1.0130701e-39
-282.5033 383.89935 260 9.2123043e-40
-275.86389 396.38611 260 7.3755943e-40
-272.14832 418.43594 260 9.2159196e-40
-316.24792 425.86713 260 1.0127072e-39
-328.73474 432.50644 260 1.0134289e-39
-242.66736 458.81998 260 1.0127156e-39
-258.07788 475.02234 260 1.1056259e-39
-232.31238 493.35657 260 9.2159616e-40
-244.79919 499.99588 260 1.1974572e-39
-241.08362 522.04565 260 1.0134317e-39
-234.44434 534.53247 260 1.1971027e-39
-208.67883 552.8667 250 1.1045469e-39
-211.60266 562.42969 250 1.1967411e-39
-214.52637 571.9928 250 1.1974572e-39
-229.93689 588.19513 250 1.1971013e-39
-223.29749 600.68188 250 1.2889339e-39
-216.6582 613.1687 250 1.2885766e-39
-241.63171 626.44733 250 1.1049056e-39
-254.11853 633.08667 250 1.2892969e-39
-288.65515 643.44153 260 9.2159056e-40
-190.10095 663.11578 250 9.219549e-40
-246.68738 677.18628 250 1.2889367e-39
-157.69617 693.93677 250 1.1974614e-39
-151.05688 706.42352 250 1.1971027e-39
-185.59351 716.77844 250 1.0134275e-39
-220.13 727.13336 250 1.1052672e-39
-203.92773 742.54382 250 1.013789e-39
-206.85144 752.10687 250 1.1049056e-39
-209.77515 761.66992 250 1.1056245e-39
-215.62256 780.79602 250 1.0141477e-39
-196.49646 786.64349 250 1.2889381e-39
-167.80737 795.41467 250 1.1045497e-39
462.31799 820.7533 210 1.9361082e-39
459.39429 830.31628 210 1.5662495e-39
456.47046 839.87933 210 1.1063448e-39
453.54675 849.44238 210 2.3038047e-39
656.50256 869.66473 190 4.0732089e-39
612.40295 877.09595 200 4.9026697e-39
77.906982 -760.74231 250 1.9371914e-39
49.217896 -769.51343 250 2.1204995e-39
43.370361 -750.38733 250 2.8584191e-39
40.446655 -740.82434 250 3.2261212e-39
37.522949 -731.26123 250 3.7796579e-39
25.036133 -724.62195 250 4.3335491e-39
19.188721 -705.49585 250 4.4271853e-39
22.904297 -683.44604 250 5.1622392e-39
19.980591 -673.88306 250 4.7941714e-39
17.056885 -664.31995 250 6.2692804e-39
11.209351 -645.19385 250 5.5281435e-39
-1.2773438 -638.55457 250 4.5168656e-39
-4.2010498 -628.99158 250 4.7916546e-39
-16.687866 -622.35217 250 4.4243154e-39
-29.174683 -615.71289 250 6.2682042e-39
-41.661377 -609.07361 250 7.8315811e-39
-44.585083 -599.5105 250 6.7263111e-39
-50.432617 -580.3844 250 5.0649989e-39
-62.919312 -573.74512 250 3.13502e-39
-101.17151 -585.44006 250 2.2137769e-39
-136.5 -606.698 260 1.1059916e-39
-168.11279 -605.90613 260 9.219563e-40
-180.59961 -599.26685 260 9.2160177e-40
-183.52332 -589.70374 260 1.013796e-39
-189.37085 -570.57764 260 1.0137904e-39
-192.29456 -561.01465 260 8.3048094e-40
-207.70508 -544.81226 260 9.2231223e-40
-210.62878 -535.24927 260 9.2123883e-40
-216.4762 -516.12317 260 9.219549e-40
-209.83691 -503.63635 260 9.219535e-40
-215.68433 -484.51025 260 1.0137932e-39
-221.53174 -465.38416 260 1.0141505e-39
-192.05078 -425.00012 260 9.2159757e-40
-188.33521 -402.95032 250 1.0145121e-39
-231.64294 -363.90625 260 1.0137932e-39
-574.57251 -541.94922 280 1.0134331e-39
-573.78076 -510.3363 280 1.1981817e-39
-586.26758 -503.69702 280 1.0141519e-39
-572.98877 -478.72351 280 1.290736e-39
-562.63403 -444.18689 280 1.1989047e-39
-549.35535 -419.21338 270 1.4754888e-39
-545.63977 -397.16357 270 1.9361096e-39
-561.05029 -380.96118 270 1.9368327e-39
-522.00623 -337.65344 270 2.1212141e-39
-508.72754 -312.67981 270 2.2130595e-39
-530.77734 -308.96423 270 1.8457091e-39
-527.06177 -286.91443 270 2.2123392e-39
-542.47229 -270.71204 270 2.1190646e-39
-554.95898 -264.07275 270 1.7513624e-39
-505.8645 54.187683 260 1.0145107e-39
-483.02283 82.084961 260 7.382797e-40
-469.74414 107.05853 260 1.01271e-39
-491.79395 110.77411 260 1.1960209e-39
-488.07837 132.82391 260 1.1960251e-39
-340.91711 198.72961 250 1.4726049e-39
-289.38635 235.39807 250 1.1970999e-39
-282.74695 247.88483 250 7.3720631e-40
-285.67065 257.44788 250 7.3684057e-40
-291.51819 276.57397 250 7.3684898e-40
-294.44189 286.13702 250 8.2867747e-40
-300.28931 305.26312 250 8.290376e-40
-290.72632 308.18683 250 8.290404e-40
-287.01074 330.23669 250 6.4536661e-40
-280.37134 342.72345 250 8.2867747e-40
-283.29517 352.28647 250 9.2087309e-40
-279.57947 374.3363 250 9.2123743e-40
-292.06628 380.97562 250 7.3684337e-40
-288.35071 403.02542 250 9.208745e-40
-291.27441 412.58847 250 8.2868027e-40
-325.81104 422.94339 250 1.0130687e-39
-300.04565 441.27762 250 1.0127114e-39
-255.15417 465.45929 240 9.2087309e-40
-258.07788 475.02234 240 1.1052616e-39
-232.31238 493.35657 240 1.1049056e-39
-235.23621 502.91959 240 1.0127128e-39
-231.52063 524.96942 240 1.1970984e-39
-234.44434 534.53247 240 8.2975927e-40
-208.67883 552.8667 240 1.1052672e-39
-192.47656 568.27722 240 1.2889396e-39
-204.96326 574.9165 240 1.3807708e-39
-220.37378 591.1189 240 1.2889339e-39
-223.29749 600.68188 240 1.3807722e-39
-216.6582 613.1687 240 1.1974572e-39
-251.19482 623.52356 240 1.4726077e-39
-254.11853 633.08667 240 1.2892927e-39
-259.96594 652.21271 240 1.3807736e-39
-212.15076 666.83136 240 1.4726105e-39
-256.25037 674.26257 240 1.1967453e-39
-208.43518 688.88116 240 1.3807694e-39
-151.05688 706.42352 230 1.381131e-39
-195.15649 713.85474 240 1.2892969e-39
-220.13 727.13336 240 1.1056259e-39
-203.92773 742.54382 240 1.1974642e-39
-216.41443 749.18317 240 1.1056217e-39
-222.26196 768.30927 240 1.3814897e-39
-225.18567 777.87231 240 1.1974586e-39
-206.05957 783.71973 240 1.2896528e-39
487.2915 807.47461 200 1.935388e-39
474.80475 814.11395 200 1.9361068e-39
462.31799 820.7533 200 2.0272207e-39
459.39429 830.31628 200 1.4747755e-39
456.47046 839.87933 200 1.0134331e-39
456.47046 839.87933 200 1.38221e-39
453.54675 849.44238 200 1.9357467e-39
656.50256 869.66473 190 4.3458427e-39
612.40295 877.09595 190 4.9952226e-39
61.70459 -776.15283 230 3.3194014e-39
49.217896 -769.51343 230 2.947742e-39
36.731079 -762.87415 230 2.9488266e-39
33.807373 -753.31116 230 3.0410195e-39
27.959839 -734.18506 230 3.9636876e-39
15.473145 -727.54565 230 4.7001708e-39
12.549438 -717.98267 230 5.1615007e-39
22.904297 -683.44604 230 4.8874306e-39
19.980591 -673.88306 230 6.3600481e-39
17.056885 -664.31995 230 7.5582256e-39
11.209351 -645.19385 230 8.5702181e-39
8.2856445 -635.63086 230 8.569858e-39
-4.2010498 -628.99158 230 8.481244e-39
-10.048584 -609.86548 230 6.1835658e-39
-12.97229 -600.30237 230 4.9821555e-39
-25.458984 -593.66309 230 6.8167005e-39
-37.945801 -587.0238 230 6.4525899e-39
-43.793213 -567.89771 240 4.1498837e-39
-46.717041 -558.33459 240 4.4210742e-39
-59.203735 -551.69531 240 4.9706467e-39
-81.25354 -547.97974 240 2.3938452e-39
-148.98682 -600.05872 240 1.013789e-39
-171.03662 -596.34302 240 8.2976207e-40
-183.52332 -589.70374 240 8.301194e-40
-189.37085 -570.57764 240 9.2159757e-40
-201.85754 -563.93835 240 9.2159897e-40
-204.78125 -554.37524 240 7.3757064e-40
-210.62878 -535.24927 240 7.3828531e-40
-216.4762 -516.12317 240 9.219577e-40
-219.3999 -506.56006 240 9.2159897e-40
-225.24744 -487.43396 240 1.0137932e-39
-228.17114 -477.87097 240 8.3012361e-40
-234.01855 -458.74487 240 1.0141477e-39
-239.86597 -439.61877 240 8.2940754e-40
-226.5874 -414.64526 240 9.2267797e-40
-239.0741 -408.00586 240 1.105986e-39
-241.20605 -366.82996 240 1.106349e-39
-565.80151 -570.63831 260 1.0141505e-39
-587.85132 -566.92273 260 1.198539e-39
-609.90112 -563.20715 260 9.219577e-40
-599.54614 -528.67053 260 1.1067063e-39
-605.39355 -509.54443 260 1.2903759e-39
-592.11499 -484.57092 260 1.1989047e-39
-569.27319 -456.67371 260 1.3836505e-39
-558.91833 -422.13708 260 1.4758489e-39
-564.76587 -403.01099 260 1.567683e-39
-577.25269 -396.3717 260 1.7524372e-39
-547.77161 -355.98767 260 1.5673285e-39
-524.92993 -328.09033 250 1.4751315e-39
-530.77734 -308.96423 250 1.3840134e-39
-536.62476 -289.83813 250 1.4747657e-39
-549.11157 -283.19885 260 1.2907318e-39
-554.95898 -264.07275 260 1.1059846e-39
-592.41943 -244.15479 260 1.0130645e-39
-505.8645 54.187683 250 2.1168883e-39
-492.58582 79.161255 250 2.209807e-39
-479.30725 104.13477 250 2.3009251e-39
-501.35706 107.8504 250 2.2094497e-39
-497.64148 129.90021 250 2.3934766e-39
-340.91711 198.72961 240 1.8413875e-39
-289.38635 235.39807 240 1.381131e-39
-292.31006 244.96112 240 1.3811324e-39
-285.67065 257.44788 230 1.2892941e-39
-291.51819 276.57397 230 1.1041868e-39
-284.87891 289.06079 230 8.290376e-40
-290.72632 308.18683 230 6.4572674e-40
-281.16321 311.1106 230 8.2832154e-40
-277.44763 333.1604 230 6.4501068e-40
-280.37134 342.72345 230 7.372007e-40
-273.73206 355.21021 230 6.4537081e-40
-279.57947 374.3363 230 8.2939213e-40
-272.94019 386.82306 230 8.2868167e-40
-266.3009 399.30984 230 8.290404e-40
-291.27441 412.58847 230 7.3756224e-40
-344.93713 417.09595 240 7.3684197e-40
-319.17175 435.43015 230 8.2867887e-40
-255.15417 465.45929 230 1.1045469e-39
-258.07788 475.02234 230 1.1049028e-39
-241.87549 490.43283 230 1.1963824e-39
-244.79919 499.99588 230 1.0141463e-39
-241.08362 522.04565 230 1.1059818e-39
-234.44434 534.53247 230 9.219535e-40
-208.67883 552.8667 230 1.0130687e-39
-192.47656 568.27722 230 9.2159616e-40
-195.40027 577.84021 230 6.464428e-40
-207.88708 584.47955 230 7.3756224e-40
-191.68469 599.89001 230 7.372035e-40
-197.5321 619.01611 230 9.2051576e-40
-200.45581 628.57916 230 6.4465335e-40
-212.94263 635.21851 230 7.3684757e-40
-209.22705 657.26831 230 6.4537081e-40
-212.15076 666.83136 230 9.208773e-40
-237.12427 680.10999 230 7.3720491e-40
-230.48499 692.5968 230 8.290404e-40
-223.8457 705.08356 230 8.2939493e-40
-207.64331 720.49402 220 7.3684617e-40
-220.13 727.13336 220 6.4608828e-40
-213.49072 739.62012 220 7.372035e-40
-216.41443 749.18317 220 7.372035e-40
-222.26196 768.30927 220 8.2868447e-40
-225.18567 777.87231 220 6.4501208e-40
-218.54639 790.35907 220 8.290418e-40
487.2915 807.47461 190 1.7517142e-39
474.80475 814.11395 190 1.9361068e-39
462.31799 820.7533 190 1.8439098e-39
459.39429 830.31628 190 1.5669656e-39
456.47046 839.87933 190 7.3756504e-40
466.03357 842.8031 190 8.301194e-40
463.10986 852.36615 190 1.5673201e-39
656.50256 869.66473 180 4.3458301e-39
612.40295 877.09595 180 5.1767426e-39
58.780884 -766.58972 220 5.0700492e-39
49.217896 -769.51343 220 2.8580631e-39
36.731079 -762.87415 220 2.8577002e-39
24.244263 -756.23486 220 3.1339227e-39
21.320557 -746.67175 220 3.872571e-39
15.473145 -727.54565 220 3.8718563e-39
12.549438 -717.98267 220 4.5172173e-39
22.904297 -683.44604 220 5.0700282e-39
19.980591 -673.88306 220 7.3720378e-39
14.133179 -654.75696 220 7.2827037e-39
11.209351 -645.19385 220 6.733155e-39
8.2856445 -635.63086 220 4.060579e-39
-4.2010498 -628.99158 220 4.8820398e-39
-10.048584 -609.86548 220 6.0805872e-39
-12.97229 -600.30237 220 4.795965e-39
-15.895996 -590.73938 220 3.3229971e-39
-21.743408 -571.61328 220 2.9517035e-39
-34.230225 -564.974 220 3.2282918e-39
-37.153931 -555.41089 220 3.1339311e-39
-43.001465 -536.28479 220 3.5055989e-39
-65.05127 -532.56921 220 1.8442755e-39
-135.70813 -575.08508 220 9.219577e-40
-154.83423 -580.93262 230 9.2159336e-40
-183.52332 -589.70374 230 8.30118e-40
-189.37085 -570.57764 230 8.2976067e-40
-201.85754 -563.93835 230 7.3792517e-40
-204.78125 -554.37524 230 9.219549e-40
-220.19177 -538.17297 230 1.0130729e-39
-223.11548 -528.60986 230 8.3012361e-40
-228.96301 -509.48376 230 9.2123463e-40
-231.88672 -499.92078 230 9.2159616e-40
-247.29724 -483.71838 230 1.0137876e-39
-250.22095 -474.1554 230 1.0141519e-39
-256.06836 -455.0293 230 7.3864544e-40
-252.35278 -432.97949 230 8.2940054e-40
-274.40259 -429.26379 230 1.0141491e-39
-261.12402 -404.29028 230 9.219535e-40
-292.73682 -403.49841 230 9.2159897e-40
-552.52271 -545.66479 240 7.3756644e-40
-593.69873 -547.79663 240 9.2123323e-40
-599.54614 -528.67053 240 1.1049042e-39
-605.39355 -509.54443 240 1.0127142e-39
-582.552 -481.64722 240 9.2159476e-40
-578.83643 -459.59741 240 7.3756224e-40
-568.48145 -425.06079 240 8.29039e-40
-574.32886 -405.93469 240 9.208787e-40
-577.25269 -396.3717 240 9.208801e-40
-547.77161 -355.98767 240 1.1045469e-39
-524.92993 -328.09033 240 1.0130701e-39
-530.77734 -308.96423 240 1.1963824e-39
-546.18787 -292.76184 240 1.2885766e-39
-549.11157 -283.19885 240 1.6562731e-39
-564.52197 -266.99646 240 1.5640817e-39
-589.49561 -253.7179 240 1.748466e-39
-611.54541 -250.00232 240 1.6566333e-39
-534.55359 45.416504 230 2.0254186e-39
-492.58582 79.161255 230 2.5771448e-39
-498.43335 98.287354 230 2.4849534e-39
-510.92004 104.92664 230 2.2105245e-39
-507.20447 126.97644 230 2.3016453e-39
-340.91711 198.72961 220 1.9342992e-39
-289.38635 235.39807 220 1.565518e-39
-292.31006 244.96112 220 1.4736839e-39
-295.23376 254.52417 220 1.3818484e-39
-291.51819 276.57397 220 1.1052616e-39
-284.87891 289.06079 220 1.197097e-39
-290.72632 308.18683 220 1.104907e-39
-281.16321 311.1106 220 1.0134275e-39
-277.44763 333.1604 220 1.0137834e-39
-280.37134 342.72345 220 1.1960223e-39
-273.73206 355.21021 220 8.290404e-40
-279.57947 374.3363 220 8.2868447e-40
-272.94019 386.82306 220 6.4536661e-40
-266.3009 399.30984 220 7.3684477e-40
-281.71143 415.51221 220 6.4536521e-40
-344.93713 417.09595 220 7.3684057e-40
-319.17175 435.43015 220 7.3684477e-40
-283.84326 456.68811 220 6.4500507e-40
-267.64087 472.0986 220 8.2867887e-40
-251.43848 487.50909 220 7.3684477e-40
-254.3623 497.07214 220 8.290362e-40
-241.08362 522.04565 220 7.3720771e-40
-234.44434 534.53247 210 9.2051717e-40
-208.67883 552.8667 210 7.3756504e-40
-179.98975 561.63788 210 7.372021e-40
-163.78735 577.04834 210 6.4536801e-40
-198.32397 587.40326 210 9.2087309e-40
-191.68469 599.89001 210 6.4608407e-40
-197.5321 619.01611 210 7.372035e-40
-200.45581 628.57916 210 7.3720771e-40
-225.42944 641.85779 210 9.208759e-40
-218.79004 654.3446 210 8.290404e-40
-231.27686 660.98389 210 8.2868027e-40
-224.63757 673.4707 210 7.3720491e-40
-240.04797 689.67303 210 1.0130687e-39
-233.40869 702.15979 210 7.3720631e-40
-226.76941 714.64661 210 6.4500928e-40
-229.69312 724.20959 210 8.290418e-40
-223.05383 736.69641 210 7.3720491e-40
-228.90125 755.82251 210 7.372021e-40
-231.82495 765.3855 210 7.3684477e-40
-234.74866 774.94861 210 7.3756644e-40
-208.98328 793.28278 210 9.2052137e-40
502.70203 791.27228 180 7.372035e-40
490.21521 797.91162 180 7.3648884e-40
477.72845 804.5509 180 1.6588011e-39
474.80475 814.11395 180 1.9346705e-39
474.80475 814.11395 180 2.0268661e-39
462.31799 820.7533 180 1.6598745e-39
459.39429 830.31628 180 1.3829344e-39
456.47046 839.87933 180 1.0130701e-39
466.03357 842.8031 180 7.382825e-40
453.54675 849.44238 180 1.0130785e-39
460.18616 861.9292 180 1.4751287e-39
656.50256 869.66473 180 3.9770532e-39
621.966 880.01965 180 4.8101139e-39
52.141602 -779.07654 200 5.5346203e-39
39.654785 -772.43713 210 2.6743963e-39
36.731079 -762.87415 210 2.5825524e-39
24.244263 -756.23486 210 2.5811161e-39
21.320557 -746.67175 210 2.8584205e-39
15.473145 -727.54565 210 3.5034325e-39
19.188721 -705.49585 210 4.6083452e-39
22.904297 -683.44604 200 4.2395584e-39
19.980591 -673.88306 210 5.4380862e-39
17.056885 -664.31995 210 6.0831081e-39
11.209351 -645.19385 210 5.621051e-39
-1.2773438 -638.55457 210 5.4348562e-39
-4.2010498 -628.99158 210 6.7277404e-39
-10.048584 -609.86548 210 5.0711212e-39
-12.97229 -600.30237 210 4.4250329e-39
-18.819702 -581.17627 210 4.0573336e-39
-21.743408 -571.61328 210 3.7825418e-39
-27.590942 -552.48718 210 4.0576965e-39
-30.514648 -542.92407 210 4.2417262e-39
-36.362061 -523.79797 210 4.0569749e-39
-45.925171 -526.7218 210 4.2402773e-39
-84.177368 -538.41663 210 4.2395654e-39
-122.42944 -550.11157 210 2.4874883e-39
-160.68164 -561.80652 210 9.2231643e-40
-173.16846 -555.16711 210 7.3792517e-40
-195.21826 -551.45154 210 9.2159196e-40
-207.70508 -544.81226 210 8.2940054e-40
-220.19177 -538.17297 210 7.382825e-40
-223.11548 -528.60986 210 8.2939913e-40
-238.526 -512.40747 210 8.290418e-40
-241.44971 -502.84448 210 6.4572674e-40
-253.93652 -496.2052 210 8.2939913e-40
-259.78394 -477.0791 210 7.3649024e-40
-262.70764 -467.51599 210 7.372035e-40
-258.99207 -445.46619 210 5.5317518e-40
-274.40259 -429.26379 210 7.3720491e-40
-277.32629 -419.70081 210 9.2159196e-40
-318.5022 -421.83264 210 8.2832574e-40
-552.52271 -545.66479 220 9.2159476e-40
-603.26172 -550.72034 220 1.0130715e-39
-599.54614 -528.67053 220 1.5644404e-39
-595.83057 -506.62073 220 1.2889367e-39
-572.98877 -478.72351 220 1.6569976e-39
-572.19702 -447.1106 220 1.4729623e-39
-558.91833 -422.13708 220 1.2892955e-39
-564.76587 -403.01099 220 1.3814869e-39
-577.25269 -396.3717 220 1.4729665e-39
-573.53687 -374.3219 220 1.4729665e-39
-544.05603 -333.93774 220 1.5647992e-39
-540.34033 -311.88794 220 1.7481156e-39
-546.18787 -292.76184 220 1.6569948e-39
-552.03528 -273.63586 220 1.74811e-39
-554.95898 -264.07275 220 1.7473968e-39
-570.36963 -247.87036 220 1.7481086e-39
-592.41943 -244.15479 220 1.6573549e-39
-588.70386 -222.10498 220 1.6573535e-39
-623.24023 -211.75012 220 2.02505e-39
-496.30139 57.11145 210 2.3931179e-39
-492.58582 79.161255 210 2.3012824e-39
-498.43335 98.287354 210 2.393834e-39
-520.48315 102.00293 210 2.5778707e-39
-526.33057 121.12903 210 2.4863869e-39
-331.35413 201.65338 210 2.2101686e-39
-289.38635 235.39807 210 1.8410273e-39
-292.31006 244.96112 210 1.3814911e-39
-295.23376 254.52417 210 1.3811324e-39
-291.51819 276.57397 210 1.1049028e-39
-284.87891 289.06079 210 1.2892955e-39
-290.72632 308.18683 210 1.0130715e-39
-281.16321 311.1106 210 1.1971013e-39
-277.44763 333.1604 200 1.1052644e-39
-280.37134 342.72345 200 1.1045455e-39
-273.73206 355.21021 200 9.2123183e-40
-279.57947 374.3363 200 1.0130715e-39
-272.94019 386.82306 200 1.1056189e-39
-256.73779 402.23358 200 1.1967411e-39
-272.14832 418.43594 200 9.208745e-40
-344.93713 417.09595 210 9.2087309e-40
-347.86084 426.65897 210 7.3684337e-40
-264.71716 462.53555 200 9.2051576e-40
-258.07788 475.02234 200 7.3720491e-40
-251.43848 487.50909 200 8.2868167e-40
-257.28601 506.63519 200 6.4501068e-40
-250.64661 519.12195 200 7.3720491e-40
-244.00732 531.60876 200 7.372007e-40
-218.24194 549.94299 200 8.2832294e-40
-202.03955 565.35345 200 9.2123323e-40
-195.40027 577.84021 200 6.4465194e-40
-207.88708 584.47955 200 8.290418e-40
-223.29749 600.68188 200 7.372007e-40
-257.83411 611.0368 200 7.3720631e-40
-301.93372 618.46802 200 9.2051576e-40
-254.11853 633.08667 200 7.3684757e-40
-228.35315 651.42084 200 8.2975787e-40
-240.83984 658.06018 200 7.3684477e-40
-237.12427 680.10999 200 8.290418e-40
-240.04797 689.67303 200 8.290418e-40
-242.9718 699.23608 200 7.3684477e-40
-236.3324 711.72284 200 7.3648744e-40
-239.2561 721.28589 200 8.2868307e-40
-235.54053 743.33569 200 8.2940054e-40
-238.46423 752.89874 200 8.2832434e-40
-231.82495 765.3855 200 7.3648604e-40
-234.74866 774.94861 200 7.3613011e-40
-206.05957 783.71973 200 9.208759e-40
502.70203 791.27228 170 9.208801e-40
480.65216 794.98785 180 8.290418e-40
468.16541 801.6272 180 1.5669628e-39
474.80475 814.11395 180 1.7510023e-39
474.80475 814.11395 180 1.8439056e-39
471.88098 823.677 180 2.0275808e-39
459.39429 830.31628 180 1.4740525e-39
456.47046 839.87933 180 8.2976067e-40
466.03357 842.8031 180 9.2088431e-40
453.54675 849.44238 180 7.3792237e-40
450.62305 859.00543 180 9.2159336e-40
457.26233 871.49225 180 3.1332053e-39
656.50256 869.66473 170 3.8837884e-39
653.57886 879.22778 170 5.0856176e-39
35.939209 -794.48706 190 5.7190269e-39
33.015503 -784.92395 190 2.5814818e-39
20.528687 -778.28467 190 2.4896421e-39
1.4025879 -784.13208 190 2.6733033e-39
-4.4448242 -765.00598 190 3.1332081e-39
8.8338623 -740.03247 190 3.6867392e-39
2.9863281 -720.90637 190 4.6076207e-39
16.265015 -695.93286 190 4.4246616e-39
19.980591 -673.88306 190 5.3462465e-39
17.056885 -664.31995 190 4.9778381e-39
1.6463623 -648.11755 190 5.3491318e-39
-1.2773438 -638.55457 190 7.4642279e-39
-4.2010498 -628.99158 190 6.2692888e-39
-10.048584 -609.86548 190 5.806517e-39
-22.535278 -603.22607 190 3.874736e-39
-25.458984 -593.66309 190 3.1378968e-39
-31.306519 -574.53699 190 4.1502425e-39
-34.230225 -564.974 190 3.7821858e-39
-37.153931 -555.41089 190 4.1505998e-39
-52.564453 -539.2085 190 4.7037806e-39
-48.848877 -517.15869 190 4.6122954e-39
-84.177368 -538.41663 190 4.4286258e-39
-129.06885 -562.59839 190 3.9665673e-39
-141.55554 -555.95898 190 3.7800264e-39
-163.60535 -552.24341 190 1.4744098e-39
-176.09216 -545.60413 190 7.3720491e-40
-198.14197 -541.88855 200 6.4572954e-40
-210.62878 -535.24927 200 8.290418e-40
-232.67859 -531.53357 200 6.4537081e-40
-235.60229 -521.97058 200 5.5317378e-40
-251.01282 -505.76819 200 5.5318079e-40
-253.93652 -496.2052 200 6.4501068e-40
-259.78394 -477.0791 200 8.290404e-40
-262.70764 -467.51599 200 6.4536801e-40
-268.55518 -448.38989 200 7.3684477e-40
-283.9657 -432.18762 200 7.3648604e-40
-277.32629 -419.70081 200 6.4501208e-40
-289.81311 -413.06152 200 7.361245e-40
-340.552 -418.11707 200 4.6169842e-40
-571.64893 -551.51221 200 6.4501068e-40
-603.26172 -550.72034 210 9.208745e-40
-609.10913 -531.59424 210 1.0130687e-39
-595.83057 -506.62073 200 1.3807694e-39
-572.98877 -478.72351 200 1.4729679e-39
-572.19702 -447.1106 200 1.3807722e-39
-558.91833 -422.13708 200 1.3804135e-39
-564.76587 -403.01099 200 1.1978131e-39
-577.25269 -396.3717 200 1.4729651e-39
-573.53687 -374.3219 200 1.4733224e-39
-553.61902 -336.86157 200 1.6573549e-39
-540.34033 -311.88794 200 1.8403085e-39
-536.62476 -289.83813 200 1.8406616e-39
-542.47229 -270.71204 200 1.931065e-39
-545.396 -261.14905 200 1.8395882e-39
-560.8064 -244.94666 200 1.8403071e-39
-566.65405 -225.82056 200 1.7495464e-39
-572.50146 -206.69446 200 1.7495478e-39
-623.24023 -211.75012 200 1.7488387e-39
-496.30139 57.11145 200 2.8526527e-39
-492.58582 79.161255 200 2.668623e-39
-507.99634 95.363586 200 2.4856695e-39
-510.92004 104.92664 200 2.7615389e-39
-526.33057 121.12903 200 2.7633367e-39
-331.35413 201.65338 190 2.2094427e-39
-289.38635 235.39807 190 1.2892955e-39
-292.31006 244.96112 190 1.6566347e-39
-295.23376 254.52417 190 1.4733224e-39
-291.51819 276.57397 190 1.1052644e-39
-284.87891 289.06079 190 1.1049042e-39
-290.72632 308.18683 190 1.0130659e-39
-281.16321 311.1106 190 1.2885766e-39
-277.44763 333.1604 190 1.1967411e-39
-280.37134 342.72345 190 1.2896542e-39
-273.73206 355.21021 190 1.1971027e-39
-279.57947 374.3363 190 1.0130701e-39
-272.94019 386.82306 190 9.2123323e-40
-256.73779 402.23358 190 1.105979e-39
-272.14832 418.43594 190 1.0127142e-39
-354.50012 414.17221 190 1.0134261e-39
-338.29785 429.5827 190 1.1052658e-39
-255.15417 465.45929 190 1.0130659e-39
-248.51477 477.94604 190 9.2123183e-40
-251.43848 487.50909 190 1.0127114e-39
-257.28601 506.63519 190 1.1045441e-39
-250.64661 519.12195 190 1.1045427e-39
-234.44434 534.53247 190 1.1963838e-39
-227.80493 547.01923 190 1.1967369e-39
-211.60266 562.42969 190 1.3811268e-39
-204.96326 574.9165 190 1.3807736e-39
-220.37378 591.1189 190 1.5647992e-39
-283.59949 592.70264 190 1.3807722e-39
-318.13611 603.0575 190 1.6573577e-39
-301.93372 618.46802 190 1.2892997e-39
-276.16833 636.80225 190 1.2892983e-39
-237.91614 648.49713 190 1.4740455e-39
-243.76355 667.62323 190 1.6573591e-39
-237.12427 680.10999 190 1.6573619e-39
-240.04797 689.67303 190 1.658078e-39
-242.9718 699.23608 190 1.6580766e-39
-236.3324 711.72284 190 1.6584381e-39
-239.2561 721.28589 190 1.659157e-39
-235.54053 743.33569 190 1.7495548e-39
-238.46423 752.89874 190 1.7506352e-39
-241.38806 762.46179 190 1.7502764e-39
-234.74866 774.94861 190 1.8421105e-39
-208.98328 793.28278 190 1.7499177e-39
512.26508 794.19598 170 1.7509911e-39
471.08917 792.06415 170 1.8435483e-39
458.60242 798.70343 170 1.8431853e-39
474.80475 814.11395 170 1.8442671e-39
474.80475 814.11395 170 1.935025e-39
471.88098 823.677 170 1.7513554e-39
468.95728 833.24005 170 1.5673229e-39
466.03357 842.8031 170 1.4740539e-39
466.03357 842.8031 170 1.1063462e-39
463.10986 852.36615 170 9.2124024e-40
450.62305 859.00543 170 9.219549e-40
457.26233 871.49225 170 2.4874799e-39
447.69934 868.56848 170 1.842835e-39
646.93951 866.74103 160 2.1204925e-39
646.93951 866.74103 160 7.8445851e-39
-15.591553 -831.15552 180 2.3970934e-39
-17.723511 -789.97961 180 3.2261226e-39
2.194458 -752.51929 180 4.3324701e-39
-3.6529541 -733.39319 180 4.4253888e-39
6.7019043 -698.85657 180 3.8714976e-39
13.341309 -686.36975 180 4.423221e-39
7.4937744 -667.24365 180 5.2547866e-39
4.5700684 -657.68066 180 6.5448037e-39
-10.840454 -641.47827 180 4.3342848e-39
-13.76416 -631.91528 180 2.7669549e-39
-16.687866 -622.35217 180 3.0442537e-39
-29.174683 -615.71289 180 3.5066737e-39
-35.022095 -596.58679 180 3.5048801e-39
-37.945801 -587.0238 180 3.8740143e-39
-40.869507 -577.46069 180 3.3194168e-39
-56.280029 -561.2583 180 4.0573294e-39
-52.564453 -539.2085 180 4.058414e-39
-45.925171 -526.7218 180 4.2420822e-39
-67.974976 -523.00623 180 3.9662128e-39
-96.664062 -531.77734 180 4.5190278e-39
-118.71387 -528.06177 180 4.4271923e-39
-131.20068 -521.42249 180 4.7959748e-39
-150.32678 -527.2699 180 2.8562695e-39
-172.37659 -523.55432 180 7.372007e-40
-201.06567 -532.32544 180 5.5353391e-40
-223.11548 -528.60986 180 7.3684757e-40
-245.16528 -524.89429 180 7.3684337e-40
-251.01282 -505.76819 180 6.4536801e-40
-263.49951 -499.12891 180 6.4537221e-40
-259.78394 -477.0791 180 5.5317658e-40
-272.27075 -470.4397 180 7.3648604e-40
-268.55518 -448.38989 180 6.4500928e-40
-283.9657 -432.18762 180 6.4500787e-40
-286.8894 -422.62451 180 5.5281365e-40
-289.81311 -413.06152 180 5.5353111e-40
-330.98901 -415.19336 180 6.4501068e-40
-584.13574 -544.87292 190 9.2123463e-40
-589.98315 -525.74683 190 9.2123323e-40
-586.26758 -503.69702 190 1.5648006e-39
-566.34961 -466.23669 190 1.5651579e-39
-562.63403 -444.18689 190 1.7481156e-39
-558.91833 -422.13708 190 1.6569962e-39
-564.76587 -403.01099 190 1.7495478e-39
-577.25269 -396.3717 190 1.7481128e-39
-573.53687 -374.3219 190 1.8413861e-39
-544.05603 -333.93774 180 1.8410245e-39
-530.77734 -308.96423 180 1.9332202e-39
-527.06177 -286.91443 180 2.0243368e-39
-523.34619 -264.86462 180 2.0228976e-39
-529.1936 -245.73853 180 2.3909585e-39
-535.04102 -226.61243 180 2.3005621e-39
-547.52783 -219.97314 180 2.2098028e-39
-524.68616 -192.07581 180 2.2098084e-39
-511.40747 -167.10229 180 2.5775092e-39
