# .PCD v0.7 - Point Cloud Data file format
VERSION 0.7
FIELDS x y z rgb
SIZE 4 4 4 4
TYPE F F F F
COUNT 1 1 1 1
WIDTH 1234
HEIGHT 1
VIEWPOINT 0 0 0 1 0 0 0
POINTS 1234
DATA ascii
-498.25964 618.10608 620 1.4751357e-39
-559.77454 632.80054 630 1.4751315e-39
-750.79468 636.16461 680 1.7513554e-39
-841.32373 638.28247 700 1.9357481e-39
-853.02881 657.33478 710 2.2119763e-39
-843.93848 668.16833 710 2.4892764e-39
-865.60547 686.34906 710 2.7655046e-39
-867.34863 706.27295 710 2.5821923e-39
-157.43567 738.26843 530 2.8587862e-39
-178.2312 746.48724 540 5.8079421e-39
-179.97424 766.41113 540 1.6597346e-38
-210.73169 773.75842 540 2.3509886e-38
-201.64136 784.59192 540 2.3502686e-38
-243.2323 801.02954 550 1.7404102e-38
-254.0658 810.11993 550 1.1512195e-38
-265.77087 829.17224 560 2.1194503e-38
196.83655 819.45465 440 2.3509886e-38
186.00305 828.54498 440 2.3142521e-38
195.09338 839.37854 440 2.3509886e-38
194.2218 849.34045 440 2.3509886e-38
193.35022 859.30243 440 2.3509886e-38
594.44281 864.2793 340 1.8068488e-38
-190.5553 1116.8224 530 7.4501939e-39
-293.66101 1147.9545 560 7.0835763e-39
-386.80481 1179.9583 580 7.7264164e-39
-388.54797 1199.8821 580 7.9097301e-39
-327.90466 1195.1495 570 7.2676061e-39
-318.81433 1205.983 560 7.6342306e-39
-248.20911 1202.1221 540 7.8178974e-39
-219.19482 1214.6987 540 7.5441916e-39
397.69641 1047.83 380 6.9978673e-39
396.82483 1057.792 390 8.2839272e-39
395.95325 1067.7539 390 1.1224077e-38
103.07373 1202.7411 460 2.3509807e-38
-11.737183 1252.9255 480 2.3509832e-38
-54.199585 1279.3251 490 2.3509873e-38
-45.109253 1290.1587 490 2.3509886e-38
27.239136 1266.3738 470 2.3509886e-38
15.534058 1285.426 480 2.3509886e-38
-16.094971 1302.7354 480 2.3509886e-38
-17.838135 1322.6592 480 2.3509886e-38
-28.671631 1331.7495 490 2.3509886e-38
-40.376709 1350.8019 490 2.3509886e-38
-426.17212 -550.0564 610 2.3509886e-38
-437.00562 -540.96594 610 2.3509852e-38
-447.83911 -531.87561 620 2.2954887e-38
-458.67261 -522.78516 620 2.1479756e-38
-469.5061 -513.69482 620 2.091612e-38
-471.24927 -493.77087 620 2.2856892e-38
-491.1731 -495.51404 630 2.313745e-38
-492.91626 -475.59021 630 1.9178811e-38
-503.74976 -466.49976 630 2.3501532e-38
-561.77832 -491.65308 640 2.3494366e-38
-676.96387 -551.92163 670 1.7588482e-38
-745.82593 -567.98462 690 1.0776785e-38
-727.64526 -546.3175 690 7.2766108e-39
-710.33594 -514.6886 680 5.3419445e-39
-721.16943 -505.59814 680 3.8696983e-39
-627.65088 -427.14893 660 3.0424502e-39
-447.9613 -301.00769 610 2.859861e-39
-401.63782 -256.802 600 3.2297253e-39
-402.5094 -246.84009 600 3.3190483e-39
-384.32861 -225.1731 600 2.6733145e-39
-347.96716 -181.83905 590 1.9364614e-39
-377.85291 -184.45374 590 2.5793154e-39
-273.50098 -115.09479 570 2.7640752e-39
-243.24036 -2.0271606 560 2.4896534e-39
-254.07397 7.0632324 560 2.5796854e-39
-245.8551 27.858704 560 2.3970892e-39
-236.76477 38.6922 550 2.581835e-39
-247.59827 47.782593 560 4.9735165e-39
-259.30334 66.8349 560 2.3509879e-38
-270.13684 75.925293 560 2.3509886e-38
-290.06079 74.18219 570 2.3509886e-38
-310.8562 82.401001 570 1.9730246e-38
-311.72778 92.362915 570 1.475308e-38
-293.547 114.02997 570 1.2074355e-38
-275.36621 135.69696 560 1.0235465e-38
-277.10938 155.62085 560 7.3759993e-39
-277.98096 165.58282 560 4.7956077e-39
-288.81445 174.67322 560 4.5172201e-39
-299.64795 183.76355 570 4.1480775e-39
-310.48145 192.85394 570 2.5836328e-39
-312.22461 212.77783 570 2.1197792e-39
-313.09619 222.73981 570 2.578598e-39
-304.87744 243.53522 570 1.8435497e-39
-295.78699 254.36877 560 1.7502764e-39
-287.56824 275.16425 560 1.6587941e-39
-269.38745 296.83124 560 1.382217e-39
-270.25903 306.79321 560 1.3829316e-39
-271.13062 316.75513 560 1.7520729e-39
-272.87378 336.67905 560 2.0297416e-39
-273.74524 346.64099 560 2.2137811e-39
-284.57886 355.73135 560 2.9516993e-39
-295.41235 364.82175 560 3.1353815e-39
-287.19348 385.61719 560 3.1382514e-39
-327.91284 392.09286 570 3.5977974e-39
-63.298218 465.43494 500 3.9662198e-39
-349.57983 410.27362 570 4.793821e-39
-410.22314 415.00616 590 4.7026988e-39
-293.29443 455.35083 560 4.5193907e-39
-274.24219 467.05591 550 4.7037806e-39
-275.11377 477.01785 550 5.0704135e-39
-286.81885 496.07016 560 5.3480696e-39
-267.76648 507.77527 550 5.3477123e-39
-249.58569 529.44226 550 5.624295e-39
-240.49536 540.27576 540 5.5360398e-39
-291.17664 545.87988 560 6.0863535e-39
-321.93408 553.22717 560 6.8239129e-39
-353.56299 570.53632 570 7.0994166e-39
-424.16821 574.39734 590 6.4540444e-39
-435.00171 583.48767 590 6.3622131e-39
-456.66882 601.66846 590 7.468209e-39
-467.50232 610.75879 600 4.5158034e-39
-538.979 624.58173 610 1.3829373e-39
-589.6604 630.18585 630 1.5669726e-39
-800.60425 631.80676 680 1.5680432e-39
-841.32373 638.28247 690 1.9350264e-39
-853.02881 657.33478 690 2.0279409e-39
-843.93848 668.16833 690 2.213414e-39
-855.64355 687.22064 690 2.7651458e-39
-857.38672 707.14453 690 2.8577044e-39
-157.43567 738.26843 520 2.9502531e-39
-178.2312 746.48724 520 5.8072387e-39
-179.97424 766.41113 520 1.5768659e-38
-200.76978 774.62994 530 2.3509886e-38
-201.64136 784.59192 530 1.3093964e-38
-253.19421 800.15796 540 4.7019715e-39
-264.89929 819.21027 540 4.9799933e-39
-275.73279 828.30066 550 1.2165829e-38
186.87463 818.58307 430 2.350986e-38
186.00305 828.54498 430 2.26787e-38
185.13147 838.50696 430 2.2862322e-38
605.27631 855.1889 330 1.1615179e-38
604.40472 865.15088 330 1.6966831e-38
604.40472 865.15088 330 2.3509886e-38
603.5332 875.11279 330 2.3509886e-38
602.66162 885.07477 330 1.5118641e-38
602.66162 885.07477 330 6.9092842e-39
579.25146 923.17944 340 1.3915372e-38
-355.17578 1162.6489 560 9.8634807e-39
-397.63831 1189.0486 570 9.9481331e-39
-388.54797 1199.8821 570 8.9368468e-39
-358.66211 1202.4968 560 7.8319636e-39
-339.60974 1214.2019 550 8.9390118e-39
-258.17102 1201.2505 530 1.0235161e-38
-228.28528 1203.8652 530 9.3135579e-39
-219.19482 1214.6987 520 8.6638767e-39
-230.8999 1233.751 530 7.8337601e-39
-231.77148 1243.713 530 8.4798217e-39
-253.43848 1261.8938 530 1.0784375e-38
-0.031982422 1233.8733 470 2.3509851e-38
-41.622925 1250.3108 480 2.3509821e-38
-42.494507 1260.2728 480 2.3509876e-38
-64.161499 1278.4536 490 2.3509886e-38
-45.109253 1290.1587 480 2.3509886e-38
-25.185303 1291.9017 480 2.3509886e-38
-36.018799 1300.9922 480 2.3509886e-38
-47.723999 1320.0444 480 2.3509886e-38
-58.557495 1329.1349 480 2.3509886e-38
-70.262573 1348.1871 480 2.3509886e-38
-71.134155 1358.1492 490 2.3509886e-38
-417.08167 -539.22278 600 2.3509879e-38
-427.91516 -530.13245 600 2.3506632e-38
-448.71069 -521.9137 600 2.1755268e-38
-458.67261 -522.78516 600 2.0178582e-38
-469.5061 -513.69482 610 1.5933994e-38
-480.3396 -504.60449 610 1.1418921e-38
-491.1731 -495.51404 610 7.9230578e-39
-502.00671 -486.42371 610 5.5288525e-39
-522.80212 -478.20483 620 4.0558832e-39
-571.74023 -492.52466 630 3.1357388e-39
-629.7688 -517.67798 650 3.3211993e-39
-706.84961 -554.53638 660 3.6892713e-39
-708.59277 -534.61243 660 3.9654981e-39
-710.33594 -514.6886 660 4.0580637e-39
-712.0791 -494.76465 660 3.9672974e-39
-627.65088 -427.14893 640 4.2424493e-39
-437.99927 -300.13611 600 3.7825586e-39
-391.6759 -255.93054 580 3.5970827e-39
-392.54749 -245.96851 580 5.6246481e-39
-385.2002 -215.21118 580 3.5974428e-39
-357.0575 -192.67249 570 1.9371816e-39
-377.85291 -184.45374 580 2.8558967e-39
-243.24036 -2.0271606 540 2.5818602e-39
-254.07397 7.0632324 550 2.2112532e-39
-245.8551 27.858704 540 2.488203e-39
-236.76477 38.6922 540 2.8569771e-39
-247.59827 47.782593 540 6.8141753e-39
-259.30334 66.8349 540 2.3509886e-38
-260.17493 76.796875 550 2.3509886e-38
-290.06079 74.18219 550 2.3509886e-38
-310.8562 82.401001 560 1.9551269e-38
-312.59937 102.32489 560 1.4664146e-38
-293.547 114.02997 550 1.1800652e-38
-266.27588 146.53052 540 1.0415198e-38
-267.14746 156.49243 550 7.8355313e-39
-277.98096 165.58282 550 5.1633056e-39
-298.77637 173.80164 550 9.3131627e-39
-309.60999 182.89203 550 8.4812539e-39
-310.48145 192.85394 560 3.9669246e-39
-312.22461 212.77783 560 3.5041514e-39
-313.09619 222.73981 550 2.6754809e-39
-294.91541 244.4068 550 2.8598624e-39
-286.69666 265.20227 550 3.2282932e-39
-277.60632 276.03577 540 3.2286519e-39
-259.42554 297.70282 540 3.5070353e-39
-260.29712 307.66479 540 4.2417234e-39
-271.13062 316.75513 540 4.3346337e-39
-272.87378 336.67905 540 4.6101444e-39
-273.74524 346.64099 540 4.7941826e-39
-284.57886 355.73135 550 4.2420878e-39
-295.41235 364.82175 550 4.8867327e-39
-287.19348 385.61719 550 4.978571e-39
-307.98901 393.836 550 4.8870929e-39
-82.350464 453.72986 490 4.9807234e-39
-408.47998 395.08228 570 5.8101296e-39
-410.22314 415.00616 570 5.9048391e-39
-273.37061 457.09396 540 6.1781918e-39
-274.24219 467.05591 540 6.5483924e-39
-275.11377 477.01785 540 5.807973e-39
-266.8949 497.81329 540 6.3614929e-39
-247.84265 509.5184 530 6.6391658e-39
-239.62378 530.31384 530 6.8239045e-39
-240.49536 540.27576 530 7.0050644e-39
-261.29077 548.49463 540 7.284168e-39
-292.04822 555.84186 540 7.4689194e-39
-343.60107 571.4079 560 7.3752889e-39
-434.13013 573.52576 580 6.3632921e-39
-444.96375 582.61609 580 7.0994152e-39
-466.63074 600.79688 580 9.2195434e-39
-487.42615 609.01569 590 5.9041245e-39
-548.94104 623.71014 600 1.751724e-39
-679.31787 622.34174 630 1.5666082e-39
-810.56641 630.93524 660 1.6584423e-39
-831.36182 639.15405 670 1.7509981e-39
-843.06689 658.20636 670 1.8439084e-39
-833.97656 669.03986 670 2.4885561e-39
-845.68164 688.09216 670 2.6740278e-39
-847.42456 708.01611 670 2.3052523e-39
-147.47375 739.14001 510 2.8573443e-39
-168.26917 747.35883 510 5.0711086e-39
-179.97424 766.41113 510 1.5214407e-38
-190.80786 775.50153 520 2.3509886e-38
-191.67932 785.4635 510 1.4663424e-38
-233.27026 801.90112 520 4.4250301e-39
-244.10376 810.99146 530 4.7934399e-39
-235.88501 831.78693 520 7.8377061e-39
-317.32373 844.73828 540 1.8159979e-38
186.00305 828.54498 420 2.3509883e-38
606.14789 845.22699 330 2.3509886e-38
606.14789 845.22699 320 1.2719055e-38
615.23828 856.06049 320 1.2542168e-38
604.40472 865.15088 320 1.6870315e-38
604.40472 865.15088 320 2.3509865e-38
603.5332 875.11279 320 2.3509886e-38
602.66162 885.07477 320 1.6504118e-38
602.66162 885.07477 330 5.6275502e-39
591.82806 894.16516 330 3.136092e-39
590.95654 904.12708 330 3.1357304e-39
580.12299 913.21747 330 3.5034297e-39
559.32758 921.43628 330 3.9618869e-39
559.32758 921.43628 330 5.6249956e-39
-406.72864 1178.2151 560 1.621561e-38
-218.32324 1204.7368 510 1.5389112e-38
-219.19482 1214.6987 510 1.5669307e-38
-230.8999 1233.751 510 1.2166232e-38
-231.77148 1243.713 510 1.1706324e-38
-243.47656 1262.7654 520 1.7498454e-38
-234.38623 1273.5989 510 2.3497243e-38
-29.046265 1221.2966 470 2.3509886e-38
84.021362 1191.036 440 2.3509886e-38
-9.9940186 1233.0017 460 2.3509884e-38
-62.418457 1258.5297 470 2.3509865e-38
-53.328003 1269.3632 470 2.3509881e-38
-64.161499 1278.4536 470 2.3509886e-38
-44.237671 1280.1967 470 2.3509886e-38
-25.185303 1291.9017 470 2.3509886e-38
-36.018799 1300.9922 470 2.3509886e-38
-57.685913 1319.1729 470 2.3509886e-38
-69.390991 1338.2252 470 2.3509886e-38
-70.262573 1348.1871 480 2.3509886e-38
-81.967651 1367.2395 480 2.3509886e-38
-436.13403 -550.92786 580 1.2343406e-38
-446.96753 -541.83752 590 8.0134556e-39
-447.83911 -531.87561 590 5.1597113e-39
-458.67261 -522.78516 590 4.0544525e-39
-469.5061 -513.69482 590 3.6878308e-39
-480.3396 -504.60449 590 3.8722165e-39
-491.1731 -495.51404 600 4.0580539e-39
-502.00671 -486.42371 600 4.426479e-39
-522.80212 -478.20483 600 4.517953e-39
-561.77832 -491.65308 610 4.3346449e-39
-610.71655 -505.9729 620 4.4271937e-39
-688.66895 -532.86938 640 4.2438899e-39
-709.46436 -524.65051 640 4.4250385e-39
-710.33594 -514.6886 650 4.3346365e-39
-712.0791 -494.76465 650 4.0584112e-39
-627.65088 -427.14893 630 3.9669428e-39
-428.90894 -289.30261 580 4.0580595e-39
-382.58545 -245.09692 570 4.4250343e-39
-393.41895 -236.00659 570 7.840562e-39
-385.2002 -215.21118 560 3.6881993e-39
-347.96716 -181.83905 560 2.0279381e-39
-253.57703 -113.35168 530 2.8551835e-39
-235.39624 -91.684631 530 3.316163e-39
-243.24036 -2.0271606 530 2.398178e-39
-254.07397 7.0632324 530 1.8442713e-39
-245.8551 27.858704 530 1.843914e-39
-236.76477 38.6922 530 2.4892834e-39
-247.59827 47.782593 530 8.0145066e-39
-259.30334 66.8349 530 2.3509886e-38
-260.17493 76.796875 530 2.3509886e-38
-290.06079 74.18219 540 2.3509886e-38
-300.89429 83.272522 540 1.9733508e-38
-302.63745 103.19641 540 1.4567989e-38
-284.45667 124.86346 540 1.0971263e-38
-256.31396 147.40204 530 9.8641715e-39
-267.14746 156.49243 530 7.0969041e-39
-287.94287 164.71124 540 1.401082e-38
-298.77637 173.80164 540 1.2168003e-38
-309.60999 182.89203 540 5.3476955e-39
-320.44348 191.98236 540 5.349143e-39
-312.22461 212.77783 540 5.3466305e-39
-313.09619 222.73981 540 4.7956161e-39
-294.91541 244.4068 540 5.0721862e-39
-276.73474 266.07385 530 4.9782151e-39
-257.68237 277.77893 530 4.8892452e-39
-249.46362 298.5744 520 5.1629595e-39
-250.33508 308.53632 520 5.1647545e-39
-261.1687 317.62671 530 5.6260872e-39
-272.87378 336.67905 530 5.8086862e-39
-273.74524 346.64099 530 6.0870654e-39
-284.57886 355.73135 530 5.9938019e-39
-285.45032 365.6933 530 6.2700231e-39
-277.23157 386.48877 530 5.8104813e-39
-259.05078 408.15579 520 6.5462527e-39
-132.16028 449.37201 490 6.8224766e-39
-152.95569 457.59082 500 6.9125269e-39
-212.72729 452.36142 510 6.8214032e-39
-213.59888 462.32336 510 6.5480505e-39
-234.39441 470.54218 520 7.0979943e-39
-226.17554 491.33765 520 6.7324292e-39
-217.08521 502.17114 510 7.1001355e-39
-208.86633 522.96661 510 7.0083056e-39
-219.69995 532.05701 510 6.8235458e-39
-220.57141 542.01892 510 6.9164631e-39
-231.40503 551.10931 520 7.6497135e-39
-233.14807 571.0332 520 7.9270263e-39
-283.82947 576.63733 530 6.8246346e-39
-385.19202 587.84552 550 6.3643767e-39
-456.66882 601.66846 570 8.2979542e-39
-487.42615 609.01569 570 1.0603219e-38
-558.90295 622.83862 590 5.9941775e-39
-689.27979 621.47015 620 1.5680418e-39
-800.60425 631.80676 640 1.5669628e-39
-831.36182 639.15405 650 1.7513554e-39
-833.10498 659.07794 650 1.8439112e-39
-824.0144 669.91144 650 2.3048851e-39
-835.71948 688.96375 650 2.4900009e-39
-847.42456 708.01611 650 3.039932e-39
-157.43567 738.26843 490 2.9484623e-39
-168.26917 747.35883 500 4.6104934e-39
-179.97424 766.41113 500 1.4846342e-38
-190.80786 775.50153 500 2.3509884e-38
-191.67932 785.4635 500 1.5490312e-38
-223.30835 802.77264 510 4.4261231e-39
-234.14185 811.86304 510 4.4250329e-39
-205.12756 824.4397 500 7.3770825e-39
176.9126 817.71149 420 1.5582478e-38
186.00305 828.54498 410 2.3509852e-38
185.13147 838.50696 410 2.3509879e-38
184.25989 848.46893 410 2.3504463e-38
183.38831 858.43085 420 2.3509845e-38
607.01947 835.26501 320 2.3502969e-38
607.01947 835.26501 320 2.3509886e-38
606.14789 845.22699 320 2.3509886e-38
605.27631 855.1889 320 1.4655842e-38
605.27631 855.1889 320 1.8808581e-38
604.40472 865.15088 320 1.8994414e-38
604.40472 865.15088 320 2.3509874e-38
603.5332 875.11279 320 2.3509886e-38
602.66162 885.07477 320 2.3509886e-38
602.66162 885.07477 320 2.3509886e-38
591.82806 894.16516 320 1.3923369e-38
590.95654 904.12708 320 1.854101e-38
570.16107 912.34589 330 2.3509886e-38
549.3656 920.5647 330 1.9355764e-38
548.49402 930.52667 330 1.298912e-38
-198.39941 1206.48 500 1.5916699e-38
-209.23291 1215.5703 500 1.7205269e-38
-220.93799 1234.6226 500 1.2975093e-38
-231.77148 1243.713 500 1.3442571e-38
-253.43848 1261.8938 510 1.6838669e-38
-234.38623 1273.5989 500 2.2196755e-38
-60.675293 1238.6057 460 2.3509883e-38
-19.955933 1232.1301 450 2.3509865e-38
-62.418457 1258.5297 460 2.3509851e-38
-63.290039 1268.4916 460 2.3509881e-38
-64.161499 1278.4536 460 2.3509886e-38
-44.237671 1280.1967 460 2.3509877e-38
-25.185303 1291.9017 450 2.3509886e-38
-36.018799 1300.9922 460 2.3509886e-38
-57.685913 1319.1729 460 2.3509886e-38
-69.390991 1338.2252 460 2.3509886e-38
-80.224487 1347.3157 460 2.3509886e-38
-81.967651 1367.2395 470 2.3509886e-38
-455.18628 -562.63293 570 4.1502383e-39
-456.05786 -552.67102 570 4.3353554e-39
-466.89136 -543.58069 580 4.5190292e-39
-477.72498 -534.49023 580 4.7027044e-39
-479.46802 -514.56641 580 4.6097871e-39
-480.3396 -504.60449 580 4.9789255e-39
-501.13513 -496.38562 580 5.900149e-39
-502.00671 -486.42371 580 5.1676258e-39
-522.80212 -478.20483 590 4.9789269e-39
-561.77832 -491.65308 590 4.794177e-39
-591.66418 -494.26782 600 4.5179516e-39
-640.60229 -508.58765 610 4.4253888e-39
-690.41211 -512.94543 620 4.1495292e-39
-701.24561 -503.8551 620 4.0587741e-39
-702.11719 -493.89307 630 4.2410172e-39
-637.61304 -428.02051 610 4.2424465e-39
-372.62354 -244.22546 550 7.4681711e-39
-373.49512 -234.26343 550 1.0512069e-38
-366.14783 -203.5061 550 2.6751208e-39
-299.90051 -157.55731 530 2.0283011e-39
-243.61511 -112.4801 520 2.6725859e-39
-235.39624 -91.684631 520 2.8577072e-39
-217.21558 -70.017639 510 2.9498972e-39
-243.24036 -2.0271606 520 2.580407e-39
-254.07397 7.0632324 520 1.9361096e-39
-245.8551 27.858704 520 1.8428406e-39
-236.76477 38.6922 510 2.1208596e-39
-248.46985 57.744568 520 9.5818155e-39
-259.30334 66.8349 520 2.3509886e-38
-260.17493 76.796875 520 2.3509886e-38
-290.06079 74.18219 520 2.3509886e-38
-300.89429 83.272522 530 1.9736021e-38
-302.63745 103.19641 530 1.4568705e-38
-284.45667 124.86346 520 1.1155643e-38
-256.31396 147.40204 520 8.5759746e-39
-267.14746 156.49243 520 1.2355972e-38
-287.94287 164.71124 520 1.2261646e-38
-308.7384 172.93005 530 5.5339e-39
-309.60999 182.89203 530 6.3611313e-39
-310.48145 192.85394 530 7.3716861e-39
-312.22461 212.77783 530 8.2976067e-39
-303.13428 223.61133 520 8.3019017e-39
-265.90112 256.98346 510 7.4786136e-39
-246.84888 268.68854 510 6.9272769e-39
-238.63 289.48401 510 6.3835199e-39
-229.53967 300.3175 510 6.8307919e-39
-231.28284 320.24139 510 6.0867108e-39
-252.07825 328.46024 510 6.2704e-39
-252.94983 338.42218 510 6.271807e-39
-263.78333 347.51254 510 5.9963159e-39
-274.61682 356.60294 510 6.270749e-39
-276.35999 376.52682 520 6.2718196e-39
-257.30762 388.2319 510 6.5462457e-39
-229.16492 410.77051 500 6.3632907e-39
-141.25061 438.53851 490 6.7302782e-39
-152.95569 457.59082 490 7.18982e-39
-173.7511 465.80963 490 7.0994208e-39
-184.58459 474.90002 490 6.6409566e-39
-215.34204 482.24725 500 6.8239227e-39
-206.25171 493.08078 500 7.3738511e-39
-207.12329 503.04272 500 7.0057889e-39
-208.86633 522.96661 500 7.0086643e-39
-219.69995 532.05701 500 6.6409678e-39
-220.57141 542.01892 500 7.0086741e-39
-231.40503 551.10931 500 6.9164701e-39
-223.18616 571.90479 500 7.3756588e-39
-234.01965 580.99512 500 7.4674817e-39
-234.89124 590.95709 500 6.5455296e-39
-235.76282 600.91907 500 6.6373665e-39
-247.4679 619.97137 500 8.1124966e-39
-457.54028 611.63037 550 1.0787254e-38
-558.90295 622.83862 570 1.0143324e-38
-699.2417 620.59857 600 4.1502621e-39
-800.60425 631.80676 630 1.6584437e-39
-821.3999 640.02563 630 1.5669656e-39
-833.10498 659.07794 630 1.8435539e-39
-824.0144 669.91144 630 1.9375474e-39
-835.71948 688.96375 630 2.3978038e-39
-837.46265 708.8877 630 2.4885575e-39
-147.47375 739.14001 480 2.6725971e-39
-168.26917 747.35883 490 4.6101248e-39
-179.97424 766.41113 490 1.4203834e-38
-180.84583 776.37311 490 2.3509856e-38
-181.71741 786.33502 490 1.6317204e-38
-203.3844 804.51581 490 4.8867397e-39
-224.17993 812.73462 500 4.1484446e-39
-195.16565 825.31128 490 7.0979873e-39
176.9126 817.71149 410 1.7426745e-38
186.00305 828.54498 410 2.2399554e-38
175.16956 837.63538 410 2.3506616e-38
184.25989 848.46893 410 2.3506611e-38
607.89099 825.3031 310 2.3506588e-38
607.01947 835.26501 310 2.3499026e-38
607.01947 835.26501 310 2.3509886e-38
606.14789 845.22699 310 2.3509886e-38
605.27631 855.1889 310 1.2167327e-38
605.27631 855.1889 310 1.7428168e-38
604.40472 865.15088 310 2.0283708e-38
604.40472 865.15088 310 2.3509841e-38
603.5332 875.11279 310 2.3509886e-38
602.66162 885.07477 310 2.3509886e-38
602.66162 885.07477 310 2.3496613e-38
601.79004 895.03674 310 1.3455506e-38
590.95654 904.12708 310 2.1673131e-38
-199.271 1216.4419 480 2.3509886e-38
-220.06641 1224.6606 490 2.0368734e-38
-231.77148 1243.713 490 9.0243929e-39
-274.23401 1270.1125 500 1.2148567e-38
-19.955933 1232.1301 440 2.3509886e-38
-52.456421 1259.4012 450 2.3509817e-38
-63.290039 1268.4916 450 2.3509852e-38
-64.161499 1278.4536 450 2.3509877e-38
-45.109253 1290.1587 450 2.3509886e-38
-35.147339 1291.0302 450 2.3509872e-38
-46.852417 1310.0825 450 2.3509886e-38
-68.519409 1328.2633 450 2.3509886e-38
-69.390991 1338.2252 450 2.3509886e-38
-80.224487 1347.3157 450 2.3509886e-38
-81.967651 1367.2395 450 2.3509886e-38
-455.18628 -562.63293 560 4.9785766e-39
-466.0199 -553.5426 560 4.8867299e-39
-466.89136 -543.58069 560 5.0704009e-39
-477.72498 -534.49023 560 4.7941685e-39
-488.55847 -525.3999 560 4.7019757e-39
-499.39197 -516.30957 570 4.4282671e-39
-500.26355 -506.34753 570 4.8031551e-39
-511.96863 -487.29529 570 5.0739896e-39
-522.80212 -478.20483 570 4.6101528e-39
-561.77832 -491.65308 580 4.7009023e-39
-582.57385 -483.43433 580 4.4253916e-39
-612.45959 -486.04895 590 4.0576951e-39
-651.43579 -499.49719 600 3.874743e-39
-672.2312 -491.27844 600 4.2406557e-39
-664.01245 -470.48291 600 3.8751045e-39
-617.68909 -426.27734 590 3.8740283e-39
-344.48083 -221.68677 530 1.1983935e-38
-335.3905 -210.85327 530 1.2359932e-38
-270.01465 -154.94257 510 2.4892918e-39
-270.88623 -144.98065 510 2.1201394e-39
-253.57703 -113.35168 510 2.9480966e-39
-245.35828 -92.556213 500 2.9502531e-39
-226.30591 -80.851135 500 2.8573457e-39
-257.06335 -73.503906 510 2.9491798e-39
-253.20239 -2.8986816 500 2.8584359e-39
-254.07397 7.0632324 510 1.9368271e-39
-245.8551 27.858704 500 1.6602374e-39
-246.72668 37.820679 500 1.9357453e-39
-248.46985 57.744568 500 1.2162556e-38
-249.34143 67.706482 500 2.3509886e-38
-250.21301 77.668457 500 2.3509886e-38
-271.00842 85.887268 510 2.3509886e-38
-291.80383 94.106079 510 1.8997024e-38
-292.67542 104.06799 510 1.4011548e-38
-274.49463 125.73505 510 1.1245308e-38
-256.31396 147.40204 500 1.1804203e-38
-267.14746 156.49243 500 1.3275434e-38
-287.94287 164.71124 510 7.0994475e-39
-308.7384 172.93005 510 6.2693056e-39
-309.60999 182.89203 510 7.1898242e-39
-310.48145 192.85394 510 9.9448821e-39
-302.2627 213.64941 510 1.4637448e-38
-284.08191 235.31647 510 1.7873238e-38
-245.97729 258.72662 500 1.0057915e-38
-237.75842 279.52203 500 6.0978848e-39
-228.66809 290.35559 490 5.9117167e-39
-220.44934 311.15106 490 6.0906793e-39
-231.28284 320.24139 490 6.3618698e-39
-242.11633 329.33179 500 5.9023266e-39
-242.98792 339.29373 500 6.4540556e-39
-243.8595 349.25568 500 6.822471e-39
-255.56458 368.30801 500 6.3632935e-39
-256.43616 378.26996 500 6.7313586e-39
-238.25537 399.93698 490 6.5480463e-39
-209.24109 412.51364 490 6.5458939e-39
-171.13647 435.9238 480 6.5469659e-39
-172.00806 445.88574 480 6.8231941e-39
-182.84155 454.97614 480 6.6395343e-39
-194.54663 474.02844 480 6.8239185e-39
-205.38013 483.11884 480 7.1005012e-39
-196.28979 493.95233 480 6.5498386e-39
-197.16125 503.91428 480 7.0997768e-39
-198.90442 523.83813 480 7.1008544e-39
-199.776 533.80011 480 6.7324376e-39
-210.6095 542.8905 480 6.9150366e-39
-211.48108 552.85242 490 7.0987062e-39
-213.22424 572.77637 490 7.0097433e-39
-224.05774 581.8667 490 7.3752917e-39
-214.96741 592.7002 490 6.1767569e-39
-216.71045 612.62415 490 7.0039952e-39
-227.54407 621.71448 490 7.7444287e-39
-298.14917 625.57544 500 9.8652883e-39
-558.90295 622.83862 560 1.106419e-38
-699.2417 620.59857 590 5.3462773e-39
-800.60425 631.80676 610 1.8442699e-39
-811.43774 640.89716 610 1.9368201e-39
-823.14282 659.94946 610 1.9371872e-39
-824.0144 669.91144 610 2.399243e-39
-825.75757 689.83533 610 3.044248e-39
-827.50073 709.75922 610 3.2311602e-39
-147.47375 739.14001 470 3.3233545e-39
-168.26917 747.35883 470 4.5172145e-39
-170.01233 767.28271 470 1.3833258e-38
-180.84583 776.37311 470 2.3509859e-38
-181.71741 786.33502 470 1.7148763e-38
-192.5509 795.42542 480 5.1636924e-39
-204.25598 814.47772 480 3.9644135e-39
-185.20374 826.1828 470 6.5476792e-39
166.95068 816.8399 400 1.7978811e-38
186.00305 828.54498 400 2.3509863e-38
155.24561 835.89227 400 2.3509881e-38
154.37402 845.85419 400 2.0835474e-38
607.89099 825.3031 310 1.7695058e-38
607.01947 835.26501 310 2.3492531e-38
607.01947 835.26501 310 2.3509886e-38
606.14789 845.22699 310 2.3509886e-38
605.27631 855.1889 310 1.1990098e-38
605.27631 855.1889 310 2.0290173e-38
604.40472 865.15088 310 2.2035088e-38
604.40472 865.15088 310 2.3509886e-38
603.5332 875.11279 310 2.3509886e-38
602.66162 885.07477 310 2.3509886e-38
602.66162 885.07477 310 1.689773e-38
601.79004 895.03674 310 1.4877296e-38
601.79004 895.03674 310 2.3509886e-38
-188.4375 1207.3514 470 2.3509874e-38
-210.10449 1225.5322 470 1.925988e-38
-231.77148 1243.713 480 1.0037463e-38
-285.0675 1279.2029 490 1.2145698e-38
-19.955933 1232.1301 430 2.3509842e-38
-52.456421 1259.4012 440 2.3509821e-38
-63.290039 1268.4916 440 2.3509862e-38
-64.161499 1278.4536 440 2.3509886e-38
-45.109253 1290.1587 440 2.3509886e-38
-45.980835 1300.1206 440 2.350988e-38
-56.814331 1309.2109 440 2.3509886e-38
-68.519409 1328.2633 440 2.3509886e-38
-69.390991 1338.2252 440 2.3509886e-38
-80.224487 1347.3157 440 2.3509886e-38
-81.967651 1367.2395 440 2.3509886e-38
-539.61438 -630.24878 560 2.221004e-38
-485.07214 -565.24768 550 1.2361369e-38
-495.03406 -566.11926 550 6.2721727e-39
-487.68689 -535.36182 550 4.5179488e-39
-498.52039 -526.27148 550 4.3353526e-39
-499.39197 -516.30957 550 4.9825129e-39
-501.13513 -496.38562 550 4.8942591e-39
-511.96863 -487.29529 550 4.3367903e-39
-531.89246 -489.03845 560 4.6087053e-39
-561.77832 -491.65308 560 4.149525e-39
-572.61182 -482.56274 570 4.0576937e-39
-593.40735 -474.34387 570 3.7829005e-39
-604.24084 -465.25354 570 3.8729437e-39
-625.03638 -457.03467 570 4.1488118e-39
-568.75085 -411.95752 560 4.0587811e-39
-494.28467 -345.21326 550 4.2413661e-39
-409.85657 -277.59753 530 3.6881881e-39
-315.46655 -209.11011 510 1.6411115e-38
-288.19543 -176.60962 500 1.2909543e-38
-270.01465 -154.94257 500 2.3038131e-39
-261.7959 -134.14716 490 2.2116119e-39
-253.57703 -113.35168 490 2.764071e-39
-244.48669 -102.51819 490 2.766229e-39
-226.30591 -80.851135 490 2.6736747e-39
-257.06335 -73.503906 490 2.5811203e-39
-267.89685 -64.413513 500 2.4896421e-39
-253.20239 -2.8986816 490 3.4105194e-39
-254.07397 7.0632324 490 2.6744005e-39
-245.8551 27.858704 490 2.3952885e-39
-246.72668 37.820679 490 2.3956458e-39
-248.46985 57.744568 490 1.4285216e-38
-249.34143 67.706482 490 2.3509886e-38
-240.25098 78.539978 490 2.3509886e-38
-261.04651 86.758789 490 2.3509886e-38
-261.91809 96.720764 490 2.0012962e-38
-273.62317 115.77307 490 1.3277956e-38
-264.53271 126.60663 490 1.0782545e-38
-246.35193 148.27362 490 1.4010471e-38
-267.14746 156.49243 490 1.0505994e-38
-287.94287 164.71124 500 6.5484065e-39
-308.7384 172.93005 500 6.1781946e-39
-309.60999 182.89203 500 6.0870584e-39
-300.51953 193.72552 500 5.9919943e-39
-292.30078 214.521 500 4.887446e-39
-284.08191 235.31647 490 4.8899543e-39
-236.01538 259.59814 480 5.3487969e-39
-227.79651 280.39362 480 5.444577e-39
-218.70618 291.22717 480 6.4551304e-39
-210.4873 312.02258 480 7.0075881e-39
-221.3208 321.11298 480 6.9175477e-39
-222.19238 331.07492 480 6.8275171e-39
-233.026 340.16531 480 7.1977219e-39
-234.76904 360.0892 480 8.9580653e-39
-235.64062 370.05115 480 8.7675882e-39
-236.51221 380.01309 480 6.5480463e-39
-228.29346 400.80856 480 5.9966704e-39
-209.24109 412.51364 470 6.5469687e-39
-161.17444 436.79538 470 6.7310041e-39
-162.9176 456.71927 460 6.4547773e-39
-163.78918 466.68121 460 6.9139408e-39
-174.62268 475.77158 470 7.1912535e-39
-175.49426 485.73352 470 6.8239185e-39
-176.36584 495.69547 470 6.8246332e-39
-188.07092 514.7478 470 7.1912591e-39
-188.9425 524.70972 470 7.1919738e-39
-199.776 533.80011 470 7.1901731e-39
-200.64758 543.76208 470 6.9143205e-39
-201.51917 553.724 470 7.0079427e-39
-213.22424 572.77637 470 7.1008684e-39
-214.09583 582.73828 470 7.2827345e-39
-195.04346 594.44336 470 6.084913e-39
-196.78662 614.36725 470 6.270735e-39
-207.62012 623.45764 470 8.3933938e-39
-238.37756 630.80487 480 1.1616647e-38
-478.33582 619.84918 530 1.2169466e-38
-659.39404 624.08484 560 1.2541845e-38
-740.83276 637.03619 580 1.5213366e-38
-801.47583 641.76874 590 1.5491022e-38
-813.18091 660.82104 590 1.595525e-38
-814.05249 670.78302 590 1.6690659e-38
-825.75757 689.83533 590 1.7708392e-38
-827.50073 709.75922 600 1.9456874e-38
-147.47375 739.14001 460 1.3186146e-38
-168.26917 747.35883 460 4.7019841e-39
-170.01233 767.28271 460 1.3091023e-38
-180.84583 776.37311 460 2.3509845e-38
-181.71741 786.33502 460 1.733135e-38
-182.58899 796.297 460 5.5310512e-39
-194.29407 815.3493 460 3.7825348e-39
-175.2417 827.05438 460 6.637714e-39
176.9126 817.71149 390 1.6765879e-38
195.96497 829.41656 390 2.3501195e-38
185.13147 838.50696 390 2.3509866e-38
174.29797 847.59735 390 2.3509834e-38
122.74512 863.16339 400 2.0649973e-38
607.01947 835.26501 300 1.8793471e-38
607.01947 835.26501 300 2.3509818e-38
606.14789 845.22699 300 2.3509886e-38
605.27631 855.1889 300 2.0559952e-38
605.27631 855.1889 300 2.3509886e-38
604.40472 865.15088 300 2.3509886e-38
604.40472 865.15088 300 2.3509886e-38
603.5332 875.11279 300 2.3509886e-38
602.66162 885.07477 300 2.3509886e-38
602.66162 885.07477 300 2.0911864e-38
601.79004 895.03674 300 1.6751883e-38
600.91846 904.99866 300 1.9155073e-38
-157.68005 1200.0043 450 1.9994549e-38
-200.14258 1226.4038 460 1.261676e-38
-231.77148 1243.713 460 9.574666e-39
-295.02942 1278.3313 480 1.1136217e-38
-19.955933 1232.1301 420 2.3509862e-38
-41.622925 1250.3108 430 2.350983e-38
-63.290039 1268.4916 430 2.3509841e-38
-64.161499 1278.4536 430 2.3509872e-38
-44.237671 1280.1967 430 2.3509881e-38
-35.147339 1291.0302 420 2.3509852e-38
-56.814331 1309.2109 430 2.3509886e-38
-68.519409 1328.2633 430 2.3509886e-38
-79.352905 1337.3536 430 2.3509886e-38
-91.057983 1356.406 430 2.3509886e-38
-91.929565 1366.3679 430 2.3509886e-38
-624.91406 -687.90259 560 2.3108624e-38
-578.5907 -643.69702 550 2.3485319e-38
-580.33374 -623.77307 550 2.3493953e-38
-487.68689 -535.36182 530 1.9627864e-38
-526.66309 -548.81006 540 9.312804e-39
-499.39197 -516.30957 530 7.6432227e-39
-491.1731 -495.51404 530 7.4584839e-39
-511.96863 -487.29529 540 4.8874488e-39
-541.85449 -489.90991 540 4.8860209e-39
-561.77832 -491.65308 550 4.243164e-39
-563.52148 -471.72925 550 4.0576965e-39
-574.35498 -462.63879 550 3.7810998e-39
-575.22656 -452.67688 550 3.9662184e-39
-576.96973 -432.75305 550 3.5988778e-39
-492.54163 -365.13721 530 3.5059745e-39
-465.27051 -332.63672 520 3.7821942e-39
-399.89465 -276.72595 510 7.1908612e-39
-344.48083 -221.68677 500 2.0745383e-38
-278.23352 -175.73804 490 1.1987231e-38
-270.01465 -154.94257 480 2.0279493e-39
-251.83386 -133.27557 480 1.8446301e-39
-253.57703 -113.35168 480 3.0395663e-39
-245.35828 -92.556213 480 2.8573499e-39
-227.17749 -70.88916 470 2.7658619e-39
-228.04907 -60.927246 470 2.4907211e-39
-219.8302 -40.131775 470 2.5822007e-39
-125.44019 28.355591 450 2.4885589e-39
-261.42114 -23.694153 480 3.0428117e-39
-253.20239 -2.8986816 480 3.1364507e-39
-254.07397 7.0632324 480 3.0424656e-39
-245.8551 27.858704 480 2.4900135e-39
-236.76477 38.6922 470 2.580756e-39
-248.46985 57.744568 470 1.6129499e-38
-239.37939 68.578064 470 2.3509886e-38
-241.12256 88.501953 470 2.3509886e-38
-251.95605 97.592346 480 2.3509886e-38
-252.82764 107.55426 480 1.9733151e-38
-263.66113 116.64465 480 1.2909542e-38
-255.44238 137.44012 480 1.3182857e-38
-246.35193 148.27362 470 1.0690729e-38
-257.18555 157.36401 470 5.5328308e-39
-268.01904 166.45441 480 7.0068679e-39
-278.85254 175.54474 480 6.8228283e-39
-270.63367 196.34021 480 7.8405788e-39
-271.50525 206.30219 480 8.4884691e-39
-253.32458 227.96918 470 1.8257864e-38
-235.1438 249.63623 470 2.3509848e-38
-226.92493 270.4317 470 2.350986e-38
-217.83459 281.2652 470 1.9737051e-38
-209.61572 302.06067 460 1.9273522e-38
-200.52539 312.89417 460 1.9083764e-38
-211.35889 321.98456 460 2.0010401e-38
-212.23047 331.9465 460 2.0379531e-38
-223.93555 350.99881 470 1.9360721e-38
-224.80713 360.96075 470 1.9726994e-38
-225.67871 370.9227 470 1.3185784e-38
-217.45984 391.71817 460 6.822478e-39
-208.36951 402.5517 460 6.7317201e-39
-190.18872 424.21872 460 6.1810603e-39
-161.17444 436.79538 450 6.638807e-39
-152.95569 457.59082 450 6.6395273e-39
-153.82727 467.55276 450 6.732076e-39
-164.66077 476.64316 450 7.0079427e-39
-175.49426 485.73352 450 6.9153813e-39
-166.40393 496.56705 450 6.2721755e-39
-178.10901 515.61938 450 6.8228339e-39
-178.98059 525.5813 450 7.0083028e-39
-179.85217 535.54327 450 6.9153841e-39
-190.68567 544.63367 460 6.8231927e-39
-192.42871 564.5575 460 6.8231983e-39
-193.30029 574.51947 460 7.1908892e-39
-204.13379 583.60986 460 6.8242717e-39
-195.04346 594.44336 460 5.2558782e-39
-186.82471 615.23883 450 5.4388275e-39
-197.6582 624.32922 460 7.6536652e-39
-228.41553 631.67645 460 1.0420243e-38
-219.3252 642.50995 460 1.2261657e-38
-599.62231 629.31427 540 1.2907392e-38
-700.98486 640.52246 560 1.466055e-38
-771.59009 644.38342 570 1.5858722e-38
-803.21899 661.69263 570 1.5677588e-38
-804.09058 671.65454 570 1.7332424e-38
-815.79565 690.70691 580 1.8623512e-38
-817.53882 710.6308 580 1.881186e-38
-157.43567 738.26843 450 1.3738596e-38
-168.26917 747.35883 450 4.885302e-39
-170.01233 767.28271 450 1.2263054e-38
-180.84583 776.37311 450 2.2220915e-38
-181.71741 786.33502 450 1.7701204e-38
-172.62708 797.16858 450 6.5451849e-39
-184.33215 816.22089 450 3.9644121e-39
-134.52246 820.57874 440 5.8997986e-39
-65.6604 836.64166 430 1.5489191e-38
195.96497 829.41656 380 2.3137118e-38
185.13147 838.50696 380 2.2666031e-38
164.33594 846.72577 380 2.3492906e-38
112.78308 862.29181 390 2.055492e-38
607.01947 835.26501 290 2.2017769e-38
607.01947 835.26501 300 2.350987e-38
606.14789 845.22699 300 2.1029939e-38
595.31439 854.31738 300 2.0924074e-38
595.31439 854.31738 300 1.9262086e-38
604.40472 865.15088 300 1.6116231e-38
604.40472 865.15088 300 1.9530317e-38
603.5332 875.11279 290 2.138648e-38
602.66162 885.07477 290 1.3177504e-38
602.66162 885.07477 300 5.3430417e-39
601.79004 895.03674 300 3.0424572e-39
590.95654 904.12708 300 4.1448377e-39
491.71173 1005.8644 310 3.4097964e-39
-137.7561 1201.7473 430 4.6998135e-39
-201.01416 1236.3657 450 6.2707378e-39
-304.99146 1277.4598 470 8.8496931e-39
20.763428 1225.6544 400 2.3509866e-38
-0.90356445 1243.8352 410 2.3509818e-38
-22.570679 1262.0159 410 2.3509828e-38
-44.237671 1280.1967 420 2.3509872e-38
-55.071167 1289.2871 420 2.3509874e-38
-55.942749 1299.249 420 2.3508418e-38
-77.609741 1317.4297 420 2.3509886e-38
-78.481323 1327.3917 420 2.3509886e-38
-100.14832 1345.5725 420 2.3509886e-38
-111.85352 1364.6248 430 2.3509886e-38
-133.52051 1382.8055 430 2.3509886e-38
-549.57642 -631.12036 530 2.3489975e-38
-588.55261 -644.5686 540 2.3489979e-38
-618.43848 -647.18323 540 2.3488199e-38
-591.16736 -614.68274 540 2.3486749e-38
-611.96277 -606.46387 540 2.3486738e-38
-556.54895 -551.4248 530 2.3025768e-38
-501.13513 -496.38562 520 1.3090288e-38
-511.09705 -497.2572 520 6.0874213e-39
-541.85449 -489.90991 530 4.978941e-39
-571.74023 -492.52466 530 4.6087137e-39
-582.57385 -483.43433 530 4.2424381e-39
-584.31689 -463.51038 530 4.5172229e-39
-576.09814 -442.71497 530 4.3335603e-39
-557.91736 -421.04785 530 3.8743955e-39
-483.45117 -354.30371 510 3.9651478e-39
-418.07544 -298.39294 500 3.5056017e-39
-380.84229 -265.02087 490 1.1706265e-38
-353.57117 -232.52039 490 2.3504769e-38
-278.23352 -175.73804 470 1.0232642e-38
-270.01465 -154.94257 470 1.8442713e-39
-251.83386 -133.27557 470 1.9361012e-39
-253.57703 -113.35168 470 3.040288e-39
-244.48669 -102.51819 460 2.7665878e-39
-226.30591 -80.851135 460 2.5829126e-39
-257.06335 -73.503906 470 2.5818266e-39
-219.8302 -40.131775 460 2.6736747e-39
-164.41638 14.907349 450 2.4910785e-39
-261.42114 -23.694153 470 2.5800399e-39
-243.24036 -2.0271606 460 3.3168861e-39
-254.07397 7.0632324 460 3.1350186e-39
-245.8551 27.858704 460 3.3190455e-39
-236.76477 38.6922 460 3.6860315e-39
-238.50793 58.616089 460 1.8067042e-38
-239.37939 68.578064 460 2.3509886e-38
-241.12256 88.501953 460 2.3509886e-38
-251.95605 97.592346 460 2.3509886e-38
-252.82764 107.55426 460 1.8263406e-38
-263.66113 116.64465 460 1.3186471e-38
-255.44238 137.44012 460 1.1891038e-38
-246.35193 148.27362 460 6.8195913e-39
-238.13318 169.06909 460 5.0707582e-39
-248.96667 178.15948 460 6.0834724e-39
-249.83826 188.1214 460 4.9800102e-39
-241.61951 208.91687 460 3.5938345e-39
-242.49097 218.87885 460 1.2534609e-38
-234.27222 239.67426 460 2.3509825e-38
-235.1438 249.63623 460 2.3509881e-38
-216.96301 271.30322 450 2.3495793e-38
-217.83459 281.2652 450 1.362371e-38
-208.74426 292.09869 450 8.7445312e-39
-210.4873 312.02258 450 5.6156475e-39
-211.35889 321.98456 450 4.0555245e-39
-212.23047 331.9465 450 3.6910706e-39
-213.97363 351.87039 450 4.3349981e-39
-224.80713 360.96075 450 4.5204753e-39
-215.7168 371.79428 450 5.9037601e-39
-207.49792 392.58975 450 6.2721783e-39
-208.36951 402.5517 450 6.5473261e-39
-189.31714 414.25677 450 6.3622201e-39
-161.17444 436.79538 440 6.456222e-39
-152.95569 457.59082 440 6.4554962e-39
-153.82727 467.55276 440 6.9153953e-39
-164.66077 476.64316 440 6.6395105e-39
-175.49426 485.73352 440 6.4544074e-39
-166.40393 496.56705 440 6.452985e-39
-178.10901 515.61938 440 6.5433772e-39
-178.98059 525.5813 440 6.3600719e-39
-179.85217 535.54327 440 5.8065282e-39
-190.68567 544.63367 440 5.6189014e-39
-182.4668 565.42908 440 5.0696666e-39
-183.33838 575.39105 440 4.7941587e-39
-194.17188 584.48145 440 4.2406472e-39
-185.08154 595.31494 440 3.4105236e-39
-186.82471 615.23883 440 2.766222e-39
-197.6582 624.32922 440 5.2540635e-39
-218.45361 632.54803 450 9.2231461e-39
-199.40137 644.25311 440 1.1342938e-38
-601.36548 649.23816 520 1.4936774e-38
-721.78027 648.74127 540 1.5858363e-38
-762.49976 655.21698 550 1.6595218e-38
-794.12866 672.52612 560 1.6691365e-38
-795.87183 692.45007 560 1.8072147e-38
-136.64026 730.04962 430 1.9639474e-38
-157.43567 738.26843 430 1.3459866e-38
-158.30725 748.23041 430 4.7016282e-39
-170.01233 767.28271 440 1.1340399e-38
-170.88391 777.24469 440 2.1668467e-38
-171.75549 787.2066 440 1.8072141e-38
-172.62708 797.16858 440 6.6402588e-39
-123.68884 811.48834 430 3.9636848e-39
-73.87915 815.84619 420 5.8068813e-39
607.01947 835.26501 290 2.350987e-38
606.14789 845.22699 290 2.3509886e-38
595.31439 854.31738 290 1.723953e-38
595.31439 854.31738 290 1.0786557e-38
594.44281 864.2793 290 4.4264748e-39
604.40472 865.15088 290 7.6511513e-39
603.5332 875.11279 290 1.0141156e-38
602.66162 885.07477 290 6.9107262e-39
592.69965 884.20319 290 3.0406719e-39
591.82806 894.16516 290 2.6733187e-39
503.41687 986.81207 310 3.3172392e-39
502.54529 996.77399 310 4.2395514e-39
501.67371 1006.736 310 4.2395612e-39
491.71173 1005.8644 310 3.8711333e-39
490.84021 1015.8263 310 3.9604506e-39
-66.279419 1187.9244 410 4.3317429e-39
-180.21863 1228.147 430 5.9923628e-39
-325.78687 1285.6786 460 1.1886381e-38
113.90723 1193.6508 380 2.3509866e-38
40.687256 1227.3976 390 2.3509838e-38
9.0583496 1244.7068 390 2.3509834e-38
-43.366089 1270.2347 400 2.3509853e-38
-55.071167 1289.2871 410 2.3509863e-38
-55.942749 1299.249 410 2.3509816e-38
-56.814331 1309.2109 410 2.3509886e-38
-57.685913 1319.1729 410 2.3509886e-38
-69.390991 1338.2252 410 2.3509886e-38
-70.262573 1348.1871 410 2.3509886e-38
-50.338623 1349.9303 400 2.3509886e-38
-417.95325 -529.26086 490 2.3479578e-38
-652.68213 -599.98828 530 2.264872e-38
-540.11133 -509.83386 510 2.3480625e-38
-560.90674 -501.61499 510 2.2931759e-38
-580.83069 -503.35815 520 1.3737082e-38
-591.66418 -494.26782 520 6.5530672e-39
-583.44531 -473.47229 520 4.7059288e-39
-576.09814 -442.71497 520 4.0591357e-39
-547.95544 -420.17639 510 4.5211886e-39
-473.48926 -353.43213 500 4.7045037e-39
-399.02307 -286.68787 480 3.4130376e-39
-370.88037 -264.14929 480 1.4287384e-38
-353.57117 -232.52039 470 1.9726583e-38
-307.2478 -188.3147 460 7.5571704e-39
-270.01465 -154.94257 460 1.7513582e-39
-261.7959 -134.14716 450 2.3952815e-39
-253.57703 -113.35168 450 3.1324892e-39
-244.48669 -102.51819 450 2.6736789e-39
-236.26782 -81.722717 450 2.5814776e-39
-257.06335 -73.503906 450 2.6729558e-39
-190.81592 -27.555115 440 2.3056152e-39
-173.50684 4.0738525 440 2.3974507e-39
-251.45923 -22.822571 450 2.5807602e-39
-243.24036 -2.0271606 450 2.7647857e-39
-254.07397 7.0632324 450 2.7669423e-39
-245.8551 27.858704 450 3.2272016e-39
-236.76477 38.6922 450 3.5945562e-39
-238.50793 58.616089 450 2.0459116e-38
-239.37939 68.578064 450 2.3509886e-38
-231.16064 89.373535 450 2.3509886e-38
-241.99414 98.463867 450 2.1671382e-38
-242.86572 108.42584 450 1.6783562e-38
-243.7373 118.38782 450 1.1433343e-38
-245.48047 138.31171 450 6.9143121e-39
-236.39001 149.1452 450 3.505243e-39
-228.17126 169.94067 440 4.1480789e-39
-239.00476 179.03101 440 5.1633056e-39
-230.78589 199.82648 440 5.3477095e-39
-231.65747 209.78845 440 5.5331741e-39
-242.49097 218.87885 450 5.6260858e-39
-234.27222 239.67426 440 5.3491458e-39
-225.18188 250.50781 440 6.1770988e-39
-216.96301 271.30322 440 5.7182899e-39
-217.83459 281.2652 440 6.6391658e-39
-218.70618 291.22717 440 6.3632935e-39
-210.4873 312.02258 440 6.5462499e-39
-221.3208 321.11298 440 6.5473331e-39
-212.23047 331.9465 440 6.362939e-39
-223.93555 350.99881 440 6.8214018e-39
-224.80713 360.96075 440 6.2693e-39
-215.7168 371.79428 440 6.5444478e-39
-207.49792 392.58975 440 5.8047318e-39
-208.36951 402.5517 440 4.792012e-39
-199.27917 413.38519 430 4.5175803e-39
-171.13647 435.9238 430 4.1498851e-39
-152.95569 457.59082 430 3.9672974e-39
-153.82727 467.55276 430 3.9687379e-39
-164.66077 476.64316 430 4.2446073e-39
-165.53235 486.6051 430 4.7034233e-39
-166.40393 496.56705 430 4.5193935e-39
-49.47522 536.91174 410 4.2446045e-39
-139.13281 529.06763 420 4.8888865e-39
-159.92822 537.28638 420 5.5306616e-39
-160.7998 547.24835 430 3.964768e-39
-152.58093 568.04382 420 2.951349e-39
-183.33838 575.39105 430 3.871492e-39
-194.17188 584.48145 430 5.0685974e-39
-195.04346 594.44336 430 3.1353731e-39
-206.74854 613.49573 430 2.1204967e-39
-217.58203 622.58606 430 4.6094158e-39
-198.52979 634.29114 430 9.1287883e-39
-139.62964 649.48248 420 1.1706683e-38
-92.43457 683.7262 410 1.4750942e-38
-123.19202 691.07343 420 1.5123676e-38
-163.91138 697.54907 420 1.5493908e-38
-264.40234 698.79535 440 1.6874303e-38
-145.73059 719.21613 420 1.7977426e-38
-176.48804 726.56335 420 1.9358921e-38
-103.76501 813.23151 410 3.7792964e-39
606.14789 845.22699 280 1.8795279e-38
595.31439 854.31738 280 1.6038102e-38
595.31439 854.31738 280 1.0326662e-38
594.44281 864.2793 280 4.2410172e-39
593.57123 874.24127 280 7.3767336e-39
593.57123 874.24127 280 9.7727396e-39
592.69965 884.20319 280 5.5313987e-39
591.82806 894.16516 290 2.6729614e-39
581.86615 893.29358 290 2.764078e-39
503.41687 986.81207 300 4.3407406e-39
503.41687 986.81207 300 3.5109785e-39
502.54529 996.77399 300 3.9697987e-39
501.67371 1006.736 300 3.8776101e-39
501.67371 1006.736 300 3.8754507e-39
500.80212 1016.6979 300 3.5985092e-39
489.96863 1025.7883 300 3.688907e-39
489.09705 1035.7502 300 4.5183131e-39
478.26355 1044.8406 300 4.7956189e-39
415.87714 1069.4971 310 9.2184476e-39
363.45276 1095.025 320 2.3507646e-38
134.70264 1185.4319 360 2.350986e-38
40.687256 1227.3976 380 2.350983e-38
29.85376 1236.4879 380 2.3509837e-38
-12.608643 1262.8875 390 2.350987e-38
-55.071167 1289.2871 400 2.3494373e-38
-55.942749 1299.249 390 1.4179047e-38
-56.814331 1309.2109 390 8.0141618e-39
-57.685913 1319.1729 400 7.5510327e-39
-69.390991 1338.2252 400 9.0250768e-39
-59.429077 1339.0968 390 1.3714445e-38
-39.505127 1340.84 390 2.1261515e-38
-618.43848 -647.18323 510 1.5747037e-38
-699.8772 -634.23193 520 1.7404381e-38
-587.30627 -544.07751 500 1.7402591e-38
-569.99719 -512.44861 500 1.8504965e-38
-590.7926 -504.22974 500 2.0440699e-38
-591.66418 -494.26782 500 2.1817872e-38
-583.44531 -473.47229 500 2.2188079e-38
-566.13623 -441.84338 500 2.3482412e-38
-519.81274 -397.6377 490 2.3494271e-38
-464.39893 -342.59863 480 2.3493559e-38
-399.02307 -286.68787 470 2.3489254e-38
-380.84229 -265.02087 460 1.5658074e-38
-362.66162 -243.35388 460 3.5037815e-39
-354.44275 -222.55835 460 2.1208554e-39
-289.06702 -166.64771 450 1.6591612e-39
-261.7959 -134.14716 440 2.3041579e-39
-253.57703 -113.35168 440 2.7640682e-39
-254.44861 -103.38971 440 2.4900065e-39
-236.26782 -81.722717 430 2.7676612e-39
-247.10144 -72.632324 440 2.5821923e-39
-228.92065 -50.965271 430 2.3985213e-39
-191.6875 -17.593201 430 2.2141286e-39
-183.46875 3.2022705 430 2.3963731e-39
-242.3689 -11.989075 440 2.3978094e-39
-253.20239 -2.8986816 440 2.2130553e-39
-254.07397 7.0632324 440 2.3974409e-39
-245.8551 27.858704 440 2.7640654e-39
-236.76477 38.6922 430 3.2214464e-39
-238.50793 58.616089 430 1.9809397e-38
-239.37939 68.578064 430 2.3509886e-38
-231.16064 89.373535 430 2.3509886e-38
-241.99414 98.463867 430 1.7800238e-38
-232.90381 109.29742 430 1.4195961e-38
-244.60889 128.34973 430 7.8351922e-39
-245.48047 138.31171 430 4.3349925e-39
-236.39001 149.1452 430 2.7662318e-39
-228.17126 169.94067 430 3.8725724e-39
-229.04285 179.90259 430 5.3491374e-39
-230.78589 199.82648 430 5.5335385e-39
-231.65747 209.78845 430 6.0841955e-39
-232.52905 219.75037 430 6.0852759e-39
-234.27222 239.67426 430 5.7168535e-39
-235.1438 249.63623 430 5.8036499e-39
-226.92493 270.4317 430 4.9746095e-39
-217.83459 281.2652 430 4.1480831e-39
-218.70618 291.22717 430 3.9669274e-39
-220.44934 311.15106 430 3.8765381e-39
-211.35889 321.98456 420 3.7843452e-39
-203.14014 342.78 420 4.1516802e-39
-204.01172 352.74194 420 4.2431654e-39
-214.84521 361.83234 430 4.1527578e-39
-205.75476 372.66586 420 4.612301e-39
-197.53601 393.4613 420 4.7073721e-39
-218.33142 401.68011 430 4.9810906e-39
-199.27917 413.38519 420 4.8888851e-39
-151.21252 437.66693 410 4.7923791e-39
-123.06982 460.20554 410 4.3299604e-39
-123.94141 470.16748 410 3.7760608e-39
-95.798706 492.70609 400 2.9484539e-39
-76.746338 504.41116 400 2.4024716e-39
-28.67981 528.69287 390 3.1396723e-39
-19.589355 539.52637 390 3.9712462e-39
-30.422974 548.61682 390 5.1690705e-39
-51.218384 556.83557 390 4.9828716e-39
-81.97583 564.18286 400 2.581835e-39
-142.61902 568.91541 410 2.5814762e-39
-193.30029 574.51947 420 2.2144916e-39
-243.98169 580.12354 430 3.4123145e-39
-284.70093 586.59924 430 3.1346542e-39
-285.57251 596.56122 430 2.2126965e-39
-287.31567 616.48511 430 5.4362855e-39
-19.214722 649.97937 390 9.9553091e-39
-89.819946 653.84033 400 1.1156008e-38
-100.65344 662.93073 400 1.2262724e-38
-112.35852 681.98303 400 1.4381058e-38
-113.2301 691.94501 400 1.2629707e-38
-143.98743 699.29224 410 1.2713975e-38
-163.91138 697.54907 410 1.4088632e-38
-165.65454 717.47302 410 1.3255276e-38
-216.33582 723.07709 420 1.0859624e-38
-238.00281 741.25787 420 7.7296534e-39
606.14789 845.22699 280 4.1473586e-39
595.31439 854.31738 280 8.2053998e-39
585.35242 853.4458 280 1.3092505e-38
584.48083 863.40771 280 1.5946974e-38
593.57123 874.24127 280 1.4570878e-38
593.57123 874.24127 280 1.1988327e-38
592.69965 884.20319 280 6.6373791e-39
581.86615 893.29358 280 2.7644326e-39
581.86615 893.29358 280 2.3956486e-39
627.31805 947.46112 270 4.1502439e-39
647.24194 949.20428 270 4.3328359e-39
635.53687 968.25659 270 4.5150663e-39
583.98401 983.82263 280 3.9644107e-39
521.5976 1008.4791 290 4.0562462e-39
489.96863 1025.7883 290 3.964052e-39
448.37769 1042.2258 300 4.2438885e-39
405.91516 1068.6255 310 5.4398995e-39
354.3623 1084.1915 320 4.5161481e-39
125.6123 1174.5984 360 4.8842104e-39
41.558838 1217.4355 370 4.7008925e-39
9.9299316 1234.7448 370 4.6990989e-39
29.85376 1236.4879 370 4.8845677e-39
18.148682 1255.5403 370 4.7923679e-39
-3.5183105 1273.7209 380 4.6994534e-39
-78.481323 1327.3917 390 4.2410004e-39
-571.24341 -612.93958 480 1.4641051e-38
-587.30627 -544.07751 490 1.5652315e-38
-579.95911 -513.32019 480 1.5193864e-38
-589.92102 -514.19165 490 1.5100946e-38
-601.6261 -495.1394 490 1.574594e-38
-593.40735 -474.34387 490 1.5471865e-38
