# .PCD v0.7 - Point Cloud Data file format
VERSION 0.7
FIELDS x y z rgb
SIZE 4 4 4 4
TYPE F F F F
COUNT 1 1 1 1
WIDTH 1249
HEIGHT 1
VIEWPOINT 0 0 0 1 0 0 0
POINTS 1249
DATA ascii
440.32532 864.27747 10 2.9650803e-39
440.49988 874.27594 10 2.9672383e-39
440.67438 884.27441 10 2.9665488e-39
440.84894 894.27289 10 2.9676293e-39
440.84894 894.27289 10 3.0605423e-39
421.02655 904.62042 10 2.9687293e-39
441.198 914.26984 10 3.0616312e-39
421.37561 924.61737 10 2.4141051e-39
571.00366 902.00238 30 1.7658252e-39
571.17822 912.00085 30 1.9465857e-39
571.35272 921.99933 30 2.0405918e-39
581.3512 921.82483 30 1.6732443e-39
581.52576 931.8233 30 1.9494444e-39
601.52271 931.47424 30 3.9831404e-39
611.52118 931.29968 30 5.5469349e-39
611.69574 941.29816 30 5.2631243e-39
611.87024 951.29663 30 4.7016212e-39
611.87024 951.29663 30 4.7023373e-39
612.0448 961.2951 30 4.0551686e-39
-358.38098 1518.3174 -100 2.9491826e-39
-427.49768 1569.5315 -110 3.2250436e-39
-427.32312 1579.5299 -110 2.9488182e-39
-417.15015 1589.3538 -110 2.949177e-39
-397.1532 1589.0048 -100 2.9495315e-39
-386.98022 1598.8287 -100 2.6740306e-39
-356.98474 1598.3052 -100 2.9473777e-39
-227.70276 1556.0422 -80 2.6733145e-39
-187.8833 1545.3457 -70 2.6729488e-39
-187.70874 1555.3441 -70 1.5666012e-39
-197.35815 1575.5156 -70 1.380052e-39
-197.18372 1585.5142 -70 1.2889381e-39
-196.83459 1605.511 -80 1.4729679e-39
-216.48242 1625.8571 -80 1.5648034e-39
-469.43604 -260.01526 -130 1.105986e-39
-469.2616 -250.01685 -120 1.1974656e-39
-468.91248 -230.0199 -120 1.1974642e-39
-478.73645 -219.8468 -130 1.1974614e-39
-468.38892 -200.02441 -120 1.7499107e-39
-458.04138 -180.20203 -120 3.315063e-39
-467.86523 -170.02899 -120 4.3274142e-39
-585.75256 -47.952881 -140 7.0907398e-39
-565.40649 -28.304993 -140 7.4573671e-39
-555.05896 -8.4825439 -140 7.1818606e-39
-554.70996 11.514404 -140 5.8021744e-39
-544.53687 21.338318 -140 3.1310431e-39
-362.64441 128.17993 -110 1.5655194e-39
-352.47144 138.00391 -110 1.5655166e-39
-342.1239 157.82629 -110 4.6954723e-39
-341.94934 167.82477 -110 8.2881984e-39
-331.60181 187.64722 -110 9.116164e-39
-321.25427 207.4696 -100 9.3930998e-39
-321.07971 217.46808 -100 9.2083582e-39
-280.56226 246.76538 -100 9.486373e-39
-248.12329 386.22046 -90 1.0496939e-38
-207.25671 435.51471 -90 9.7611747e-39
-227.25366 435.86377 -90 7.090758e-39
-247.07605 446.21133 -90 8.4729512e-39
-286.89551 456.90796 -100 1.0407606e-38
-296.71936 467.08096 -100 1.0315415e-38
-316.54187 477.4285 -100 1.0315415e-38
627.67834 710.98413 30 8.1034568e-39
627.85291 720.9826 30 8.0112668e-39
617.85443 721.15717 30 7.2758583e-39
608.03046 731.33014 30 7.2769373e-39
588.03351 731.6792 20 8.2017789e-39
568.21112 742.02679 20 8.0206443e-39
568.21112 742.02679 20 3.964768e-39
548.91229 782.36975 20 2.348579e-38
559.08533 792.19366 20 2.3481118e-38
549.08685 792.36823 20 2.3477165e-38
529.2644 802.71576 20 2.1357773e-38
559.43439 812.19061 20 1.5476714e-38
479.44659 813.58691 10 9.686044e-39
459.62415 823.93445 0 7.0192189e-39
449.80023 834.10748 0 6.9288169e-39
449.97473 844.10596 0 6.7444229e-39
449.97473 844.10596 0 6.8398499e-39
450.14929 854.10443 0 7.0202965e-39
440.15082 854.27899 0 6.7454921e-39
470.32074 863.75385 10 6.5636344e-39
450.32379 864.10291 0 7.0217342e-39
450.49835 874.10138 0 6.9313337e-39
450.67291 884.09985 0 7.2972337e-39
450.84741 894.09833 0 7.3898063e-39
440.84894 894.27289 0 7.3944586e-39
441.0235 904.27136 0 7.6692574e-39
451.19647 914.09528 0 7.2086619e-39
451.19647 914.09528 0 7.5756297e-39
491.36493 923.39563 10 7.7611056e-39
501.3634 923.22107 10 7.5752962e-39
511.53644 933.04504 10 7.6681939e-39
511.53644 933.04504 10 8.4972385e-39
501.71246 943.21802 10 8.1302482e-39
601.52271 931.47424 30 9.2347825e-39
611.69574 941.29816 30 8.0254409e-39
611.69574 941.29816 30 4.1499258e-39
611.87024 951.29663 30 1.9361166e-39
611.87024 951.29663 30 2.2119861e-39
602.04633 961.46967 30 3.0406635e-39
-358.38098 1518.3174 -110 3.0406509e-39
-427.49768 1569.5315 -120 3.04209e-39
-427.32312 1579.5299 -120 2.949177e-39
-417.15015 1589.3538 -120 2.8559093e-39
-377.15625 1588.6558 -120 2.580756e-39
-367.15771 1588.4812 -110 2.5803986e-39
-346.98633 1598.1306 -110 2.6725845e-39
-217.87878 1545.8693 -90 2.7640696e-39
-187.8833 1545.3457 -90 2.6722327e-39
-177.71033 1555.1696 -80 2.1186946e-39
-187.35974 1575.3411 -90 1.1963838e-39
-197.18372 1585.5142 -90 1.3814911e-39
-197.00916 1595.5126 -90 1.5640831e-39
-206.65857 1615.6841 -90 1.839591e-39
-458.91406 -230.19434 -140 1.1978215e-39
-468.73792 -220.02136 -140 1.105986e-39
-468.38892 -200.02441 -140 1.3818512e-39
-438.04443 -180.55109 -130 2.7622577e-39
-457.86682 -170.20355 -140 3.4990997e-39
-457.1687 -130.20959 -140 6.4446585e-39
-565.40649 -28.304993 -160 7.2747681e-39
-545.06055 -8.6571045 -150 6.8148802e-39
-544.71143 11.339844 -150 6.2631441e-39
-534.36389 31.162292 -150 3.5905737e-39
-352.646 128.00543 -120 1.8417434e-39
-352.47144 138.00391 -120 1.7488303e-39
-342.1239 157.82629 -120 4.2355731e-39
-341.77478 177.82324 -120 8.2889158e-39
-331.60181 187.64722 -120 8.8417295e-39
-321.25427 207.4696 -120 8.4747462e-39
-321.07971 217.46808 -120 8.9342796e-39
-290.56067 246.93994 -110 9.3001951e-39
-310.38306 257.28748 -120 9.2101519e-39
-360.37549 258.16016 -120 9.7608005e-39
-410.19336 269.03131 -130 9.5785658e-39
-409.84424 289.02826 -130 9.944124e-39
-247.42517 426.21439 -100 7.1836683e-39
-247.25061 436.21286 -110 6.0801962e-39
-267.073 446.56039 -110 9.4838633e-39
-297.06848 447.08401 -110 9.8526458e-39
-306.7179 467.25549 -110 1.022286e-38
-306.54333 477.25397 -110 1.0497287e-38
617.50537 701.16016 20 8.1059637e-39
627.67834 710.98413 20 8.0119814e-39
627.85291 720.9826 20 7.4609642e-39
617.85443 721.15717 20 6.998554e-39
618.02899 731.15564 20 8.2907263e-39
608.03046 731.33014 20 9.0326186e-39
519.09143 792.89185 10 3.0424614e-39
499.26898 803.23938 0 2.7658801e-39
479.44659 813.58691 0 2.9502602e-39
469.44812 813.76147 0 2.6747551e-39
459.62415 823.93445 0 2.8595037e-39
449.80023 834.10748 0 2.9520594e-39
449.97473 844.10596 0 2.9527797e-39
449.97473 844.10596 0 3.1378982e-39
450.14929 854.10443 0 2.8609484e-39
450.14929 854.10443 0 2.2123462e-39
470.32074 863.75385 0 2.3978151e-39
450.32379 864.10291 0 2.5847132e-39
450.49835 874.10138 0 2.58077e-39
450.67291 884.09985 0 2.3048978e-39
450.84741 894.09833 0 2.2112602e-39
440.84894 894.27289 0 2.2123392e-39
441.0235 904.27136 0 2.397092e-39
451.19647 914.09528 0 2.2141371e-39
461.19495 913.92078 0 2.9517021e-39
481.36646 923.57019 0 3.0460529e-39
481.54102 933.56866 0 2.7687514e-39
481.54102 933.56866 0 2.3967361e-39
491.71399 943.39258 0 2.4885603e-39
481.89008 953.56561 0 2.3041761e-39
481.89008 953.56561 0 2.7655102e-39
472.0661 963.73859 0 3.228289e-39
611.69574 941.29816 20 2.4903596e-39
611.87024 951.29663 20 1.8442783e-39
601.87177 951.47119 20 2.3041789e-39
592.04785 961.64417 20 2.8587778e-39
671.86115 950.24945 30 4.054084e-39
-338.55859 1507.9697 -120 3.4083572e-39
-397.85132 1549.0109 -130 2.9491784e-39
-387.67834 1558.8348 -130 2.3041719e-39
-367.50684 1568.4841 -130 1.7488373e-39
-337.51135 1567.9607 -120 1.1059832e-39
-337.33691 1577.9591 -120 1.2893025e-39
-287.51904 1567.0879 -120 1.19746e-39
-247.69971 1556.3914 -110 1.1052672e-39
-187.8833 1545.3457 -100 9.219549e-40
-177.71033 1555.1696 -100 1.3807708e-39
-187.35974 1575.3411 -100 1.3811338e-39
-187.18518 1585.3396 -100 1.4722476e-39
-187.01062 1595.338 -100 1.6555613e-39
-196.66003 1615.5095 -100 1.6566375e-39
-438.74255 -220.54504 -150 1.1981789e-39
-468.73792 -220.02136 -150 1.1056259e-39
-478.56189 -209.84839 -150 1.1056231e-39
-448.04285 -180.37653 -150 2.3938368e-39
-457.86682 -170.20355 -150 3.7753153e-39
-457.5177 -150.2066 -150 4.6032781e-39
-477.51465 -149.85748 -150 5.2486349e-39
-565.40649 -28.304993 -170 6.9067143e-39
-555.05896 -8.4825439 -170 7.3655358e-39
-554.88452 1.5159302 -170 6.5382919e-39
-544.53687 21.338318 -170 3.8671592e-39
-503.84485 60.634094 -160 2.3019943e-39
-352.646 128.00543 -130 1.9332173e-39
-352.47144 138.00391 -130 1.748473e-39
-342.1239 157.82629 -130 4.4196001e-39
-341.77478 177.82324 -130 8.562986e-39
-341.60034 187.82178 -130 9.3001881e-39
-331.42725 197.64569 -130 9.3001923e-39
-331.07825 217.64264 -130 9.392025e-39
-310.73218 237.29053 -130 9.3012657e-39
-350.72607 237.98865 -140 9.1186793e-39
-340.37854 257.8111 -130 9.484222e-39
-350.20251 267.98407 -130 9.5760617e-39
-400.19482 268.85675 -140 9.3034251e-39
-369.85034 288.33014 -140 9.9451946e-39
-399.84583 288.8537 -140 9.5782141e-39
-267.59668 416.56497 -120 5.0660625e-39
-277.42053 426.73798 -120 7.6453569e-39
-297.24304 437.08554 -130 1.0130309e-38
-317.06543 447.43307 -130 1.0222863e-38
-306.7179 467.25549 -130 1.0589135e-38
-306.54333 477.25397 -130 1.0222143e-38
617.50537 701.16016 20 8.657341e-39
617.50537 701.16016 20 8.1063365e-39
627.67834 710.98413 20 8.2885697e-39
627.85291 720.9826 20 7.2772961e-39
627.85291 720.9826 20 7.0925489e-39
628.02747 730.98108 20 8.8446288e-39
628.02747 730.98108 20 8.8511168e-39
618.20349 741.15411 20 1.0506661e-38
428.75604 774.4657 -10 2.0094956e-38
458.92603 783.94055 0 9.8703078e-39
489.09595 793.41541 0 4.0638048e-39
499.09442 793.24091 0 2.7680283e-39
489.27051 803.41394 0 2.3963759e-39
469.44812 813.76147 0 2.3970864e-39
469.44812 813.76147 0 2.5811091e-39
449.62567 824.10901 0 2.6718684e-39
449.80023 834.10748 0 2.9480951e-39
449.97473 844.10596 0 3.041011e-39
449.97473 844.10596 0 4.23955e-39
450.14929 854.10443 0 3.4097992e-39
450.14929 854.10443 0 1.5662481e-39
470.14624 853.75537 0 2.211256e-39
460.32227 863.92841 0 2.6729488e-39
450.49835 874.10138 0 1.9361082e-39
450.67291 884.09985 0 1.5669684e-39
450.84741 894.09833 0 1.2910961e-39
450.84741 894.09833 0 1.3833002e-39
451.02197 904.0968 0 1.7513526e-39
461.19495 913.92078 0 2.1190604e-39
471.19342 913.74622 0 2.948814e-39
481.36646 923.57019 0 4.3313841e-39
481.54102 933.56866 0 4.1448391e-39
481.54102 933.56866 0 3.134643e-39
481.71552 943.56714 0 3.5052332e-39
481.89008 953.56561 0 3.6892671e-39
471.8916 953.74011 0 3.6881797e-39
472.0661 963.73859 0 3.042467e-39
601.69727 941.47272 10 2.4006961e-39
601.87177 951.47119 10 2.0319164e-39
602.04633 961.46967 10 2.2159475e-39
592.04785 961.64417 10 3.0431887e-39
692.03259 959.8988 30 4.2413493e-39
742.19952 969.02466 40 5.4384463e-39
722.37708 979.37219 30 1.0046777e-38
-348.20801 1528.1412 -140 2.9488252e-39
-338.03503 1537.9652 -140 2.2098154e-39
-337.86047 1547.9636 -140 1.0137932e-39
-327.6875 1557.7876 -130 1.1049098e-39
-317.5144 1567.6116 -130 1.0134331e-39
-287.51904 1567.0879 -130 9.219549e-40
-257.52356 1566.5643 -120 9.2123743e-40
-197.88184 1545.5201 -110 1.1052686e-39
-177.71033 1555.1696 -110 1.1978173e-39
-187.5343 1565.3425 -110 1.3807764e-39
-187.18518 1585.3396 -110 1.5662425e-39
-187.01062 1595.338 -110 1.8406742e-39
-186.66162 1615.335 -110 1.9325069e-39
-428.91858 -230.71802 -160 1.1981845e-39
-418.57104 -210.89563 -160 1.3818526e-39
-448.56641 -210.37195 -160 1.0137876e-39
-458.39038 -200.19897 -170 1.0137904e-39
-448.04285 -180.37653 -160 1.8417448e-39
-457.86682 -170.20355 -170 3.1313948e-39
-457.5177 -150.2066 -170 4.2366479e-39
-467.51624 -150.03204 -170 4.8798608e-39
-667.48584 -146.54132 -200 6.8134354e-39
-575.40503 -28.130432 -190 6.723395e-39
-555.05896 -8.4825439 -180 7.1807844e-39
-554.88452 1.5159302 -180 6.3542636e-39
-544.53687 21.338318 -180 3.7753251e-39
-493.84644 60.459595 -170 2.1172513e-39
-352.646 128.00543 -150 2.0254172e-39
-352.47144 138.00391 -150 1.8413833e-39
-342.1239 157.82629 -150 4.235213e-39
-341.94934 167.82477 -150 8.7445046e-39
-341.60034 187.82178 -150 9.3005524e-39
-331.42725 197.64569 -150 9.0257676e-39
-331.07825 217.64264 -150 9.2083694e-39
-320.73071 237.46509 -140 8.6577026e-39
-340.72766 237.81415 -150 9.3016286e-39
-350.55151 247.98712 -150 9.3001965e-39
-350.20251 267.98407 -150 8.9328573e-39
-410.36792 259.03284 -160 9.3012685e-39
-400.02039 278.85522 -160 9.5785813e-39
-430.01575 279.37885 -160 9.119038e-39
-439.83972 289.55188 -160 9.5796504e-39
-287.94263 396.91708 -140 8.4765539e-39
-277.59509 416.7395 -140 9.8544409e-39
-307.41602 427.2616 -140 1.0222142e-38
-327.41296 427.61066 -140 1.0313977e-38
-337.06238 447.78214 -150 9.8537248e-39
-336.88782 457.78061 -150 9.4888911e-39
-336.71326 467.77908 -150 1.0038109e-38
627.32928 690.98718 10 9.6758061e-39
627.50385 700.98566 10 1.2178043e-38
627.50385 700.98566 10 1.3482852e-38
627.67834 710.98413 10 1.5420397e-38
627.85291 720.9826 10 1.6431671e-38
627.85291 720.9826 10 1.3297741e-38
628.02747 730.98108 10 1.1448795e-38
628.02747 730.98108 10 9.8746196e-39
628.20197 740.97955 10 5.5435984e-39
608.20502 741.32861 10 4.7141992e-39
448.92755 784.11511 -10 4.3306611e-39
459.10052 793.93903 -10 4.2399046e-39
469.099 793.76453 -10 3.6863791e-39
469.27356 803.763 0 4.6144352e-39
469.44812 813.76147 0 4.43869e-39
469.44812 813.76147 0 3.5113541e-39
459.62415 823.93445 -10 2.3974395e-39
459.79871 833.93292 -10 1.7506296e-39
459.97321 843.9314 -10 1.3832862e-39
469.97168 843.7569 -10 1.3836477e-39
470.14624 853.75537 -10 1.1067063e-39
470.14624 853.75537 -10 1.2885808e-39
480.14471 853.58081 0 1.1056315e-39
460.32227 863.92841 -10 1.1063462e-39
450.49835 874.10138 -10 1.933946e-39
450.67291 884.09985 -10 2.3967178e-39
460.84589 893.92383 -10 2.3048865e-39
460.84589 893.92383 -10 1.6587969e-39
461.02045 903.9223 -10 1.7502764e-39
471.19342 913.74622 -10 1.935025e-39
471.19342 913.74622 0 1.5662467e-39
481.36646 923.57019 0 1.2900157e-39
471.54254 933.74316 0 1.2903787e-39
471.54254 933.74316 -10 2.0275808e-39
471.71704 943.74164 0 3.3175965e-39
481.89008 953.56561 0 3.7782202e-39
472.0661 963.73859 0 3.5005459e-39
472.0661 963.73859 0 4.4199742e-39
472.24066 973.73706 -10 4.4207029e-39
611.87024 951.29663 10 2.4907183e-39
651.86414 950.59851 20 2.5821979e-39
661.86261 950.42395 20 3.1350172e-39
671.86115 950.24945 20 4.0569692e-39
672.03564 960.24792 20 4.5179488e-39
672.03564 960.24792 20 5.8065142e-39
682.20868 970.07184 20 8.0148737e-39
682.20868 970.07184 20 7.828323e-39
692.38165 979.89581 20 8.1971042e-39
692.38165 979.89581 20 1.1725009e-38
742.19952 969.02466 30 1.4969121e-38
712.3786 979.54675 30 1.6792185e-38
-328.38562 1517.7937 -150 2.4874855e-39
-328.0365 1537.7906 -150 1.5655278e-39
-327.86206 1547.7891 -150 1.106342e-39
-317.68896 1557.613 -150 8.2940054e-40
-317.5144 1567.6116 -150 1.1052686e-39
-287.51904 1567.0879 -140 1.3804163e-39
-267.34753 1576.7373 -140 1.1056287e-39
-197.88184 1545.5201 -130 1.013789e-39
-177.71033 1555.1696 -120 1.1056301e-39
-187.5343 1565.3425 -120 1.3811352e-39
-187.18518 1585.3396 -120 1.5669586e-39
-187.01062 1595.338 -120 1.7513526e-39
-186.83606 1605.3364 -120 1.4754846e-39
-205.28687 -24.589783 -130 3.5909338e-39
-194.93933 -4.767334 -130 4.3281261e-39
-174.59326 14.880554 -130 5.0642492e-39
-174.4187 24.879028 -130 5.5252274e-39
-184.24268 35.052063 -130 5.8925707e-39
-204.23962 35.401123 -130 6.1695108e-39
-444.72668 9.5945435 -180 6.9067101e-39
-484.72058 10.292664 -190 6.7226831e-39
-484.54602 20.291138 -190 6.3556943e-39
-504.36853 30.638672 -190 5.8039666e-39
-504.19397 40.637146 -190 3.500892e-39
-473.67493 70.109009 -180 2.2094427e-39
-362.64441 128.17993 -160 1.6584311e-39
-352.47144 138.00391 -160 1.6573521e-39
-342.1239 157.82629 -160 3.9582716e-39
-341.77478 177.82324 -160 8.10417e-39
-341.60034 187.82178 -160 9.1172374e-39
-331.42725 197.64569 -160 9.2998336e-39
-331.07825 217.64264 -160 9.5746254e-39
-310.73218 237.29053 -160 8.933565e-39
-340.72766 237.81415 -160 9.3005524e-39
-350.55151 247.98712 -160 9.299835e-39
-330.20557 267.63501 -160 9.5764205e-39
-400.36938 258.85828 -170 9.6682546e-39
-390.02185 278.68073 -170 9.6693336e-39
-430.01575 279.37885 -180 9.0261249e-39
-439.83972 289.55188 -180 9.2105176e-39
-459.66211 299.89941 -180 9.9466323e-39
-308.2887 377.2692 -160 9.9444827e-39
-348.10803 387.96582 -160 9.9455533e-39
-307.76514 407.26462 -150 9.761169e-39
-317.58899 417.43765 -160 9.7615306e-39
-337.4115 427.78519 -160 9.7626012e-39
-337.06238 447.78214 -160 1.012851e-38
-326.8894 457.60608 -160 1.0129231e-38
-316.54187 477.4285 -160 9.946268e-39
-285.67371 526.89728 -150 9.2112239e-39
-285.15015 556.8927 -150 9.4842262e-39
627.32928 690.98718 10 9.5796519e-39
627.50385 700.98566 10 1.1241705e-38
627.50385 700.98566 10 1.3272903e-38
627.67834 710.98413 10 1.2072921e-38
627.85291 720.9826 10 6.9128674e-39
627.85291 720.9826 10 3.5938177e-39
628.02747 730.98108 10 3.870399e-39
628.02747 730.98108 10 4.1480719e-39
628.20197 740.97955 10 5.3473255e-39
608.37958 751.32709 0 1.0698604e-38
608.37958 751.32709 0 1.6148216e-38
598.5556 761.50012 0 1.6618195e-38
448.75299 774.11664 -20 1.4594577e-38
458.92603 783.94055 -10 1.2656685e-38
459.10052 793.93903 -10 9.1467697e-39
439.10358 794.28809 -20 6.3773219e-39
489.27051 803.41394 -10 4.1624632e-39
479.44659 813.58691 -10 3.6024609e-39
499.44354 813.23785 -10 3.8765282e-39
469.62262 823.75995 -10 4.704847e-39
469.79718 833.75842 -10 4.6137346e-39
469.97168 843.7569 -10 3.5099149e-39
469.97168 843.7569 -10 4.0623614e-39
470.14624 853.75537 -10 3.78865e-39
470.14624 853.75537 -10 3.6046231e-39
490.14319 853.40631 -10 3.9733986e-39
470.32074 863.75385 -10 4.6173289e-39
470.4953 873.75232 -10 5.260183e-39
460.67139 883.92535 -10 5.5353307e-39
470.66986 883.75079 -10 5.2612578e-39
470.84436 893.74927 -10 4.9846751e-39
481.0174 903.57324 -10 5.077577e-39
481.0174 903.57324 -10 5.6282354e-39
481.19189 913.57172 -10 5.2616179e-39
481.36646 923.57019 -10 5.4456476e-39
471.54254 933.74316 -10 5.7211527e-39
471.54254 933.74316 -10 6.821385e-39
471.71704 943.74164 -10 5.7204324e-39
471.8916 953.74011 -10 7.1026494e-39
472.0661 963.73859 -10 9.7788296e-39
472.0661 963.73859 -10 1.8164993e-38
472.24066 973.73706 -10 2.3509851e-38
611.87024 951.29663 0 2.3509886e-38
651.68964 940.60004 10 2.3509886e-38
661.86261 950.42395 10 2.3509886e-38
671.86115 950.24945 10 2.3509886e-38
672.03564 960.24792 10 2.3509876e-38
682.03412 960.07336 20 1.7968015e-38
682.20868 970.07184 20 8.3843863e-39
682.20868 970.07184 20 7.4631503e-39
682.38318 980.07031 20 6.6344672e-39
682.38318 980.07031 20 1.0600662e-38
742.19952 969.02466 30 1.465693e-38
712.55316 989.54517 20 1.355417e-38
702.55469 989.71973 20 1.6128821e-38
-328.38562 1517.7937 -160 1.1971069e-39
-328.21106 1527.7922 -160 9.2159196e-40
-327.86206 1547.7891 -160 1.2892955e-39
-317.68896 1557.613 -160 9.2159336e-40
-317.5144 1567.6116 -160 1.2903801e-39
-287.51904 1567.0879 -150 2.0272193e-39
-287.16992 1587.085 -150 1.8446301e-39
-197.70728 1555.5186 -140 1.2910947e-39
-167.88635 1544.9966 -130 1.1978201e-39
-177.53577 1565.168 -130 1.1056273e-39
-177.36121 1575.1665 -130 1.3825687e-39
-177.01221 1595.1635 -130 2.1190505e-39
-176.83765 1605.162 -130 2.2116077e-39
-287.19458 -133.1767 -160 1.1974642e-39
-276.84705 -113.35431 -160 9.2194929e-40
-266.49951 -93.53186 -160 1.1056203e-39
-256.32642 -83.707947 -160 1.1063448e-39
-245.97888 -63.885498 -150 2.1176058e-39
-225.45837 -34.239136 -150 3.6820504e-39
-215.11084 -14.416748 -150 4.0522651e-39
-194.76477 5.2311401 -150 5.0631744e-39
-194.59021 15.229614 -140 5.0646107e-39
-184.24268 35.052063 -140 5.5263064e-39
-173.89514 54.874451 -140 6.0769592e-39
-173.72058 64.872925 -140 6.1680814e-39
-364.73889 8.1982422 -180 6.2620665e-39
-404.38367 28.893311 -180 6.904922e-39
-454.55066 19.767517 -200 6.7216055e-39
-474.54761 20.116577 -200 7.0875084e-39
-484.37158 30.289612 -200 6.3539048e-39
-494.19543 40.462646 -200 3.59201e-39
-473.67493 70.109009 -200 2.3009209e-39
-362.64441 128.17993 -180 1.9332216e-39
-352.47144 138.00391 -180 1.6573549e-39
-342.1239 157.82629 -170 3.5902065e-39
-341.77478 177.82324 -170 7.7335939e-39
-331.60181 187.64722 -170 8.9335622e-39
-331.25269 207.64417 -170 8.6587746e-39
-331.07825 217.64264 -170 8.8417309e-39
-320.90515 227.46661 -170 9.117236e-39
-340.72766 237.81415 -170 9.2083652e-39
-340.5531 247.81262 -170 9.302702e-39
-330.20557 267.63501 -170 9.6704027e-39
-370.19946 268.33319 -180 9.5764205e-39
-390.02185 278.68073 -180 9.6689636e-39
-450.0127 279.72791 -190 9.6696895e-39
-469.83508 290.0755 -200 9.5785686e-39
-297.7666 407.09009 -170 9.9459134e-39
-317.58899 417.43765 -170 9.5774981e-39
-337.4115 427.78519 -170 9.8526388e-39
-337.06238 447.78214 -170 9.4849465e-39
-326.8894 457.60608 -170 9.761525e-39
-306.54333 477.25397 -170 9.9459176e-39
-275.84973 516.72424 -160 9.2108749e-39
-275.50073 536.72119 -160 9.4856612e-39
396.4917 645.00909 -30 9.3945417e-39
-275.15161 556.71814 -160 9.300551e-39
627.32928 690.98718 0 9.0264851e-39
627.50385 700.98566 0 1.0689615e-38
627.50385 700.98566 0 1.2444213e-38
627.67834 710.98413 0 1.0877974e-38
627.85291 720.9826 0 7.0986936e-39
627.85291 720.9826 0 4.7919993e-39
628.02747 730.98108 0 4.1480677e-39
628.02747 730.98108 0 4.8841992e-39
628.20197 740.97955 0 7.0972516e-39
608.37958 751.32709 0 1.1521887e-38
608.37958 751.32709 0 1.8434383e-38
598.5556 761.50012 0 2.0835422e-38
598.5556 761.50012 0 2.2398059e-38
608.72864 771.32404 0 2.1938551e-38
608.90314 781.32251 0 2.1203853e-38
618.90161 781.14801 0 2.0368721e-38
639.07312 790.79742 0 1.5675006e-38
629.07465 790.97192 0 1.254e-38
639.24768 800.7959 0 9.6783579e-39
599.60284 821.49097 0 7.4678278e-39
599.9519 841.48792 0 8.2932697e-39
600.1264 851.48639 0 8.0181233e-39
590.12793 851.66095 0 8.0199268e-39
600.1264 851.48639 0 8.203588e-39
610.29944 861.31036 0 7.7436944e-39
610.29944 861.31036 0 7.8366089e-39
511.01282 903.04962 -10 8.3879834e-39
501.18884 913.2226 -10 8.2965011e-39
501.3634 923.22107 -10 8.6631326e-39
481.54102 933.56866 -20 8.7567674e-39
471.54254 933.74316 -20 9.1244737e-39
471.71704 943.74164 -20 9.0355136e-39
461.89313 953.91467 -20 1.0601386e-38
452.06915 964.08765 -20 1.3184663e-38
621.86871 951.12213 0 2.3509886e-38
651.68964 940.60004 10 2.3509886e-38
661.86261 950.42395 10 2.3509886e-38
661.86261 950.42395 10 2.3509869e-38
662.03717 960.42242 10 2.3509814e-38
672.03564 960.24792 10 1.6220282e-38
672.21021 970.2464 10 8.9382761e-39
682.20868 970.07184 10 5.9916173e-39
682.38318 980.07031 10 6.3618278e-39
712.55316 989.54517 20 1.4195578e-38
702.55469 989.71973 10 1.4562556e-38
-328.38562 1517.7937 -170 1.0130729e-39
-328.21106 1527.7922 -170 1.1967425e-39
-317.86353 1547.6145 -170 1.381131e-39
-317.68896 1557.613 -170 1.2889339e-39
-317.5144 1567.6116 -170 1.9353796e-39
-297.51746 1567.2625 -170 3.1314074e-39
-297.16846 1587.2594 -170 4.4174575e-39
-138.06543 1534.4745 -140 9.2267096e-40
-147.71484 1554.646 -140 1.2896542e-39
-147.54041 1564.6445 -140 1.4733308e-39
-157.36426 1574.8174 -140 1.8421091e-39
-166.83911 1604.9874 -150 2.6722355e-39
-247.02612 -123.8764 -170 1.1059874e-39
-277.19604 -133.35126 -170 1.0134345e-39
-266.84851 -113.52881 -170 9.2195209e-40
-256.50098 -93.706421 -170 1.1059888e-39
-256.15186 -73.709473 -170 1.3818512e-39
-245.80432 -53.887024 -170 1.7495506e-39
-235.63135 -44.06311 -160 3.1306759e-39
-225.28381 -24.240662 -160 3.8678696e-39
-204.93774 -4.5927734 -160 4.5110796e-39
-204.58875 15.404175 -160 4.7894616e-39
-194.41565 25.228088 -160 5.3404746e-39
-194.06665 45.225037 -160 5.7085396e-39
-173.72058 64.872925 -150 5.8925679e-39
-354.56592 18.022156 -190 6.6286938e-39
-374.38831 28.369751 -190 6.4443012e-39
-374.21375 38.368225 -190 6.53758e-39
-424.38062 29.242371 -200 6.2617092e-39
-454.3761 29.765991 -210 6.2631441e-39
-464.20007 39.939026 -210 5.8943644e-39
-484.02246 50.28656 -210 3.5912883e-39
-463.67639 69.934448 -210 2.2090854e-39
-362.81897 118.18146 -190 1.8413805e-39
-352.47144 138.00391 -190 2.1168911e-39
-342.1239 157.82629 -190 3.2225072e-39
-341.77478 177.82324 -190 7.4573643e-39
-331.60181 187.64722 -190 8.8410106e-39
-331.25269 207.64417 -180 9.1157996e-39
-341.07666 217.8172 -190 9.2991007e-39
-330.90369 227.64111 -190 8.9328489e-39
-340.72766 237.81415 -190 8.6569893e-39
-350.55151 247.98712 -190 9.4842234e-39
-340.20398 267.80957 -190 9.3012699e-39
-370.19946 268.33319 -190 9.485657e-39
-400.02039 278.85522 -200 9.5789302e-39
-440.01428 279.55341 -210 9.2090757e-39
-469.83508 290.0755 -210 9.3920278e-39
-338.10962 387.79129 -190 9.4856542e-39
-327.76208 407.61371 -190 9.7600872e-39
-337.58594 417.78671 -190 1.0127075e-38
-337.4115 427.78519 -190 9.8537262e-39
-347.23535 437.95819 -190 9.6696895e-39
-336.88782 457.78061 -190 9.7618837e-39
-275.84973 516.72424 -170 9.9444785e-39
-275.50073 536.72119 -170 9.5771309e-39
396.4917 645.00909 -40 9.392032e-39
627.32928 690.98718 0 8.8428071e-39
627.50385 700.98566 0 1.0779288e-38
627.50385 700.98566 0 1.234915e-38
627.67834 710.98413 0 1.1983232e-38
627.85291 720.9826 0 1.0325162e-38
627.85291 720.9826 0 7.5589514e-39
628.02747 730.98108 0 5.9005119e-39
638.02594 730.80652 0 6.4536801e-39
628.20197 740.97955 0 8.6674458e-39
608.20502 741.32861 0 1.1430417e-38
608.37958 751.32709 0 1.6037675e-38
608.55408 761.32556 0 1.9999185e-38
608.55408 761.32556 0 2.1104467e-38
608.72864 771.32404 0 2.0556328e-38
618.90161 781.14801 0 2.0000648e-38
618.90161 781.14801 0 1.8345438e-38
639.07312 790.79742 0 1.7697556e-38
629.07465 790.97192 0 1.5672128e-38
639.24768 800.7959 0 1.4197009e-38
629.42371 810.96887 0 1.1892121e-38
629.42371 810.96887 0 9.6801516e-39
629.59827 820.96735 0 9.1287869e-39
619.59979 821.14191 0 9.4946981e-39
609.77582 831.31494 0 9.2181084e-39
609.95038 841.31342 0 8.4834203e-39
609.95038 841.31342 0 9.4957687e-39
610.12488 851.31189 0 9.7716367e-39
640.12036 850.78827 0 1.0418075e-38
640.12036 850.78827 0 1.032552e-38
630.12189 850.96283 0 1.0694665e-38
630.29639 860.9613 0 1.0233691e-38
610.474 871.30884 0 1.0598879e-38
610.474 871.30884 0 1.0140059e-38
600.65002 881.48181 0 1.0140069e-38
550.83221 892.35297 -10 1.0600681e-38
501.18884 913.2226 -20 1.069286e-38
491.36493 923.39563 -20 1.0877634e-38
481.36646 923.57019 -20 1.1339679e-38
481.54102 933.56866 -30 1.1248933e-38
631.16907 910.95367 0 1.3087786e-38
611.34668 921.30121 0 1.4196642e-38
601.52271 931.47424 0 1.6322166e-38
571.70184 941.99634 -10 2.138466e-38
611.69574 941.29816 0 2.3509835e-38
621.86871 951.12213 0 2.3509862e-38
651.68964 940.60004 0 2.3509873e-38
661.86261 950.42395 0 2.3509884e-38
671.86115 950.24945 0 2.3509859e-38
672.03564 960.24792 0 2.3501559e-38
672.03564 960.24792 0 1.6591204e-38
672.21021 970.2464 0 1.1154187e-38
682.20868 970.07184 0 8.3861912e-39
682.38318 980.07031 0 7.0990397e-39
682.38318 980.07031 10 1.0784689e-38
702.55469 989.71973 10 1.3643848e-38
-318.38708 1517.6191 -190 1.6566417e-39
-318.21265 1527.6177 -190 1.2892955e-39
-318.03809 1537.6161 -190 1.4733252e-39
-317.68896 1557.613 -190 1.2892969e-39
-307.51599 1567.437 -190 1.473328e-39
-287.51904 1567.0879 -180 2.6711425e-39
-307.16687 1587.434 -190 2.5782322e-39
-118.4176 1514.1284 -150 1.1059902e-39
-118.24304 1524.127 -150 8.301208e-40
-118.06848 1534.1255 -150 1.0137918e-39
-107.89551 1543.9493 -150 1.0137904e-39
-117.54492 1564.1208 -150 1.8439098e-39
-157.01526 1594.8145 -160 3.5956184e-39
-287.8927 -173.17065 -190 1.1967439e-39
-267.37219 -143.52429 -180 1.106342e-39
-267.19763 -133.52582 -180 1.0145093e-39
-277.19604 -133.35126 -190 1.0137946e-39
-266.67395 -103.53033 -180 1.0141491e-39
-256.50098 -93.706421 -180 1.1059888e-39
-256.15186 -73.709473 -180 1.2900143e-39
-235.80591 -54.061584 -180 1.7499121e-39
-225.45837 -34.239136 -180 2.5793014e-39
-225.28381 -24.240662 -170 4.1426629e-39
-204.93774 -4.5927734 -170 4.4196043e-39
-204.58875 15.404175 -170 4.6972618e-39
-204.41418 25.402649 -170 4.9713403e-39
-194.06665 45.225037 -170 5.7989318e-39
-324.39587 27.49707 -200 5.9851209e-39
-364.38977 28.19519 -210 6.1687947e-39
-364.21533 38.193665 -200 6.4453732e-39
-394.21069 38.717285 -210 6.1691562e-39
-404.03467 48.890259 -210 6.1698723e-39
-423.85706 59.237854 -220 5.984765e-39
-453.85254 59.761414 -220 3.6838483e-39
-433.50647 79.409302 -220 2.0257745e-39
-372.8175 118.35602 -210 2.1172485e-39
-352.47144 138.00391 -200 1.6569962e-39
-342.1239 157.82629 -200 3.0377614e-39
-341.94934 167.82477 -200 6.9077891e-39
-341.60034 187.82178 -200 8.7477402e-39
-331.42725 197.64569 -200 8.8395799e-39
-341.07666 217.8172 -200 8.841005e-39
-340.9021 227.81567 -200 9.2998308e-39
-340.72766 237.81415 -200 8.6569837e-39
-340.37854 257.8111 -200 9.0250361e-39
-340.20398 267.80957 -200 8.2896375e-39
-350.02795 277.9826 -200 9.2079911e-39
-380.02344 278.50616 -210 9.3916663e-39
-379.67432 298.50311 -210 9.1157954e-39
-338.28418 377.79282 -200 9.486736e-39
-327.58752 417.61218 -200 8.749894e-39
-337.4115 427.78519 -200 9.0254061e-39
-337.23694 437.78366 -200 9.3023447e-39
-275.50073 536.72119 -190 9.3927495e-39
396.4917 645.00909 -50 9.2079967e-39
386.49316 645.18365 -50 9.2079925e-39
376.66919 655.35663 -50 8.5655069e-39
627.32928 690.98718 0 8.65842e-39
627.50385 700.98566 0 9.9531287e-39
627.50385 700.98566 0 1.1796695e-38
627.67834 710.98413 0 1.1337504e-38
627.85291 720.9826 0 9.1262673e-39
627.85291 720.9826 0 9.2199049e-39
628.02747 730.98108 0 8.9476368e-39
638.02594 730.80652 0 9.2159532e-39
628.20197 740.97955 0 1.123991e-38
608.20502 741.32861 -10 1.2162591e-38
608.37958 751.32709 0 1.5110323e-38
608.55408 761.32556 -10 1.6770555e-38
608.55408 761.32556 -10 1.7510282e-38
618.72711 771.14954 0 1.7235489e-38
618.90161 781.14801 0 1.7969456e-38
618.90161 781.14801 0 1.6955326e-38
629.07465 790.97192 0 1.6679807e-38
629.07465 790.97192 0 1.5940808e-38
629.24921 800.9704 0 1.5020295e-38
619.42523 811.14343 0 1.2534604e-38
619.42523 811.14343 0 1.1333573e-38
619.59979 821.14191 0 1.0413761e-38
609.60132 821.31647 0 1.0227937e-38
609.77582 831.31494 -10 1.0411966e-38
589.95343 841.66248 -10 1.0411247e-38
619.94885 841.13885 0 1.0412331e-38
620.12335 851.13733 0 1.0412331e-38
650.11884 850.61371 0 1.1790951e-38
590.65155 881.65637 -10 1.1790937e-38
590.82611 891.65485 -10 1.096262e-38
591.00061 901.65332 -10 1.1700181e-38
650.81696 890.60767 0 1.271109e-38
650.99152 900.60614 0 1.252813e-38
641.16754 910.77911 0 1.2800046e-38
641.16754 910.77911 0 1.4272647e-38
631.34363 920.95215 0 1.5010947e-38
621.51965 931.12512 0 1.7035636e-38
621.51965 931.12512 0 1.8871617e-38
621.69421 941.12366 0 2.0989582e-38
621.86871 951.12213 0 2.2732667e-38
651.68964 940.60004 0 2.1808538e-38
661.86261 950.42395 0 2.1346846e-38
671.86115 950.24945 0 1.9688063e-38
672.03564 960.24792 0 1.6930473e-38
682.03412 960.07336 0 1.3252375e-38
672.21021 970.2464 0 9.8487124e-39
682.20868 970.07184 0 8.2896487e-39
682.38318 980.07031 0 7.5657856e-39
682.38318 980.07031 0 1.0235853e-38
682.55774 990.06879 0 1.345728e-38
692.55621 989.89429 0 1.3549497e-38
-318.38708 1517.6191 -200 1.013789e-39
-318.21265 1527.6177 -200 1.7499079e-39
-318.03809 1537.6161 -200 1.933939e-39
-317.68896 1557.613 -200 1.6573549e-39
-307.51599 1567.437 -200 1.1059818e-39
-287.51904 1567.0879 -190 1.5665998e-39
-326.98938 1597.7815 -200 1.2903717e-39
-98.595215 1503.7809 -160 1.2896528e-39
-108.24463 1523.9524 -160 1.4740413e-39
-118.06848 1534.1255 -160 1.2892983e-39
-107.89551 1543.9493 -160 1.1974628e-39
-127.54346 1564.2954 -160 2.4878331e-39
-167.01367 1594.989 -170 4.3313785e-39
-277.54517 -153.34821 -200 1.1063434e-39
-277.19604 -133.35126 -200 1.0141505e-39
-267.02307 -123.52728 -200 1.28965e-39
-256.67554 -103.7049 -200 9.2231363e-40
-256.50098 -93.706421 -190 1.1967467e-39
-246.15344 -73.883972 -190 1.2907318e-39
-235.80591 -54.061584 -190 1.2893025e-39
-225.45837 -34.239136 -190 2.4853107e-39
-215.28528 -24.415222 -190 3.682405e-39
-204.93774 -4.5927734 -180 4.4192469e-39
-204.58875 15.404175 -180 4.6039927e-39
-204.41418 25.402649 -180 5.0635303e-39
-194.24121 35.226562 -180 5.340469e-39
-344.74194 7.8491821 -210 5.6159839e-39
-334.39441 27.67157 -210 5.8014513e-39
-354.39136 28.02063 -220 6.1691506e-39
-354.04224 48.017639 -220 5.8010926e-39
-374.03918 48.366699 -220 5.8021744e-39
-383.86316 58.539673 -220 5.8025331e-39
-393.68713 68.712708 -220 5.70962e-39
-403.51099 78.885742 -230 3.5001717e-39
-403.16199 98.88269 -230 2.393471e-39
-362.81897 118.18146 -220 1.9342992e-39
-342.29846 147.82782 -220 1.9332202e-39
-332.12537 157.65179 -210 3.1299557e-39
-331.77637 177.64874 -210 7.1814991e-39
-331.60181 187.64722 -210 8.1048931e-39
-321.25427 207.4696 -210 8.3818331e-39
-331.07825 217.64264 -210 8.5651384e-39
-330.90369 227.64111 -210 8.9317643e-39
-340.72766 237.81415 -210 8.4711617e-39
-340.37854 257.8111 -210 8.8392212e-39
-330.20557 267.63501 -210 8.6559047e-39
-340.02942 277.80804 -210 8.6566208e-39
-359.85193 288.15558 -220 8.4725966e-39
-359.50281 308.15253 -220 8.5633531e-39
-359.32825 318.151 -220 8.933565e-39
-318.46167 367.44525 -210 9.1175919e-39
-308.2887 377.2692 -210 9.0239697e-39
-328.11108 387.61676 -210 9.6682588e-39
-327.76208 407.61371 -210 9.4845864e-39
-327.58752 417.61218 -210 9.7611676e-39
436.13647 624.31403 -50 9.2112267e-39
466.30646 633.78888 -40 9.4845794e-39
446.30951 634.13794 -50 9.2079953e-39
396.31714 635.01062 -60 9.2090799e-39
396.4917 645.00909 -60 9.3016328e-39
376.49475 645.35815 -60 9.3005538e-39
376.66919 655.35663 -60 8.8410162e-39
627.32928 690.98718 -10 9.0243243e-39
627.50385 700.98566 -10 1.0409782e-38
627.50385 700.98566 -10 1.2440962e-38
627.67834 710.98413 -10 1.2349869e-38
627.85291 720.9826 -10 9.8638366e-39
627.85291 720.9826 -10 7.1905333e-39
628.02747 730.98108 -10 4.4250273e-39
638.20044 740.80505 0 2.8580589e-39
628.20197 740.97955 -10 4.0544357e-39
628.37653 750.97803 -10 3.3175965e-39
618.37805 751.15259 -10 3.6874496e-39
608.55408 761.32556 -10 4.607978e-39
608.55408 761.32556 -10 5.6217656e-39
618.72711 771.14954 -10 5.07434e-39
618.90161 781.14801 -10 5.2562257e-39
618.90161 781.14801 -10 4.4235896e-39
629.07465 790.97192 -10 3.1321333e-39
629.07465 790.97192 -10 2.8562597e-39
629.24921 800.9704 -10 2.3041621e-39
629.42371 810.96887 -10 2.2098183e-39
619.42523 811.14343 -10 3.036688e-39
619.59979 821.14191 -10 3.2250324e-39
609.60132 821.31647 -10 3.7814473e-39
589.77887 831.664 -10 3.5988568e-39
559.95801 842.1861 -20 3.3211951e-39
629.94733 840.96436 -10 4.6129933e-39
630.12189 850.96283 -10 5.3491052e-39
640.12036 850.78827 0 2.4892638e-39
610.474 871.30884 -10 2.303446e-39
600.65002 881.48181 -10 1.3832988e-39
600.82458 891.48035 -10 2.0268577e-39
610.82306 891.30579 -10 2.5793126e-39
650.81696 890.60767 0 2.2116189e-39
640.99298 900.78064 0 1.6587997e-39
641.16754 910.77911 0 1.472256e-39
631.16907 910.95367 -10 1.5655222e-39
631.34363 920.95215 -10 1.6573563e-39
621.51965 931.12512 -10 2.3970892e-39
611.52118 931.29968 -10 3.8750961e-39
631.69269 940.9491 -10 4.7959594e-39
631.69269 940.9491 -10 3.9647666e-39
651.86414 950.59851 0 3.8714878e-39
671.86115 950.24945 0 3.9615282e-39
671.86115 950.24945 0 4.7909231e-39
672.03564 960.24792 0 4.9745885e-39
682.03412 960.07336 0 3.6863734e-39
682.20868 970.07184 0 4.3292275e-39
682.20868 970.07184 0 5.2515468e-39
682.38318 980.07031 0 5.8994315e-39
682.38318 980.07031 0 9.8616646e-39
682.55774 990.06879 0 1.3177832e-38
692.55621 989.89429 0 1.2999538e-38
-288.21716 1527.094 -210 2.7633339e-39
-297.86658 1547.2655 -210 1.6577137e-39
-287.6936 1557.0895 -210 1.1049112e-39
-108.76819 1493.957 -170 1.1056231e-39
-98.595215 1503.7809 -170 1.7499093e-39
-108.41907 1513.9539 -170 2.1183261e-39
-108.07007 1533.9509 -170 1.9335789e-39
-117.89404 1544.1239 -170 1.5662397e-39
-117.54492 1564.1208 -170 1.9361012e-39
-147.01672 1594.6399 -180 4.1462712e-39
-287.54358 -153.17365 -210 1.10527e-39
-257.1991 -133.70032 -210 1.1059832e-39
-246.85156 -113.87793 -210 1.19746e-39
-246.50256 -93.880981 -200 9.2267096e-40
-236.32947 -84.057007 -200 9.2267096e-40
-235.98047 -64.060059 -200 1.1978271e-39
-225.80737 -54.236084 -200 1.3822142e-39
-225.45837 -34.239136 -200 2.1179701e-39
-215.28528 -24.415222 -200 3.3136253e-39
-204.93774 -4.5927734 -200 3.960424e-39
-204.58875 15.404175 -200 4.4199672e-39
-204.41418 25.402649 -200 4.5117999e-39
-214.23816 35.575623 -200 5.4312367e-39
-334.91797 -2.3238525 -230 5.2482775e-39
-334.56897 17.673096 -230 5.340113e-39
-324.39587 27.49707 -220 5.8922092e-39
-344.21826 37.844604 -230 5.9847678e-39
-354.04224 48.017639 -230 5.6167041e-39
-363.86621 58.190613 -230 5.8936427e-39
-363.69165 68.189087 -230 5.892212e-39
-373.51562 78.362122 -230 5.3411948e-39
-383.3396 88.535095 -240 3.867162e-39
-393.16345 98.70813 -240 2.3931165e-39
-362.64441 128.17993 -230 1.8417434e-39
-342.29846 147.82782 -230 1.7491932e-39
-332.12537 157.65179 -230 2.8548065e-39
-331.77637 177.64874 -230 6.9963946e-39
-321.60339 187.47266 -220 8.4725938e-39
-321.25427 207.4696 -220 8.5629944e-39
-341.07666 217.8172 -230 8.6566222e-39
-340.9021 227.81567 -230 8.6562592e-39
-340.72766 237.81415 -230 8.472598e-39
-340.37854 257.8111 -230 8.7484633e-39
-340.20398 267.80957 -230 8.5637049e-39
-340.02942 277.80804 -230 8.1967258e-39
-349.85339 287.98108 -230 8.5633545e-39
-349.50439 307.97803 -230 8.8417281e-39
-349.32983 317.9765 -230 9.2079981e-39
-298.81384 347.09924 -220 8.2910808e-39
-298.63928 357.09772 -220 8.933209e-39
-348.63171 357.9704 -230 9.3923865e-39
-318.28723 377.44373 -220 9.2097917e-39
-328.11108 387.61676 -220 8.8420952e-39
-337.7605 407.78824 -230 9.5764163e-39
-317.58899 417.43765 -220 9.3945445e-39
-317.23999 437.4346 -220 9.576412e-39
496.12738 623.26678 -40 9.7608061e-39
466.1319 623.79041 -50 9.5771351e-39
476.30493 633.61432 -50 9.5756974e-39
446.30951 634.13794 -50 9.115801e-39
406.31561 634.83606 -60 9.0246872e-39
386.49316 645.18365 -70 9.3012713e-39
376.49475 645.35815 -70 8.9335622e-39
627.32928 690.98718 -10 8.5637105e-39
627.50385 700.98566 -10 9.8587751e-39
627.50385 700.98566 -10 1.2257662e-38
627.67834 710.98413 -10 1.2994155e-38
627.85291 720.9826 -10 1.0874037e-38
627.85291 720.9826 -10 5.9901922e-39
648.19891 740.63049 -10 4.0551504e-39
608.20502 741.32861 -20 3.0406495e-39
618.37805 751.15259 -20 3.3186713e-39
608.55408 761.32556 -20 3.8707703e-39
618.55255 761.15106 -20 4.423577e-39
618.72711 771.14954 -10 4.6987275e-39
628.90009 780.97345 -10 3.9611583e-39
628.90009 780.97345 -10 3.2232401e-39
629.07465 790.97192 -10 2.6725831e-39
629.07465 790.97192 -10 2.3048767e-39
629.24921 800.9704 -10 2.1204939e-39
629.42371 810.96887 -10 1.8460664e-39
619.42523 811.14343 -10 1.7542351e-39
619.59979 821.14191 -10 1.9375488e-39
609.60132 821.31647 -20 2.0308164e-39
559.78345 832.18762 -30 2.7662206e-39
549.95953 842.3606 -30 2.3970836e-39
540.13556 852.53363 -30 1.5691264e-39
610.474 871.30884 -20 1.8424707e-39
610.6485 881.30731 -20 1.842828e-39
640.81848 890.78217 -10 1.3822156e-39
641.16754 910.77911 -10 1.104907e-39
621.34515 921.12671 -20 1.10527e-39
621.34515 921.12671 -20 1.1974628e-39
611.52118 931.29968 -20 1.3822142e-39
611.69574 941.29816 -20 1.2928954e-39
621.69421 941.12366 -20 1.4762147e-39
611.87024 951.29663 -20 2.766578e-39
611.87024 951.29663 -20 3.7803726e-39
671.86115 950.24945 0 3.8714906e-39
671.86115 950.24945 0 4.3313841e-39
682.03412 960.07336 0 4.3349827e-39
682.03412 960.07336 0 4.241708e-39
672.21021 970.2464 0 3.5974218e-39
682.20868 970.07184 0 4.3324631e-39
672.3847 980.24487 0 6.5433506e-39
672.3847 980.24487 0 9.402843e-39
682.73224 1000.0673 0 1.1608708e-38
643.0874 1020.7624 -10 9.8620345e-39
603.44257 1041.4575 -20 9.7666117e-39
573.6217 1051.9795 -30 5.4323437e-39
563.79773 1062.1526 -30 1.7509925e-39
563.97229 1072.151 -30 1.5662425e-39
563.97229 1072.151 -30 1.6584367e-39
574.14532 1081.975 -30 1.6580752e-39
-188.23242 1525.3486 -200 1.2896542e-39
-128.59058 1504.3044 -180 1.3814925e-39
-118.4176 1514.1284 -180 2.1176114e-39
-118.24304 1524.127 -180 2.5764274e-39
-118.06848 1534.1255 -180 2.3927578e-39
-127.7179 1554.2969 -190 1.8421077e-39
-137.36731 1574.4684 -190 1.4751231e-39
-157.01526 1594.8145 -190 3.4076328e-39
-287.8927 -173.17065 -230 1.1056245e-39
-257.37366 -143.69879 -220 1.0137904e-39
-236.85315 -114.05243 -220 1.0137918e-39
-226.50549 -94.230042 -210 1.1981845e-39
-226.33105 -84.231567 -210 1.1988991e-39
-226.15649 -74.233093 -210 1.1981803e-39
-225.98193 -64.234619 -210 1.2892941e-39
-215.6344 -44.41217 -210 1.4736853e-39
-215.45984 -34.413696 -210 2.2094441e-39
-215.28528 -24.415222 -210 2.8551694e-39
-204.93774 -4.5927734 -210 4.0511819e-39
-204.58875 15.404175 -210 4.3281303e-39
-204.41418 25.402649 -210 4.7865903e-39
-214.23816 35.575623 -210 4.7880239e-39
-284.7511 6.8019409 -230 4.6969072e-39
-334.91797 -2.3238525 -240 4.9724123e-39
-334.56897 17.673096 -240 5.0638961e-39
-324.22131 37.495544 -240 5.3401158e-39
-324.04688 47.494019 -240 5.8929239e-39
-323.87231 57.492493 -240 5.8925693e-39
-343.6947 67.840027 -240 5.8010898e-39
-343.52014 77.838501 -240 5.5245099e-39
-353.34412 88.011536 -240 5.3408375e-39
-353.16956 98.01001 -240 4.0519064e-39
-362.99353 108.18298 -250 2.3016383e-39
-352.646 128.00543 -240 2.0250584e-39
-342.29846 147.82782 -240 1.4744014e-39
-332.12537 157.65179 -240 2.5775064e-39
-341.77478 177.82324 -240 6.2613435e-39
-331.60181 187.64722 -240 8.0112612e-39
-331.25269 207.64417 -240 8.1974447e-39
-341.07666 217.8172 -240 8.2867634e-39
-340.9021 227.81567 -240 8.4718778e-39
-340.72766 237.81415 -240 8.3803996e-39
-340.37854 257.8111 -240 8.3800423e-39
-340.20398 267.80957 -240 8.379315e-39
-340.02942 277.80804 -240 8.6559061e-39
-349.85339 287.98108 -240 8.8417309e-39
-339.50586 307.80347 -240 9.2069177e-39
-359.32825 318.151 -250 8.7484605e-39
-308.98682 337.2753 -240 9.2079953e-39
-288.64087 356.92319 -230 8.7513275e-39
-358.63013 358.14493 -250 9.4845822e-39
-318.28723 377.44373 -240 8.8402917e-39
-318.11267 387.4422 -240 8.656625e-39
-317.76355 407.43918 -240 8.8420952e-39
-307.59058 417.26312 -240 9.1168898e-39
-297.24304 437.08554 -230 9.0254005e-39
495.95282 613.26831 -50 9.3012727e-39
506.12585 623.09229 -50 9.1176017e-39
506.30035 633.0907 -50 9.1168828e-39
496.30188 633.26526 -50 9.1161668e-39
466.30646 633.78888 -60 9.2072792e-39
406.31561 634.83606 -70 9.2087169e-39
386.49316 645.18365 -70 8.2903592e-39
366.49622 645.53271 -80 8.5662272e-39
627.32928 690.98718 -20 8.6562718e-39
627.32928 690.98718 -20 8.7484577e-39
627.50385 700.98566 -20 1.0042086e-38
627.50385 700.98566 -20 1.2349861e-38
627.67834 710.98413 -20 1.28112e-38
627.85291 720.9826 -20 1.1704142e-38
627.85291 720.9826 -20 8.2025216e-39
628.02747 730.98108 -20 3.226124e-39
608.20502 741.32861 -20 2.5800301e-39
618.37805 751.15259 -20 2.5803958e-39
608.55408 761.32556 -20 2.3048879e-39
618.55255 761.15106 -20 2.7655032e-39
618.72711 771.14954 -20 2.7637011e-39
628.90009 780.97345 -20 2.118696e-39
628.90009 780.97345 -20 2.2101714e-39
629.07465 790.97192 -20 2.2105357e-39
629.07465 790.97192 -20 2.3034516e-39
629.24921 800.9704 -20 2.3030831e-39
629.42371 810.96887 -20 2.1190505e-39
629.42371 810.96887 -20 2.4863967e-39
619.59979 821.14191 -20 2.4864037e-39
609.60132 821.31647 -20 2.3027243e-39
559.78345 832.18762 -30 2.210177e-39
549.95953 842.3606 -40 2.2101714e-39
610.6485 881.30731 -20 1.1989033e-39
640.81848 890.78217 -20 2.9466546e-39
611.52118 931.29968 -20 3.6809827e-39
611.69574 941.29816 -20 5.4290927e-39
611.69574 941.29816 -20 5.7975165e-39
611.87024 951.29663 -20 8.9195646e-39
611.87024 951.29663 -20 8.9192031e-39
602.04633 961.46967 -30 4.6922535e-39
671.86115 950.24945 -10 2.5789567e-39
672.03564 960.24792 -10 2.8573415e-39
672.03564 960.24792 -10 3.1328493e-39
672.21021 970.2464 -10 2.7640668e-39
672.21021 970.2464 -10 3.9607967e-39
672.3847 980.24487 -10 6.4551066e-39
672.55927 990.24335 -10 1.0692866e-38
593.26959 1031.6335 -30 1.0049293e-38
563.44867 1042.1556 -40 7.6489905e-39
563.62323 1052.1541 -40 5.7161164e-39
553.79926 1062.3271 -40 3.9647722e-39
553.79926 1062.3271 -40 1.6606017e-39
563.97229 1072.151 -40 1.4733252e-39
563.97229 1072.151 -30 1.2889396e-39
574.14532 1081.975 -30 1.1978243e-39
-158.58606 1504.8281 -200 1.1056231e-39
-148.41309 1514.6521 -200 1.5662411e-39
-138.23999 1524.4761 -200 3.1299529e-39
-138.06543 1534.4745 -200 3.1285151e-39
-147.71484 1554.646 -200 2.5775008e-39
-167.36279 1574.9919 -210 2.02542e-39
-246.47791 1626.3806 -220 1.4740483e-39
-277.89417 -173.34515 -240 9.2267096e-40
-267.72119 -163.52124 -240 1.1067049e-39
-237.20215 -134.04938 -230 1.1059832e-39
-216.68164 -104.40302 -220 1.0130715e-39
-206.50854 -94.579102 -220 1.1049098e-39
-206.15955 -74.582153 -220 1.2896598e-39
-205.98499 -64.583679 -220 1.1978257e-39
-205.81042 -54.585205 -220 1.1059846e-39
-205.63586 -44.586731 -220 1.1974614e-39
-215.45984 -34.413696 -220 1.8424609e-39
-215.11084 -14.416748 -220 2.946649e-39
-204.76331 5.4057007 -220 3.8664375e-39
-204.58875 15.404175 -220 4.2348613e-39
-204.41418 25.402649 -220 4.5118013e-39
-254.58105 16.276855 -230 5.2479216e-39
-304.74805 7.151001 -240 4.8802195e-39
-304.57349 17.149475 -250 5.3390382e-39
-294.22595 36.971924 -240 5.3397585e-39
-294.05139 46.970398 -240 5.3411892e-39
-303.87537 57.143433 -240 5.7078194e-39
-313.69934 67.316406 -250 5.8000136e-39
-323.52319 77.489441 -250 5.9840503e-39
-323.34863 87.487915 -250 5.3411976e-39
-333.17261 97.66095 -250 5.5241512e-39
-332.99805 107.65942 -250 4.143023e-39
-332.82361 117.6579 -250 2.0254172e-39
-342.64746 127.83087 -250 1.8421049e-39
-332.29993 147.65332 -250 1.8413861e-39
-332.12537 157.65179 -250 2.5771462e-39
-341.77478 177.82324 -250 6.2609917e-39
-341.60034 187.82178 -250 8.1034624e-39
-331.42725 197.64569 -250 7.4602454e-39
-341.07666 217.8172 -250 7.0932635e-39
-330.90369 227.64111 -250 8.1045274e-39
-340.72766 237.81415 -250 7.9187054e-39
-330.38013 257.63654 -250 7.8268727e-39
-330.20557 267.63501 -250 7.7379029e-39
-330.03101 277.63348 -250 8.3807583e-39
-329.68188 297.63043 -250 8.3807499e-39
-329.50745 307.62891 -250 8.5637133e-39
-329.15833 327.62589 -250 8.8392085e-39
-278.81689 346.75015 -240 8.7484577e-39
-298.63928 357.09772 -250 9.2087141e-39
-328.46021 367.61978 -250 9.7611578e-39
-318.28723 377.44373 -250 9.0257648e-39
-317.93811 397.4407 -250 9.3927439e-39
-327.76208 407.61371 -250 8.7498954e-39
-327.58752 417.61218 -250 9.0236124e-39
-307.24146 437.26007 -250 8.2878438e-39
526.1228 622.74316 -50 8.6566236e-39
526.1228 622.74316 -50 9.1161612e-39
526.2973 632.7417 -50 9.300551e-39
516.47339 642.91467 -50 8.9339293e-39
516.47339 642.91467 -50 9.0254117e-39
526.64636 652.73865 -50 9.3916649e-39
526.82092 662.73706 -50 8.9332133e-39
617.15631 681.16321 -30 8.3811185e-39
627.32928 690.98718 -30 7.7361204e-39
627.32928 690.98718 -30 5.9865726e-39
627.50385 700.98566 -20 8.5702013e-39
627.50385 700.98566 -20 1.1888885e-38
627.67834 710.98413 -20 1.3087775e-38
627.85291 720.9826 -20 1.1799576e-38
627.85291 720.9826 -20 7.9252172e-39
628.02747 730.98108 -20 3.6874623e-39
628.02747 730.98108 -20 3.1328479e-39
628.20197 740.97955 -30 2.3055998e-39
618.37805 751.15259 -30 2.7636997e-39
608.37958 751.32709 -30 2.488196e-39
598.5556 761.50012 -30 2.5800301e-39
618.55255 761.15106 -30 2.0268591e-39
618.72711 771.14954 -30 1.4751245e-39
628.90009 780.97345 -20 1.4754804e-39
638.89862 780.79895 -20 1.5662411e-39
629.07465 790.97192 -20 1.7502722e-39
629.07465 790.97192 -20 1.8428252e-39
629.24921 800.9704 -20 1.8421133e-39
629.42371 810.96887 -20 1.7502736e-39
619.42523 811.14343 -30 2.0257857e-39
619.59979 821.14191 -30 2.2101756e-39
609.60132 821.31647 -30 1.8421119e-39
589.77887 831.664 -30 1.6584423e-39
559.95801 842.1861 -40 1.6587997e-39
630.47095 870.95978 -20 1.565525e-39
630.47095 870.95978 -20 1.5662453e-39
611.52118 931.29968 -30 1.9357369e-39
611.69574 941.29816 -30 2.0268619e-39
611.69574 941.29816 -30 2.211249e-39
611.87024 951.29663 -30 2.3034432e-39
611.87024 951.29663 -30 1.9357439e-39
671.68658 940.25098 -10 1.7513526e-39
671.86115 950.24945 -10 1.9361054e-39
672.03564 960.24792 -10 2.8584149e-39
672.03564 960.24792 -10 3.6881671e-39
672.21021 970.2464 -20 3.4105096e-39
672.21021 970.2464 -20 3.1335696e-39
662.38623 980.41943 -20 6.4533087e-39
583.27112 1031.8081 -40 1.0044625e-38
563.44867 1042.1556 -40 7.09726e-39
553.62476 1052.3286 -40 5.8083107e-39
563.79773 1062.1526 -40 5.3462605e-39
573.79626 1061.978 -40 4.7923651e-39
573.97076 1071.9766 -40 2.6751082e-39
573.97076 1071.9766 -40 1.7499107e-39
574.14532 1081.975 -40 1.6580808e-39
584.1438 1081.8004 -40 1.5669642e-39
-148.41309 1514.6521 -220 2.0264892e-39
