# .PCD v0.7 - Point Cloud Data file format
VERSION 0.7
FIELDS x y z rgb
SIZE 4 4 4 4
TYPE F F F F
COUNT 1 1 1 1
WIDTH 1248
HEIGHT 1
VIEWPOINT 0 0 0 1 0 0 0
POINTS 1248
DATA ascii
522.33215 995.23743 260 1.9350306e-39
524.58167 1004.9811 260 1.8435497e-39
514.83795 1007.2306 260 1.9357439e-39
-6.7719727 1681.8586 350 2.8576932e-39
-29.254517 1717.8384 360 2.9484595e-39
-17.261353 1725.3325 360 3.2239604e-39
-7.5175781 1723.083 360 3.2253967e-39
-22.505981 1747.0695 360 3.041011e-39
-0.76904297 1752.3141 360 3.0428145e-39
-28.496216 1810.0306 360 3.323716e-39
-26.246704 1819.7744 360 3.3283991e-39
-21.747681 1839.2617 360 4.1541941e-39
-19.498169 1849.0054 360 5.9019426e-39
-7.5050049 1856.4996 360 5.8965616e-39
-5.2554932 1866.2433 360 4.3342736e-39
-10.500122 1887.9802 360 4.6094186e-39
-251.21143 711.98792 340 1.1063462e-39
-311.92322 715.74133 350 1.3829302e-39
594.26611 773.3692 240 1.4744098e-39
596.51562 783.11285 240 1.2910976e-39
586.77191 785.36243 240 1.2907374e-39
589.02148 795.10608 240 1.5666054e-39
589.02148 795.10608 240 8.2939913e-40
617.50696 829.58185 240 1.3836547e-39
619.75647 839.32556 240 1.1985488e-39
612.26227 851.31879 240 6.4532905e-39
612.26227 851.31879 240 7.7444357e-39
624.25549 858.81293 240 2.3509886e-38
624.25549 858.81293 240 2.3509886e-38
616.76135 870.80615 240 2.1223142e-39
619.01086 880.54987 240 1.6598829e-39
628.75452 878.30035 240 1.9364684e-39
631.00409 888.04407 240 1.8446301e-39
631.00409 888.04407 240 1.8442741e-39
633.2536 897.78772 240 1.6595255e-39
505.8399 968.25586 260 2.1484086e-38
508.08942 977.99951 260 1.760899e-38
510.33893 987.74323 260 2.3509886e-38
510.33893 987.74323 260 2.2134084e-39
512.58844 997.48694 260 2.120138e-39
514.83795 1007.2306 260 2.2116147e-39
505.0943 1009.4801 260 1.9368271e-39
-1300.447 1857.3719 510 2.0290227e-39
-2075.4312 2190.2378 620 2.2126951e-39
-2058.939 2217.2192 620 2.1219372e-39
-2098.6594 2267.4417 620 2.5796826e-39
2.9716797 1679.6091 340 3.4087258e-39
-21.760376 1705.8451 340 3.1324934e-39
-17.261353 1725.3325 350 2.8569869e-39
-7.5175781 1723.083 340 2.4899981e-39
-22.505981 1747.0695 350 3.1317703e-39
-0.76904297 1752.3141 340 3.1321305e-39
-28.496216 1810.0306 350 2.3956444e-39
-16.503052 1817.5249 350 2.3038103e-39
-31.491333 1841.5112 350 2.5793154e-39
-29.241821 1851.255 350 2.3956486e-39
-17.248657 1858.7491 350 2.1194149e-39
-12.749634 1878.2366 350 2.2126881e-39
-27.737915 1902.223 350 2.028664e-39
-248.96191 721.73157 330 1.2903745e-39
-215.23181 734.4704 330 1.1989005e-39
-212.9823 744.21411 330 1.3825701e-39
594.26611 773.3692 240 1.1989061e-39
596.51562 783.11285 240 1.2907388e-39
598.76514 792.85657 240 1.3829358e-39
589.02148 795.10608 240 1.6584423e-39
591.271 804.84979 240 8.2975927e-40
591.271 804.84979 240 8.2904461e-40
593.52051 814.59351 240 9.2159616e-40
607.76324 831.83136 230 2.0293773e-39
607.76324 831.83136 230 1.5680446e-39
610.01276 841.57507 230 1.6591612e-39
612.26227 851.31879 230 9.6776306e-39
612.26227 851.31879 230 8.9465844e-39
614.51178 861.0625 230 7.0403981e-39
626.505 868.55664 230 7.9731556e-39
616.76135 870.80615 230 7.0835721e-39
619.01086 880.54987 230 8.8410358e-39
628.75452 878.30035 230 9.3963858e-39
631.00409 888.04407 230 9.6701071e-39
631.00409 888.04407 230 8.1899351e-39
633.2536 897.78772 230 4.2330746e-39
645.24683 905.28192 230 4.2395388e-39
505.8399 968.25586 250 1.3371259e-38
505.8399 968.25586 250 1.3740051e-38
508.08942 977.99951 250 1.281981e-38
510.33893 987.74323 250 1.5957045e-38
510.33893 987.74323 250 3.5949135e-39
512.58844 997.48694 250 2.2130468e-39
505.0943 1009.4801 250 2.0286598e-39
495.35059 1011.7297 250 2.2126923e-39
487.85638 1023.7229 250 2.1194205e-39
-504.48425 1437.5586 380 2.3956458e-39
-529.21631 1463.7946 390 2.3038103e-39
-1272.72 1799.6554 480 2.2123294e-39
-1324.4336 1842.3835 490 2.1201366e-39
-1300.447 1857.3719 490 2.2119734e-39
-1259.2227 1858.1177 480 2.1208596e-39
-2012.47 2196.228 580 2.4885603e-39
-1986.2339 2220.96 580 2.3041677e-39
-2118.8923 2313.165 600 2.2130538e-39
17.960083 1655.6228 330 3.3194056e-39
12.715332 1677.3596 330 3.4105222e-39
-21.760376 1705.8451 330 3.3197643e-39
-27.005005 1727.582 330 3.3190441e-39
-24.755493 1737.3257 330 3.2279274e-39
-74.219604 1789.7976 340 3.1368094e-39
-167.9032 1873.0045 350 3.3197601e-39
-26.246704 1819.7744 340 3.2272114e-39
-31.491333 1841.5112 340 3.3183224e-39
-26.99231 1860.9987 340 3.1346556e-39
-24.742798 1870.7424 340 3.4101649e-39
-1179.668 2958.4226 500 2.4896407e-39
-1148.1873 2961.4177 500 2.6718782e-39
-248.96191 721.73157 320 1.1992564e-39
-215.23181 734.4704 320 1.1989019e-39
-212.9823 744.21411 320 1.2907402e-39
594.26611 773.3692 230 1.1981845e-39
596.51562 783.11285 230 1.2910976e-39
598.76514 792.85657 230 1.1996194e-39
598.76514 792.85657 230 1.5676802e-39
601.01471 802.60028 230 8.2940054e-40
601.01471 802.60028 230 8.2940194e-40
603.26422 812.34399 230 9.219549e-40
617.50696 829.58185 230 1.0137932e-39
617.50696 829.58185 230 1.4754916e-39
619.75647 839.32556 230 2.6711425e-39
622.00598 849.06927 230 1.1618624e-38
622.00598 849.06927 230 9.5905119e-39
624.25549 858.81293 230 6.8285891e-39
624.25549 858.81293 230 3.598505e-39
616.76135 870.80615 230 3.5045129e-39
628.75452 878.30035 230 3.3179609e-39
628.75452 878.30035 230 4.3299464e-39
631.00409 888.04407 230 4.5128985e-39
631.00409 888.04407 230 5.1561015e-39
633.2536 897.78772 230 4.3335435e-39
645.24683 905.28192 230 6.9294237e-39
505.8399 968.25586 240 4.6130017e-39
486.35248 972.75488 250 1.4015168e-38
488.60199 982.49854 250 2.1485902e-38
490.85156 992.24225 250 1.6597017e-38
490.85156 992.24225 250 2.3509886e-38
493.10107 1001.986 250 2.1204995e-39
485.60687 1013.9792 250 2.0286654e-39
485.60687 1013.9792 250 1.9368271e-39
478.11267 1025.9724 250 2.1215785e-39
404.66211 1063.4559 260 2.212335e-39
338.70581 1088.9463 260 2.120138e-39
177.56201 1146.6755 280 2.1201394e-39
-196.43933 1304.8623 330 2.1197736e-39
-504.48425 1437.5586 370 2.0279395e-39
-519.47266 1461.545 370 1.9361096e-39
-1306.45 1786.9165 460 2.3045236e-39
-1324.4336 1842.3835 470 1.9368285e-39
-1283.2092 1843.1292 460 2.2119791e-39
-1970.5 2155.7493 550 2.304532e-39
-2068.6826 2219.4688 560 2.3045306e-39
-2091.9109 2296.6729 560 2.2137769e-39
-40.502197 1669.1199 320 3.1342927e-39
25.454224 1643.6295 310 3.1350172e-39
27.703735 1653.3733 310 3.5027165e-39
-527.66174 2048.4292 390 3.2264869e-39
-61.480835 1756.0675 330 3.503071e-39
-68.974976 1768.0608 330 3.5034353e-39
-162.65857 1851.2676 340 3.1346584e-39
-160.40894 1861.0114 340 3.3194084e-39
-979.58716 2491.4453 450 3.1353787e-39
-1002.0698 2527.4248 450 3.4112355e-39
-44.230225 1875.2415 330 3.2279274e-39
-1149.6912 2910.4497 480 2.6740404e-39
-215.23181 734.4704 310 1.1989019e-39
596.51562 783.11285 220 1.2903773e-39
598.76514 792.85657 220 1.3832904e-39
598.76514 792.85657 220 1.6598801e-39
601.01471 802.60028 220 2.7593851e-39
601.01471 802.60028 220 6.7111939e-39
603.26422 812.34399 220 8.7441557e-39
605.51373 822.08765 220 7.1977331e-39
605.51373 822.08765 220 7.8629814e-39
617.50696 829.58185 220 7.1330184e-39
617.50696 829.58185 220 5.8415509e-39
619.75647 839.32556 220 5.7414085e-39
622.00598 849.06927 220 8.7614519e-39
622.00598 849.06927 220 2.3509886e-38
624.25549 858.81293 220 2.3509886e-38
624.25549 858.81293 220 2.3509886e-38
616.76135 870.80615 220 2.3234379e-38
628.75452 878.30035 220 2.1030327e-38
628.75452 878.30035 220 1.873444e-38
631.00409 888.04407 220 1.7081401e-38
631.00409 888.04407 220 6.8289955e-39
633.2536 897.78772 220 5.9048419e-39
645.24683 905.28192 220 6.6554699e-39
645.24683 905.28192 220 5.8296763e-39
589.03412 928.52277 230 6.1059212e-39
610.77106 933.7674 220 6.2031587e-39
622.76428 941.2616 220 6.8488869e-39
476.60876 975.00439 240 7.6847544e-39
478.85834 984.74805 240 1.0080379e-38
471.36414 996.74133 240 1.3006014e-38
471.36414 996.74133 240 2.0754717e-38
473.61365 1006.485 240 2.6722327e-39
466.11951 1018.4782 240 2.2123322e-39
468.36902 1028.2219 240 2.3041663e-39
458.62531 1030.4714 240 2.0283025e-39
460.87482 1040.2151 240 2.2126951e-39
424.14954 1058.9569 250 1.9368271e-39
338.70581 1088.9463 260 2.1201366e-39
177.56201 1146.6755 270 2.2126951e-39
104.11145 1184.1592 280 2.1205009e-39
-8.3139648 1230.6407 300 2.3041719e-39
-25.551758 1244.8835 300 2.3030943e-39
-42.789673 1259.1262 300 2.212335e-39
-504.48425 1437.5586 350 2.1201436e-39
-502.23474 1447.3022 350 2.121217e-39
-517.22314 1471.2888 350 2.1208554e-39
-588.42407 1518.516 360 2.0279423e-39
-1977.2485 2126.5181 520 2.2130524e-39
-1970.5 2155.7493 520 2.3967206e-39
-2132.3894 2254.7026 540 2.3960074e-39
-2005.7214 2225.459 520 2.3970808e-39
-2111.3982 2301.1719 540 2.3048851e-39
-2085.1621 2325.9038 530 2.4889177e-39
-475.21509 1831.0601 360 2.9499056e-39
-453.47827 1836.3047 360 3.1332165e-39
-431.74133 1841.5493 350 2.950979e-39
-463.96753 1879.7784 360 3.1335738e-39
-424.9928 1870.7804 350 3.0428187e-39
-420.49365 1890.2678 350 3.1346486e-39
-445.22571 1916.5038 360 3.1346528e-39
-467.70825 1952.4834 360 3.2275659e-39
-509.67822 1992.9622 360 3.2261324e-39
-460.95972 1981.7145 360 3.2275631e-39
-500.68018 2031.9369 360 3.2264869e-39
-542.65002 2072.4155 370 3.3190385e-39
-582.37048 2122.6379 380 3.3190413e-39
-998.3291 2454.7202 430 3.2264883e-39
-939.86694 2441.2229 420 3.0438907e-39
-1006.5688 2507.9375 430 3.2264841e-39
-1002.0698 2527.4248 430 3.2264925e-39
-1097.9775 2867.7214 450 2.6747467e-39
-1093.4785 2887.2087 450 2.7647927e-39
-1054.5037 2878.2109 440 2.3059711e-39
-314.21069 305.74768 290 1.4758517e-39
-343.44177 312.49628 300 1.5680446e-39
-215.23181 734.4704 290 1.383296e-39
586.77191 785.36243 220 1.5662453e-39
589.02148 795.10608 220 3.5098841e-39
601.01471 802.60028 220 4.5342095e-39
601.01471 802.60028 220 4.715389e-39
603.26422 812.34399 220 4.7160966e-39
615.25745 819.83813 220 4.5327871e-39
605.51373 822.08765 220 4.2576436e-39
617.50696 829.58185 220 4.4420461e-39
607.76324 831.83136 220 4.5331585e-39
610.01276 841.57507 220 5.2699977e-39
612.26227 851.31879 220 4.6115766e-39
612.26227 851.31879 220 8.9483669e-39
614.51178 861.0625 220 9.3160494e-39
624.25549 858.81293 220 9.1298701e-39
626.505 868.55664 220 8.8518441e-39
628.75452 878.30035 220 8.4834245e-39
628.75452 878.30035 220 8.6670969e-39
631.00409 888.04407 220 7.8398557e-39
631.00409 888.04407 220 8.1099714e-39
633.2536 897.78772 220 5.8122876e-39
635.50311 907.53143 220 5.6460011e-39
645.24683 905.28192 220 5.7367562e-39
598.77783 926.27319 220 6.1062716e-39
601.02734 936.01691 220 6.3803487e-39
620.51477 931.51788 220 6.1062828e-39
622.76428 941.2616 220 6.6598181e-39
625.01379 951.00525 220 6.9349644e-39
625.01379 951.00525 220 8.4169244e-39
451.87677 1001.2404 240 2.1670306e-38
451.87677 1001.2404 240 1.6045627e-38
454.12628 1010.984 240 1.2516401e-38
456.37579 1020.7277 240 2.213051e-39
448.88159 1032.7209 240 2.2119748e-39
439.13788 1034.9705 240 2.4878401e-39
431.64374 1046.9637 240 2.3041691e-39
433.89325 1056.7074 240 2.3041719e-39
387.42432 1077.6987 240 2.3038089e-39
328.96204 1091.1958 250 2.1197792e-39
226.2804 1135.428 260 2.2119706e-39
140.83667 1165.4174 270 2.2119763e-39
8.9239502 1216.3979 280 2.3041649e-39
-35.295532 1247.1331 290 2.1201323e-39
-137.97717 1291.3651 300 2.120138e-39
-477.50269 1421.0664 330 2.1197806e-39
-511.97839 1449.5518 340 2.1201366e-39
-517.22314 1471.2888 340 2.0286598e-39
-598.16785 1520.7656 350 2.3038131e-39
-1911.2922 2101.0278 480 2.3052481e-39
-2016.2107 2268.9329 500 2.3967276e-39
-416.00732 1776.3386 330 2.4900037e-39
-430.99573 1800.325 340 2.6747439e-39
-426.4967 1819.8124 340 2.7655088e-39
-421.99756 1839.2998 340 2.7665864e-39
-419.74805 1849.0435 340 3.1342941e-39
-424.9928 1870.7804 340 2.9495469e-39
-430.23743 1892.5173 340 2.8584205e-39
-418.24414 1900.0115 340 3.1339354e-39
-440.72668 1935.9911 340 2.9502602e-39
-445.97144 1957.728 340 3.4105208e-39
-433.97815 1965.2223 340 3.7760636e-39
-439.22278 1986.9591 340 3.1346556e-39
-471.4491 2025.1884 350 3.1353689e-39
-236.10901 1888.7512 320 3.1346528e-39
-251.09741 1912.7377 320 3.2261296e-39
-221.86633 1905.9891 320 3.1350144e-39
-323.04407 2001.1892 330 3.0428159e-39
-338.03247 2025.1757 330 3.2275645e-39
-456.448 2134.6187 350 3.3190441e-39
-939.10864 2533.4153 400 3.3183266e-39
-900.13379 2524.417 400 3.0428173e-39
-920.3667 2570.1406 400 3.2268456e-39
-898.62988 2575.3853 400 3.0428187e-39
-918.86279 2621.1084 400 3.597775e-39
-924.10742 2642.8455 400 2.8587834e-39
-919.6084 2662.333 400 2.76515e-39
-932.34741 2696.063 400 2.5825622e-39
-918.10449 2713.3008 400 2.6736775e-39
-913.60547 2732.7881 400 2.6729572e-39
-763.70923 2626.3403 390 2.6733159e-39
-482.11572 200.82922 290 1.7517184e-39
-347.19519 251.78455 280 1.659164e-39
-410.15649 245.79425 290 1.5669698e-39
-419.90015 248.04376 290 1.568046e-39
-427.39429 260.03699 290 1.4762119e-39
-347.9408 293.00885 280 1.5676844e-39
-386.91565 302.00696 290 1.5684047e-39
-527.08081 272.78851 300 1.4758503e-39
-374.8844 709.75104 290 9.219577e-40
-224.97546 736.71997 280 8.3047673e-40
-222.72595 746.46362 280 9.2123883e-40
601.01471 802.60028 210 4.5324326e-39
603.26422 812.34399 210 4.2562059e-39
625.0011 817.58862 210 4.533869e-39
595.77002 824.33722 210 4.5331529e-39
607.76324 831.83136 210 4.3476952e-39
619.75647 839.32556 210 4.5331487e-39
619.75647 839.32556 210 6.5560575e-39
622.00598 849.06927 210 9.5829239e-39
622.00598 849.06927 210 7.0983446e-39
624.25549 858.81293 210 8.6602431e-39
624.25549 858.81293 210 7.559306e-39
626.505 868.55664 210 8.2046656e-39
628.75452 878.30035 210 7.0072182e-39
628.75452 878.30035 210 7.4689068e-39
631.00409 888.04407 210 7.4685551e-39
631.00409 888.04407 210 1.6792867e-38
633.2536 897.78772 210 9.0376913e-39
635.50311 907.53143 210 5.5512943e-39
635.50311 907.53143 210 5.9197167e-39
598.77783 926.27319 210 5.8296833e-39
610.77106 933.7674 210 6.0140633e-39
620.51477 931.51788 210 5.9225936e-39
622.76428 941.2616 210 6.5665308e-39
625.01379 951.00525 210 6.5676295e-39
625.01379 951.00525 210 8.5058789e-39
442.13306 1003.4899 230 1.3003534e-38
432.38934 1005.7394 230 1.3741413e-38
434.63885 1015.4831 230 2.3509886e-38
436.88837 1025.2268 230 2.1194121e-39
439.13788 1034.9705 230 1.658078e-39
429.39423 1037.22 230 1.7502708e-39
431.64374 1046.9637 230 1.8424693e-39
433.89325 1056.7074 230 1.7502736e-39
397.16797 1075.4492 230 1.7509883e-39
338.70581 1088.9463 240 1.658078e-39
253.26196 1118.9357 250 1.6587941e-39
160.3241 1160.9182 260 1.7499093e-39
57.642456 1205.1504 270 1.8421105e-39
-64.526611 1253.8816 280 1.7502736e-39
-194.18982 1314.606 290 1.9332258e-39
-409.29675 1405.3197 310 2.0257815e-39
-614.66003 1493.7839 330 1.658078e-39
-1918.0408 2071.7969 460 1.7520673e-39
-2112.1565 2208.9795 480 1.8431895e-39
-1313.9314 1932.3264 400 1.8431867e-39
-1270.4578 1942.8157 400 1.7517128e-39
-1302.6838 1981.0449 400 1.7524372e-39
-1344.6538 2021.5236 400 1.7524302e-39
-1130.2925 1972.0342 390 1.5687662e-39
-1108.5554 1977.2788 380 1.4762133e-39
-1094.3127 1994.5167 380 1.8442755e-39
-1097.3079 2025.9973 380 1.844986e-39
-1038.8457 2012.5002 380 1.937183e-39
-1171.5042 2104.7051 390 1.93719e-39
-475.21509 1831.0601 330 2.1208624e-39
-443.7345 1834.0552 320 2.21413e-39
-431.74133 1841.5493 320 2.3063285e-39
-427.24231 1861.0367 320 2.3059697e-39
-424.9928 1870.7804 320 2.7651528e-39
-439.98108 1894.7668 320 2.6743935e-39
-425.7384 1912.0048 320 2.4903652e-39
-423.48889 1921.7484 320 2.4900037e-39
-428.73352 1943.4854 320 2.8587876e-39
-424.2345 1962.9727 320 3.2264869e-39
-412.24121 1970.4669 320 3.0428159e-39
-373.26648 1961.4689 320 3.1342997e-39
-184.39539 1846.0229 300 2.858782e-39
-206.87793 1882.0027 300 2.8591463e-39
-221.86633 1905.9891 300 2.9509832e-39
-472.94031 2107.637 330 3.0424544e-39
-514.91016 2148.1157 340 2.8595037e-39
-1017.8037 2592.6357 390 3.2268442e-39
-917.37158 2538.6599 380 2.6747621e-39
-920.3667 2570.1406 380 2.6747509e-39
-915.86768 2589.6279 380 3.0428117e-39
-921.1123 2611.3647 380 3.6910566e-39
-914.36377 2640.5959 380 3.2261352e-39
-919.6084 2662.333 380 2.6743963e-39
-924.85303 2684.0698 380 2.5811189e-39
-910.61035 2701.3076 380 2.4889261e-39
-906.11133 2720.7949 380 2.4889219e-39
-874.63086 2723.79 380 2.2130665e-39
-862.63745 2731.2842 380 2.2130553e-39
-720.2356 2636.8298 360 2.305611e-39
-407.16138 214.31366 270 1.5673271e-39
-426.64868 218.81268 280 1.6595199e-39
-400.41272 243.54474 270 1.3836603e-39
-400.41272 243.54474 270 1.6584423e-39
-405.65747 265.28168 270 1.5680488e-39
-393.66418 272.77582 270 1.566967e-39
-369.67773 287.76422 270 1.5673215e-39
-377.172 299.75745 270 1.6588011e-39
-428.13989 301.26135 280 1.5669726e-39
-404.15356 316.24969 280 1.56769e-39
-423.64087 320.74872 280 1.5680418e-39
-397.40491 345.48077 280 1.4758475e-39
-368.91943 379.95654 270 1.3829344e-39
-378.66321 382.20605 270 1.4751315e-39
-377.90491 474.39838 280 1.1974642e-39
-320.18835 502.12558 270 1.1059874e-39
-339.67566 506.6246 270 1.1056245e-39
-335.17664 526.112 270 1.1970984e-39
-313.4397 531.35669 270 1.0137876e-39
-316.42224 696.25391 280 8.2939773e-40
-314.17273 705.99762 280 8.2939913e-40
-280.4425 718.73645 270 8.2939633e-40
-224.97546 736.71997 270 9.2123603e-40
-222.72595 746.46362 270 8.2939773e-40
-230.22021 758.45685 270 1.3829358e-39
663.97589 808.59058 200 4.7160966e-39
603.26422 812.34399 210 4.53279e-39
634.74481 815.33911 200 4.4416719e-39
595.77002 824.33722 210 4.2583737e-39
598.01953 834.08087 210 4.4427551e-39
639.24384 834.82654 200 4.5345934e-39
610.01276 841.57507 210 1.2174439e-38
612.26227 851.31879 200 9.3935118e-39
624.25549 858.81293 200 1.0128899e-38
624.25549 858.81293 200 1.1136584e-38
626.505 868.55664 200 1.0862138e-38
628.75452 878.30035 200 1.3435704e-38
628.75452 878.30035 200 1.6101079e-38
631.00409 888.04407 200 1.5279244e-38
631.00409 888.04407 200 1.3918981e-38
633.2536 897.78772 200 1.7623804e-38
635.50311 907.53143 200 5.8257176e-39
635.50311 907.53143 200 5.6434829e-39
608.52155 924.02368 210 5.6449389e-39
598.77783 926.27319 210 6.1041122e-39
610.77106 933.7674 210 5.9197181e-39
620.51477 931.51788 210 6.0144431e-39
622.76428 941.2616 210 6.1059324e-39
625.01379 951.00525 210 6.8416856e-39
430.13983 995.99567 220 8.6888156e-39
432.38934 1005.7394 220 1.2266717e-38
432.38934 1005.7394 220 2.2582921e-38
424.89514 1017.7326 220 1.6505156e-38
427.14471 1027.4763 220 2.8559009e-39
429.39423 1037.22 220 1.7502708e-39
429.39423 1037.22 220 1.5662397e-39
431.64374 1046.9637 220 1.658078e-39
433.89325 1056.7074 220 1.7502722e-39
436.14276 1066.451 220 1.5662425e-39
367.93689 1082.1978 230 1.5662439e-39
292.23682 1109.9376 230 1.5665984e-39
209.0426 1149.6707 240 1.6577207e-39
116.10461 1191.6533 250 1.566604e-39
-6.0644531 1240.3845 260 1.5658824e-39
-128.2334 1289.1156 270 1.3825673e-39
-492.49109 1445.0527 300 1.5669614e-39
-639.39209 1520.0199 320 1.7506296e-39
-1427.8608 1927.8401 390 1.6587955e-39
-1313.9314 1932.3264 380 1.7506296e-39
-1289.9451 1947.3148 380 1.6587955e-39
-1285.446 1966.8021 380 2.0261374e-39
-1307.9285 2002.7819 380 1.8424679e-39
-1266.7043 2003.5275 380 1.8421147e-39
-1149.7798 1976.5332 370 1.6595157e-39
-1108.5554 1977.2788 360 1.8421091e-39
-1084.5691 1992.2672 360 1.750275e-39
-1089.8137 2014.004 360 1.8424679e-39
-1048.5894 2014.7498 360 1.9346607e-39
-1152.0166 2100.2061 370 1.7509911e-39
-484.95886 1833.3096 310 1.8424721e-39
-443.7345 1834.0552 310 1.8428238e-39
-441.48499 1843.7988 310 1.9346621e-39
-436.98596 1863.2863 310 1.8428336e-39
-424.9928 1870.7804 310 1.7509925e-39
-439.98108 1894.7668 310 1.7506352e-39
-425.7384 1912.0048 310 1.9346635e-39
-433.23254 1923.9979 310 1.6595157e-39
-428.73352 1943.4854 310 1.6591556e-39
-424.2345 1962.9727 310 2.0272193e-39
-412.24121 1970.4669 310 1.9353753e-39
-373.26648 1961.4689 300 2.2108888e-39
-130.43225 1813.0385 280 2.1186974e-39
-152.91479 1849.0181 280 2.210893e-39
-150.66528 1858.7618 280 2.1190519e-39
-438.46448 2079.1514 310 2.394564e-39
-470.6908 2117.3806 310 2.0272193e-39
-1017.8037 2592.6357 370 2.1183359e-39
-927.11523 2540.9094 360 1.8431923e-39
-920.3667 2570.1406 360 1.9368201e-39
-925.61133 2591.8774 360 2.0290171e-39
-921.1123 2611.3647 360 1.8446343e-39
-914.36377 2640.5959 360 1.9382704e-39
-909.86475 2660.0835 360 1.7542449e-39
-915.10938 2681.8203 360 2.0297458e-39
-900.8667 2699.0581 360 2.1219386e-39
-896.36768 2718.5454 360 2.1212184e-39
-867.13647 2711.7969 360 2.0290255e-39
-835.65601 2714.792 350 2.0293843e-39
-729.97925 2639.0793 340 2.0293829e-39
-428.89819 209.06897 260 1.4751329e-39
-426.64868 218.81268 260 1.3832974e-39
-402.66223 233.80103 260 1.4754874e-39
-398.16321 253.28845 260 1.1067119e-39
-395.9137 263.03217 260 1.0155869e-39
-381.67102 280.27002 260 1.0152295e-39
-367.42822 297.50787 260 1.106349e-39
-355.43506 305.00208 260 9.2231363e-40
-372.67285 319.24481 260 9.2159196e-40
-382.41663 321.49432 260 1.0145093e-39
-380.16711 331.23804 260 7.3792377e-40
-375.66809 350.72543 260 7.3792657e-40
-373.41846 360.46915 260 9.2123883e-40
-359.17578 377.707 260 8.29039e-40
-347.1825 385.20117 260 8.2940054e-40
-342.68347 404.68857 260 7.3720631e-40
-352.42725 406.93811 260 7.372021e-40
-338.18445 424.17596 260 7.372021e-40
-367.41553 430.92453 260 7.372021e-40
-377.90491 474.39838 260 8.2939633e-40
-363.66211 491.63626 260 7.3756084e-40
-359.16309 511.12366 260 9.2123323e-40
-356.91357 520.86731 260 9.208773e-40
-344.92041 528.36151 260 9.2123183e-40
-330.67761 545.59937 260 8.2831873e-40
-282.70471 575.57611 260 8.2939773e-40
-343.4165 579.32953 260 7.3756084e-40
-394.38452 580.83344 270 8.29039e-40
-358.40479 603.31598 260 9.2123183e-40
-373.39319 627.30243 270 1.0127086e-39
-380.88733 639.29565 270 9.2051717e-40
-347.90283 693.25879 270 1.0127114e-39
-314.17273 705.99762 260 7.3756224e-40
-299.92993 723.23547 260 8.2939773e-40
-215.23181 734.4704 260 1.0130659e-39
-212.9823 744.21411 260 8.290376e-40
-220.47644 756.20734 260 1.4740469e-39
671.47009 796.59735 190 4.4416677e-39
654.23224 810.84009 200 4.6249828e-39
644.48853 813.0896 200 4.0725419e-39
634.74481 815.33911 200 4.4416733e-39
627.25061 827.33234 200 4.3505539e-39
636.99432 825.08282 200 4.8097412e-39
639.24384 834.82654 200 4.1658179e-39
639.24384 834.82654 200 4.9916073e-39
631.74969 846.8197 200 4.9033801e-39
622.00598 849.06927 200 4.7207825e-39
633.99921 856.56342 200 4.9023025e-39
624.25549 858.81293 200 5.2721655e-39
616.76135 870.80615 200 5.0885057e-39
628.75452 878.30035 200 4.9069857e-39
628.75452 878.30035 200 5.2718137e-39
621.26038 890.29358 200 5.4583602e-39
621.26038 890.29358 200 5.4583574e-39
633.2536 897.78772 200 5.6423857e-39
623.50989 900.03723 200 5.6427697e-39
635.50311 907.53143 200 5.6424165e-39
618.26526 921.77417 200 5.6431424e-39
598.77783 926.27319 200 6.2863468e-39
610.77106 933.7674 200 6.0137256e-39
457.1214 979.50342 210 6.6587279e-39
430.13983 995.99567 210 7.8597822e-39
432.38934 1005.7394 210 4.6141507e-39
422.64563 1007.9889 220 1.2633331e-38
424.89514 1017.7326 220 1.2820544e-38
427.14471 1027.4763 220 2.3499124e-38
429.39423 1037.22 220 1.8424679e-39
429.39423 1037.22 220 1.1985348e-39
431.64374 1046.9637 220 1.4736881e-39
433.89325 1056.7074 220 1.3822128e-39
436.14276 1066.451 220 1.5651635e-39
377.68054 1079.9482 220 1.381854e-39
331.21155 1100.9395 220 1.5662383e-39
238.27368 1142.9221 230 1.5655236e-39
152.82996 1172.9115 240 1.5662355e-39
40.404541 1219.3932 250 1.4740441e-39
-62.2771 1263.6252 250 1.6573563e-39
-172.45288 1319.8506 260 1.6573563e-39
-407.04724 1415.0635 280 1.4736895e-39
-629.64844 1517.7704 300 1.5658796e-39
-1313.9314 1932.3264 360 1.7499135e-39
-1272.7073 1933.072 350 1.6577207e-39
-1312.4275 1983.2944 360 1.3825687e-39
-1298.1848 2000.5323 350 1.841749e-39
-1247.2168 1999.0284 350 1.7506282e-39
-1159.5234 1978.7827 340 1.7499121e-39
-1125.7935 1991.5216 340 1.7491974e-39
-1094.3127 1994.5167 340 1.6587941e-39
-1089.8137 2014.004 340 1.750631e-39
-1046.3398 2024.4934 340 1.7499149e-39
-1181.2478 2106.9546 350 1.6587983e-39
-492.453 1845.3027 290 1.750275e-39
-453.47827 1836.3047 290 1.7499121e-39
-441.48499 1843.7988 290 1.6584367e-39
-436.98596 1863.2863 290 1.8413875e-39
-434.73645 1873.0299 290 1.4751259e-39
-439.98108 1894.7668 290 1.658078e-39
-425.7384 1912.0048 290 1.750275e-39
-433.23254 1923.9979 290 1.6584409e-39
-428.73352 1943.4854 290 1.8424693e-39
-424.2345 1962.9727 290 2.0265004e-39
-412.24121 1970.4669 290 1.8431867e-39
-373.26648 1961.4689 290 2.1186988e-39
-113.19446 1798.7957 270 1.6588053e-39
-155.16431 1839.2744 270 1.7506324e-39
-150.66528 1858.7618 270 1.7513498e-39
-448.20825 2081.4009 300 1.7509939e-39
-478.18494 2129.374 300 1.6598745e-39
-1008.0601 2590.3862 340 2.0265032e-39
-917.37158 2538.6599 340 2.0261389e-39
-920.3667 2570.1406 340 2.0268605e-39
-925.61133 2591.8774 340 1.6598745e-39
-921.1123 2611.3647 340 1.9346635e-39
-916.61328 2630.8521 340 2.0268605e-39
-912.11426 2650.3396 340 1.8428364e-39
-915.10938 2681.8203 340 1.8431895e-39
-900.8667 2699.0581 340 1.9350306e-39
-906.11133 2720.7949 340 2.0272193e-39
-891.86865 2738.033 340 2.0272221e-39
-852.8938 2729.0347 330 2.0275752e-39
-737.47339 2651.0725 330 2.1190533e-39
-419.15454 206.81946 250 8.2867186e-40
-426.64868 218.81268 250 7.3648884e-40
-402.66223 233.80103 250 1.1041868e-39
-398.16321 253.28845 250 7.3684197e-40
-395.9137 263.03217 250 5.5281505e-40
-393.66418 272.77582 250 5.5281084e-40
-379.42151 290.01373 250 5.5317238e-40
-377.172 299.75745 250 6.4464914e-40
-384.66614 311.75061 250 6.4500928e-40
-382.41663 321.49432 250 5.5317098e-40
-368.17383 338.73221 250 7.3684477e-40
-365.92432 348.47592 250 5.5353111e-40
-363.6748 358.2196 250 6.4500928e-40
-359.17578 377.707 250 6.4500647e-40
-356.92627 387.45071 250 7.3648744e-40
-332.93982 402.43906 250 7.3684337e-40
-352.42725 406.93811 250 8.2867887e-40
-347.92822 426.42551 250 8.2868167e-40
-367.41553 430.92453 250 8.290362e-40
-343.42908 445.9129 250 7.372035e-40
-350.92334 457.90613 250 6.4536801e-40
-389.89807 466.90421 250 8.290404e-40
-387.64856 476.64789 250 8.29039e-40
-363.66211 491.63626 250 9.208745e-40
-361.4126 501.37994 250 9.2087309e-40
-356.91357 520.86731 250 1.0130701e-39
-344.92041 528.36151 250 1.0137848e-39
-340.42126 547.84888 250 1.0130687e-39
-296.94751 558.33826 250 8.2939633e-40
-260.96777 580.8208 250 8.2939633e-40
-321.67957 584.57422 250 8.290376e-40
-382.39124 588.32764 250 9.2123323e-40
-358.40479 603.31598 250 9.208745e-40
-373.39319 627.30243 250 1.0127114e-39
-371.14368 637.04614 250 9.2123043e-40
-356.90088 654.284 250 9.2123043e-40
-354.65137 664.02771 250 1.1041854e-39
-362.14551 676.02087 250 1.1045455e-39
-359.896 685.76459 250 1.0130659e-39
-345.65332 703.00244 250 9.208759e-40
-331.41052 720.24036 250 1.0130673e-39
-224.97546 736.71997 240 1.1052644e-39
-222.72595 746.46362 250 9.219535e-40
-220.47644 756.20734 250 1.4740497e-39
671.47009 796.59735 190 4.5309907e-39
654.23224 810.84009 190 4.3476854e-39
644.48853 813.0896 190 4.3487574e-39
634.74481 815.33911 190 4.4431097e-39
636.99432 825.08282 190 4.4416817e-39
636.99432 825.08282 190 4.7164694e-39
639.24384 834.82654 190 4.5342375e-39
639.24384 834.82654 190 4.351291e-39
631.74969 846.8197 190 4.5338844e-39
631.74969 846.8197 190 5.0856092e-39
633.99921 856.56342 190 4.5360438e-39
624.25549 858.81293 190 4.5374815e-39
616.76135 870.80615 190 4.8129908e-39
616.76135 870.80615 190 5.1806859e-39
609.26715 882.79938 190 5.4580071e-39
599.52344 885.04889 190 5.5494796e-39
592.0293 897.04211 200 5.7342436e-39
625.7594 909.78094 190 5.6431284e-39
628.00891 919.52466 190 5.8275183e-39
608.52155 924.02368 190 5.736752e-39
610.77106 933.7674 190 6.1048296e-39
422.64563 1007.9889 210 3.3237735e-39
422.64563 1007.9889 210 1.0975239e-38
424.89514 1017.7326 210 2.3509886e-38
427.14471 1027.4763 210 2.121389e-38
429.39423 1037.22 210 2.0264976e-39
429.39423 1037.22 210 1.6570004e-39
431.64374 1046.9637 210 1.4736867e-39
433.89325 1056.7074 210 1.6570018e-39
436.14276 1066.451 210 1.474407e-39
406.91168 1073.1997 210 1.5655236e-39
340.95532 1098.6899 210 1.656999e-39
265.25525 1126.4299 220 1.5655236e-39
182.06104 1166.163 230 1.381854e-39
79.379395 1210.395 230 1.5655222e-39
-13.558594 1252.3777 240 1.5655222e-39
-133.47815 1310.8525 250 1.4740427e-39
-282.62866 1376.0759 260 1.4736853e-39
-612.41052 1503.5276 280 1.5658782e-39
-1348.4199 1827.3953 330 1.2900186e-39
-1323.6753 1934.5759 330 1.2903745e-39
-1280.2014 1945.0653 330 1.4740427e-39
-1312.4275 1983.2944 330 1.5662411e-39
-1298.1848 2000.5323 330 1.4744042e-39
-1256.9604 2001.278 330 1.6573591e-39
-1169.2673 1981.0322 320 1.2903773e-39
-1135.5371 1993.7711 320 1.5655208e-39
-1104.0564 1996.7662 320 1.2896598e-39
-1089.8137 2014.004 320 1.6580794e-39
-1048.5894 2014.7498 320 1.5651649e-39
-1161.7605 2102.4556 330 1.3818512e-39
-492.453 1845.3027 280 1.4740469e-39
-453.47827 1836.3047 280 1.4744056e-39
-448.97925 1855.792 280 1.4736853e-39
-436.98596 1863.2863 280 1.5655236e-39
-434.73645 1873.0299 280 1.5666026e-39
-439.98108 1894.7668 280 1.5662439e-39
-435.48206 1914.2543 280 1.4744056e-39
-433.23254 1923.9979 280 1.4744042e-39
-428.73352 1943.4854 280 1.6584409e-39
-414.49072 1960.7231 280 1.4744042e-39
-412.24121 1970.4669 280 1.4740469e-39
-383.01013 1963.7184 270 1.4744056e-39
-103.45068 1796.5461 250 1.6577305e-39
-145.42065 1837.0249 260 1.3822142e-39
-371.76257 2012.4368 270 1.4736895e-39
-465.44604 2095.6438 280 1.4744056e-39
-478.18494 2129.374 280 1.5666054e-39
-803.45508 2409.7295 310 1.4747671e-39
-1027.5474 2594.8853 320 1.4740497e-39
-917.37158 2538.6599 320 1.5655292e-39
-920.3667 2570.1406 320 1.659157e-39
-915.86768 2589.6279 320 1.4744098e-39
-911.36865 2609.1152 320 1.3822156e-39
-916.61328 2630.8521 320 1.6584381e-39
-902.37061 2648.0901 320 1.6587997e-39
-915.10938 2681.8203 320 1.7502722e-39
-900.8667 2699.0581 320 1.566604e-39
-896.36768 2718.5454 320 1.6584353e-39
-867.13647 2711.7969 320 1.6584409e-39
-783.94238 2672.064 310 1.8428266e-39
-712.74121 2624.8364 300 1.7506366e-39
-428.89819 209.06897 240 1.7488303e-39
-426.64868 218.81268 240 1.565518e-39
-402.66223 233.80103 240 1.2889325e-39
-410.15649 245.79425 240 1.2892913e-39
-395.9137 263.03217 240 1.0123499e-39
-393.66418 272.77582 240 9.208759e-40
-379.42151 290.01373 240 7.3684197e-40
-386.91565 302.00696 240 6.4465054e-40
-384.66614 311.75061 240 5.5317098e-40
-382.41663 321.49432 240 5.5281084e-40
-368.17383 338.73221 240 6.4500787e-40
-365.92432 348.47592 240 6.4465054e-40
-363.6748 358.2196 240 7.372035e-40
-359.17578 377.707 240 5.5245211e-40
-356.92627 387.45071 240 6.4464914e-40
-320.94666 409.93323 230 7.361245e-40
-340.43396 414.43228 240 6.4536661e-40
-338.18445 424.17596 240 5.5317098e-40
-345.67871 436.16919 240 7.372021e-40
-341.17957 455.65659 240 6.4500928e-40
-350.92334 457.90613 240 8.2867466e-40
-380.15442 464.65466 240 6.4501068e-40
-377.90491 474.39838 240 8.290404e-40
-363.66211 491.63626 240 9.2123183e-40
-361.4126 501.37994 240 1.1052587e-39
-356.91357 520.86731 240 1.0130673e-39
-354.66406 530.61108 240 1.1049042e-39
-340.42126 547.84888 240 1.0130673e-39
-306.69116 560.58777 240 9.2123323e-40
-304.44165 570.33142 230 9.2123603e-40
-299.94263 589.81885 230 9.2123183e-40
-329.17371 596.56738 240 8.2939913e-40
-317.18054 604.06158 240 9.2087169e-40
-334.41833 618.30432 240 6.4536801e-40
-341.9126 630.29755 240 7.3755943e-40
-361.3999 634.79657 240 6.4500787e-40
-356.90088 654.284 240 6.4536941e-40
-354.65137 664.02771 240 3.6986432e-40
-362.14551 676.02087 240 6.4500928e-40
-359.896 685.76459 240 5.5353531e-40
-335.90967 700.75293 240 5.5317238e-40
-311.92322 715.74133 240 5.5281645e-40
-224.97546 736.71997 230 6.4501068e-40
-222.72595 746.46362 230 5.5281365e-40
-220.47644 756.20734 230 1.5669656e-39
690.95746 792.09827 180 4.5305703e-39
661.72638 798.84686 180 4.7171798e-39
651.98267 801.09637 180 4.5324326e-39
644.48853 813.0896 180 4.1658081e-39
625.0011 817.58862 190 4.4406041e-39
627.25061 827.33234 190 4.2562157e-39
627.25061 827.33234 190 4.4420363e-39
629.50018 837.07605 190 4.0754103e-39
629.50018 837.07605 190 4.4427509e-39
610.01276 841.57507 190 4.6264345e-39
602.51862 853.5683 190 4.5363927e-39
604.76813 863.31201 190 4.6278765e-39
604.76813 863.31201 190 5.1785265e-39
607.01764 873.05566 190 5.2707221e-39
607.01764 873.05566 190 4.9955758e-39
609.26715 882.79938 190 5.2739605e-39
580.03607 889.54797 190 5.6406047e-39
637.75262 917.27515 190 5.5534397e-39
432.38934 1005.7394 200 3.1383158e-39
422.64563 1007.9889 200 9.8678051e-39
424.89514 1017.7326 200 1.1252885e-38
427.14471 1027.4763 200 1.4569014e-38
429.39423 1037.22 200 8.0971103e-39
429.39423 1037.22 200 1.013796e-39
431.64374 1046.9637 200 1.0134289e-39
433.89325 1056.7074 200 9.2159476e-40
436.14276 1066.451 200 8.2975787e-40
436.14276 1066.451 200 9.219535e-40
370.1864 1091.9414 200 8.2940194e-40
284.74268 1121.9308 210 8.30118e-40
221.03577 1157.1648 210 1.0134317e-39
128.0979 1199.1475 220 9.2123603e-40
25.41626 1243.3796 230 9.2159336e-40
-116.24023 1296.6099 230 1.0134289e-39
-272.88501 1373.8264 240 7.3828391e-40
-487.99194 1464.5403 260 8.2976067e-40
-1323.6753 1934.5759 310 1.0134303e-39
-1299.6887 1949.5643 310 1.0134289e-39
-1312.4275 1983.2944 310 7.3792517e-40
-1288.4412 1998.2828 310 1.0134317e-39
-1227.7295 1994.5294 310 1.1056259e-39
-1140.0361 1974.2837 300 1.0137918e-39
-1098.8118 1975.0293 300 9.2231503e-40
-1074.8254 1990.0177 300 8.3047953e-40
-1053.0884 1995.2623 300 1.0137932e-39
-1038.8457 2012.5002 290 1.0145107e-39
-1051.5845 2046.2303 300 9.219577e-40
-1020.104 2049.2256 290 1.0141477e-39
-492.453 1845.3027 260 1.198539e-39
-453.47827 1836.3047 260 1.1059874e-39
-441.48499 1843.7988 260 1.1989019e-39
-436.98596 1863.2863 260 1.1985362e-39
-434.73645 1873.0299 260 1.2903745e-39
-430.23743 1892.5173 260 1.1067063e-39
-425.7384 1912.0048 260 1.2900186e-39
-423.48889 1921.7484 260 1.2903801e-39
-418.98975 1941.2358 260 1.4740469e-39
-416.74023 1950.9795 260 1.2900186e-39
-402.49756 1968.2174 260 1.2907402e-39
-373.26648 1961.4689 260 1.2907346e-39
-113.19446 1798.7957 240 1.4740497e-39
-135.67688 1834.7754 240 1.5662411e-39
-344.78101 1995.9446 260 1.4744028e-39
-448.20825 2081.4009 260 1.6577207e-39
-460.94702 2115.1311 260 1.3825715e-39
-803.45508 2409.7295 290 1.5658866e-39
-1000.5659 2578.3931 300 1.3825715e-39
-907.62793 2536.4104 290 1.5662439e-39
-912.87256 2558.1475 300 1.3825743e-39
-915.86768 2589.6279 300 1.2903787e-39
-911.36865 2609.1152 300 1.4740497e-39
-906.86963 2628.6025 300 1.474407e-39
-892.62695 2645.8406 300 1.5655292e-39
-905.36572 2679.5708 300 1.5658908e-39
-893.37256 2687.0649 300 1.4744084e-39
-896.36768 2718.5454 300 1.4736881e-39
-849.89868 2697.5542 290 1.4740469e-39
-801.18018 2686.3066 290 1.6577207e-39
-840.90063 2736.5291 290 1.4740497e-39
-428.89819 209.06897 220 1.749189e-39
-426.64868 218.81268 220 1.5651621e-39
-402.66223 233.80103 220 1.5662397e-39
-410.15649 245.79425 220 1.1978173e-39
-405.65747 265.28168 220 1.1049056e-39
-393.66418 272.77582 220 1.0130673e-39
-389.16516 292.26324 220 8.290376e-40
-386.91565 302.00696 220 8.2867887e-40
-384.66614 311.75061 220 8.29039e-40
-382.41663 321.49432 220 1.0127086e-39
-368.17383 338.73221 220 9.2051436e-40
-365.92432 348.47592 220 6.4500928e-40
-361.42529 367.96332 220 6.4464774e-40
-359.17578 377.707 220 4.6133548e-40
-347.1825 385.20117 220 5.5281084e-40
-330.69031 412.18277 220 5.5353111e-40
-340.43396 414.43228 220 6.4464774e-40
-338.18445 424.17596 220 5.5317098e-40
-345.67871 436.16919 220 5.5245351e-40
-343.42908 445.9129 220 6.4500787e-40
-372.66028 452.66147 220 5.5281505e-40
-380.15442 464.65466 230 5.5245772e-40
-377.90491 474.39838 230 6.4500787e-40
-363.66211 491.63626 220 5.5281224e-40
-361.4126 501.37994 220 6.4464774e-40
-356.91357 520.86731 220 6.4464914e-40
-354.66406 530.61108 220 6.4465054e-40
-340.42126 547.84888 220 6.4464914e-40
-328.4281 555.34314 220 5.5281365e-40
-326.17859 565.08679 220 5.5317518e-40
-290.19897 587.56934 220 6.4464634e-40
-297.69312 599.56256 220 5.5317238e-40
-295.4436 609.30627 220 4.6097815e-40
-324.67468 616.05481 220 5.5281224e-40
-341.9126 630.29755 230 6.4500787e-40
-349.40674 642.29077 230 6.4501068e-40
-337.41345 649.78491 230 6.4464634e-40
-342.6582 671.52185 230 5.5317098e-40
-340.40869 681.26556 230 5.5317238e-40
-328.41541 688.75977 230 6.4464914e-40
-272.94836 706.74323 220 6.4464774e-40
-280.4425 718.73645 220 4.6133968e-40
-236.96875 729.22577 220 6.4465054e-40
-232.46973 748.71313 220 5.5281365e-40
-230.22021 758.45685 220 1.4740511e-39
-227.97058 768.20056 220 1.4747713e-39
-213.72791 785.43842 220 1.4751301e-39
690.95746 792.09827 180 4.8975606e-39
661.72638 798.84686 180 4.2569191e-39
651.98267 801.09637 180 4.5313578e-39
654.23224 810.84009 180 4.4405887e-39
615.25745 819.83813 180 4.2576478e-39
615.25745 819.83813 180 4.4438229e-39
607.76324 831.83136 180 4.4409559e-39
617.50696 829.58185 180 4.0732607e-39
619.75647 839.32556 180 4.4413216e-39
610.01276 841.57507 180 4.717547e-39
602.51862 853.5683 180 4.5353277e-39
604.76813 863.31201 180 4.5338844e-39
604.76813 863.31201 180 4.811909e-39
607.01764 873.05566 180 5.3629276e-39
607.01764 873.05566 180 4.7208064e-39
599.52344 885.04889 180 4.9977408e-39
580.03607 889.54797 180 5.5487748e-39
432.38934 1005.7394 190 3.5063837e-39
422.64563 1007.9889 190 4.0634264e-39
424.89514 1017.7326 190 8.6707024e-39
427.14471 1027.4763 190 2.3509886e-38
429.39423 1037.22 190 2.3509886e-38
429.39423 1037.22 190 1.1981803e-39
431.64374 1046.9637 190 9.219563e-40
433.89325 1056.7074 190 1.0137918e-39
436.14276 1066.451 190 9.2124164e-40
484.86127 1055.2035 190 8.301166e-40
484.86127 1055.2035 190 1.0141519e-39
343.20483 1108.4337 200 9.219549e-40
257.76111 1138.4231 200 9.2231083e-40
174.56677 1178.1561 210 1.1052686e-39
81.628906 1220.1388 210 1.0137876e-39
-38.290649 1278.6136 220 1.0134345e-39
66.640503 1244.1252 210 1.0141477e-39
61.395874 1265.8621 210 1.1049084e-39
-1380.6462 1865.6244 290 1.0134317e-39
-1313.9314 1932.3264 290 1.104907e-39
-1289.9451 1947.3148 290 1.1052658e-39
-1349.1528 2002.0363 290 1.0134303e-39
-1344.6538 2021.5236 290 8.301194e-40
-1396.3674 2064.252 290 1.0134331e-39
-1232.9741 2016.2662 280 1.0137904e-39
-1199.2439 2029.0051 280 1.0130729e-39
-1121.2944 2011.0089 280 9.2159616e-40
-1060.5828 2007.2555 280 1.0137876e-39
-1038.8457 2012.5002 270 9.2159616e-40
-1041.8408 2043.9808 270 1.0134275e-39
-1029.8477 2051.4751 270 1.0134289e-39
-1015.605 2068.7129 270 1.013789e-39
-502.19678 1847.5522 250 9.219577e-40
-470.71606 1850.5474 250 9.2160037e-40
-458.7229 1858.0415 240 1.0145079e-39
-446.72961 1865.5358 240 1.0137904e-39
-432.48694 1882.7736 240 1.1052686e-39
-430.23743 1892.5173 240 1.1967425e-39
-425.7384 1912.0048 240 1.0134317e-39
-413.74512 1919.4989 240 1.0145121e-39
-411.49561 1929.2426 240 9.219549e-40
-397.25293 1946.4805 240 9.2267657e-40
-395.00342 1956.2241 240 1.1059874e-39
-363.52271 1959.2192 240 9.2231643e-40
-351.52954 1966.7135 240 9.2231643e-40
-356.77417 1988.4504 240 1.105986e-39
-344.78101 1995.9446 240 1.0141519e-39
-403.98877 2050.666 240 1.0141519e-39
-453.45288 2103.1379 250 9.2231363e-40
-837.93091 2438.2151 270 1.1056273e-39
-939.10864 2533.4153 280 1.1056301e-39
-907.62793 2536.4104 270 1.0137932e-39
-903.12891 2555.8979 270 1.1974628e-39
-908.37354 2577.6348 270 9.2232344e-40
-903.87451 2597.1221 270 1.0141519e-39
-899.37549 2616.6094 270 1.1056273e-39
-877.63867 2621.854 270 1.0141519e-39
-905.36572 2679.5708 280 9.2267797e-40
-893.37256 2687.0649 270 1.0145135e-39
-896.36768 2718.5454 280 1.0148722e-39
-926.34448 2766.5186 280 1.1981789e-39
-428.89819 209.06897 210 1.7495464e-39
-426.64868 218.81268 210 1.7495534e-39
-402.66223 233.80103 210 1.5662411e-39
-410.15649 245.79425 210 1.0134303e-39
-407.90698 255.53796 210 1.0134275e-39
-393.66418 272.77582 210 9.2051717e-40
-389.16516 292.26324 210 8.290376e-40
-386.91565 302.00696 210 7.3684337e-40
-384.66614 311.75061 210 9.2087169e-40
-382.41663 321.49432 210 7.3684337e-40
-368.17383 338.73221 210 7.3684477e-40
-365.92432 348.47592 210 9.2051857e-40
-361.42529 367.96332 210 9.2087309e-40
-359.17578 377.707 210 8.2939633e-40
-356.92627 387.45071 210 8.2867887e-40
-332.93982 402.43906 210 8.290362e-40
-340.43396 414.43228 210 6.4536521e-40
-338.18445 424.17596 210 5.5281365e-40
-345.67871 436.16919 210 6.4465054e-40
-353.17285 448.16241 210 6.453638e-40
-372.66028 452.66147 210 5.5352831e-40
-380.15442 464.65466 210 5.5317238e-40
-377.90491 474.39838 210 6.4501068e-40
-363.66211 491.63626 210 7.361245e-40
-361.4126 501.37994 210 6.4500787e-40
-356.91357 520.86731 210 6.4465194e-40
-354.66406 530.61108 210 6.4501068e-40
-340.42126 547.84888 210 5.5317378e-40
-316.43494 562.83728 210 5.5316958e-40
-304.44165 570.33142 210 7.3684477e-40
-280.4552 585.31982 210 6.4464634e-40
-287.94946 597.31305 210 6.4464914e-40
-285.69983 607.05676 210 6.4464774e-40
-324.67468 616.05481 210 7.3612591e-40
-341.9126 630.29755 210 5.5281224e-40
-339.66309 640.04126 210 6.4500647e-40
-337.41345 649.78491 210 5.5281224e-40
-332.91443 669.27234 210 5.5317518e-40
-330.66492 679.01605 210 5.5245912e-40
-328.41541 688.75977 210 6.4500647e-40
-323.91638 708.24713 210 6.4465194e-40
-321.66687 717.99084 210 6.4465335e-40
-287.93677 730.72968 210 4.6133828e-40
-275.94348 738.22388 210 6.4465475e-40
-251.95703 753.21222 210 1.1992621e-39
-247.45801 772.69958 210 1.4751287e-39
-225.72107 777.94427 210 1.3836505e-39
690.95746 792.09827 170 4.6242219e-39
671.47009 796.59735 170 4.6242681e-39
651.98267 801.09637 170 4.6246198e-39
603.26422 812.34399 180 4.255494e-39
605.51373 822.08765 180 4.3491148e-39
605.51373 822.08765 180 4.6257101e-39
607.76324 831.83136 180 4.2562115e-39
607.76324 831.83136 180 4.5327871e-39
619.75647 839.32556 180 4.2580107e-39
600.26904 843.82458 180 4.5324494e-39
602.51862 853.5683 180 4.350928e-39
604.76813 863.31201 180 4.4438327e-39
604.76813 863.31201 180 4.8122663e-39
607.01764 873.05566 180 4.9959359e-39
607.01764 873.05566 180 5.0888616e-39
599.52344 885.04889 180 5.1785335e-39
580.03607 889.54797 180 5.3640164e-39
610.77106 933.7674 180 5.9207985e-39
422.64563 1007.9889 180 1.8442923e-39
424.89514 1017.7326 180 7.6536736e-39
427.14471 1027.4763 180 9.5058258e-39
429.39423 1037.22 180 1.5311602e-38
429.39423 1037.22 180 1.566967e-39
431.64374 1046.9637 180 1.0130757e-39
443.63696 1054.4579 180 9.219577e-40
445.88647 1064.2015 180 9.219535e-40
506.59821 1060.4481 180 1.0127128e-39
508.84772 1070.1919 180 1.0130701e-39
147.58521 1194.6484 200 9.2124024e-40
140.09106 1206.6416 200 9.2123463e-40
76.384277 1241.8757 200 8.2975927e-40
71.139526 1263.6125 200 8.2940194e-40
65.894897 1285.3495 200 9.2123603e-40
-102.74316 1355.072 210 9.2123883e-40
-193.43152 1406.7983 210 9.2123463e-40
-1289.9451 1947.3148 260 9.2123743e-40
-1415.1091 2027.5266 270 9.2159476e-40
-1048.5894 2014.7498 250 1.0134303e-39
-1061.3284 2048.48 250 9.219563e-40
-1010.3604 2046.976 250 1.0134289e-39
-996.11743 2064.2139 250 9.2159336e-40
-991.61841 2083.7012 250 1.0134317e-39
-514.18994 1840.0581 230 9.219577e-40
-502.19678 1847.5522 230 1.0141449e-39
-470.71606 1850.5474 230 1.0137904e-39
-458.7229 1858.0415 230 1.0134317e-39
-446.72961 1865.5358 230 9.219563e-40
-432.48694 1882.7736 230 1.0134331e-39
-403.25586 1876.025 230 1.0137918e-39
-398.75684 1895.5125 230 9.219549e-40
-396.50732 1905.2561 230 8.301222e-40
-384.51404 1912.7504 230 1.0137918e-39
-370.27136 1929.9882 230 1.0137904e-39
-358.27808 1937.4824 230 9.219577e-40
-356.02856 1947.2261 230 1.0137876e-39
-351.52954 1966.7135 230 1.0145093e-39
-349.28003 1976.4572 230 1.0137918e-39
-327.54309 1981.7018 220 1.0137932e-39
-350.02563 2017.6815 230 1.1056315e-39
-347.77612 2027.4252 230 1.1974656e-39
-840.18042 2428.4714 250 8.3047953e-40
-912.12695 2516.9229 250 1.1056245e-39
-890.39014 2522.1675 250 1.0141547e-39
-885.89111 2541.655 250 1.1059888e-39
-888.88623 2573.1357 250 1.1974656e-39
-884.38721 2592.623 250 1.1981831e-39
-872.3938 2600.1172 250 1.1063448e-39
-823.67529 2588.8696 250 1.1981803e-39
-905.36572 2679.5708 250 1.1067021e-39
-858.89673 2658.5796 250 1.0141533e-39
-837.15991 2663.8242 250 1.1981845e-39
-2630.6191 4453.1265 340 1.1974628e-39
-428.89819 209.06897 200 1.8410259e-39
-426.64868 218.81268 200 1.7499135e-39
-412.40601 236.0506 200 1.289657e-39
-419.90015 248.04376 200 1.0134303e-39
-407.90698 255.53796 200 1.1056245e-39
-393.66418 272.77582 200 9.208759e-40
-389.16516 292.26324 200 1.0127086e-39
-389.16516 292.26324 200 9.2087309e-40
-384.66614 311.75061 200 8.2867887e-40
-382.41663 321.49432 200 9.2123323e-40
-368.17383 338.73221 200 8.2939913e-40
-365.92432 348.47592 200 1.1045441e-39
-361.42529 367.96332 200 8.2939773e-40
-359.17578 377.707 200 8.2868027e-40
-356.92627 387.45071 200 9.2051717e-40
-330.69031 412.18277 200 8.2867887e-40
-330.69031 412.18277 200 9.2051576e-40
-357.67188 428.67502 200 7.3756224e-40
-377.1593 433.17407 200 9.2087309e-40
-374.90979 442.91776 200 8.290376e-40
-394.39709 447.41681 200 7.3684197e-40
-380.15442 464.65466 200 6.4464914e-40
-377.90491 474.39838 200 5.5281365e-40
-363.66211 491.63626 200 6.4500647e-40
-361.4126 501.37994 200 5.5281365e-40
-356.91357 520.86731 200 6.4500787e-40
-354.66406 530.61108 200 6.4500928e-40
-340.42126 547.84888 200 7.3648604e-40
-328.4281 555.34314 200 7.3720491e-40
-292.44849 577.82562 200 7.3684477e-40
-280.4552 585.31982 200 7.3684197e-40
-287.94946 597.31305 200 6.4500787e-40
-273.70667 614.5509 200 7.3720491e-40
-324.67468 616.05481 200 5.5389124e-40
-341.9126 630.29755 200 8.29039e-40
-349.40674 642.29077 200 7.3684477e-40
-337.41345 649.78491 200 9.2015143e-40
-332.91443 669.27234 200 1.0123527e-39
-330.66492 679.01605 200 9.2015983e-40
-328.41541 688.75977 200 1.0127128e-39
-323.91638 708.24713 200 1.0127128e-39
-331.41052 720.24036 200 1.2889367e-39
-309.67371 725.48499 200 1.1052672e-39
-305.17456 744.97241 200 1.2892969e-39
-281.18811 759.96075 200 1.3829302e-39
-278.9386 769.70447 200 1.3829344e-39
-235.46484 780.19379 200 1.2918192e-39
-252.70264 794.43652 200 4.7149896e-39
702.95068 799.59247 170 4.3473127e-39
693.20703 801.84198 170 4.166527e-39
593.52051 814.59351 170 4.349835e-39
593.52051 814.59351 170 4.5317152e-39
605.51373 822.08765 170 4.2558555e-39
607.76324 831.83136 170 4.3476854e-39
617.50696 829.58185 170 4.1647277e-39
629.50018 837.07605 170 4.1661696e-39
600.26904 843.82458 170 4.1661836e-39
602.51862 853.5683 170 4.6268087e-39
604.76813 863.31201 170 4.5349648e-39
604.76813 863.31201 170 5.178881e-39
607.01764 873.05566 170 4.9959513e-39
607.01764 873.05566 170 5.0863463e-39
599.52344 885.04889 170 4.9980911e-39
580.03607 889.54797 170 4.9966548e-39
610.77106 933.7674 170 5.8271637e-39
422.64563 1007.9889 180 3.0410195e-39
424.89514 1017.7326 180 4.246003e-39
436.88837 1025.2268 180 7.2845324e-39
439.13788 1034.9705 180 2.3509886e-38
439.13788 1034.9705 180 2.3479393e-38
441.38745 1044.7141 180 3.1314102e-39
443.63696 1054.4579 180 2.5811119e-39
445.88647 1064.2015 180 2.8559009e-39
445.88647 1064.2015 180 2.6729446e-39
518.59137 1067.9424 170 2.8569757e-39
501.35352 1082.1851 170 2.8580589e-39
75.63855 1283.1 190 3.6874524e-39
-27.043091 1327.3322 190 3.7785761e-39
-173.94409 1402.2993 200 3.6885343e-39
-1024.603 2029.738 230 6.5329081e-39
-993.12231 2032.7332 230 6.4382083e-39
-969.13599 2047.7216 230 7.7271297e-39
-937.65527 2050.7168 230 8.1859512e-39
-514.18994 1840.0581 210 8.0941129e-39
-502.19678 1847.5522 210 8.1852268e-39
-480.45984 1852.7969 210 7.9086483e-39
-448.97925 1855.792 210 7.8160939e-39
-446.72961 1865.5358 210 7.8168072e-39
-434.73645 1873.0299 210 7.6313383e-39
-393.51208 1873.7755 210 7.2636418e-39
-381.51892 1881.2697 210 7.0796065e-39
-379.26941 1891.0134 210 6.7115526e-39
-365.02661 1908.2512 210 6.2512919e-39
-353.03345 1915.7455 210 1.4736895e-39
-341.04016 1923.2396 210 1.566604e-39
-336.54114 1942.7271 210 1.5669628e-39
-341.78589 1964.464 210 1.4740511e-39
-339.53625 1974.2076 210 4.7826415e-39
-327.54309 1981.7018 210 4.6900913e-39
-340.28198 2015.432 210 4.5067748e-39
-338.03247 2025.1757 210 4.1394413e-39
-837.93091 2438.2151 230 3.6799009e-39
-912.12695 2516.9229 230 3.7724524e-39
