# .PCD v0.7 - Point Cloud Data file format
VERSION 0.7
FIELDS x y z rgb
SIZE 4 4 4 4
TYPE F F F F
COUNT 1 1 1 1
WIDTH 1238
HEIGHT 1
VIEWPOINT 0 0 0 1 0 0 0
POINTS 1238
DATA ascii
-924.28491 775.01245 830 2.0290227e-39
-931.77905 787.00568 830 2.857696e-39
-927.28003 806.4931 830 6.7280922e-39
-922.78101 825.98047 830 1.7151201e-38
-918.28198 845.4679 830 2.0284458e-38
343.17944 841.6004 450 2.1669196e-38
335.6853 853.59363 460 2.1762098e-38
335.6853 853.59363 460 2.2498587e-38
337.93481 863.33734 460 2.2677939e-38
330.44067 875.33057 460 2.3509886e-38
431.63104 913.54706 430 2.3509852e-38
392.65625 922.54517 440 2.3303882e-38
375.41833 936.7879 450 8.2994676e-39
385.16211 934.53833 450 1.8898645e-38
416.6427 937.53351 440 2.3509886e-38
421.14172 957.02087 440 2.3509886e-38
423.39124 966.76459 440 1.0591696e-38
435.38446 974.25879 440 2.2683365e-38
435.38446 974.25879 440 6.7306593e-39
447.37769 981.75293 430 4.2420724e-39
47.886108 1073.9833 560 3.8707857e-39
40.391846 1085.9766 560 2.2137657e-39
62.128784 1091.2212 560 2.6729572e-39
-347.85217 1226.9253 690 2.3970822e-39
-362.84045 1250.9117 690 2.9491882e-39
-382.32788 1255.4109 700 3.7775237e-39
-377.82886 1274.8982 700 2.9495329e-39
-395.06677 1289.141 710 3.0406565e-39
-305.1239 1278.6389 680 3.1328507e-39
-215.18115 1268.137 650 3.3161588e-39
-203.18787 1275.6311 650 3.6867322e-39
-191.1947 1283.1254 640 4.0558818e-39
-130.48291 1279.3719 630 3.5052374e-39
-128.2334 1289.1156 630 4.5186523e-39
-106.49658 1294.3602 620 5.1618665e-39
-84.759644 1299.605 610 2.3509886e-38
-82.510132 1309.3486 610 2.3509886e-38
-87.754761 1331.0856 620 1.0234067e-38
-48.779907 1322.0874 600 1.4118044e-38
-7.5556641 1322.833 590 2.3509886e-38
41.162842 1311.5854 580 2.3509886e-38
-95.994507 1384.3031 620 2.3509886e-38
-252.63928 1461.5198 680 2.3509886e-38
-463.24731 1571.7209 740 2.3509886e-38
-348.57239 1534.9829 710 2.3509886e-38
-336.57922 1542.4771 710 2.3509886e-38
-434.76184 1606.1967 740 2.2683366e-38
-386.04333 1594.949 720 2.0938492e-38
-131.96155 1495.2372 640 1.8275246e-38
-119.96826 1502.7314 640 1.6152944e-38
-117.71875 1512.4751 640 1.5314551e-38
-105.72559 1519.9692 640 1.4208201e-38
-101.22656 1539.4565 640 1.2370032e-38
-81.739136 1534.9575 630 1.1354459e-38
-836.47754 1955.5166 880 1.3371959e-38
-787.75903 1944.2689 870 7.8456599e-39
-746.53491 1945.0145 860 8.8591e-39
-751.77954 1966.7515 860 9.9643657e-39
-730.04248 1971.9961 850 1.0791258e-38
-715.7998 1989.234 850 8.8594545e-39
-694.06299 1994.4786 850 8.856579e-39
-662.58228 1997.4738 830 2.2315936e-38
-812.47852 2103.9214 890 2.3509886e-38
-1220.1973 2382.7861 1030 2.3509886e-38
-1106.2681 2387.2725 1000 2.3509886e-38
-1094.2749 2394.7666 990 2.3509886e-38
-1016.3252 2376.7705 970 2.3509886e-38
-1021.5698 2398.5073 970 2.3509886e-38
-972.85132 2387.2598 950 2.3509886e-38
-941.37085 2390.2549 950 2.3509886e-38
-909.89014 2393.25 940 2.3509886e-38
-888.15332 2398.4946 930 2.3509886e-38
-822.19678 2373.0044 910 2.3509886e-38
-817.69775 2392.4917 910 2.3509886e-38
-820.69287 2423.9724 910 2.3509886e-38
-1072.5125 2666.8447 1010 2.3509886e-38
-1050.7756 2672.0894 1000 2.3509886e-38
-1002.0571 2660.8416 980 2.3509886e-38
-997.55811 2680.3291 980 2.3509886e-38
-958.58325 2671.3311 970 2.3509886e-38
-919.6084 2662.333 960 2.3509886e-38
-880.63379 2653.3347 950 2.3509886e-38
-858.89673 2658.5796 940 2.3509886e-38
-827.41626 2661.5747 930 2.3509886e-38
-857.39282 2709.5474 940 2.3509886e-38
-776.44824 2660.0708 920 2.3509886e-38
-779.44336 2691.5513 920 2.3509886e-38
-779.44336 2691.5513 920 2.3509886e-38
-779.44336 2691.5513 920 2.3509886e-38
-351.69421 232.29712 610 1.4384311e-38
-349.4447 242.04083 610 1.1430794e-38
-356.93896 254.03406 610 9.586884e-39
-354.68945 263.77777 610 9.1251799e-39
-374.17676 268.27679 620 5.1615091e-39
-383.92053 270.52631 620 3.5030696e-39
-401.15833 284.76904 630 3.3186755e-39
-398.90881 294.51276 630 4.4253748e-39
-396.6593 304.25647 630 5.7179311e-39
-370.42334 328.98853 620 3.5073996e-39
-346.43689 343.97687 610 3.6885413e-39
-365.92432 348.47592 620 3.8725766e-39
-317.95142 378.45264 610 3.7811012e-39
-327.69519 380.70215 610 4.1480789e-39
-335.18933 392.69537 610 3.9644051e-39
-364.42041 399.44394 620 3.7810942e-39
-371.91455 411.43713 630 3.8732884e-39
-369.66504 421.18085 630 3.9662071e-39
-355.42236 438.41873 620 4.7005226e-39
-365.16602 440.66824 630 3.963689e-39
-372.66028 452.66147 630 4.240636e-39
-346.42432 477.39352 620 4.1484474e-39
-356.16797 479.64304 630 4.5172145e-39
-329.93201 504.37509 620 4.2413507e-39
-329.93201 504.37509 620 4.2406402e-39
-337.42615 516.36829 620 4.3324799e-39
-354.66406 530.61108 630 4.2406332e-39
-352.41455 540.35474 630 4.1473628e-39
-359.90869 552.34796 630 3.8707759e-39
-355.40967 571.83533 630 3.4094348e-39
-353.16016 581.57904 630 3.0402936e-39
-350.91064 591.32275 630 8.0206541e-39
-348.66113 601.06647 630 1.6045235e-38
-387.63586 610.06451 640 1.5121151e-38
-521.05249 610.07721 680 1.3003538e-38
-560.02734 619.07532 700 1.2355649e-38
-577.26526 633.31799 700 1.1710293e-38
-584.7594 645.31128 700 1.106349e-38
-560.77295 660.29962 700 1.8435469e-39
-505.30591 678.28308 680 1.935025e-39
-542.03113 697.0249 690 1.7509953e-39
-530.03796 704.51904 690 1.5676872e-39
-775.13428 709.78906 760 1.5680418e-39
-925.78882 724.04443 810 2.0279395e-39
-943.02661 738.28723 820 2.2119692e-39
-938.52759 757.7746 810 2.3048893e-39
-914.54126 772.76294 810 2.1204981e-39
-919.78589 794.49988 810 2.6740278e-39
-927.28003 806.4931 810 6.6384133e-39
-922.78101 825.98047 810 1.8718527e-38
352.92322 839.35089 440 2.2032219e-38
355.17273 849.0946 440 2.1760299e-38
335.6853 853.59363 450 2.2773362e-38
347.67847 861.08783 450 2.0838719e-38
409.89417 908.30237 430 4.883832e-39
373.16882 927.04419 440 4.7012414e-39
375.41833 936.7879 440 1.7337087e-38
375.41833 936.7879 440 1.649358e-38
387.41162 944.28204 440 2.3509886e-38
399.40479 951.77625 440 2.3509886e-38
421.14172 957.02087 430 2.3509886e-38
423.39124 966.76459 430 9.404285e-39
423.39124 966.76459 430 2.3323692e-38
425.64081 976.5083 430 6.7256119e-39
437.63397 984.00244 430 2.4889289e-39
-0.83239746 1085.231 560 1.4413034e-38
1.4171143 1094.9746 560 1.1995956e-38
-6.0770264 1106.9678 570 4.1537962e-39
-379.33276 1223.9302 680 2.3056082e-39
-347.85217 1226.9253 670 2.3509874e-38
-372.58423 1253.1613 680 1.4294741e-38
-382.32788 1255.4109 690 1.9542831e-38
-387.57251 1277.1477 690 2.3509874e-38
-385.323 1286.8915 690 2.3509859e-38
-390.56763 1308.6284 690 2.3509867e-38
-329.85596 1304.875 670 2.3509881e-38
-171.70728 1278.6262 630 2.3509876e-38
-120.73926 1277.1224 610 2.3509886e-38
-118.48975 1286.8661 610 2.3509886e-38
-106.49658 1294.3602 610 2.3509886e-38
-94.503296 1301.8545 600 2.3509886e-38
-72.766357 1307.0991 600 2.3509886e-38
-60.773193 1314.5933 600 1.1723116e-38
-19.548828 1315.3389 580 2.3509886e-38
2.1881104 1320.5835 580 2.3509886e-38
41.162842 1311.5854 570 2.3509823e-38
-95.994507 1384.3031 610 2.3509886e-38
-252.63928 1461.5198 660 2.3509886e-38
-463.24731 1571.7209 730 2.3509886e-38
-338.82874 1532.7334 690 2.3509886e-38
-336.57922 1542.4771 690 2.3509886e-38
-434.76184 1606.1967 730 2.3509886e-38
-403.28113 1609.1918 710 2.3509886e-38
-131.96155 1495.2372 630 2.3509886e-38
-119.96826 1502.7314 630 2.3509886e-38
-117.71875 1512.4751 630 2.3509886e-38
-105.72559 1519.9692 620 2.3509886e-38
-101.22656 1539.4565 620 2.3509886e-38
-81.739136 1534.9575 620 2.3509886e-38
-795.25317 1956.2622 850 2.3509886e-38
-756.27856 1947.264 840 2.3509886e-38
-751.77954 1966.7515 840 2.3509886e-38
-730.04248 1971.9961 830 2.3509886e-38
-715.7998 1989.234 830 2.3509886e-38
-694.06299 1994.4786 830 2.3509886e-38
-662.58228 1997.4738 820 2.3509886e-38
-812.47852 2103.9214 870 2.3509886e-38
-1220.1973 2382.7861 1010 2.3509886e-38
-1116.0117 2389.522 980 2.3509886e-38
-1092.0251 2404.5103 970 2.3509886e-38
-1053.0505 2395.5122 960 2.3509886e-38
-1029.064 2410.5005 950 2.3509886e-38
-990.08936 2401.5024 940 2.3509886e-38
-941.37085 2390.2549 930 2.3509886e-38
-882.90845 2376.7578 910 2.3509886e-38
-782.47632 2322.782 870 2.3509886e-38
-777.97729 2342.2695 870 2.3509886e-38
-790.71631 2375.9995 880 2.3509886e-38
-837.93091 2438.2151 900 2.3509886e-38
-1052.2795 2621.1211 970 2.3509886e-38
-1072.5125 2666.8447 980 2.3509886e-38
-1033.5378 2657.8464 970 2.3509886e-38
-1011.8008 2663.0911 970 2.3509886e-38
-997.55811 2680.3291 960 2.3509886e-38
-966.07739 2683.3242 950 2.3509886e-38
-936.84644 2676.5757 940 2.3509886e-38
-905.36572 2679.5708 930 2.3509886e-38
-876.13477 2672.8223 930 2.3509886e-38
-871.6355 2692.3096 920 2.3509886e-38
-874.63086 2723.79 930 2.3509886e-38
-768.95386 2648.0774 890 2.3509886e-38
-789.18701 2693.8008 900 2.3509886e-38
-789.18701 2693.8008 900 2.3509886e-38
-789.18701 2693.8008 900 2.3509886e-38
-349.4447 242.04083 600 1.0234407e-38
-356.93896 254.03406 600 9.2177399e-39
-366.68262 256.28357 600 8.7556785e-39
-383.92053 270.52631 610 4.793814e-39
-383.92053 270.52631 610 3.6878154e-39
-389.16516 292.26324 610 3.4108726e-39
-377.172 299.75745 610 3.6889e-39
-372.67285 319.24481 610 3.8718591e-39
-370.42334 328.98853 610 3.7807411e-39
-368.17383 338.73221 610 3.59671e-39
-365.92432 348.47592 610 3.8722108e-39
-329.9447 370.95844 600 4.0569608e-39
-449.11853 388.20898 630 3.8729283e-39
-422.88257 412.94104 630 3.5952652e-39
-370.41064 462.40515 620 2.211256e-39
-365.91162 481.89255 610 2.0279367e-39
-351.66895 499.13043 610 1.9353838e-39
-349.41943 508.87411 610 1.8435511e-39
-347.16992 518.6178 610 1.6595227e-39
-354.66406 530.61108 620 1.6613192e-39
-352.41455 540.35474 620 1.8446357e-39
-359.90869 552.34796 620 2.1212198e-39
-345.66602 569.58582 620 2.3066914e-39
-353.16016 581.57904 620 2.9531328e-39
-350.91064 591.32275 620 7.8380523e-39
-348.66113 601.06647 620 1.4660893e-38
-387.63586 610.06451 630 1.5027879e-38
-479.82825 610.82281 660 1.3277615e-38
-516.55347 629.56458 670 1.2446755e-38
-536.04089 634.06366 670 1.1710629e-38
-531.54187 653.55103 670 9.7756234e-39
-507.55542 668.53943 670 1.4751301e-39
-473.82532 681.2782 660 1.4744098e-39
-522.54382 692.52582 680 1.5666054e-39
-518.0448 712.01324 670 1.3832904e-39
-753.39746 715.03369 740 1.3836547e-39
-935.53247 726.29401 790 1.7520715e-39
-952.77051 740.53674 800 1.9357481e-39
-928.78394 755.52509 790 1.7535148e-39
-914.54126 772.76294 790 2.2123294e-39
-910.04224 792.25037 790 2.7658647e-39
-927.28003 806.4931 800 7.6493282e-39
362.66687 837.10138 430 2.148408e-38
355.17273 849.0946 430 2.1483726e-38
347.67847 861.08783 440 2.3325112e-38
357.42224 858.83832 440 2.2775165e-38
380.66309 915.05096 430 3.4101537e-39
373.16882 927.04419 440 5.0685918e-39
365.67468 939.03741 440 8.9360999e-39
365.67468 939.03741 440 8.1117945e-39
367.92419 948.78113 440 9.7709837e-39
370.17371 958.52478 440 1.1694776e-38
372.42322 968.26849 440 9.1104327e-39
374.67273 978.01221 440 3.5916709e-39
-305.8822 1186.4467 650 2.8612805e-39
-340.35791 1214.9321 660 2.3489343e-38
-347.85217 1226.9253 660 2.2930044e-38
-343.35315 1246.4127 660 1.832604e-38
-372.58423 1253.1613 670 1.0413757e-38
-377.82886 1274.8982 670 1.7314737e-38
-375.57935 1284.6418 670 1.6118702e-38
-410.05505 1313.1274 680 1.603191e-38
-359.08704 1311.6235 670 1.6770208e-38
-86.26355 1248.637 590 9.6722384e-39
-101.25183 1272.6233 590 1.0317239e-38
-118.48975 1286.8661 600 1.2981559e-38
-116.24023 1296.6099 600 1.2159355e-38
-104.24695 1304.104 590 1.2985162e-38
-90.004272 1321.3418 590 1.2443497e-38
-78.011108 1328.8361 590 1.3189272e-38
-29.292603 1317.5884 580 1.8917257e-38
-7.5556641 1322.833 570 2.350982e-38
41.162842 1311.5854 550 2.3509886e-38
-95.994507 1384.3031 600 2.3509886e-38
-252.63928 1461.5198 650 2.3509886e-38
-463.24731 1571.7209 710 2.3509886e-38
-338.82874 1532.7334 680 2.3509886e-38
-346.32288 1544.7266 680 2.3509886e-38
-239.14221 1519.9819 650 2.3509886e-38
-143.95471 1487.7429 620 2.3509886e-38
-122.21777 1492.9877 610 2.3509886e-38
-119.96826 1502.7314 610 2.3509886e-38
-117.71875 1512.4751 610 2.3509886e-38
-105.72559 1519.9692 610 2.3509886e-38
-93.7323 1527.4634 610 2.3509886e-38
-804.99707 1958.5117 840 2.3509886e-38
-763.77271 1959.2573 830 2.3509886e-38
-751.77954 1966.7515 820 2.3509886e-38
-720.29883 1969.7466 820 2.3509886e-38
-715.7998 1989.234 810 2.3509886e-38
-694.06299 1994.4786 810 2.3509886e-38
-662.58228 1997.4738 800 2.3509886e-38
-812.47852 2103.9214 850 2.3509886e-38
-1220.1973 2382.7861 980 2.3509886e-38
-1116.0117 2389.522 960 2.3509886e-38
-1145.9885 2437.4949 970 2.3509886e-38
-1068.7844 2460.7231 950 2.3509886e-38
-914.38916 2373.7627 900 2.3509886e-38
-831.19482 2334.0295 870 2.3509886e-38
-777.97729 2342.2695 860 2.3509886e-38
-756.24048 2347.5142 850 2.3509886e-38
-1113.7368 2666.0989 970 2.3509886e-38
-1074.762 2657.1008 960 2.3509886e-38
-1023.7939 2655.5969 950 2.3509886e-38
-1002.0571 2660.8416 940 2.3509886e-38
-990.06396 2668.3359 940 2.3509886e-38
-968.3269 2673.5806 930 2.3509886e-38
-936.84644 2676.5757 920 2.3509886e-38
-905.36572 2679.5708 910 2.3509886e-38
-876.13477 2672.8223 910 2.3509886e-38
-871.6355 2692.3096 900 2.3509886e-38
-867.13647 2711.7969 910 2.3509886e-38
-793.68604 2674.3135 880 2.3509886e-38
-831.15698 2734.2793 900 2.3509886e-38
-831.15698 2734.2793 900 2.3509886e-38
-831.15698 2734.2793 900 2.3509886e-38
-349.4447 242.04083 580 1.0049307e-38
-368.93213 246.53992 590 9.0319081e-39
-376.42627 258.53308 590 8.5720033e-39
-383.92053 270.52631 590 4.5172201e-39
-381.67102 280.27002 590 3.5034283e-39
-389.16516 292.26324 600 3.3190371e-39
-365.17871 307.25159 590 3.7807327e-39
-372.67285 319.24481 590 3.779302e-39
-382.41663 321.49432 600 3.7778642e-39
-368.17383 338.73221 590 3.2250506e-39
-365.92432 348.47592 590 2.4889219e-39
-329.9447 370.95844 590 2.3038075e-39
-337.43884 382.95166 590 2.0272207e-39
-303.70874 395.69049 580 1.7509953e-39
-340.43396 414.43228 590 1.6595185e-39
-401.14575 418.1857 610 1.5684047e-39
-268.47473 459.39734 570 1.9371872e-39
-309.69897 458.65173 590 2.3052453e-39
-382.40393 454.91098 610 2.3059697e-39
-380.15442 464.65466 610 2.7691031e-39
-356.16797 479.64304 600 2.858782e-39
-363.66211 491.63626 600 3.1375549e-39
-359.16309 511.12366 600 3.7810956e-39
-356.91357 520.86731 600 3.5952638e-39
-354.66406 530.61108 600 3.6881769e-39
-352.41455 540.35474 600 3.6881811e-39
-359.90869 552.34796 610 4.1469971e-39
-355.40967 571.83533 610 3.5037983e-39
-353.16016 581.57904 610 4.1491537e-39
-341.16699 589.07324 600 7.7469398e-39
-348.66113 601.06647 610 1.5029683e-38
-409.3728 604.81989 620 1.5118639e-38
-467.83496 618.31702 640 1.3459844e-38
-475.32922 630.31024 640 1.1985062e-38
-492.56702 644.55298 650 1.0604288e-38
-490.3175 654.29663 650 7.9360395e-39
-466.33105 669.28503 640 1.4740525e-39
-464.08154 679.02869 640 1.2914549e-39
-500.80688 697.77051 650 1.2900242e-39
-518.0448 712.01324 660 1.4740483e-39
-692.68579 711.28027 710 1.290743e-39
-925.78882 724.04443 770 1.6591626e-39
-962.51416 742.78625 780 2.119775e-39
-928.78394 755.52509 780 2.3952829e-39
-883.06055 775.75812 770 2.2116189e-39
-890.55469 787.75134 770 2.6733061e-39
362.66687 837.10138 420 2.1389722e-38
364.91638 846.84509 430 2.1301839e-38
357.42224 858.83832 430 2.3141068e-38
369.41541 866.33246 430 1.9460476e-38
369.41541 866.33246 430 2.3509886e-38
363.42517 929.2937 430 4.2384654e-39
353.68152 931.54321 430 4.9767549e-39
365.67468 939.03741 430 1.2632254e-38
367.92419 948.78113 430 9.682318e-39
370.17371 958.52478 430 2.2137741e-39
374.67273 978.01221 430 3.1332067e-39
-327.61914 1181.202 640 1.8428364e-39
-325.36963 1190.9457 640 2.1176184e-39
-359.84534 1219.4312 650 1.9346649e-39
-367.33948 1231.4243 650 1.9339502e-39
-343.35315 1246.4127 650 1.7517156e-39
-362.84045 1250.9117 650 6.4558213e-39
-368.08521 1272.6487 650 2.3952829e-39
-356.09192 1280.1428 650 2.1190547e-39
-439.28613 1319.876 680 2.3027299e-39
-47.288696 1239.6388 560 1.811138e-38
-81.764526 1268.1243 580 2.3504446e-38
-118.48975 1286.8661 590 1.1883189e-38
-116.24023 1296.6099 580 2.3509886e-38
-104.24695 1304.104 580 2.0824774e-38
-90.004272 1321.3418 580 1.5304742e-38
-68.267334 1326.5864 570 2.3138844e-38
-29.292603 1317.5884 560 2.3509112e-38
-27.043091 1327.3322 560 2.3509828e-38
-22.543945 1346.8196 560 2.3509879e-38
-95.994507 1384.3031 580 2.3509886e-38
-252.63928 1461.5198 630 2.3509886e-38
-463.24731 1571.7209 700 2.3509886e-38
-321.59082 1518.4907 660 2.3509886e-38
-260.87915 1514.7373 640 2.3509886e-38
-155.948 1480.2488 610 2.3509886e-38
-153.69849 1489.9924 610 2.3509886e-38
-131.96155 1495.2372 600 2.3509886e-38
-119.96826 1502.7314 600 2.3509886e-38
-117.71875 1512.4751 600 2.3509886e-38
-105.72559 1519.9692 600 2.3509886e-38
-761.52319 1969.001 810 2.3509886e-38
-730.04248 1971.9961 800 2.3509886e-38
-715.7998 1989.234 800 2.3509886e-38
-694.06299 1994.4786 790 2.3509886e-38
-662.58228 1997.4738 780 2.3509886e-38
-812.47852 2103.9214 830 2.3509886e-38
-1220.1973 2382.7861 960 2.3509886e-38
-1113.7368 2666.0989 950 2.3509886e-38
-1065.0183 2654.8513 940 2.3509886e-38
-1033.5378 2657.8464 930 2.3509886e-38
-1011.8008 2663.0911 920 2.3509886e-38
-990.06396 2668.3359 920 2.3509886e-38
-968.3269 2673.5806 910 2.3509886e-38
-927.10278 2674.3262 900 2.3509886e-38
-907.61523 2669.8271 890 2.3509886e-38
-866.39087 2670.5728 880 2.3509886e-38
-861.89185 2690.0601 880 2.3509886e-38
-857.39282 2709.5474 880 2.3509886e-38
-793.68604 2674.3135 860 2.3509886e-38
-840.90063 2736.5291 880 2.3509886e-38
-840.90063 2736.5291 880 2.3509886e-38
-840.90063 2736.5291 880 2.3509886e-38
-359.18848 244.29034 570 9.6790866e-39
-368.93213 246.53992 580 8.3883352e-39
-388.41956 251.03894 580 7.7436846e-39
-386.17004 260.78265 580 4.4253832e-39
-381.67102 280.27002 580 3.6870979e-39
-379.42151 290.01373 580 3.1342885e-39
-365.17871 307.25159 580 1.752433e-39
-362.9292 316.9953 580 1.7513568e-39
-360.67969 326.73898 580 1.8439126e-39
-356.18066 346.22638 580 2.0283067e-39
-353.93115 355.97009 580 2.0283053e-39
-329.9447 370.95844 570 2.2141357e-39
-347.1825 385.20117 580 2.5829126e-39
-344.93298 394.94489 580 3.0428117e-39
-332.93982 402.43906 580 3.1353759e-39
-340.43396 414.43228 580 3.2275659e-39
-326.19128 431.67017 580 3.3186783e-39
-311.94849 448.90802 570 3.4126704e-39
-213.00757 477.38083 550 3.0424558e-39
-198.76489 494.61871 540 3.8743646e-39
-174.77844 509.60709 540 3.8700528e-39
-334.43103 484.8877 580 3.5034311e-39
-341.92517 496.88092 590 3.319393e-39
-349.41943 508.87411 590 3.0435278e-39
-356.91357 520.86731 590 3.3197615e-39
-354.66406 530.61108 590 3.8725668e-39
-352.41455 540.35474 590 3.8725766e-39
-359.90869 552.34796 590 3.5041556e-39
-357.65918 562.09167 590 3.6874623e-39
-353.16016 581.57904 590 4.2413549e-39
-329.17371 596.56738 590 7.928827e-39
-348.66113 601.06647 590 1.521515e-38
-460.34082 606.32379 620 1.5120797e-38
-458.09131 616.0675 620 1.309358e-38
-465.58545 628.06067 630 1.1617733e-38
-473.07971 640.05396 630 1.1614483e-38
-468.58069 659.54132 630 6.7367858e-39
-456.5874 667.03552 630 1.1989005e-39
-464.08154 679.02869 630 1.2910976e-39
-500.80688 697.77051 640 1.2914521e-39
-518.0448 712.01324 640 1.2910947e-39
-661.20508 714.27539 680 1.3829344e-39
-906.30151 719.54541 750 1.475493e-39
-964.76367 733.04254 770 2.1194163e-39
-832.09253 774.25421 730 2.1197806e-39
362.66687 837.10138 420 2.166416e-38
364.91638 846.84509 420 2.1116733e-38
367.16589 856.58875 420 2.3234337e-38
369.41541 866.33246 420 1.7803121e-38
369.41541 866.33246 420 2.3509872e-38
381.40869 873.82666 410 2.4885617e-39
363.42517 929.2937 420 3.1335696e-39
353.68152 931.54321 420 4.7912819e-39
355.93103 941.28693 420 8.3840037e-39
367.92419 948.78113 420 8.4823371e-39
370.17371 958.52478 420 2.3509869e-38
372.42322 968.26849 420 3.1397045e-39
-300.63757 1164.7097 610 4.0490365e-39
-317.87549 1178.9524 620 3.3183126e-39
-335.11328 1193.1952 630 6.2548891e-39
-359.84534 1219.4312 630 7.81681e-39
-357.59583 1229.1748 640 4.3324533e-39
-353.0968 1248.6622 630 6.1749198e-39
-362.84045 1250.9117 640 5.7168185e-39
-358.34143 1270.3992 640 1.0117376e-38
-356.09192 1280.1428 640 7.0954229e-39
-449.02991 1322.1255 660 7.1019137e-39
-27.80127 1235.1398 540 1.1041147e-38
-54.782959 1251.6321 550 5.2508307e-39
-108.74609 1284.6166 570 3.0410096e-39
-116.24023 1296.6099 570 4.8042004e-39
-101.99744 1313.8477 570 2.3496855e-38
-80.26062 1319.0923 570 2.110446e-38
-60.773193 1314.5933 560 2.3503674e-38
-29.292603 1317.5884 550 2.3509472e-38
-27.043091 1327.3322 550 2.3508389e-38
-20.294434 1356.5632 550 2.3509886e-38
-167.19556 1431.5303 600 2.3509886e-38
-353.07141 1515.4956 650 2.3509886e-38
-153.69849 1489.9924 600 2.3509886e-38
-131.96155 1495.2372 590 2.3509886e-38
-119.96826 1502.7314 590 2.3509886e-38
-117.71875 1512.4751 590 2.3509886e-38
-105.72559 1519.9692 580 2.3509886e-38
-761.52319 1969.001 790 9.0326508e-39
-720.29883 1969.7466 780 9.1280722e-39
-715.7998 1989.234 780 8.8507847e-39
-703.80664 1996.7281 770 9.4043088e-39
-662.58228 1997.4738 760 2.3509886e-38
-812.47852 2103.9214 810 2.3509886e-38
-1220.1973 2382.7861 940 2.3509886e-38
-1113.7368 2666.0989 930 2.3509886e-38
-1065.0183 2654.8513 910 2.3509886e-38
-1033.5378 2657.8464 900 2.3509886e-38
-1002.0571 2660.8416 900 2.3509886e-38
-990.06396 2668.3359 890 2.3509886e-38
-958.58325 2671.3311 890 2.3509886e-38
-927.10278 2674.3262 880 2.3509886e-38
-907.61523 2669.8271 870 2.3509886e-38
-876.13477 2672.8223 860 2.3509886e-38
-861.89185 2690.0601 860 2.3509886e-38
-867.13647 2711.7969 860 2.3509886e-38
-810.92383 2688.5562 850 2.3509886e-38
-823.66284 2722.2861 850 2.3509886e-38
-823.66284 2722.2861 850 2.3509886e-38
-823.66284 2722.2861 850 2.3509886e-38
-361.43799 234.54669 560 9.1287813e-39
-378.67578 248.78943 570 8.1113951e-39
-398.16321 253.28845 570 7.2830666e-39
-383.92053 270.52631 570 4.149511e-39
-381.67102 280.27002 570 3.59311e-39
-379.42151 290.01373 570 3.0420957e-39
-365.17871 307.25159 570 2.952414e-39
-362.9292 316.9953 570 2.5818406e-39
-360.67969 326.73898 570 2.6736747e-39
-358.43018 336.4827 570 2.7662248e-39
-353.93115 355.97009 570 2.6743949e-39
-351.68164 365.71378 570 3.3190385e-39
-359.17578 377.707 570 3.3194014e-39
-356.92627 387.45071 570 2.8602141e-39
-352.42725 406.93811 570 3.5027095e-39
-350.17773 416.68179 570 3.0435348e-39
-347.92822 426.42551 570 3.410881e-39
-314.198 439.16434 560 3.5048703e-39
-309.69897 458.65173 560 3.5985008e-39
-329.1864 463.15079 570 4.0555217e-39
-186.77173 502.11288 530 3.8722151e-39
-322.43787 492.38187 570 3.5041528e-39
-332.18152 494.63138 570 3.411953e-39
-339.67566 506.6246 570 3.778932e-39
-356.91357 520.86731 580 3.6849469e-39
-354.66406 530.61108 580 2.9484623e-39
-352.41455 540.35474 580 2.579677e-39
-347.91553 559.84216 580 2.3949214e-39
-345.66602 569.58582 580 2.119059e-39
-353.16016 581.57904 580 1.7506338e-39
-307.43677 601.81207 570 6.4482655e-39
-336.66785 608.56067 580 1.5672177e-38
-419.11658 607.0694 600 1.5487771e-38
-458.09131 616.0675 610 1.3643527e-38
-475.32922 630.31024 610 1.1526253e-38
-482.82336 642.30347 620 1.1247494e-38
-478.32434 661.79083 620 5.6290103e-39
-466.33105 669.28503 620 1.3825729e-39
-483.56897 683.52777 620 1.290736e-39
-512.80005 690.27631 630 1.1989075e-39
-508.30103 709.76373 630 1.2907402e-39
-639.46826 719.52008 660 1.4747643e-39
-853.08398 727.78522 720 1.6598773e-39
-984.25098 737.54156 750 2.0279437e-39
-781.12451 772.75031 700 2.1197792e-39
364.91638 846.84509 410 2.1669172e-38
367.16589 856.58875 410 2.2404948e-38
369.41541 866.33246 410 1.6877611e-38
381.40869 873.82666 410 1.9452242e-38
381.40869 873.82666 400 2.3981612e-39
341.68823 924.04907 420 3.500913e-39
343.93774 933.79272 420 3.5938177e-39
355.93103 941.28693 420 5.0682247e-39
358.18054 951.03064 420 1.594045e-38
360.43005 960.77429 420 2.3509877e-38
372.42322 968.26849 410 2.12079e-38
-308.13171 1176.7029 600 7.277659e-39
-325.36963 1190.9457 610 4.8813279e-39
-359.84534 1219.4312 620 9.3805343e-39
-377.08325 1233.6738 620 7.4613356e-39
-362.84045 1250.9117 620 7.370942e-39
-382.32788 1255.4109 630 5.1618525e-39
-368.08521 1272.6487 630 1.2783836e-38
-346.34827 1277.8933 620 1.3449353e-38
-419.79883 1315.377 640 1.4002527e-38
-8.3139648 1230.6407 530 1.2533169e-38
-45.039185 1249.3826 540 1.0326974e-38
-99.002319 1282.3671 560 2.3509859e-38
-116.24023 1296.6099 560 2.3508027e-38
-101.99744 1313.8477 560 2.1566516e-38
-82.510132 1309.3486 550 2.0367248e-38
-60.773193 1314.5933 550 2.3317147e-38
-29.292603 1317.5884 540 2.3509839e-38
-27.043091 1327.3322 540 2.350732e-38
-20.294434 1356.5632 540 2.3509886e-38
-167.19556 1431.5303 580 2.3509886e-38
-353.07141 1515.4956 640 2.3509886e-38
-153.69849 1489.9924 580 2.3509886e-38
-131.96155 1495.2372 580 2.3509886e-38
-129.71204 1504.981 580 2.3509886e-38
-117.71875 1512.4751 580 2.3509886e-38
-105.72559 1519.9692 570 2.3509886e-38
-751.77954 1966.7515 770 1.0047154e-38
-720.29883 1969.7466 760 1.0322668e-38
-715.7998 1989.234 760 1.0323025e-38
-703.80664 1996.7281 760 8.2050243e-39
-662.58228 1997.4738 750 2.3509879e-38
-812.47852 2103.9214 790 2.3509886e-38
-1220.1973 2382.7861 920 2.3509886e-38
-1123.4805 2668.3486 910 2.3509886e-38
-1065.0183 2654.8513 890 2.3509886e-38
-1033.5378 2657.8464 880 2.3509886e-38
-1002.0571 2660.8416 880 2.3509886e-38
-980.32031 2666.0864 870 2.3509886e-38
-958.58325 2671.3311 860 2.3509886e-38
-927.10278 2674.3262 860 2.3509886e-38
-907.61523 2669.8271 850 2.3509886e-38
-866.39087 2670.5728 840 2.3509886e-38
-861.89185 2690.0601 840 2.3509886e-38
-847.64917 2707.2979 840 2.3509886e-38
-803.42969 2676.563 820 2.3509886e-38
-823.66284 2722.2861 830 2.3509886e-38
-383.17493 229.302 550 9.1255415e-39
-402.66223 233.80103 560 8.203225e-39
-400.41272 243.54474 560 6.6373511e-39
-386.17004 260.78265 560 4.0555189e-39
-381.67102 280.27002 560 3.4101509e-39
-379.42151 290.01373 560 3.1339269e-39
-365.17871 307.25159 550 3.0431733e-39
-362.9292 316.9953 550 2.7665892e-39
-360.67969 326.73898 550 2.6747523e-39
-358.43018 336.4827 550 2.9506161e-39
-353.93115 355.97009 550 2.9513392e-39
-351.68164 365.71378 560 3.4123117e-39
-359.17578 377.707 560 3.4112369e-39
-356.92627 387.45071 560 3.1350158e-39
-354.67676 397.1944 560 3.132492e-39
-352.42725 406.93811 560 2.8566212e-39
-347.92822 426.42551 560 2.4874771e-39
-314.198 439.16434 550 2.118696e-39
-309.69897 458.65173 550 2.0268605e-39
-189.02124 492.3692 520 1.6584395e-39
-177.02795 499.86337 520 1.6587983e-39
-368.90686 513.37317 570 1.290736e-39
-354.66406 530.61108 570 1.3814939e-39
-352.41455 540.35474 560 1.0145121e-39
-350.16504 550.09845 570 1.2892983e-39
-345.66602 569.58582 560 4.0537154e-39
-353.16016 581.57904 570 1.3836533e-39
-307.43677 601.81207 560 1.5691222e-39
-317.18054 604.06158 560 1.344865e-38
-458.09131 616.0675 600 9.5800624e-39
-475.32922 630.31024 600 7.7393924e-39
-492.56702 644.55298 600 7.2805667e-39
-490.3175 654.29663 600 5.3506284e-39
-476.07483 671.53455 600 1.1981873e-39
-495.56226 676.03357 610 1.106349e-39
-522.54382 692.52582 620 1.1989033e-39
-539.78162 706.76855 620 1.4740469e-39
-670.94873 716.52496 650 1.3829316e-39
-884.56445 724.7901 710 1.5680404e-39
-943.02661 738.28723 720 1.7520757e-39
-836.59155 754.76678 700 2.0279423e-39
-769.13135 780.24445 680 2.0279409e-39
369.41541 866.33246 400 1.594885e-38
369.41541 866.33246 400 7.555849e-39
381.40869 873.82666 400 2.4892778e-39
331.94458 926.29858 410 1.0715336e-38
331.94458 926.29858 410 4.5146978e-39
343.93774 933.79272 410 2.6733061e-39
346.18726 943.53644 410 4.4221364e-39
358.18054 951.03064 410 1.0224305e-38
360.43005 960.77429 410 2.3509886e-38
372.42322 968.26849 400 1.8330866e-38
-364.34436 1199.9437 610 8.2774224e-39
-389.07642 1226.1797 610 1.0851339e-38
-377.08325 1233.6738 610 5.1550113e-39
-382.32788 1255.4109 610 6.6326595e-39
-382.32788 1255.4109 610 4.3313785e-39
-358.34143 1270.3992 610 1.4162088e-38
-336.60449 1275.6438 600 6.9920968e-39
-390.56763 1308.6284 620 1.4279488e-38
1.4298096 1228.3912 520 1.2810839e-38
-35.295532 1247.1331 520 2.037007e-38
-106.49658 1294.3602 550 2.350946e-38
-104.24695 1304.104 550 2.0369406e-38
-72.766357 1307.0991 540 2.0825715e-38
-51.029419 1312.3438 530 2.184524e-38
-39.036255 1319.8379 530 2.350983e-38
-27.043091 1327.3322 530 2.3505177e-38
-20.294434 1356.5632 530 2.3509886e-38
-167.19556 1431.5303 570 2.3509886e-38
-353.07141 1515.4956 620 2.3509886e-38
-131.96155 1495.2372 560 2.3509886e-38
-129.71204 1504.981 560 2.3509886e-38
-117.71875 1512.4751 560 2.3509886e-38
-105.72559 1519.9692 560 2.3509886e-38
-751.77954 1966.7515 750 9.218114e-39
-720.29883 1969.7466 740 9.4024941e-39
-715.7998 1989.234 740 9.1277121e-39
-703.80664 1996.7281 740 7.3770783e-39
-662.58228 1997.4738 730 2.3509818e-38
-1123.4805 2668.3486 880 2.3509886e-38
-1065.0183 2654.8513 870 2.3509886e-38
-1043.2815 2660.0959 860 2.3509886e-38
-987.06885 2636.8552 850 2.3509886e-38
-963.08228 2651.8435 840 2.3509886e-38
-941.34546 2657.0881 840 2.3509886e-38
-919.6084 2662.333 830 2.3509886e-38
-897.87158 2667.5776 830 2.3509886e-38
-866.39087 2670.5728 820 2.3509886e-38
-861.89185 2690.0601 820 2.3509886e-38
-849.89868 2697.5542 820 2.3509886e-38
-810.92383 2688.5562 810 2.3509886e-38
-806.4248 2708.0435 810 2.3509886e-38
-373.43115 227.05249 540 1.0513193e-38
-404.91174 224.05737 550 8.5738152e-39
-402.66223 233.80103 550 7.4660383e-39
-400.41272 243.54474 550 6.26857e-39
-386.17004 260.78265 540 3.688893e-39
-381.67102 280.27002 540 3.2261254e-39
-379.42151 290.01373 540 3.4097894e-39
-355.43506 305.00208 540 3.1321319e-39
-362.9292 316.9953 540 2.4867639e-39
-360.67969 326.73898 540 2.0265032e-39
-356.18066 346.22638 540 2.0261431e-39
-353.93115 355.97009 540 1.5666068e-39
-351.68164 365.71378 540 1.3829316e-39
-359.17578 377.707 540 1.289657e-39
-347.1825 385.20117 540 1.4736909e-39
-342.68347 404.68857 540 1.4744084e-39
-350.17773 416.68179 540 1.4754846e-39
-338.18445 424.17596 540 1.5676858e-39
-323.94177 441.41385 540 1.9343104e-39
-321.69226 451.15756 540 1.7502792e-39
-350.92334 457.90613 550 1.4747755e-39
-358.41748 469.89932 550 1.292178e-39
-344.1748 487.13721 550 1.6609605e-39
-363.66211 491.63626 550 2.029743e-39
-371.15637 503.62946 550 2.1215785e-39
-368.90686 513.37317 550 2.307053e-39
-354.66406 530.61108 550 2.4918029e-39
-352.41455 540.35474 550 2.7673122e-39
-359.90869 552.34796 550 3.1364549e-39
-345.66602 569.58582 550 3.4137536e-39
-353.16016 581.57904 550 3.8740101e-39
-319.43005 594.31787 550 4.4275482e-39
-305.18726 611.55579 550 5.0714757e-39
-465.58545 628.06067 580 4.2373836e-39
-504.5603 637.05878 590 6.1767429e-39
-490.3175 654.29663 590 4.4293993e-39
-497.81177 666.28986 590 1.0148736e-39
-515.04956 680.53259 600 1.3825701e-39
-532.28748 694.77539 600 1.1985404e-39
-561.51855 701.52393 610 1.1992621e-39
-794.62183 714.28809 670 1.3832932e-39
-925.78882 724.04443 700 1.4754888e-39
-921.28979 743.53186 700 1.7517184e-39
-846.33545 757.0163 690 1.8435581e-39
-781.12451 772.75031 670 2.0275794e-39
319.95129 918.80438 410 2.3509886e-38
322.20081 928.5481 410 3.7792964e-39
343.93774 933.79272 400 4.0544259e-39
346.18726 943.53644 400 2.7644298e-39
358.18054 951.03064 400 3.408709e-39
360.43005 960.77429 400 5.1608561e-39
-335.11328 1193.1952 580 6.6207933e-39
-379.33276 1223.9302 600 6.8044615e-39
-377.08325 1233.6738 600 6.8977333e-39
-382.32788 1255.4109 600 6.6218695e-39
-382.32788 1255.4109 600 3.5027095e-39
-358.34143 1270.3992 600 6.7144337e-39
-326.86084 1273.3943 590 7.1736042e-39
-371.08032 1304.1293 600 7.9997649e-39
1.4298096 1228.3912 500 1.6006015e-38
-25.551758 1244.8835 510 1.8249551e-38
-79.515015 1277.868 530 2.3509839e-38
-96.752808 1292.1107 530 2.3509823e-38
-94.503296 1301.8545 530 2.0738194e-38
-63.022705 1304.8496 520 2.046015e-38
-51.029419 1312.3438 520 2.1386064e-38
-39.036255 1319.8379 520 2.3509832e-38
-36.786743 1329.5817 520 2.3506237e-38
-22.543945 1346.8196 520 2.3509844e-38
-20.294434 1356.5632 520 2.3509886e-38
-167.19556 1431.5303 560 2.3509886e-38
-353.07141 1515.4956 610 2.3509886e-38
-131.96155 1495.2372 550 2.3509886e-38
-129.71204 1504.981 550 2.3509886e-38
-117.71875 1512.4751 550 2.3509886e-38
-105.72559 1519.9692 550 2.3509886e-38
-751.77954 1966.7515 730 6.4533059e-39
-720.29883 1969.7466 720 8.481635e-39
-715.7998 1989.234 720 8.6656689e-39
-703.80664 1996.7281 720 7.1908878e-39
-662.58228 1997.4738 710 2.3509802e-38
-1121.231 2678.0923 860 2.3509886e-38
-1055.2747 2652.6018 840 2.3509886e-38
-1070.2629 2676.5884 850 2.3509886e-38
-987.06885 2636.8552 830 2.3509886e-38
-963.08228 2651.8435 820 2.3509886e-38
-951.08911 2659.3376 820 2.3509886e-38
-919.6084 2662.333 810 2.3509886e-38
-905.36572 2679.5708 810 2.3509886e-38
-883.62891 2684.8154 800 2.3509886e-38
-871.6355 2692.3096 800 2.3509886e-38
-857.39282 2709.5474 800 2.3509886e-38
-845.39966 2717.0415 800 2.3509886e-38
-796.68115 2705.7939 780 2.3509886e-38
-395.16809 221.80786 530 1.0516078e-38
-404.91174 224.05737 530 8.1139175e-39
-402.66223 233.80103 530 7.2819918e-39
-400.41272 243.54474 540 5.9001406e-39
-386.17004 260.78265 530 3.7800096e-39
-381.67102 280.27002 530 3.4112355e-39
-367.42822 297.50787 530 7.001812e-39
-355.43506 305.00208 530 2.7665808e-39
-353.18555 314.74579 530 1.5673201e-39
-348.6864 334.23318 530 1.843914e-39
-346.43689 343.97687 530 9.2267376e-40
-353.93115 355.97009 530 9.2267516e-40
-361.42529 367.96332 530 1.1077923e-39
-349.43213 375.45749 530 1.385454e-39
-347.1825 385.20117 530 1.8457105e-39
-342.68347 404.68857 530 2.1208652e-39
-350.17773 416.68179 530 2.3970892e-39
-338.18445 424.17596 530 2.490368e-39
-323.94177 441.41385 530 2.7669465e-39
-309.69897 458.65173 530 2.7676668e-39
-338.93005 465.4003 530 3.1357332e-39
-348.67383 467.64981 530 3.5952694e-39
-356.16797 479.64304 540 3.4115984e-39
-373.40588 493.88577 540 3.4123187e-39
-371.15637 503.62946 540 3.2279331e-39
-356.91357 520.86731 540 3.5048703e-39
-344.92041 528.36151 540 3.6889056e-39
-330.67761 545.59937 530 3.8729381e-39
-284.95422 565.8324 520 4.2417164e-39
-260.96777 580.8208 520 4.4264636e-39
-290.19897 587.56934 530 4.3346267e-39
-287.94946 597.31305 530 4.7956133e-39
-285.69983 607.05676 530 5.3473479e-39
-334.41833 618.30432 540 4.9774878e-39
-341.9126 630.29755 540 4.7016086e-39
-482.82336 642.30347 580 6.6359161e-39
-490.3175 654.29663 580 4.3357604e-39
-507.55542 668.53943 580 1.107065e-39
-515.04956 680.53259 590 1.1985432e-39
-532.28748 694.77539 590 1.1989005e-39
-590.74963 708.27246 600 1.1067105e-39
-826.10229 711.29297 660 1.3829316e-39
-925.78882 724.04443 690 1.5673229e-39
-911.54614 741.28235 680 1.6598759e-39
-856.0791 759.26587 670 2.0275878e-39
-790.86841 774.99982 660 2.0282997e-39
-786.36914 794.48718 660 2.3048907e-39
-359.84534 1219.4312 580 5.152503e-39
-367.33948 1231.4243 580 5.4280109e-39
-382.32788 1255.4109 580 4.9684691e-39
-382.32788 1255.4109 580 3.133934e-39
-348.59778 1268.1497 580 4.6922535e-39
-326.86084 1273.3943 570 4.96776e-39
-373.32983 1294.3856 580 4.9684733e-39
11.173462 1226.1417 490 5.1546666e-39
-25.551758 1244.8835 500 1.5025571e-38
-69.77124 1275.6185 510 2.350982e-38
-96.752808 1292.1107 520 2.3509834e-38
-94.503296 1301.8545 520 2.165761e-38
-63.022705 1304.8496 510 2.1017641e-38
-60.773193 1314.5933 510 2.3509454e-38
-39.036255 1319.8379 510 2.3506238e-38
-36.786743 1329.5817 510 2.3135665e-38
-32.28772 1349.0691 510 2.3509832e-38
-20.294434 1356.5632 510 2.3509886e-38
-54.770264 1385.0487 510 2.3509886e-38
-91.495483 1403.7905 520 2.3509886e-38
-245.89075 1490.7507 570 2.3509886e-38
-131.96155 1495.2372 540 2.3509886e-38
-129.71204 1504.981 540 2.3509886e-38
-117.71875 1512.4751 540 2.3509886e-38
-105.72559 1519.9692 530 2.3509886e-38
-751.77954 1966.7515 710 8.4826846e-39
-720.29883 1969.7466 700 8.2968822e-39
-715.7998 1989.234 700 8.0203093e-39
-703.80664 1996.7281 700 6.4543975e-39
-662.58228 1997.4738 690 2.3509734e-38
-1065.0183 2654.8513 820 2.3509886e-38
-1050.7756 2672.0894 820 2.3509886e-38
-967.5813 2632.356 800 2.3509886e-38
-955.58813 2639.8503 800 2.3509886e-38
-951.08911 2659.3376 800 2.3509886e-38
-919.6084 2662.333 790 2.3509886e-38
-905.36572 2679.5708 790 2.2023995e-38
-883.62891 2684.8154 780 2.3492959e-38
-871.6355 2692.3096 780 2.2475195e-38
-857.39282 2709.5474 780 2.03766e-38
-835.65601 2714.792 770 2.3509886e-38
-789.18701 2693.8008 760 2.3509886e-38
-385.42444 219.55829 520 1.0697228e-38
-404.91174 224.05737 520 8.38691e-39
-390.66907 241.29523 520 7.0054119e-39
-398.16321 253.28845 520 5.5310119e-39
-383.92053 270.52631 520 4.4261119e-39
-371.92725 278.02051 520 9.5894778e-39
-367.42822 297.50787 520 3.4137536e-39
-355.43506 305.00208 510 3.3197629e-39
-362.9292 316.9953 520 2.6758355e-39
-348.6864 334.23318 510 2.3996045e-39
-346.43689 343.97687 510 2.6747551e-39
-344.18738 353.72058 510 2.7691031e-39
-339.68835 373.20798 510 2.8595065e-39
-337.43884 382.95166 510 3.3186867e-39
-335.18933 392.69537 510 2.9527783e-39
-332.93982 402.43906 510 3.3204804e-39
-340.43396 414.43228 520 3.504157e-39
-326.19128 431.67017 520 3.1371695e-39
-311.94849 448.90802 510 3.6881853e-39
-287.96204 463.89639 510 3.8729353e-39
-275.96887 471.39056 510 4.1498781e-39
-283.46301 483.38379 510 4.0584084e-39
-281.2135 493.12747 510 4.5186663e-39
-286.45813 514.86438 510 4.7030561e-39
-293.95239 526.8576 510 4.7956049e-39
-291.70288 536.60132 510 4.7041337e-39
-277.46008 553.83923 510 4.7963336e-39
-263.21741 571.07703 510 4.7963251e-39
-251.22412 578.57129 510 4.8867257e-39
-268.46204 592.81396 510 5.3462703e-39
-275.95618 604.80719 510 4.8885278e-39
-273.70667 614.5509 510 5.2562285e-39
-312.68152 623.54895 520 5.0721946e-39
-320.17566 635.54224 520 4.8863684e-39
-458.83691 657.29181 560 3.5099724e-39
-497.81177 666.28986 570 1.2903801e-39
-524.79333 682.7821 570 1.1063476e-39
-532.28748 694.77539 580 1.2900171e-39
-612.48657 703.02783 600 1.1985418e-39
-857.58301 708.29785 650 1.3832904e-39
-925.78882 724.04443 670 1.4754888e-39
-901.80249 739.03284 660 1.7517184e-39
-856.0791 759.26587 650 2.0279423e-39
-810.35571 779.49884 640 2.0275836e-39
-798.36255 786.99304 640 2.3048879e-39
563.54376 862.56635 330 4.3295694e-39
556.04962 874.55957 330 4.5175747e-39
565.79333 872.31006 330 5.4345199e-39
558.29913 884.30328 330 2.3509886e-38
558.29913 884.30328 330 2.3509886e-38
550.80493 896.29651 340 3.1343039e-39
-347.85217 1226.9253 560 7.919811e-39
-372.58423 1253.1613 570 8.8489924e-39
-362.84045 1250.9117 570 3.3190455e-39
-341.10364 1256.1565 560 1.2712246e-38
-317.11719 1271.1448 560 1.2627229e-38
-353.84241 1289.8866 570 1.0144398e-38
11.173462 1226.1417 480 1.6412228e-38
-25.551758 1244.8835 490 1.7885159e-38
-69.77124 1275.6185 500 2.3509816e-38
-87.009155 1289.8612 510 2.350983e-38
-94.503296 1301.8545 510 2.1291355e-38
-72.766357 1307.0991 500 2.2305896e-38
-60.773193 1314.5933 500 2.3508762e-38
-48.779907 1322.0874 500 2.35073e-38
-34.537231 1339.3253 500 2.3504426e-38
-42.031372 1351.3186 500 2.3509839e-38
-69.012939 1367.8108 500 2.3509886e-38
-84.001343 1391.7972 510 2.3509886e-38
-91.495483 1403.7905 510 2.3509886e-38
-86.99646 1423.2778 510 2.3509886e-38
-94.490601 1435.271 510 2.3509886e-38
-92.241089 1445.0148 510 2.3509886e-38
-153.69849 1489.9924 530 2.3509886e-38
-131.96155 1495.2372 530 2.3509886e-38
-129.71204 1504.981 530 2.3509886e-38
-117.71875 1512.4751 520 2.3509886e-38
-105.72559 1519.9692 520 2.3509886e-38
-751.77954 1966.7515 690 7.5596843e-39
-720.29883 1969.7466 690 7.46676e-39
-715.7998 1989.234 690 8.0188646e-39
-701.55713 2006.4719 690 5.8093981e-39
-662.58228 1997.4738 680 1.7439948e-38
-1055.2747 2652.6018 800 2.3509886e-38
-1043.2815 2660.0959 800 2.3509886e-38
-967.5813 2632.356 780 2.3509886e-38
-955.58813 2639.8503 780 2.3509886e-38
-941.34546 2657.0881 780 2.3509886e-38
-929.35229 2664.5825 770 2.3509886e-38
-905.36572 2679.5708 770 1.7148751e-38
-893.37256 2687.0649 760 1.5858353e-38
-879.12988 2704.3027 760 1.5578903e-38
-867.13647 2711.7969 760 1.69557e-38
-835.65601 2714.792 750 2.3509886e-38
-789.18701 2693.8008 740 2.3509886e-38
-385.42444 219.55829 500 1.0238032e-38
-383.17493 229.302 500 7.7451392e-39
-390.66907 241.29523 510 6.5458771e-39
-388.41956 251.03894 510 3.0453355e-39
-374.17676 268.27679 500 1.3458415e-38
-371.92725 278.02051 500 2.3963703e-39
-357.68457 295.25836 500 4.2402843e-39
-355.43506 305.00208 500 3.6903405e-39
-350.93604 324.4895 500 4.0569664e-39
-326.94958 339.47784 500 3.8754535e-39
-314.9563 346.97202 500 3.9676449e-39
-322.45044 358.96524 500 3.7814684e-39
-317.95142 378.45264 500 3.5992379e-39
-315.7019 388.19632 500 4.149525e-39
-313.45239 397.94003 500 4.242085e-39
-311.20288 407.68372 500 4.5186593e-39
-308.95337 417.42743 500 4.5186649e-39
-304.45435 436.91483 500 4.3335589e-39
-280.4679 451.90317 490 4.6108563e-39
-269.22034 500.62167 490 4.7034078e-39
-266.97083 510.36536 490 4.9785556e-39
-264.72131 520.10907 490 4.7956091e-39
-262.47168 529.85278 490 4.8881606e-39
-269.96594 541.84595 490 5.0707681e-39
-255.72314 559.08386 490 5.3480584e-39
-253.47363 568.82751 490 5.1636727e-39
-251.22412 578.57129 490 5.1618833e-39
-268.46204 592.81396 500 4.9792759e-39
-266.21252 602.55768 500 5.4395436e-39
-273.70667 614.5509 500 5.5313777e-39
-293.19409 619.04993 500 5.071833e-39
-300.68823 631.04315 510 4.7037666e-39
-339.66309 640.04126 520 5.0707554e-39
-337.41345 649.78491 520 7.5564333e-39
-395.87573 663.2821 530 9.2199315e-39
-444.59424 674.52966 540 1.6620619e-39
-505.30591 678.28308 550 1.0145149e-39
-542.03113 697.0249 560 1.2903787e-39
-663.45459 704.53174 590 1.2900228e-39
-877.07031 712.79688 640 1.2907374e-39
-925.78882 724.04443 650 1.4747643e-39
-892.05859 736.78333 640 1.9357439e-39
-856.0791 759.26587 640 1.9357453e-39
-822.34888 772.00464 630 1.8439112e-39
-808.1062 789.24255 630 2.2123294e-39
561.29425 852.82269 330 1.6598815e-39
563.54376 862.56635 330 4.9731326e-39
565.79333 872.31006 330 1.1058011e-38
565.79333 872.31006 330 4.974255e-39
568.04285 882.05377 330 2.3509886e-38
568.04285 882.05377 330 1.8996591e-38
560.54865 894.047 330 1.6428867e-38
562.79816 903.79071 330 1.3405462e-38
562.79816 903.79071 330 4.0587615e-39
565.04767 913.53436 330 1.098059e-38
-353.0968 1248.6622 550 1.9644499e-38
-343.35315 1246.4127 550 4.9750383e-39
-331.35986 1253.907 550 1.9370048e-38
-317.11719 1271.1448 540 2.1212911e-38
-363.58606 1292.1361 550 2.0751924e-38
4.4249268 1196.9106 470 2.130582e-38
11.173462 1226.1417 470 1.2697838e-38
-25.551758 1244.8835 480 1.6852597e-38
-69.77124 1275.6185 490 2.350983e-38
-87.009155 1289.8612 490 2.3509827e-38
-94.503296 1301.8545 490 2.2951245e-38
-72.766357 1307.0991 490 2.3227469e-38
-68.267334 1326.5864 490 2.3506228e-38
-56.27417 1334.0807 490 2.3507663e-38
-54.024658 1343.8243 490 2.3044528e-38
-71.262451 1358.0671 490 2.3508744e-38
-86.250854 1382.0535 500 2.3509886e-38
-84.001343 1391.7972 500 2.3509886e-38
-91.495483 1403.7905 500 2.3509886e-38
-86.99646 1423.2778 500 2.3509886e-38
-84.746948 1433.0215 500 2.3509886e-38
-72.753662 1440.5157 500 2.3509886e-38
-143.95471 1487.7429 510 2.3509886e-38
-131.96155 1495.2372 510 2.3509886e-38
-129.71204 1504.981 510 2.3509886e-38
-117.71875 1512.4751 510 2.3509886e-38
-105.72559 1519.9692 510 2.3509886e-38
-103.47607 1529.7129 510 2.3509886e-38
-756.27856 1947.264 680 9.3060427e-39
-742.03564 1964.502 670 7.4671314e-39
-720.29883 1969.7466 670 7.2827583e-39
-715.7998 1989.234 670 7.3763707e-39
-703.80664 1996.7281 670 5.1651007e-39
-1047.7805 2640.6086 780 2.3509886e-38
-1026.0435 2645.8533 770 2.3509886e-38
-960.08716 2620.3628 760 2.3509886e-38
-955.58813 2639.8503 750 2.3509886e-38
-951.08911 2659.3376 750 2.3509886e-38
-929.35229 2664.5825 750 2.3509886e-38
-915.10938 2681.8203 750 1.7146636e-38
-893.37256 2687.0649 740 1.1910133e-38
-888.87354 2706.5522 740 1.1625287e-38
-867.13647 2711.7969 740 1.789782e-38
-845.39966 2717.0415 730 2.3509886e-38
-789.18701 2693.8008 720 2.3509886e-38
-351.69421 232.29712 480 9.7749116e-39
-359.18848 244.29034 490 7.8355313e-39
-368.93213 246.53992 490 6.7295397e-39
-366.68262 256.28357 490 1.8159161e-38
-362.18359 275.771 490 4.702703e-39
-350.19031 283.26514 490 4.0584042e-39
-345.69128 302.75256 490 2.3432464e-38
-343.44177 312.49628 490 7.6396256e-39
-329.1991 329.73413 490 8.379343e-39
-305.21265 344.72247 480 1.2444883e-38
-302.96313 354.46619 480 3.9744972e-39
-300.71362 364.20987 480 4.4423319e-39
-296.2146 383.6973 480 3.8884995e-39
-293.96497 393.44098 480 4.425756e-39
-291.71545 403.18469 480 4.5179432e-39
-289.46594 412.92838 480 4.7030533e-39
-287.21643 422.67209 480 4.5186593e-39
-282.71741 442.15948 480 4.7019729e-39
-280.4679 451.90317 480 4.6105004e-39
-268.47473 459.39734 480 5.0689632e-39
-263.97559 478.88474 480 4.6112094e-39
-271.46985 490.87796 480 5.2544306e-39
-269.22034 500.62167 480 4.8878075e-39
-266.97083 510.36536 480 5.1640273e-39
-264.72131 520.10907 480 4.7959678e-39
-262.47168 529.85278 480 4.8878103e-39
-260.22217 539.59644 480 5.2555012e-39
-255.72314 559.08386 480 5.2544334e-39
-253.47363 568.82751 480 4.9817968e-39
-241.48047 576.32172 480 5.253709e-39
-258.71826 590.56445 480 4.8878103e-39
-266.21252 602.55768 480 5.1647531e-39
-273.70667 614.5509 490 5.4398981e-39
-281.20081 626.54413 490 5.072189e-39
-288.69507 638.53735 490 4.9778353e-39
-317.92615 645.28589 500 4.9792857e-39
-325.42029 657.27911 500 7.6525694e-39
-332.91443 669.27234 500 9.1291596e-39
-340.40869 681.26556 500 8.112498e-39
-473.82532 681.2782 530 1.1985488e-39
-532.28748 694.77539 550 1.2903801e-39
-694.9353 701.53662 580 1.0145135e-39
-898.80737 707.55219 630 1.2910947e-39
-935.53247 726.29401 630 1.4747699e-39
-880.06543 744.27747 620 1.9353852e-39
-865.82275 761.51538 620 1.7509967e-39
-832.09253 774.25421 610 1.8435525e-39
-808.1062 789.24255 610 2.212335e-39
561.29425 852.82269 320 1.3546275e-38
561.29425 852.82269 320 2.211256e-39
573.28748 860.31683 320 6.2706817e-39
575.53699 870.06055 320 1.5302947e-38
565.79333 872.31006 320 5.8933162e-39
568.04285 882.05377 320 2.3509886e-38
568.04285 882.05377 320 2.3509886e-38
570.29236 891.79749 320 2.3509886e-38
562.79816 903.79071 320 2.3509886e-38
562.79816 903.79071 320 9.3121061e-39
565.04767 913.53436 320 1.9828439e-38
567.29724 923.27808 320 2.3509886e-38
-323.86572 1241.9137 530 2.3509886e-38
-323.86572 1241.9137 530 6.8211398e-39
-321.61621 1251.6573 530 1.7242689e-38
-317.11719 1271.1448 530 1.3547719e-38
-353.84241 1289.8866 540 1.7724217e-38
4.4249268 1196.9106 460 1.4958019e-38
6.6744385 1206.6543 460 3.6842239e-39
8.9239502 1216.3979 460 1.076202e-38
-25.551758 1244.8835 460 1.5650835e-38
-69.77124 1275.6185 480 2.3509831e-38
-87.009155 1289.8612 480 2.3509834e-38
-94.503296 1301.8545 480 2.2951604e-38
-72.766357 1307.0991 480 2.3500826e-38
-68.267334 1326.5864 480 2.3506238e-38
-56.27417 1334.0807 480 2.350802e-38
-54.024658 1343.8243 480 2.2584996e-38
-81.006226 1360.3167 480 2.3506593e-38
-86.250854 1382.0535 480 2.3509886e-38
-84.001343 1391.7972 490 2.3509886e-38
-91.495483 1403.7905 490 2.3509886e-38
-86.99646 1423.2778 490 2.3509886e-38
-84.746948 1433.0215 490 2.3509886e-38
-92.241089 1445.0148 490 2.3509886e-38
-143.95471 1487.7429 500 2.3509886e-38
-131.96155 1495.2372 500 2.3509886e-38
-129.71204 1504.981 500 2.3509886e-38
-117.71875 1512.4751 500 2.3509886e-38
-105.72559 1519.9692 500 2.3509886e-38
-101.22656 1539.4565 500 2.3509886e-38
-746.53491 1945.0145 660 1.2988476e-38
-742.03564 1964.502 650 7.0979887e-39
-720.29883 1969.7466 650 6.4551178e-39
-715.7998 1989.234 650 7.0972726e-39
-703.80664 1996.7281 650 5.6217894e-39
-951.84741 2567.1455 730 2.3509886e-38
-999.06201 2629.3608 740 2.3509886e-38
-969.83081 2622.6123 740 2.3509886e-38
-955.58813 2639.8503 730 2.3509886e-38
-958.58325 2671.3311 740 2.3509886e-38
-936.84644 2676.5757 730 2.3509886e-38
-922.60352 2693.8135 730 2.3509886e-38
-900.8667 2699.0581 730 2.3509886e-38
-896.36768 2718.5454 720 2.3509886e-38
-884.37451 2726.0396 720 2.3509886e-38
-860.38794 2741.0281 720 2.3509886e-38
-771.94922 2679.5581 700 2.3509886e-38
-308.22046 242.78644 460 9.219563e-39
-327.70789 247.28552 470 7.5575067e-39
-335.20203 259.27875 470 8.8521748e-39
-332.95251 269.0224 470 5.8994413e-39
-330.703 278.76611 470 4.4271825e-39
