# .PCD v0.7 - Point Cloud Data file format
VERSION 0.7
FIELDS x y z rgb
SIZE 4 4 4 4
TYPE F F F F
COUNT 1 1 1 1
WIDTH 1265
HEIGHT 1
VIEWPOINT 0 0 0 1 0 0 0
POINTS 1265
DATA ascii
-438.64197 211.31854 10 4.4188868e-39
-412.40601 236.0506 10 1.749196e-39
-398.16321 253.28845 10 1.4733224e-39
-395.9137 263.03217 20 1.2892941e-39
-381.67102 280.27002 20 1.1049028e-39
-369.67773 287.76422 20 2.9444868e-39
-365.17871 307.25159 20 7.2744206e-39
-295.46887 342.47296 20 7.091823e-39
-302.96313 354.46619 20 7.2762143e-39
-310.45728 366.45941 20 7.4588189e-39
-317.95142 378.45264 20 7.7346771e-39
-327.69519 380.70215 20 7.5524452e-39
-335.18933 392.69537 20 7.7361134e-39
-364.42041 399.44394 10 8.0123331e-39
-362.1709 409.18762 10 7.6449996e-39
-359.92139 418.93134 10 8.0119744e-39
-367.41553 430.92453 10 5.7150136e-39
-353.17285 448.16241 10 3.5023451e-39
-350.92334 457.90613 10 4.0529868e-39
-358.41748 469.89932 10 3.8700374e-39
-365.91162 481.89255 10 4.5150425e-39
-351.66895 499.13043 10 4.237378e-39
-349.41943 508.87411 10 3.4069111e-39
-347.16992 518.6178 10 6.9042045e-39
-332.92712 535.85571 10 8.1052504e-39
-320.93396 543.34985 20 8.0130548e-39
-306.69116 560.58777 20 8.3807569e-39
-292.44849 577.82562 20 8.6559089e-39
-299.94263 589.81885 20 8.4733141e-39
-329.17371 596.56738 10 8.1967286e-39
-334.41833 618.30432 10 7.8286678e-39
-347.15723 652.03448 10 7.3676938e-39
-313.42712 664.77332 10 7.458809e-39
-330.66492 679.01605 10 1.3366533e-38
-304.42896 703.74811 10 1.1797055e-38
-258.70569 723.98108 20 1.0596354e-38
-295.43091 742.7229 10 8.0101822e-39
409.88147 774.88574 70 1.3822086e-39
616.00305 778.61383 90 7.0047281e-39
618.25256 788.35754 90 4.9774738e-39
620.50208 798.10126 90 1.3822142e-39
620.50208 798.10126 90 1.19746e-39
601.01471 802.60028 80 1.1989033e-39
593.52051 814.59351 80 1.2922242e-39
593.52051 814.59351 80 9.2159336e-40
586.02631 826.58673 80 1.9339446e-39
595.77002 824.33722 80 5.5317098e-40
619.01086 880.54987 80 1.0145093e-39
611.51666 892.54309 80 1.2903773e-39
611.51666 892.54309 80 6.4501208e-40
623.50989 900.03723 80 7.3720631e-40
623.50989 900.03723 80 9.208759e-40
625.7594 909.78094 80 7.3720771e-40
628.00891 919.52466 80 9.2123883e-40
598.77783 926.27319 80 8.2940894e-40
591.28363 938.26642 80 9.208773e-40
630.25842 929.26837 80 1.1967467e-39
632.508 939.01208 80 1.1978201e-39
634.75751 948.75574 80 1.6598801e-39
644.50116 946.50623 80 2.214493e-39
451.1311 1042.4646 70 3.0410026e-39
453.38062 1052.2084 70 2.8569799e-39
465.37384 1059.7025 70 2.7658591e-39
465.37384 1059.7025 70 5.1622294e-39
465.37384 1059.7025 70 1.3448596e-38
467.62341 1069.4463 70 3.4097908e-39
467.62341 1069.4463 70 3.0417285e-39
469.87292 1079.1899 70 2.9488098e-39
472.12244 1088.9336 70 2.4878471e-39
474.37195 1098.6774 70 2.4881974e-39
-542.68811 1672.1656 -10 2.7647801e-39
-557.67639 1696.1521 -10 2.5800343e-39
-553.17737 1715.6395 -10 2.5811063e-39
-568.16577 1739.626 -20 2.4878387e-39
-565.91626 1749.3696 -20 2.4881974e-39
-561.41724 1768.8571 -20 2.6715069e-39
-547.17444 1786.095 -20 2.5800301e-39
-535.18127 1793.5891 -10 2.3960046e-39
-422.75586 1747.1074 0 2.3956416e-39
-371.78784 1745.6035 0 2.4878401e-39
-379.2821 1757.5967 0 2.3030901e-39
-374.78308 1777.0842 0 2.3960032e-39
-362.78979 1784.5784 0 2.3034502e-39
-358.29077 1804.0657 0 2.4878387e-39
-338.80334 1799.5667 0 2.3041635e-39
-334.30432 1819.0541 0 2.2123252e-39
-295.32959 1810.056 0 2.1201309e-39
-266.09839 1803.3074 0 8.290418e-40
-234.6178 1806.3026 0 8.2904461e-40
-195.64307 1797.3044 0 7.3720491e-40
-183.64978 1804.7987 0 1.1056259e-39
-171.65662 1812.2928 0 7.3899997e-40
-169.4071 1822.0366 0 1.1059832e-39
-167.15759 1831.7803 0 1.1978243e-39
-162.65857 1851.2676 0 1.1049126e-39
-160.40894 1861.0114 0 1.0130743e-39
-165.65369 1882.7483 0 1.0137918e-39
-163.40417 1892.4919 0 1.1974628e-39
-151.41089 1899.9861 0 1.1056329e-39
-139.41772 1907.4803 10 2.1197708e-39
-134.9187 1926.9678 10 2.0282969e-39
-132.66919 1936.7114 0 2.2108888e-39
-137.91382 1958.4484 0 2.2108874e-39
-152.9021 1982.4348 0 1.7499163e-39
-167.8905 2006.4213 0 2.0268563e-39
-188.12354 2052.1445 0 2.2108888e-39
-210.60608 2088.1243 0 2.2112518e-39
-466.92468 2311.509 -20 1.3814939e-39
-472.16931 2333.2461 -20 1.658078e-39
-460.17615 2340.7402 -20 2.3952675e-39
-448.18286 2348.2344 -20 1.7517128e-39
-443.68384 2367.7217 -20 2.118696e-39
-439.18481 2387.209 -20 2.1190533e-39
-436.39246 221.06219 0 4.1433845e-39
-412.40601 236.0506 0 1.6577179e-39
-398.16321 253.28845 0 1.3807666e-39
-395.9137 263.03217 0 1.2889325e-39
-381.67102 280.27002 0 1.197097e-39
-369.67773 287.76422 0 2.8519338e-39
-365.17871 307.25159 0 7.1825865e-39
-312.70679 356.7157 10 7.8258007e-39
-300.71362 364.20987 10 7.5513634e-39
-298.46411 373.95358 10 7.5520795e-39
-356.92627 387.45071 0 7.7364693e-39
-376.4137 391.94974 0 8.1038113e-39
-371.91455 411.43713 0 7.828665e-39
-369.66504 421.18085 0 7.8283104e-39
-367.41553 430.92453 0 8.4715218e-39
-362.9165 450.41193 0 7.8279475e-39
-350.92334 457.90613 0 8.1967216e-39
-358.41748 469.89932 0 8.196723e-39
-365.91162 481.89255 0 7.8297468e-39
-351.66895 499.13043 0 4.972069e-39
-349.41943 508.87411 0 3.5016108e-39
-347.16992 518.6178 0 8.1038141e-39
-332.92712 535.85571 0 8.3811199e-39
-320.93396 543.34985 0 8.3811157e-39
-306.69116 560.58777 0 8.3807625e-39
-292.44849 577.82562 0 8.4729554e-39
-311.93579 582.32471 0 8.1048903e-39
-341.16699 589.07324 0 8.1963685e-39
-335.16394 659.52863 0 7.2765786e-39
-301.43384 672.26746 0 6.9992714e-39
-330.66492 679.01605 0 6.3560628e-39
407.63196 765.14209 60 5.2493663e-39
400.13782 777.13525 60 1.6587941e-39
400.13782 777.13525 60 5.2555054e-39
618.25256 788.35754 80 4.2399144e-39
620.50208 798.10126 80 1.1981817e-39
620.50208 798.10126 80 1.1978215e-39
601.01471 802.60028 80 1.1996208e-39
593.52051 814.59351 80 1.4773273e-39
593.52051 814.59351 80 2.8591533e-39
586.02631 826.58673 80 1.6584353e-39
586.02631 826.58673 80 4.6169982e-40
611.51666 892.54309 80 1.1063462e-39
611.51666 892.54309 80 6.4465054e-40
623.50989 900.03723 80 9.208745e-40
623.50989 900.03723 80 9.2159616e-40
625.7594 909.78094 80 9.208759e-40
628.00891 919.52466 80 8.2940334e-40
598.77783 926.27319 80 9.2123743e-40
591.28363 938.26642 70 8.2976207e-40
630.25842 929.26837 80 1.38221e-39
632.508 939.01208 80 4.421426e-39
634.75751 948.75574 80 2.762985e-39
634.75751 948.75574 80 2.4921659e-39
637.00702 958.49945 80 1.3858477e-39
637.00702 958.49945 80 9.5944384e-39
443.63696 1054.4579 60 2.9488154e-39
455.63019 1061.952 60 2.9495287e-39
465.37384 1059.7025 60 4.886346e-39
465.37384 1059.7025 60 5.5310119e-39
467.62341 1069.4463 60 8.3946508e-39
467.62341 1069.4463 60 3.1332039e-39
469.87292 1079.1899 60 3.0413698e-39
491.6098 1084.4346 60 2.5811119e-39
-532.94434 1669.9161 -30 2.6718614e-39
-547.93274 1693.9026 -30 2.6729432e-39
-535.93958 1701.3967 -30 2.8558981e-39
-558.42212 1737.3765 -30 2.5800329e-39
-546.42883 1744.8706 -30 2.3960018e-39
-551.67346 1766.6075 -30 2.4885589e-39
-549.42395 1776.3512 -30 2.3960018e-39
-544.92493 1795.8386 -30 2.4874799e-39
-439.99377 1761.3501 -20 2.5800329e-39
-374.03735 1735.8599 -20 2.5800287e-39
-369.53833 1755.3472 -20 2.4874757e-39
-357.54517 1762.8414 -20 2.3034502e-39
-353.04614 1782.3289 -10 2.4874771e-39
-350.79663 1792.0725 -10 2.4874841e-39
-309.57227 1792.8181 -10 2.0283011e-39
-307.32275 1802.5618 -10 2.4878345e-39
-251.11011 1779.321 -10 2.3038061e-39
-202.3916 1768.0735 0 8.290432e-40
-207.63623 1789.8103 0 9.208759e-40
-185.89929 1795.0549 0 8.290432e-40
-176.15564 1792.8054 0 1.1049098e-39
-161.91284 1810.0433 0 9.2231223e-40
-159.66333 1819.7871 0 1.0134303e-39
-157.41382 1829.5308 0 9.2159616e-40
-155.16431 1839.2744 0 9.2123603e-40
-150.66528 1858.7618 0 9.2159476e-40
-148.41577 1868.5055 0 9.2123883e-40
-153.6604 1890.2424 0 1.0134331e-39
-141.66724 1897.7366 0 1.0134303e-39
-129.67395 1905.2308 0 2.0275766e-39
-127.42444 1914.9745 0 2.0275794e-39
-132.66919 1936.7114 0 1.9357411e-39
-128.17004 1956.1989 0 2.1194163e-39
-143.15845 1980.1853 0 1.6595101e-39
-158.14685 2004.1716 0 2.2105301e-39
-180.62927 2040.1514 -10 2.0272164e-39
-212.85559 2078.3804 -10 2.1186946e-39
-489.40723 2347.4888 -40 1.7502764e-39
-477.41394 2354.9829 -40 2.0268549e-39
-455.677 2360.2275 -40 1.7502694e-39
-426.44592 2353.479 -30 2.1190519e-39
-424.19641 2363.2227 -30 2.3030859e-39
-426.64868 218.81268 0 3.2239478e-39
-402.66223 233.80103 0 1.6577165e-39
-388.41956 251.03894 0 1.28965e-39
-386.17004 260.78265 0 1.197097e-39
-381.67102 280.27002 0 1.2889325e-39
-379.42151 290.01373 0 2.3005607e-39
-374.92236 309.5011 0 7.1825823e-39
-312.70679 356.7157 0 7.1832998e-39
-308.20776 376.20309 0 7.3684127e-39
-356.92627 387.45071 0 7.2758569e-39
-376.4137 391.94974 0 7.4606055e-39
-371.91455 411.43713 0 7.4606097e-39
-369.66504 421.18085 0 8.1952923e-39
-367.41553 430.92453 0 7.8279545e-39
-362.9165 450.41193 0 7.6453555e-39
-350.92334 457.90613 0 8.379322e-39
-358.41748 469.89932 0 8.4715148e-39
-365.91162 481.89255 0 7.552448e-39
-351.66895 499.13043 0 3.1321165e-39
-349.41943 508.87411 0 8.2874893e-39
-337.42615 516.36829 0 8.1963685e-39
-332.92712 535.85571 0 8.1985265e-39
-320.93396 543.34985 0 8.2889214e-39
-306.69116 560.58777 0 7.8300999e-39
-304.44165 570.33142 0 8.4725966e-39
-321.67957 584.57422 0 8.0130506e-39
-350.91064 591.32275 0 8.0126919e-39
-325.42029 657.27911 0 7.3673295e-39
-313.42712 664.77332 0 6.7241265e-39
-320.92126 676.76654 0 6.4482599e-39
407.63196 765.14209 50 5.3415606e-39
400.13782 777.13525 50 8.4815888e-39
400.13782 777.13525 50 4.9799989e-39
618.25256 788.35754 70 2.210191e-39
620.50208 798.10126 70 1.1063448e-39
620.50208 798.10126 70 1.288941e-39
601.01471 802.60028 70 1.3832946e-39
603.26422 812.34399 70 1.938646e-39
593.52051 814.59351 70 8.7679399e-39
586.02631 826.58673 70 1.1989061e-39
586.02631 826.58673 70 6.4465054e-40
611.51666 892.54309 70 1.0152323e-39
601.77295 894.7926 70 6.4572814e-40
625.7594 909.78094 70 7.3720491e-40
628.00891 919.52466 70 8.2939913e-40
589.03412 928.52277 70 9.2123463e-40
591.28363 938.26642 70 8.2940054e-40
620.51477 931.51788 70 2.3023628e-39
622.76428 941.2616 70 3.1288949e-39
634.75751 948.75574 70 1.105986e-39
634.75751 948.75574 70 2.8587876e-39
637.00702 958.49945 70 1.4769658e-39
627.26331 960.74896 70 8.6515915e-39
610.02545 974.9917 70 2.0275766e-39
612.27496 984.73541 70 2.9495357e-39
592.78754 989.23444 70 3.1328423e-39
455.63019 1061.952 50 3.3168721e-39
465.37384 1059.7025 50 3.5016235e-39
465.37384 1059.7025 50 4.9807108e-39
467.62341 1069.4463 50 2.350973e-38
-471.48706 1624.9385 -40 2.9480951e-39
-532.94434 1669.9161 -40 2.6725845e-39
-547.93274 1693.9026 -50 2.2130524e-39
-526.1958 1699.1472 -40 2.5800315e-39
-541.1842 1723.1337 -50 2.5800301e-39
-546.42883 1744.8706 -50 2.2126881e-39
-551.67346 1766.6075 -50 2.6718656e-39
-539.6803 1774.1017 -50 2.5793168e-39
-535.18127 1793.5891 -50 2.3041649e-39
-523.18799 1801.0833 -50 2.3960018e-39
-281.84509 1735.1016 -20 2.304525e-39
-260.10815 1740.3462 -20 2.3045264e-39
-238.37122 1745.5908 -20 2.3038075e-39
-216.63428 1750.8354 -20 2.3038089e-39
-206.89062 1748.5859 -10 2.2112574e-39
-192.64795 1765.824 -10 9.2123323e-40
-190.39832 1775.5676 -10 7.3720491e-40
-188.1488 1785.3113 -10 8.2939773e-40
-166.41199 1790.5559 -10 8.2940054e-40
-164.16248 1800.2996 -10 8.2976207e-40
-149.91968 1817.5376 -10 7.3829371e-40
-147.67017 1827.2812 -10 5.5498426e-40
-135.67688 1834.7754 -10 8.3048234e-40
-133.42737 1844.519 -10 8.3084247e-40
-138.67212 1866.256 -10 8.3048934e-40
-126.67883 1873.7502 -10 1.2896584e-39
-124.42932 1883.4939 -10 7.3684477e-40
-112.43616 1890.988 -10 1.8435427e-39
-127.42444 1914.9745 -10 2.1190561e-39
-122.92542 1934.4619 -10 2.3030831e-39
-137.91382 1958.4484 -10 1.9353852e-39
-143.15845 1980.1853 -10 2.0275752e-39
-148.40308 2001.9221 -20 1.935388e-39
-163.39148 2025.9086 -20 1.935381e-39
-168.63611 2047.6455 -20 2.1190477e-39
-454.9314 2319.0032 -50 1.6580794e-39
-433.19458 2324.2478 -50 2.0275738e-39
-431.69067 2375.2158 -50 2.3949158e-39
-426.64868 218.81268 -20 3.8678766e-39
-412.40601 236.0506 -10 1.8421049e-39
-398.16321 253.28845 -10 1.4726021e-39
-395.9137 263.03217 -10 1.1052616e-39
-381.67102 280.27002 -10 1.3811268e-39
-379.42151 290.01373 -10 1.93286e-39
-377.172 299.75745 -10 7.0907496e-39
-350.93604 324.4895 -10 6.7230503e-39
-356.92627 387.45071 -10 7.6442751e-39
-376.4137 391.94974 -10 7.7364707e-39
-371.91455 411.43713 -10 7.7357519e-39
-369.66504 421.18085 -10 7.8275818e-39
-367.41553 430.92453 -10 7.6439192e-39
-362.9165 450.41193 -10 7.9194243e-39
-350.92334 457.90613 -10 8.0126919e-39
-348.67383 467.64981 -10 6.9956897e-39
-356.16797 479.64304 -10 3.223959e-39
-351.66895 499.13043 -10 7.2762114e-39
-339.67566 506.6246 -10 7.8293796e-39
-337.42615 516.36829 -10 8.473677e-39
-332.92712 535.85571 -10 8.380401e-39
-320.93396 543.34985 -10 8.4722351e-39
-306.69116 560.58777 -10 8.1045316e-39
-323.92908 574.83051 -10 8.2878466e-39
-293.9397 660.27429 -10 6.8173941e-39
-291.69019 670.01794 -10 6.8148858e-39
-308.92798 684.26068 -10 6.26387e-39
419.62518 772.63623 50 5.8072401e-39
616.00305 778.61383 70 4.885281e-39
618.25256 788.35754 70 1.3818526e-39
620.50208 798.10126 70 1.1981803e-39
610.75836 800.35077 70 1.1978215e-39
601.01471 802.60028 70 1.2907374e-39
593.52051 814.59351 70 1.8446469e-39
583.77679 816.84302 60 2.1258763e-39
576.28265 828.83624 60 2.2152679e-39
576.28265 828.83624 60 8.301194e-40
578.53217 838.57996 60 1.6616821e-39
621.26038 890.29358 70 3.04209e-39
608.52155 924.02368 60 3.2293596e-39
589.03412 928.52277 60 2.5890306e-39
591.28363 938.26642 60 1.1996208e-39
591.28363 938.26642 60 2.9509594e-39
613.02057 943.51111 60 1.5673299e-39
615.27008 953.25476 60 1.8449888e-39
615.27008 953.25476 60 2.7662458e-39
627.26331 960.74896 70 1.3862135e-39
617.51959 962.99847 60 2.3027215e-39
610.02545 974.9917 60 1.935025e-39
612.27496 984.73541 60 2.8569757e-39
602.53125 986.98492 60 2.8576932e-39
677.48572 1000.4694 70 3.3168777e-39
677.48572 1000.4694 70 5.0707442e-39
-454.24915 1610.6957 -50 2.5803916e-39
-532.94434 1669.9161 -60 2.3048837e-39
-547.93274 1693.9026 -60 2.4878359e-39
-526.1958 1699.1472 -60 2.4881974e-39
-521.69678 1718.6346 -60 2.4885561e-39
-526.94141 1740.3716 -60 2.2126895e-39
-534.43567 1752.3647 -60 2.4885547e-39
-520.19287 1769.6027 -60 2.3960018e-39
-508.19971 1777.0968 -60 2.3956458e-39
-513.44434 1798.8337 -60 2.4882016e-39
-501.45105 1806.3279 -60 2.3041635e-39
-232.38098 1682.6296 -30 2.304525e-39
-239.87512 1694.6228 -30 2.3045264e-39
-245.11975 1716.3599 -30 2.3038103e-39
-233.12659 1723.854 -30 2.3038075e-39
-221.13342 1731.3481 -30 2.3959976e-39
-199.39648 1736.5928 -30 2.3041649e-39
-197.14697 1746.3364 -30 1.8421189e-39
-194.89746 1756.0802 -30 7.3756224e-40
-180.65466 1773.3181 -30 9.2051717e-40
-178.40515 1783.0618 -30 8.2868307e-40
-149.17407 1776.3132 -20 1.0152309e-39
-154.4187 1798.05 -30 7.3828531e-40
-149.91968 1817.5376 -30 1.017047e-39
-147.67017 1827.2812 -20 9.227116e-40
-135.67688 1834.7754 -20 8.2868027e-40
-133.42737 1844.519 -20 8.2940194e-40
-131.17786 1854.2627 -20 1.4751301e-39
-126.67883 1873.7502 -20 1.5658852e-39
-124.42932 1883.4939 -20 1.5658866e-39
-112.43616 1890.988 -20 1.1985418e-39
-127.42444 1914.9745 -20 1.2903801e-39
-132.66919 1936.7114 -30 1.6580766e-39
-137.91382 1958.4484 -30 1.8424693e-39
-143.15845 1980.1853 -30 2.1186974e-39
-150.65259 1992.1785 -30 2.118696e-39
-155.89734 2013.9154 -30 2.0275822e-39
-143.90405 2021.4095 -30 1.9350292e-39
-183.62451 2071.6318 -30 1.843907e-39
-179.12549 2091.1194 -30 2.1179729e-39
-426.64868 218.81268 -30 4.0508302e-39
-412.40601 236.0506 -30 2.02542e-39
-398.16321 253.28845 -30 1.3814855e-39
-395.9137 263.03217 -30 1.1967383e-39
-381.67102 280.27002 -30 1.1059776e-39
-379.42151 290.01373 -20 1.8410245e-39
-377.172 299.75745 -20 6.9985582e-39
-366.66992 389.70023 -30 7.3684127e-39
-376.4137 391.94974 -30 7.7364777e-39
-371.91455 411.43713 -30 8.2860474e-39
-369.66504 421.18085 -30 8.1038127e-39
-367.41553 430.92453 -30 8.2878452e-39
-365.16602 440.66824 -30 7.919783e-39
-350.92334 457.90613 -30 7.5517263e-39
-358.41748 469.89932 -30 4.4203357e-39
-356.16797 479.64304 -30 3.49982e-39
-351.66895 499.13043 -30 6.8134494e-39
-339.67566 506.6246 -30 6.6315749e-39
-337.42615 516.36829 -30 8.471875e-39
-332.92712 535.85571 -30 7.9205089e-39
-330.67761 545.59937 -30 8.2885641e-39
-306.69116 560.58777 -20 8.1978006e-39
-345.66602 569.58582 -30 8.1970859e-39
-301.43384 672.26746 -30 6.815599e-39
-320.92126 676.76654 -30 6.3553454e-39
543.2981 774.87311 50 5.3487731e-39
618.25256 788.35754 60 3.043539e-39
618.25256 788.35754 60 1.1981831e-39
608.50885 790.60706 60 1.1978229e-39
610.75836 800.35077 60 1.1974642e-39
601.01471 802.60028 60 1.290743e-39
583.77679 816.84302 60 1.1955887e-38
564.28943 821.34204 60 6.4482865e-39
576.28265 828.83624 60 4.4192624e-39
566.53894 831.08575 60 2.028664e-39
568.78845 840.82947 60 1.5684075e-39
431.63104 913.54706 40 2.8537359e-39
443.62427 921.04126 40 2.5789567e-39
443.62427 921.04126 40 3.7749776e-39
436.13013 933.03442 40 4.2359529e-39
438.37964 942.77814 40 3.1328521e-39
608.52155 924.02368 60 4.7938e-39
589.03412 928.52277 60 4.4275524e-39
581.53998 940.51599 50 3.7821942e-39
571.79626 942.7655 50 5.2529775e-39
593.5332 948.01013 60 3.8776171e-39
593.5332 948.01013 60 5.5385649e-39
595.78271 957.75385 60 2.6754823e-39
617.51959 962.99847 60 1.6617298e-39
607.77594 965.24805 60 2.4881974e-39
610.02545 974.9917 60 1.8435441e-39
602.53125 986.98492 60 3.2253953e-39
602.53125 986.98492 60 3.1332025e-39
604.78076 996.72864 60 3.0417257e-39
672.98669 980.98199 60 3.043162e-39
665.49249 992.97522 60 3.2261156e-39
675.23621 990.72571 60 2.9488224e-39
677.48572 1000.4694 60 3.225038e-39
677.48572 1000.4694 60 4.4239301e-39
-434.76184 1606.1967 -60 2.8562569e-39
-532.94434 1669.9161 -80 2.6715111e-39
-538.18909 1691.6531 -80 2.6715083e-39
-469.98315 1675.9065 -70 2.5803958e-39
-421.26465 1664.6588 -60 2.6715097e-39
-416.76562 1684.1462 -60 2.7629878e-39
-414.51611 1693.8899 -60 2.4882016e-39
-410.01709 1713.3773 -60 2.4881946e-39
-398.0238 1720.8715 -60 2.6725817e-39
-258.61694 1657.8976 -50 2.4885589e-39
-190.41101 1642.1509 -40 2.2123294e-39
-205.39941 1666.1375 -40 2.6715125e-39
-212.89355 1678.1306 -40 2.3967234e-39
-218.13818 1699.8674 -40 2.3048837e-39
-215.88867 1709.6112 -40 2.3038075e-39
-211.38965 1729.0986 -40 2.3034488e-39
-199.39648 1736.5928 -40 9.2268918e-40
-187.4032 1744.0869 -40 1.6620479e-39
-185.15369 1753.8307 -40 1.0137876e-39
-173.16052 1761.3248 -40 1.0137876e-39
-178.40515 1783.0618 -40 9.2159336e-40
-156.66821 1788.3064 -40 1.2921948e-39
-164.16248 1800.2996 -40 1.1981746e-39
-159.66333 1819.7871 -40 9.2485839e-40
-157.41382 1829.5308 -40 1.1992971e-39
-145.42065 1837.0249 -40 5.5353391e-40
-133.42737 1844.519 -40 8.29039e-40
-138.67212 1866.256 -40 1.4744112e-39
-136.42261 1875.9998 -40 1.2903801e-39
-131.92346 1895.4871 -40 1.3822128e-39
-129.67395 1905.2308 -40 1.288941e-39
-134.9187 1926.9678 -40 1.1056301e-39
-142.41284 1938.9609 -40 1.934309e-39
-147.65747 1960.6979 -40 1.6587955e-39
-143.15845 1980.1853 -40 1.9343076e-39
-150.65259 1992.1785 -40 2.0265004e-39
-146.15356 2011.6659 -40 2.2094483e-39
-134.1604 2019.16 -40 2.0264962e-39
-131.91089 2028.9037 -40 2.1194191e-39
-119.9176 2036.3979 -40 2.1194093e-39
-426.64868 218.81268 -40 4.3281331e-39
-412.40601 236.0506 -40 2.0272179e-39
-398.16321 253.28845 -40 1.4729651e-39
-395.9137 263.03217 -40 1.1974544e-39
-393.66418 272.77582 -40 1.1974586e-39
-379.42151 290.01373 -40 1.656992e-39
-377.172 299.75745 -40 6.9070758e-39
-376.4137 391.94974 -40 7.9190613e-39
-374.16418 401.69345 -40 7.6442793e-39
-379.40881 423.43036 -40 8.1949335e-39
-367.41553 430.92453 -40 7.3680554e-39
-365.16602 440.66824 -40 7.9197858e-39
-360.66699 460.15564 -40 8.0126975e-39
-358.41748 469.89932 -40 3.7792809e-39
-356.16797 479.64304 -40 3.224675e-39
-341.92517 496.88092 -40 3.3157889e-39
-339.67566 506.6246 -40 7.2729716e-39
-337.42615 516.36829 -40 7.4616873e-39
-332.92712 535.85571 -40 8.4733113e-39
-330.67761 545.59937 -40 8.1048917e-39
-316.43494 562.83728 -40 8.104533e-39
-354.65137 664.02771 -40 6.6315665e-39
543.2981 774.87311 50 7.2834702e-39
543.2981 774.87311 50 5.439168e-39
555.29132 782.36725 50 1.3814995e-39
545.54761 784.61676 50 1.0141519e-39
567.28455 789.86145 50 1.1059874e-39
559.79034 801.85468 50 1.1052714e-39
571.78357 809.34882 50 2.2116077e-39
562.03992 811.59839 50 1.0134303e-39
564.28943 821.34204 50 1.0141519e-39
564.28943 821.34204 50 1.7502722e-39
515.57092 832.58966 40 1.5666068e-39
486.33984 839.3382 40 1.0134317e-39
488.58936 849.08191 40 1.3847393e-39
490.83887 858.82562 40 1.2914633e-39
415.13879 886.56549 30 1.4747643e-39
427.13202 894.05969 30 1.3836547e-39
429.38153 903.80334 30 1.4758461e-39
431.63104 913.54706 30 1.2911004e-39
431.63104 913.54706 30 1.9361152e-39
433.88055 923.29077 30 1.938269e-39
426.38641 935.284 30 1.9346663e-39
367.92419 948.78113 20 1.6584634e-39
571.79626 942.7655 50 1.3814939e-39
571.79626 942.7655 50 1.1052728e-39
574.04578 952.50916 50 1.1989033e-39
574.04578 952.50916 50 1.2900157e-39
576.29529 962.25287 50 3.0410124e-39
588.28851 969.74707 50 1.5698831e-39
598.03223 967.49756 50 2.3970794e-39
610.02545 974.9917 50 1.935381e-39
602.53125 986.98492 50 2.9495371e-39
612.27496 984.73541 50 3.1335626e-39
604.78076 996.72864 50 3.2250394e-39
663.24298 983.23151 60 3.1335626e-39
665.49249 992.97522 60 3.4079971e-39
665.49249 992.97522 60 3.0424488e-39
677.48572 1000.4694 60 3.1335682e-39
677.48572 1000.4694 60 3.6856574e-39
-532.94434 1669.9161 -90 2.671867e-39
-530.69482 1679.6599 -90 2.3048893e-39
-462.48901 1663.9132 -80 2.4881988e-39
-411.521 1662.4093 -80 2.6722271e-39
-399.52771 1669.9036 -80 2.6729474e-39
-387.53455 1677.3977 -80 2.5796756e-39
-373.29175 1694.6355 -70 2.6718712e-39
-353.80444 1690.1365 -70 2.579677e-39
-239.12952 1653.3986 -60 2.4885575e-39
-190.41101 1642.1509 -50 2.3030887e-39
-188.1615 1651.8947 -50 2.3016509e-39
-193.40613 1673.6316 -50 2.0261389e-39
-200.90039 1685.6248 -50 1.8424665e-39
-206.14502 1707.3617 -60 1.382933e-39
-201.646 1726.8491 -60 8.3157675e-40
-189.65271 1734.3433 -50 9.2662823e-40
-187.4032 1744.0869 -50 1.8464251e-39
-185.15369 1753.8307 -50 4.700161e-39
-173.16052 1761.3248 -50 3.5966847e-39
-178.40515 1783.0618 -50 4.5143475e-39
-156.66821 1788.3064 -50 2.0297458e-39
-161.91284 1810.0433 -50 1.1056287e-39
-159.66333 1819.7871 -50 9.2123463e-40
-157.41382 1829.5308 -50 7.3685178e-40
-145.42065 1837.0249 -50 8.290404e-40
-150.66528 1858.7618 -50 9.219535e-40
-158.15942 1870.755 -50 1.2903801e-39
-153.6604 1890.2424 -50 1.3825743e-39
-151.41089 1899.9861 -50 1.5658866e-39
-146.91187 1919.4735 -50 1.4736895e-39
-144.66235 1929.2173 -50 1.2903759e-39
-140.16333 1948.7046 -50 3.4069111e-39
-147.65747 1960.6979 -60 3.3183308e-39
-143.15845 1980.1853 -60 2.209807e-39
-150.65259 1992.1785 -60 9.7428317e-39
-146.15356 2011.6659 -60 1.8421077e-39
-126.66614 2007.1669 -50 1.4740469e-39
-122.16711 2026.6542 -50 1.9332272e-39
-110.17395 2034.1484 -50 2.0264976e-39
-426.64868 218.81268 -50 4.9720578e-39
-412.40601 236.0506 -50 2.7644157e-39
-398.16321 253.28845 -50 1.564802e-39
-395.9137 263.03217 -50 1.3811282e-39
-381.67102 280.27002 -50 1.1052602e-39
-379.42151 290.01373 -50 1.5651593e-39
-365.17871 307.25159 -50 6.907073e-39
-325.44568 390.44583 -50 7.6431947e-39
-376.4137 391.94974 -50 7.3673351e-39
-374.16418 401.69345 -50 7.3680511e-39
-381.65833 413.68668 -50 7.5513676e-39
-377.1593 433.17407 -50 7.8268741e-39
-374.90979 442.91776 -50 8.1956482e-39
-360.66699 460.15564 -50 7.736112e-39
-358.41748 469.89932 -50 7.8283132e-39
-344.1748 487.13721 -50 7.9212221e-39
-332.18152 494.63138 -50 6.6333644e-39
-327.6825 514.11877 -50 3.1317605e-39
-325.43298 523.86249 -50 7.7321533e-39
-332.92712 535.85571 -50 7.4562993e-39
-340.42126 547.84888 -50 7.9205019e-39
-359.90869 552.34796 -60 7.8286636e-39
595.01172 732.1449 50 7.5513606e-39
607.00494 739.63904 50 7.0914643e-39
541.04858 765.12939 40 5.5273896e-39
553.04181 772.62354 40 5.8104659e-39
543.2981 774.87311 40 4.3335477e-39
545.54761 784.61676 40 1.198539e-39
547.79712 794.36047 40 1.1059846e-39
557.54083 792.11096 40 1.1978229e-39
559.79034 801.85468 40 1.2900157e-39
571.78357 809.34882 40 1.9361012e-39
562.03992 811.59839 40 1.0130715e-39
564.28943 821.34204 40 8.2939913e-40
564.28943 821.34204 40 2.3978038e-39
515.57092 832.58966 40 1.8431951e-39
486.33984 839.3382 30 9.2232204e-40
478.84564 851.33142 30 1.566604e-39
436.87573 891.81012 20 1.3829288e-39
429.38153 903.80334 20 1.6580766e-39
441.37476 911.29755 20 1.6577165e-39
441.37476 911.29755 30 1.8421147e-39
433.88055 923.29077 20 2.3027257e-39
416.6427 937.53351 20 2.1183401e-39
406.89899 939.78302 20 1.8428336e-39
379.91748 956.27527 20 4.973162e-39
401.6543 961.51996 20 5.8969008e-39
384.4165 975.7627 20 1.1996236e-39
552.30884 947.26453 40 9.219563e-40
574.04578 952.50916 40 1.0137932e-39
574.04578 952.50916 40 1.2889424e-39
576.29529 962.25287 40 1.6598885e-39
588.28851 969.74707 40 1.5713362e-39
598.03223 967.49756 40 2.3048879e-39
610.02545 974.9917 40 1.8439042e-39
612.27496 984.73541 40 3.225038e-39
612.27496 984.73541 40 3.1335626e-39
614.52448 994.47913 40 3.3175923e-39
663.24298 983.23151 50 3.3186699e-39
665.49249 992.97522 50 3.1335654e-39
665.49249 992.97522 50 3.3168777e-39
677.48572 1000.4694 50 3.2257582e-39
677.48572 1000.4694 50 3.0424432e-39
-523.20068 1667.6666 -110 2.6725859e-39
-520.95117 1677.4104 -110 2.4882016e-39
-462.48901 1663.9132 -100 2.6725901e-39
-411.521 1662.4093 -90 2.6722257e-39
-389.78406 1667.6539 -90 2.4885575e-39
-387.53455 1677.3977 -90 2.5807574e-39
-365.79761 1682.6423 -90 2.3967206e-39
-334.31702 1685.6375 -80 2.5803958e-39
-239.12952 1653.3986 -70 2.3963633e-39
-190.41101 1642.1509 -70 2.3963619e-39
-178.41785 1649.6451 -60 2.3041705e-39
-185.91199 1661.6384 -70 1.6591682e-39
-181.41296 1681.1257 -70 8.290432e-40
-186.65759 1702.8627 -70 1.1963824e-39
-194.15186 1714.856 -70 1.0127114e-39
-191.90222 1724.5996 -70 1.6584339e-39
-187.4032 1744.0869 -70 1.5662397e-39
-185.15369 1753.8307 -70 1.7527932e-39
-173.16052 1761.3248 -70 1.568046e-39
-178.40515 1783.0618 -70 2.0283025e-39
-166.41199 1790.5559 -70 2.1190632e-39
-161.91284 1810.0433 -70 2.9498762e-39
-159.66333 1819.7871 -70 2.3052481e-39
-157.41382 1829.5308 -70 1.938625e-39
-155.16431 1839.2744 -70 1.5712788e-39
-150.66528 1858.7618 -70 1.2950548e-39
-155.90991 1880.4988 -70 1.3901287e-39
-153.6604 1890.2424 -70 1.4848453e-39
-151.41089 1899.9861 -70 1.7625126e-39
-146.91187 1919.4735 -70 2.5032964e-39
-144.66235 1929.2173 -70 3.9734042e-39
-142.41284 1938.9609 -70 4.8924794e-39
-147.65747 1960.6979 -70 4.1527536e-39
-143.15845 1980.1853 -70 3.7821732e-39
-150.65259 1992.1785 -70 2.4892792e-39
-136.40991 2009.4164 -70 1.8428294e-39
-126.66614 2007.1669 -70 1.8424679e-39
-114.67297 2014.661 -70 1.5662425e-39
-112.42346 2024.4047 -70 1.7499149e-39
-426.64868 218.81268 -70 5.4319583e-39
-412.40601 236.0506 -60 3.1328325e-39
-398.16321 253.28845 -60 1.4726049e-39
-395.9137 263.03217 -60 1.1974572e-39
-381.67102 280.27002 -60 1.2885738e-39
-379.42151 290.01373 -60 1.4729623e-39
-355.43506 305.00208 -60 6.8148774e-39
-332.93982 402.43906 -60 7.5520781e-39
-340.43396 414.43228 -60 7.8268601e-39
-381.65833 413.68668 -70 7.8283048e-39
-377.1593 433.17407 -70 7.4584559e-39
-374.90979 442.91776 -70 7.8279475e-39
-372.66028 452.66147 -70 7.7353945e-39
-358.41748 469.89932 -60 8.2871236e-39
-334.43103 484.8877 -60 7.9201431e-39
-320.18835 502.12558 -60 8.3793248e-39
-317.93884 511.86926 -60 7.0936223e-39
-315.68921 521.61298 -60 4.1444663e-39
-313.4397 531.35669 -60 7.6417626e-39
-330.67761 545.59937 -60 8.1952895e-39
604.75543 729.89532 40 7.0896748e-39
607.00494 739.63904 50 6.4478927e-39
607.00494 739.63904 50 6.0798403e-39
599.5108 751.63226 40 6.0784053e-39
550.7923 762.87988 40 5.8025331e-39
550.7923 762.87988 40 9.0336892e-39
553.04181 772.62354 40 5.5317364e-39
543.2981 774.87311 40 2.2101868e-39
545.54761 784.61676 40 1.2900157e-39
557.54083 792.11096 40 1.1059874e-39
557.54083 792.11096 40 1.1978215e-39
559.79034 801.85468 40 1.4740483e-39
571.78357 809.34882 40 2.3030873e-39
562.03992 811.59839 40 1.0141519e-39
564.28943 821.34204 40 1.9353796e-39
564.28943 821.34204 40 1.841749e-39
537.30786 837.83429 30 1.4751287e-39
496.0835 837.08868 30 8.301222e-40
478.84564 851.33142 20 1.4769237e-39
443.62427 921.04126 20 1.293264e-39
443.62427 921.04126 20 1.8457161e-39
426.38641 935.284 20 1.5698508e-39
416.6427 937.53351 10 1.2007096e-39
418.89221 947.27722 10 1.3814981e-39
552.30884 947.26453 30 1.1971041e-39
564.30206 954.75867 30 1.4729707e-39
574.04578 952.50916 30 1.1077867e-39
576.29529 962.25287 30 2.6787165e-39
578.5448 971.99658 30 5.5542286e-39
598.03223 967.49756 40 2.4892834e-39
600.28174 977.24121 40 2.0272249e-39
602.53125 986.98492 40 3.1332095e-39
612.27496 984.73541 40 2.8591365e-39
604.78076 996.72864 40 3.3179539e-39
663.24298 983.23151 50 3.3172378e-39
665.49249 992.97522 40 3.3165203e-39
665.49249 992.97522 50 3.2261268e-39
667.742 1002.7189 50 3.226117e-39
679.73523 1010.2131 50 3.2261156e-39
-542.68811 1672.1656 -130 2.6722327e-39
-538.18909 1691.6531 -130 2.396729e-39
-469.98315 1675.9065 -120 2.5803916e-39
-411.521 1662.4093 -110 2.8562611e-39
-389.78406 1667.6539 -110 2.580393e-39
-377.79089 1675.1482 -110 2.5800385e-39
-356.05396 1680.3928 -100 2.4878401e-39
-324.57324 1683.3879 -100 2.4878387e-39
-229.38586 1651.149 -80 2.3038117e-39
-190.41101 1642.1509 -80 2.3960046e-39
-178.41785 1649.6451 -80 2.120138e-39
-176.16833 1659.3888 -80 2.3030957e-39
-171.66931 1678.8762 -80 7.372035e-40
-188.9071 1693.1189 -80 9.2087309e-40
-184.40808 1712.6063 -80 1.1045441e-39
-182.15857 1722.3501 -80 1.0127086e-39
-177.65955 1741.8374 -80 1.2885752e-39
-175.41003 1751.5811 -80 1.1045441e-39
-173.16052 1761.3248 -80 1.1045483e-39
-178.40515 1783.0618 -80 1.1049028e-39
-166.41199 1790.5559 -80 1.1052672e-39
-161.91284 1810.0433 -80 1.1963838e-39
-159.66333 1819.7871 -80 1.19746e-39
-157.41382 1829.5308 -80 1.1971013e-39
-155.16431 1839.2744 -80 1.4733266e-39
-150.66528 1858.7618 -80 1.8406742e-39
-155.90991 1880.4988 -80 2.6682629e-39
-153.6604 1890.2424 -80 2.0250584e-39
-151.41089 1899.9861 -80 2.3924046e-39
-146.91187 1919.4735 -80 1.9325041e-39
-144.66235 1929.2173 -80 2.0243438e-39
-132.66919 1936.7114 -80 2.1165352e-39
-137.91382 1958.4484 -80 2.02542e-39
-143.15845 1980.1853 -80 1.4729707e-39
-140.90894 1989.929 -80 1.4729693e-39
-138.65942 1999.6726 -80 1.9328628e-39
-116.92249 2004.9174 -80 1.3800562e-39
-114.67297 2014.661 -80 1.7477527e-39
-112.42346 2024.4047 -80 2.5789483e-39
-426.64868 218.81268 -80 5.0653324e-39
-412.40601 236.0506 -80 3.4094194e-39
-398.16321 253.28845 -80 1.565518e-39
-386.17004 260.78265 -80 1.2889353e-39
-381.67102 280.27002 -70 1.1052602e-39
-379.42151 290.01373 -70 1.28965e-39
-355.43506 305.00208 -70 6.5382975e-39
-289.46594 412.92838 -70 7.366975e-39
-306.70386 427.17111 -70 7.7350344e-39
-335.93494 433.91968 -70 7.6431947e-39
-389.15247 425.67987 -80 3.6856602e-39
-396.64661 437.6731 -80 7.4595293e-39
-394.39709 447.41681 -80 8.0109024e-39
-389.89807 466.90421 -80 7.6446366e-39
-334.43103 484.8877 -80 7.8275846e-39
-341.92517 496.88092 -80 7.9201431e-39
-317.93884 511.86926 -70 7.9208634e-39
-315.68921 521.61298 -70 3.3165091e-39
-311.19019 541.10034 -70 8.1027351e-39
604.75543 729.89532 40 7.0907468e-39
607.00494 739.63904 40 7.0903909e-39
609.25446 749.38275 40 6.4464606e-39
609.25446 749.38275 40 5.8940127e-39
550.7923 762.87988 30 5.5263148e-39
550.7923 762.87988 30 6.1778177e-39
553.04181 772.62354 30 5.3462605e-39
553.04181 772.62354 30 1.1978229e-39
555.29132 782.36725 30 1.3814925e-39
557.54083 792.11096 30 1.1988991e-39
557.54083 792.11096 30 2.5266841e-39
550.04669 804.10419 30 2.9930684e-39
559.79034 801.85468 30 5.1114197e-39
562.03992 811.59839 30 3.9261973e-39
554.54572 823.59155 30 4.765327e-39
554.54572 823.59155 30 4.565848e-39
537.30786 837.83429 30 2.8804727e-39
496.0835 837.08868 20 2.6035215e-39
457.1087 846.08679 20 3.0630717e-39
449.61456 858.08002 10 3.4304179e-39
430.12714 862.57904 10 3.4333046e-39
432.37665 872.32275 10 3.1581498e-39
436.87573 891.81012 10 4.1730276e-39
451.11847 909.04803 10 4.1734186e-39
443.62427 921.04126 10 4.3588902e-39
443.62427 921.04126 10 4.5439947e-39
436.13013 933.03442 10 4.544715e-39
438.37964 942.77814 10 4.1780905e-39
448.12329 940.52863 10 3.6242062e-39
440.62915 952.52185 10 3.62673e-39
452.62238 960.01605 10 3.6310348e-39
474.35925 965.26068 10 4.0916696e-39
474.35925 965.26068 10 5.5721891e-39
476.60876 975.00439 10 7.9792835e-39
478.85834 984.74805 10 8.2436693e-39
578.5448 971.99658 30 6.1930848e-39
607.77594 965.24805 30 2.3967262e-39
610.02545 974.9917 30 1.9353894e-39
602.53125 986.98492 30 4.0555315e-39
612.27496 984.73541 30 4.3342778e-39
604.78076 996.72864 30 3.040309e-39
663.24298 983.23151 40 2.5814776e-39
655.74878 995.22473 40 3.2261198e-39
665.49249 992.97522 40 3.2261184e-39
667.742 1002.7189 40 3.5005501e-39
669.99152 1012.4626 40 3.2257582e-39
669.99152 1012.4626 40 5.6228418e-39
679.73523 1010.2131 40 9.210896e-39
-523.20068 1667.6666 -140 2.7651416e-39
-530.69482 1679.6599 -140 2.6729474e-39
-462.48901 1663.9132 -130 2.4885575e-39
-401.77722 1660.1598 -120 2.6722271e-39
-380.04041 1665.4044 -120 2.5796756e-39
-368.04712 1672.8987 -120 2.5800371e-39
-346.31018 1678.1433 -120 2.3038145e-39
-314.82959 1681.1384 -110 2.5793154e-39
-221.8916 1639.1558 -100 2.3038103e-39
-190.41101 1642.1509 -90 2.4874799e-39
-178.41785 1649.6451 -90 2.3034516e-39
-176.16833 1659.3888 -90 2.0286584e-39
-173.91882 1669.1326 -90 7.3648604e-40
-179.16345 1690.8694 -90 1.1045441e-39
-174.66443 1710.3568 -90 1.2878606e-39
-182.15857 1722.3501 -90 1.2885752e-39
-179.90906 1732.0938 -90 1.3804093e-39
-175.41003 1751.5811 -90 1.472249e-39
-173.16052 1761.3248 -90 1.4726035e-39
-168.6615 1780.8123 -90 1.0130687e-39
-166.41199 1790.5559 -90 1.3800506e-39
-164.16248 1800.2996 -90 1.19746e-39
-159.66333 1819.7871 -90 2.4871114e-39
-157.41382 1829.5308 -90 1.7491946e-39
-145.42065 1837.0249 -90 3.7706517e-39
-150.66528 1858.7618 -90 1.5662411e-39
-155.90991 1880.4988 -100 1.6577165e-39
-153.6604 1890.2424 -90 3.2199947e-39
-151.41089 1899.9861 -100 6.8959369e-39
-146.91187 1919.4735 -100 2.6689859e-39
-144.66235 1929.2173 -100 1.9353824e-39
-132.66919 1936.7114 -90 4.6897214e-39
-137.91382 1958.4484 -100 8.3649447e-39
-135.66431 1968.192 -100 1.7513498e-39
-140.90894 1989.929 -100 1.934302e-39
-128.91565 1997.4231 -100 7.4458695e-39
-116.92249 2004.9174 -90 1.6605905e-39
-114.67297 2014.661 -90 4.1383539e-39
-112.42346 2024.4047 -90 2.856254e-39
-426.64868 218.81268 -90 5.156449e-39
-412.40601 236.0506 -90 3.686358e-39
-398.16321 253.28845 -90 1.9335775e-39
-395.9137 263.03217 -90 1.4729609e-39
-381.67102 280.27002 -90 1.1974558e-39
-379.42151 290.01373 -90 1.2892927e-39
-355.43506 305.00208 -80 6.6304875e-39
-252.74072 394.18658 -70 7.2733402e-39
-284.22131 391.19147 -80 7.3673351e-39
-369.66504 421.18085 -90 6.9996302e-39
-410.8894 420.43521 -100 4.9738585e-39
-315.68921 521.61298 -90 3.5923743e-39
607.00494 739.63904 30 6.171673e-39
599.5108 751.63226 30 6.1702338e-39
550.7923 762.87988 30 6.1767359e-39
553.04181 772.62354 30 4.6079752e-39
553.04181 772.62354 20 1.5666012e-39
545.54761 784.61676 20 1.2896612e-39
564.28943 821.34204 20 4.8968879e-39
564.28943 821.34204 20 4.8046895e-39
547.05151 835.58478 20 4.2533178e-39
496.0835 837.08868 10 4.1611166e-39
447.36505 848.3363 10 3.977454e-39
430.12714 862.57904 0 3.9760078e-39
430.12714 862.57904 0 4.3433372e-39
432.37665 872.32275 0 4.5273669e-39
434.62622 882.06647 0 3.9767337e-39
424.88251 884.31598 0 4.5284683e-39
436.87573 891.81012 0 4.4362643e-39
439.12524 901.55383 0 4.5291732e-39
451.11847 909.04803 10 4.5298963e-39
453.36798 918.79175 0 4.7135617e-39
443.62427 921.04126 0 4.7132127e-39
445.87378 930.78491 0 4.8976026e-39
448.12329 940.52863 0 4.7132099e-39
448.12329 940.52863 0 4.8061342e-39
440.62915 952.52185 0 4.7150176e-39
452.62238 960.01605 0 4.8965376e-39
464.6156 967.51019 10 4.7150134e-39
464.6156 967.51019 10 4.8994047e-39
457.1214 979.50342 0 4.7150176e-39
469.11462 986.99762 0 4.8079377e-39
471.36414 996.74133 10 4.1553334e-39
471.36414 996.74133 0 2.2116161e-39
610.02545 974.9917 30 1.8439098e-39
612.27496 984.73541 30 1.2907444e-39
622.01868 982.4859 30 1.7520785e-39
653.49927 985.48102 30 2.0286724e-39
663.24298 983.23151 30 2.5814748e-39
655.74878 995.22473 30 3.6845798e-39
665.49249 992.97522 30 3.3175923e-39
667.742 1002.7189 30 3.2257596e-39
669.99152 1012.4626 30 3.5019878e-39
669.99152 1012.4626 30 3.5941778e-39
669.99152 1012.4626 30 5.6203125e-39
679.73523 1010.2131 30 6.2671336e-39
-505.96277 1653.4238 -150 2.7644256e-39
-520.95117 1677.4104 -160 2.5814734e-39
-462.48901 1663.9132 -150 2.5807546e-39
-401.77722 1660.1598 -140 2.6715097e-39
-362.80249 1651.1616 -130 2.3970808e-39
-350.8092 1658.6559 -130 2.5793224e-39
-329.07239 1663.9005 -130 2.3023712e-39
-297.59167 1666.8958 -120 2.3009279e-39
-231.63538 1641.4053 -110 2.1176156e-39
-190.41101 1642.1509 -110 1.8421077e-39
-178.41785 1649.6451 -100 2.1172555e-39
-176.16833 1659.3888 -100 2.2119734e-39
-164.17505 1666.8831 -100 1.1049056e-39
-169.4198 1688.6199 -100 9.2087309e-40
-167.17017 1698.3635 -100 1.1963824e-39
-172.41492 1720.1006 -110 1.5640831e-39
-170.16541 1729.8442 -110 1.4718889e-39
-175.41003 1751.5811 -110 1.4718889e-39
-173.16052 1761.3248 -110 1.4722462e-39
-178.40515 1783.0618 -110 9.2159196e-40
-166.41199 1790.5559 -110 1.5644432e-39
-161.91284 1810.0433 -110 2.2112448e-39
-159.66333 1819.7871 -110 2.9466518e-39
-157.41382 1829.5308 -110 2.9473679e-39
-155.16431 1839.2744 -110 5.9761372e-39
-150.66528 1858.7618 -110 2.0272122e-39
-155.90991 1880.4988 -110 2.0261389e-39
-143.91675 1887.9929 -110 2.9444896e-39
-151.41089 1899.9861 -110 7.7228123e-39
-146.91187 1919.4735 -110 2.0264962e-39
-144.66235 1929.2173 -110 3.3129134e-39
-132.66919 1936.7114 -110 2.6682713e-39
-137.91382 1958.4484 -110 8.2734623e-39
-135.66431 1968.192 -110 2.1186932e-39
-131.16528 1987.6794 -110 2.0268577e-39
-128.91565 1997.4231 -110 7.6302579e-39
-116.92249 2004.9174 -110 2.6715055e-39
-114.67297 2014.661 -110 4.7801289e-39
-112.42346 2024.4047 -110 2.1172527e-39
-426.64868 218.81268 -110 5.0646079e-39
-412.40601 236.0506 -100 4.4206847e-39
-398.16321 253.28845 -100 1.6573549e-39
-395.9137 263.03217 -100 1.3811324e-39
-381.67102 280.27002 -100 1.3804065e-39
-379.42151 290.01373 -100 1.1981718e-39
-355.43506 305.00208 -100 6.9985526e-39
-264.73389 386.69241 -90 6.8155976e-39
-281.9718 400.93515 -90 7.5499229e-39
-279.72229 410.67886 -90 6.9081576e-39
-299.20972 415.17789 -90 7.5506459e-39
592.76221 722.40118 30 7.4598782e-39
595.01172 732.1449 30 7.0903951e-39
597.26123 741.88855 30 6.9067227e-39
597.26123 741.88855 30 6.7226887e-39
599.5108 751.63226 30 6.3528328e-39
599.5108 751.63226 30 5.6188649e-39
611.50397 759.12646 30 7.8344747e-39
572.52917 768.12451 20 5.9005091e-39
572.52917 768.12451 20 5.2508027e-39
553.04181 772.62354 20 1.263468e-38
547.05151 835.58478 20 3.0438893e-39
476.59613 841.58777 0 1.8435497e-39
447.36505 848.3363 0 2.5814678e-39
430.12714 862.57904 0 3.0417257e-39
420.38348 864.82855 0 2.0283067e-39
432.37665 872.32275 0 3.0413614e-39
434.62622 882.06647 0 2.0286668e-39
424.88251 884.31598 0 1.1985432e-39
436.87573 891.81012 0 2.3052411e-39
460.86212 906.79846 0 1.6595227e-39
453.36798 918.79175 0 1.2907486e-39
443.62427 921.04126 0 9.230423e-40
445.87378 930.78491 0 1.5676872e-39
438.37964 942.77814 0 1.6591654e-39
438.37964 942.77814 0 1.7524358e-39
440.62915 952.52185 0 2.766578e-39
442.87866 962.26556 0 1.7520743e-39
454.87189 969.7597 0 1.8453503e-39
464.6156 967.51019 0 2.0293759e-39
457.1214 979.50342 0 1.9364656e-39
459.37091 989.24713 0 2.3048992e-39
471.36414 996.74133 0 3.7868704e-39
471.36414 996.74133 0 1.936104e-39
610.02545 974.9917 20 2.0272263e-39
602.53125 986.98492 20 1.2903843e-39
622.01868 982.4859 20 2.0272291e-39
653.49927 985.48102 30 2.3034628e-39
653.49927 985.48102 30 2.5807588e-39
655.74878 995.22473 30 3.3168819e-39
655.74878 995.22473 30 3.3193874e-39
657.99829 1004.9684 30 3.4112285e-39
660.2478 1014.7122 30 3.6856602e-39
660.2478 1014.7122 30 3.4097978e-39
-486.47546 1648.9248 -170 2.6729516e-39
-530.69482 1679.6599 -170 2.7647885e-39
-469.98315 1675.9065 -160 2.6722271e-39
-365.052 1641.418 -150 2.580393e-39
-316.3335 1630.1704 -140 2.3970808e-39
-314.08398 1639.9141 -140 1.1056245e-39
-299.84131 1657.152 -140 9.2123603e-40
-278.10437 1662.3966 -130 9.2123603e-40
-239.12952 1653.3986 -130 9.208759e-40
-190.41101 1642.1509 -120 8.290418e-40
-178.41785 1649.6451 -120 8.29039e-40
-166.42456 1657.1393 -120 8.2868307e-40
-164.17505 1666.8831 -120 1.1045469e-39
-169.4198 1688.6199 -120 1.103828e-39
-167.17017 1698.3635 -120 1.2878577e-39
-172.41492 1720.1006 -120 1.2882151e-39
-170.16541 1729.8442 -120 1.4718889e-39
-165.66626 1749.3315 -120 1.6551997e-39
-173.16052 1761.3248 -120 1.5640831e-39
-178.40515 1783.0618 -120 1.4715315e-39
-166.41199 1790.5559 -120 2.5753498e-39
-161.91284 1810.0433 -120 2.5760714e-39
-159.66333 1819.7871 -120 2.4853177e-39
-157.41382 1829.5308 -120 3.4962215e-39
-155.16431 1839.2744 -120 6.3438449e-39
-150.66528 1858.7618 -120 2.8533744e-39
-155.90991 1880.4988 -120 2.0268521e-39
-143.91675 1887.9929 -120 3.6806113e-39
-151.41089 1899.9861 -120 7.9975999e-39
-146.91187 1919.4735 -120 2.2090882e-39
-134.9187 1926.9678 -120 1.8424679e-39
-122.92542 1934.4619 -120 5.1514226e-39
-130.41956 1946.4551 -120 7.8139275e-39
-135.66431 1968.192 -120 2.2083679e-39
-133.41479 1977.9357 -120 2.9448511e-39
-128.91565 1997.4231 -120 7.3536738e-39
-116.92249 2004.9174 -120 2.1172555e-39
-114.67297 2014.661 -120 5.4236893e-39
-102.67969 2022.1552 -120 1.5666026e-39
-436.39246 221.06219 -120 5.1568008e-39
-412.40601 236.0506 -120 4.6954695e-39
-398.16321 253.28845 -110 1.7499051e-39
-395.9137 263.03217 -110 1.5655166e-39
-381.67102 280.27002 -110 1.1052644e-39
-379.42151 290.01373 -110 1.3811282e-39
-353.18555 314.74579 -110 6.4471781e-39
-315.7019 388.19632 -110 7.0900293e-39
-335.18933 392.69537 -110 7.3669721e-39
-320.94666 409.93323 -110 7.2744206e-39
-339.67566 506.6246 -110 4.5118097e-39
-335.17664 526.112 -110 7.6432017e-39
583.01849 724.6507 20 6.9992756e-39
595.01172 732.1449 20 7.0918258e-39
597.26123 741.88855 20 7.1836571e-39
597.26123 741.88855 20 6.7313179e-39
599.5108 751.63226 20 6.3542664e-39
599.5108 751.63226 20 5.7107004e-39
601.76031 761.37598 20 6.545517e-39
592.0166 763.62549 20 5.1633056e-39
572.52917 768.12451 20 4.7876819e-39
555.29132 782.36725 10 1.5447436e-38
547.05151 835.58478 10 3.0424614e-39
457.1087 846.08679 0 1.6595269e-39
437.62134 850.58582 0 1.6569976e-39
418.13391 855.08484 0 2.2112476e-39
420.38348 864.82855 0 1.3807736e-39
422.633 874.57227 0 2.3934808e-39
424.88251 884.31598 0 1.4729707e-39
424.88251 884.31598 0 1.0134303e-39
436.87573 891.81012 0 1.3807736e-39
439.12524 901.55383 0 1.8428336e-39
451.11847 909.04803 0 1.383303e-39
443.62427 921.04126 0 1.0141575e-39
443.62427 921.04126 0 1.0137904e-39
445.87378 930.78491 0 1.1049084e-39
448.12329 940.52863 0 1.3818554e-39
448.12329 940.52863 0 1.291106e-39
440.62915 952.52185 0 1.8410301e-39
442.87866 962.26556 0 1.8428266e-39
454.87189 969.7597 0 3.594189e-39
454.87189 969.7597 0 3.8707773e-39
457.1214 979.50342 0 3.0406621e-39
459.37091 989.24713 0 2.1194177e-39
461.62042 998.99084 0 4.7894644e-39
461.62042 998.99084 0 2.4900107e-39
463.86993 1008.7345 0 2.581479e-39
602.53125 986.98492 10 2.1251994e-39
602.53125 986.98492 10 2.7716479e-39
653.49927 985.48102 20 2.7716703e-39
653.49927 985.48102 20 2.9502644e-39
655.74878 995.22473 20 4.3461426e-39
655.74878 995.22473 20 4.8067592e-39
657.99829 1004.9684 20 4.8993164e-39
660.2478 1014.7122 20 3.7875976e-39
660.2478 1014.7122 20 3.8696871e-39
660.2478 1014.7122 20 3.7782146e-39
660.2478 1014.7122 20 6.915024e-39
-318.58301 1620.4268 -150 2.3052467e-39
-306.58984 1627.9209 -150 2.3963689e-39
-304.34033 1637.6646 -150 8.2940054e-40
-292.34705 1645.1587 -150 8.2975927e-40
-280.35388 1652.653 -150 7.3756504e-40
-248.87329 1655.6481 -140 8.2939913e-40
-190.41101 1642.1509 -130 1.0130743e-39
-168.67407 1647.3956 -130 6.4501208e-40
-166.42456 1657.1393 -130 8.290418e-40
-164.17505 1666.8831 -130 8.3083546e-40
-159.67603 1686.3704 -130 1.5666068e-39
-157.42651 1696.114 -130 1.4744084e-39
-172.41492 1720.1006 -130 1.565525e-39
-170.16541 1729.8442 -130 1.5655236e-39
-175.41003 1751.5811 -130 1.6569962e-39
-173.16052 1761.3248 -140 1.5648048e-39
-178.40515 1783.0618 -140 1.7477513e-39
-166.41199 1790.5559 -130 2.2069288e-39
-161.91284 1810.0433 -140 3.5873367e-39
-159.66333 1819.7871 -140 4.0468757e-39
-157.41382 1829.5308 -130 2.851215e-39
-145.42065 1837.0249 -130 3.0338098e-39
-150.66528 1858.7618 -130 3.0341685e-39
-158.15942 1870.755 -140 3.217122e-39
-143.91675 1887.9929 -130 3.5851843e-39
-141.66724 1897.7366 -140 3.8606866e-39
-139.41772 1907.4803 -140 3.6766554e-39
-134.9187 1926.9678 -140 2.759025e-39
-132.66919 1936.7114 -130 3.2174794e-39
-128.17004 1956.1989 -140 2.6668307e-39
-135.66431 1968.192 -140 2.2083693e-39
-133.41479 1977.9357 -140 2.3913228e-39
-121.42151 1985.4299 -130 2.2076532e-39
-116.92249 2004.9174 -130 2.8519352e-39
-114.67297 2014.661 -130 5.9754239e-39
-112.42346 2024.4047 -130 9.2123323e-40
-438.64197 211.31854 -130 5.2472013e-39
-412.40601 236.0506 -130 4.6961968e-39
-398.16321 253.28845 -130 1.6573493e-39
-395.9137 263.03217 -130 1.5647992e-39
-381.67102 280.27002 -130 1.3807722e-39
-379.42151 290.01373 -130 1.380768e-39
-365.17871 307.25159 -120 6.5375814e-39
-327.69519 380.70215 -120 7.4588048e-39
-344.93298 394.94489 -120 7.0003504e-39
-364.42041 399.44394 -130 7.2747793e-39
-338.18445 424.17596 -120 7.2762171e-39
-420.63306 422.68475 -140 7.3680483e-39
-392.89319 498.38483 -140 8.0116185e-39
-410.1311 512.62756 -140 7.6435576e-39
-419.87476 514.87708 -140 7.9194271e-39
-437.11267 529.11981 -140 8.0105381e-39
-454.35059 543.36255 -150 7.6442751e-39
-452.10107 553.10626 -150 7.5510033e-39
583.01849 724.6507 10 1.407779e-38
583.01849 724.6507 10 1.5010216e-38
595.01172 732.1449 10 1.3449373e-38
597.26123 741.88855 20 1.8029612e-38
597.26123 741.88855 20 1.4990764e-38
599.5108 751.63226 10 1.3243375e-38
599.5108 751.63226 10 6.3535531e-39
601.76031 761.37598 20 9.9523972e-39
592.0166 763.62549 10 4.4257644e-39
584.5224 775.61871 10 3.4115802e-39
574.77875 777.86823 10 6.9017018e-39
457.1087 846.08679 0 9.3124607e-39
427.87762 852.83533 -10 2.2119608e-39
430.12714 862.57904 -10 8.2976067e-40
430.12714 862.57904 -10 1.0134345e-39
432.37665 872.32275 -10 1.843907e-39
434.62622 882.06647 -10 9.219563e-40
436.87573 891.81012 -10 9.208759e-40
436.87573 891.81012 -10 7.3756224e-40
458.61261 897.05481 -10 9.2123183e-40
460.86212 906.79846 -10 2.0286766e-39
463.11169 916.54218 -10 1.9328656e-39
443.62427 921.04126 -10 1.4736881e-39
445.87378 930.78491 -10 1.2925325e-39
448.12329 940.52863 -10 1.3818568e-39
448.12329 940.52863 -10 1.1992663e-39
450.37286 950.27234 -10 1.0145121e-39
452.62238 960.01605 -10 1.3829274e-39
454.87189 969.7597 -10 2.3949172e-39
454.87189 969.7597 -10 2.3960046e-39
457.1214 979.50342 -10 1.8432007e-39
459.37091 989.24713 -10 1.1067105e-39
461.62042 998.99084 -10 1.3840148e-39
461.62042 998.99084 -10 3.7781963e-39
463.86993 1008.7345 -10 2.7687331e-39
466.11951 1018.4782 -10 2.6783368e-39
641.50604 977.98682 10 3.1403939e-39
653.49927 985.48102 10 2.9588767e-39
653.49927 985.48102 10 3.6031728e-39
655.74878 995.22473 10 6.080206e-39
655.74878 995.22473 20 5.527398e-39
657.99829 1004.9684 20 5.2497377e-39
660.2478 1014.7122 20 1.703669e-38
660.2478 1014.7122 20 1.6575382e-38
660.2478 1014.7122 20 1.2529944e-38
669.99152 1012.4626 20 1.0138626e-38
-379.2948 1624.1802 -180 2.208012e-39
-320.83252 1610.683 -170 1.9332216e-39
-306.58984 1627.9209 -170 1.4729693e-39
-304.34033 1637.6646 -170 8.290418e-40
-292.34705 1645.1587 -160 8.2940054e-40
