# .PCD v0.7 - Point Cloud Data file format
VERSION 0.7
FIELDS x y z rgb
SIZE 4 4 4 4
TYPE F F F F
COUNT 1 1 1 1
WIDTH 1225
HEIGHT 1
VIEWPOINT 0 0 0 1 0 0 0
POINTS 1225
DATA ascii
-222.83704 554.65631 700 8.3915904e-39
-237.67273 571.3866 700 8.0213785e-39
-230.60168 583.63409 700 7.929543e-39
-252.5083 588.11694 710 6.3665319e-39
-255.09656 597.77618 710 6.7309928e-39
-257.68481 607.43542 710 5.6239222e-39
-260.27295 617.09473 710 7.5628989e-39
-563.68518 628.97021 830 2.3509886e-38
-588.18005 643.1123 840 2.3509886e-38
-581.10901 655.35974 830 2.3142544e-38
-593.35645 662.43085 840 2.2586867e-38
-598.53284 681.74933 840 2.0287378e-38
-581.80261 696.58502 830 1.0235548e-38
-574.73157 708.83246 830 2.9502602e-39
-608.88574 720.38635 840 2.8580631e-39
-788.62219 734.34247 910 2.6747551e-39
-864.00159 745.20288 940 3.133578e-39
-837.61206 762.62671 920 3.3172406e-39
-798.9751 772.97949 910 2.858782e-39
-801.56323 782.63879 910 3.0417341e-39
-806.73962 801.95728 910 2.8591407e-39
-799.66858 814.20471 900 3.043169e-39
-804.84497 833.52325 900 3.3204832e-39
-807.43323 843.1825 900 4.2406388e-39
-810.02136 852.84174 900 8.5759844e-39
-815.19775 872.16028 900 8.0195779e-39
-808.12671 884.40771 900 7.4635216e-39
-949.22632 908.71667 950 9.2148644e-39
-1080.6665 935.61377 1000 2.2127973e-38
26.730469 859.6416 570 2.3509886e-38
-148.52319 895.50446 630 2.3509886e-38
-633.05896 1003.7865 820 2.3509886e-38
-852.1261 1048.6151 900 2.3509886e-38
-1127.2542 1109.4803 1000 2.3509886e-38
-1004.272 1152.7863 950 2.3509886e-38
-1138.3005 1189.3427 1000 2.3509886e-38
-1153.1362 1206.073 1000 2.3509886e-38
-1146.0652 1218.3204 1000 2.175676e-38
-1151.2415 1237.6389 1000 1.5851201e-38
-1156.418 1256.9574 1000 1.1341863e-38
-236.18481 -670.54651 820 2.3509886e-38
-241.36121 -651.22791 820 2.3509886e-38
-251.02051 -653.81616 830 2.3509886e-38
-263.26794 -646.74512 830 7.4692936e-39
-275.51538 -639.67407 840 9.402127e-39
-287.76294 -632.60303 840 1.3266055e-38
-300.01038 -625.53186 840 1.2806527e-38
-309.66956 -628.12012 850 9.7694717e-39
-314.84595 -608.80164 850 8.0217148e-39
-310.36316 -586.8949 840 5.7161333e-39
-308.46851 -555.32898 840 1.3721629e-38
-504.74939 -711.45007 930 2.3509886e-38
-1331.2842 -1181.3866 1300 2.3509886e-38
-1336.4604 -1162.0681 1300 2.3509886e-38
-1324.9065 -1127.9139 1290 2.3509886e-38
-1279.8921 -1064.0885 1270 2.3509886e-38
-1285.0684 -1044.77 1270 2.3509886e-38
-1280.5857 -1022.8633 1270 2.3509886e-38
-1278.6909 -991.29724 1260 2.3509886e-38
-1214.3579 -922.29541 1230 2.3509877e-38
-1195.7329 -875.8938 1220 2.3509886e-38
-1207.9805 -868.82275 1220 2.3509886e-38
-1388.2244 -968.88306 1300 2.3509886e-38
-306.43823 -99.263306 790 2.3509886e-38
-321.27393 -82.532959 790 2.3509886e-38
-297.47253 -55.449829 780 2.3509886e-38
-300.06067 -45.790588 780 2.3509886e-38
-292.98962 -33.543152 780 2.3509886e-38
-288.50684 -11.636414 780 2.3509886e-38
-291.09497 -1.9771729 780 1.2811284e-38
-286.61218 19.929565 770 5.349143e-39
-279.54114 32.177002 770 4.8885362e-39
-265.39893 56.671875 760 4.70271e-39
-267.98718 66.331177 760 4.3342946e-39
-270.57544 75.990417 760 4.7030673e-39
-273.16357 85.649658 760 4.7952588e-39
-275.75183 95.308899 760 4.7016282e-39
-271.26892 117.21564 750 4.6094368e-39
-273.85718 126.87488 750 4.9789143e-39
-276.44531 136.53418 750 4.5190264e-39
-281.6217 155.85266 750 4.9778536e-39
-284.20996 165.5119 750 1.805476e-38
-277.13892 177.7594 750 2.3509886e-38
-424.61597 148.59564 810 2.3509886e-38
-456.18188 150.4903 820 2.3509886e-38
-458.77002 160.14954 820 2.3509844e-38
-461.35828 169.80878 830 2.3509828e-38
-466.53467 189.12732 820 2.092297e-38
-440.14514 206.55115 810 1.2074737e-38
-283.70239 279.52832 740 1.1708467e-38
-286.29053 289.18756 740 1.0506689e-38
-288.87878 298.84686 740 7.9248613e-39
-291.46692 308.5061 740 1.1431525e-38
-294.05518 318.16534 740 1.0696516e-38
-299.23157 337.48386 740 6.455143e-39
-301.81982 347.14313 740 5.8068813e-39
-304.40796 356.80237 740 6.5451638e-39
-374.61096 348.34424 770 6.9146652e-39
-280.60657 383.8855 730 6.3629362e-39
-263.87634 398.72113 720 7.0064979e-39
-249.73413 423.21606 720 7.5603976e-39
-252.32239 432.87531 710 7.6529533e-39
-283.88831 434.76996 730 7.8362698e-39
-293.54761 432.18176 730 8.0195779e-39
-305.79504 439.25281 740 6.4565822e-39
-197.64856 499.289 690 6.7338725e-39
-161.59973 519.30103 670 7.1934157e-39
-173.84717 526.37207 670 7.2863204e-39
-195.75391 530.85498 680 6.7338795e-39
-217.66064 535.33777 690 7.285254e-39
-220.2489 544.99707 690 7.927741e-39
-232.49634 552.06812 690 7.7458776e-39
-237.67273 571.3866 690 7.8369845e-39
-240.26086 581.0459 690 7.1012215e-39
-252.5083 588.11694 700 7.0986922e-39
-255.09656 597.77618 700 5.9941509e-39
-257.68481 607.43542 700 5.5313678e-39
-260.27295 617.09473 700 7.7415532e-39
-578.52087 645.7005 820 2.3509886e-38
-571.44983 657.948 820 2.2958873e-38
-593.35645 662.43085 820 2.2861656e-38
-598.53284 681.74933 830 2.0747631e-38
-581.80261 696.58502 820 1.2811639e-38
-584.39075 706.24426 810 3.1353675e-39
-650.11096 719.69281 840 2.8580687e-39
-807.9408 729.16608 900 2.8584233e-39
-883.32007 740.02649 930 2.8587806e-39
-847.27136 760.03851 910 3.1342955e-39
-808.63428 770.3913 900 2.8577184e-39
-813.81067 789.70984 890 2.9513378e-39
-806.73962 801.95728 890 2.9506203e-39
-799.66858 814.20471 890 3.501999e-39
-804.84497 833.52325 890 3.5023549e-39
-807.43323 843.1825 890 3.8736514e-39
-810.02136 852.84174 890 1.0696118e-38
-805.53857 874.74847 880 9.4957911e-39
-939.56689 911.30487 930 2.3509886e-38
-922.83667 926.1405 920 2.3509886e-38
102.10986 848.78125 530 2.3509886e-38
-138.86389 898.09265 620 2.3509886e-38
-457.8053 967.92371 740 2.3509886e-38
-633.05896 1003.7865 800 2.3509886e-38
-852.1261 1048.6151 880 2.3509886e-38
-1127.2542 1109.4803 980 2.3509886e-38
-1001.6838 1143.127 930 2.3509886e-38
-1138.3005 1189.3427 980 2.3509886e-38
-1165.3835 1213.144 990 2.3509886e-38
-1136.4058 1220.9086 970 2.3509886e-38
-1141.5823 1240.2271 980 1.3920845e-38
-236.18481 -670.54651 810 2.3509886e-38
-238.77307 -660.88721 810 2.3509886e-38
-260.67981 -656.4043 820 7.929913e-39
-270.33899 -658.99255 820 6.9114282e-39
-282.58643 -651.92151 830 9.397818e-39
-294.83398 -644.85046 830 1.8232e-38
-297.42212 -635.19116 830 2.3384141e-38
-309.66956 -628.12012 830 2.349035e-38
-314.84595 -608.80164 840 2.3507628e-38
-310.36316 -586.8949 830 1.7325196e-38
-312.95129 -577.2356 830 1.5108876e-38
-308.46851 -555.32898 830 1.1155636e-38
-504.74939 -711.45007 910 2.3509886e-38
-1326.8013 -1159.48 1280 2.3509886e-38
-1308.1763 -1113.0784 1260 2.3509886e-38
-1279.8921 -1064.0885 1250 2.3509886e-38
-1285.0684 -1044.77 1250 2.3509886e-38
-1280.5857 -1022.8633 1240 2.3509886e-38
-1278.6909 -991.29724 1240 2.3509886e-38
-1214.3579 -922.29541 1210 2.3509502e-38
-1193.1448 -885.5531 1200 2.3509886e-38
-1217.6396 -871.41089 1210 2.3509886e-38
-1388.2244 -968.88306 1280 2.3509886e-38
-309.02637 -89.604004 780 2.3509886e-38
-311.61462 -79.944763 780 2.3509886e-38
-287.81323 -52.861633 770 2.3509886e-38
-290.40149 -43.202393 770 2.3509886e-38
-292.98962 -33.543152 760 2.3509886e-38
-288.50684 -11.636414 760 2.3509886e-38
-291.09497 -1.9771729 760 8.0235758e-39
-286.61218 19.929565 760 5.2537202e-39
-279.54114 32.177002 750 5.5310273e-39
-265.39893 56.671875 750 5.1633182e-39
-267.98718 66.331177 750 4.9774976e-39
-270.57544 75.990417 750 5.068966e-39
-273.16357 85.649658 750 4.8874502e-39
-278.33997 104.9682 750 4.7016156e-39
-271.26892 117.21564 740 3.5034311e-39
-273.85718 126.87488 740 3.8722137e-39
-276.44531 136.53418 740 4.6126612e-39
-281.6217 155.85266 740 5.2540775e-39
-284.20996 165.5119 740 2.3493193e-38
-277.13892 177.7594 740 2.3509886e-38
-318.36414 177.06586 760 2.3509886e-38
-424.61597 148.59564 800 2.3509886e-38
-446.52258 153.07849 810 2.3509886e-38
-449.11084 162.73773 810 2.3509841e-38
-461.35828 169.80878 810 2.3509448e-38
-466.53467 189.12732 810 1.990845e-38
-449.80432 203.96295 800 1.032337e-38
-283.70239 279.52832 730 1.032336e-38
-276.63135 291.77576 730 1.0691078e-38
-279.21948 301.43506 730 8.6645983e-39
-291.46692 308.5061 730 1.0696134e-38
-294.05518 318.16534 730 1.0605039e-38
-299.23157 337.48386 730 6.5484219e-39
-301.81982 347.14313 730 5.5306588e-39
-304.40796 356.80237 730 6.7292006e-39
-297.33691 369.04984 730 7.005063e-39
-261.28809 389.06189 710 6.3622159e-39
-244.55774 403.89755 710 6.6391658e-39
-249.73413 423.21606 700 6.8253647e-39
-252.32239 432.87531 700 7.46713e-39
-264.56982 439.94638 710 7.283096e-39
-254.91052 442.53458 710 7.4671258e-39
-267.15808 449.60562 710 6.916826e-39
-250.42773 464.44128 700 7.1019278e-39
-233.69739 479.27695 690 6.8260836e-39
-207.30786 496.70078 680 7.4656908e-39
-200.23682 508.94824 680 7.1919822e-39
-202.82495 518.60754 680 7.1944933e-39
-205.41321 528.26672 680 7.3767238e-39
-217.66064 535.33777 680 7.3756616e-39
-229.90808 542.40887 680 7.4696467e-39
-235.08447 561.72742 680 7.8369803e-39
-237.67273 571.3866 680 7.47109e-39
-240.26086 581.0459 680 7.4678516e-39
-252.5083 588.11694 690 6.5476862e-39
-245.43726 600.36438 680 5.7200849e-39
-257.68481 607.43542 690 5.2558656e-39
-250.61365 619.68292 680 7.4674691e-39
-578.52087 645.7005 810 2.3509886e-38
-571.44983 657.948 800 2.341805e-38
-593.35645 662.43085 810 2.1761783e-38
-598.53284 681.74933 810 2.1390492e-38
-581.80261 696.58502 800 1.3457736e-38
-584.39075 706.24426 800 3.3179651e-39
-807.9408 729.16608 880 3.0420999e-39
-883.32007 740.02649 910 3.0424558e-39
-837.61206 762.62671 890 2.9506203e-39
-808.63428 770.3913 880 3.2261282e-39
-813.81067 789.70984 880 3.4105138e-39
-806.73962 801.95728 880 3.2261324e-39
-799.66858 814.20471 880 3.227919e-39
-804.84497 833.52325 870 3.6860245e-39
-807.43323 843.1825 870 3.9640449e-39
-810.02136 852.84174 870 1.1801007e-38
-805.53857 874.74847 870 9.6816327e-39
-900.92993 921.65765 900 2.3509886e-38
158.17078 832.74451 510 2.3509886e-38
102.10986 848.78125 520 2.3509886e-38
-82.802979 882.05591 590 2.3509886e-38
-382.4259 957.06329 700 2.3509886e-38
-735.52148 1038.4482 830 2.3509886e-38
-986.15454 1085.1714 920 2.3509886e-38
-960.4585 1143.8206 900 2.3509886e-38
-219.45459 -655.71082 790 2.3509886e-38
-241.36121 -651.22791 800 1.4114684e-38
-260.67981 -656.4043 810 6.5455282e-39
-279.99829 -661.58069 810 6.2657029e-39
-292.24573 -654.50964 820 1.0041013e-38
-294.83398 -644.85046 820 1.7682059e-38
-297.42212 -635.19116 820 2.3021457e-38
-312.25781 -618.46082 820 2.349505e-38
-314.84595 -608.80164 820 2.3506546e-38
-310.36316 -586.8949 820 2.3496484e-38
-312.95129 -577.2356 810 2.3494672e-38
-399.19104 -641.75464 850 2.3482461e-38
-1300.4116 -1142.056 1240 2.3509886e-38
-1308.1763 -1113.0784 1240 2.3509886e-38
-1279.8921 -1064.0885 1230 2.3509886e-38
-1285.0684 -1044.77 1230 2.3509886e-38
-1280.5857 -1022.8633 1220 2.3509886e-38
-1278.6909 -991.29724 1220 2.3509886e-38
-1231.0881 -937.1311 1190 2.3316478e-38
-1202.804 -888.14124 1180 2.3509886e-38
-1234.3699 -886.24658 1190 2.3509886e-38
-1388.2244 -968.88306 1260 2.3509886e-38
-330.23962 -126.34637 780 2.3509886e-38
-299.36719 -87.015808 760 2.3509886e-38
-311.61462 -79.944763 760 2.3509886e-38
-287.81323 -52.861633 750 2.3509886e-38
-290.40149 -43.202393 750 2.3509886e-38
-283.33044 -30.954956 750 2.3509886e-38
-288.50684 -11.636414 750 2.3509886e-38
-291.09497 -1.9771729 750 6.3597286e-39
-284.02393 10.270264 750 5.4391806e-39
-279.54114 32.177002 740 4.8881719e-39
-265.39893 56.671875 740 4.6998219e-39
-267.98718 66.331177 730 3.5967044e-39
-270.57544 75.990417 730 4.2406585e-39
-273.16357 85.649658 730 4.2438772e-39
-278.33997 104.9682 730 4.9800144e-39
-261.60962 119.80383 730 4.8870957e-39
-264.19788 129.46307 730 4.9785724e-39
-276.44531 136.53418 730 4.7030673e-39
-271.96252 158.44086 730 4.7956147e-39
-284.20996 165.5119 730 2.3509767e-38
-277.13892 177.7594 730 2.3509886e-38
-318.36414 177.06586 740 2.3509886e-38
-414.95667 151.18384 780 2.3509886e-38
-446.52258 153.07849 790 2.3509886e-38
-449.11084 162.73773 790 2.350981e-38
-461.35828 169.80878 800 2.3229636e-38
-466.53467 189.12732 800 2.0184673e-38
-449.80432 203.96295 790 1.05996e-38
-283.70239 279.52832 720 8.7560555e-39
-276.63135 291.77576 720 9.0312103e-39
-279.21948 301.43506 720 8.2965193e-39
-281.80774 311.0943 720 1.0973784e-38
-284.39587 320.75354 720 1.0878398e-38
-289.57227 340.07205 720 6.0888885e-39
-292.16052 349.73132 720 5.0714799e-39
-275.43018 364.56699 710 6.3604181e-39
-268.35913 376.81442 700 6.3614999e-39
-251.62878 391.65009 690 6.6384371e-39
-244.55774 403.89755 690 6.7292006e-39
-240.07495 425.80426 690 7.0072182e-39
-242.66309 435.4635 690 6.9139562e-39
-254.91052 442.53458 690 7.2834421e-39
-245.25134 445.12277 690 7.008307e-39
-247.83948 454.78201 690 7.3749287e-39
-240.76843 467.02948 690 7.561122e-39
-233.69739 479.27695 680 7.3752762e-39
-216.96716 494.11258 670 7.1912675e-39
-209.896 506.36005 670 7.7444301e-39
-212.48425 516.01929 670 7.9302563e-39
-215.07239 525.67859 670 8.5759844e-39
-227.31995 532.74963 670 8.8514951e-39
-229.90808 542.40887 670 8.7589436e-39
-235.08447 561.72742 670 8.757859e-39
-237.67273 571.3866 670 7.837346e-39
-240.26086 581.0459 670 7.7440728e-39
-252.5083 588.11694 680 7.6551043e-39
-245.43726 600.36438 670 8.2097144e-39
-248.02551 610.02368 670 9.2166777e-39
-250.61365 619.68292 670 8.7564226e-39
-578.52087 645.7005 790 2.3509886e-38
-571.44983 657.948 790 2.3234379e-38
-593.35645 662.43085 800 2.2585073e-38
-598.53284 681.74933 800 2.1115334e-38
-572.14331 699.17322 790 1.4661295e-38
-574.73157 708.83246 780 3.4101705e-39
-776.37476 727.27142 860 2.8577072e-39
-842.09497 740.71997 880 3.4101523e-39
-837.61206 762.62671 880 3.1346514e-39
-808.63428 770.3913 870 3.5019962e-39
-823.46997 787.12164 870 2.9491784e-39
-806.73962 801.95728 860 2.9502672e-39
-809.32788 811.61652 860 3.3175993e-39
-814.50427 830.93506 860 3.0435292e-39
-807.43323 843.1825 860 4.2413507e-39
-810.02136 852.84174 860 1.1618419e-38
-805.53857 874.74847 850 2.3509886e-38
-716.01697 888.383 820 2.3509886e-38
-888.68262 914.58661 880 2.3509886e-38
126.60486 834.63916 510 2.3509886e-38
124.0166 844.2984 510 2.3509886e-38
-92.46228 879.46771 590 2.3509886e-38
-95.050537 889.12695 590 2.3509886e-38
-129.20471 900.68085 600 2.3509886e-38
-97.638672 898.78619 590 2.3509886e-38
-294.79907 939.1319 660 2.3509886e-38
-394.67334 964.1344 690 2.3509886e-38
-757.42822 1042.9312 820 2.3509886e-38
-857.30249 1067.9336 850 2.3509886e-38
-1132.4304 1128.7988 950 2.3509886e-38
-894.73853 1130.3719 860 2.3509886e-38
-909.57422 1147.1023 870 2.3509886e-38
-890.25562 1152.2787 860 2.3509886e-38
-948.90479 1177.9747 880 2.3509886e-38
-212.38354 -643.46338 770 2.3509886e-38
-231.70203 -648.63977 780 8.5774656e-39
-260.67981 -656.4043 790 5.3484143e-39
-279.99829 -661.58069 800 1.0131769e-38
-292.24573 -654.50964 800 1.547191e-38
-294.83398 -644.85046 800 1.7683509e-38
-300.01038 -625.53186 800 1.6757246e-38
-302.59851 -615.87268 800 2.3480308e-38
-314.84595 -608.80164 800 2.3497589e-38
-310.36316 -586.8949 800 2.3496129e-38
-312.95129 -577.2356 800 2.3498995e-38
-399.19104 -641.75464 840 2.3487842e-38
-1300.4116 -1142.056 1220 2.3509886e-38
-1292.1394 -1057.0175 1210 2.3509886e-38
-1290.2449 -1025.4514 1200 2.3509886e-38
-1180.8972 -892.62415 1150 2.2020706e-38
-1186.0737 -873.30554 1150 2.3509886e-38
-1270.4187 -906.25867 1190 2.3509886e-38
-1388.2244 -968.88306 1240 2.3509886e-38
-330.23962 -126.34637 760 2.3509886e-38
-299.36719 -87.015808 750 2.3509886e-38
-301.95532 -77.356567 750 2.3509886e-38
-287.81323 -52.861633 740 2.3509886e-38
-290.40149 -43.202393 740 2.3509886e-38
-283.33044 -30.954956 740 2.3509886e-38
-288.50684 -11.636414 740 2.3509886e-38
-291.09497 -1.9771729 740 5.3462577e-39
-284.02393 10.270264 740 5.2573005e-39
-279.54114 32.177002 730 5.2562299e-39
-265.39893 56.671875 720 5.8097638e-39
-267.98718 66.331177 720 6.098933e-39
-260.91614 78.578613 720 1.4234346e-38
-263.50427 88.237854 720 2.3509877e-38
-268.68079 107.5564 720 1.3011813e-38
-261.60962 119.80383 720 5.2547964e-39
-264.19788 129.46307 720 5.0722002e-39
-266.78613 139.12238 720 4.8867369e-39
-271.96252 158.44086 720 4.7945287e-39
-284.20996 165.5119 720 2.3509844e-38
-286.7981 175.17114 720 2.3509886e-38
-414.95667 151.18384 770 2.3509886e-38
-436.8634 155.66669 780 2.3509886e-38
-449.11084 162.73773 780 2.3507314e-38
-461.35828 169.80878 780 2.1848863e-38
-466.53467 189.12732 780 1.8534498e-38
-449.80432 203.96295 780 1.0228669e-38
-274.04309 282.11652 700 8.8486014e-39
-276.63135 291.77576 700 7.4671131e-39
-279.21948 301.43506 700 7.8362586e-39
-281.80774 311.0943 700 1.0788674e-38
-284.39587 320.75354 700 1.1063854e-38
-279.91309 342.66028 700 6.4555144e-39
-282.50122 352.31952 700 5.2540649e-39
-256.11169 369.74338 690 6.4536829e-39
-249.04065 381.99084 690 5.9023196e-39
-241.9696 394.23828 680 6.6388014e-39
-244.55774 403.89755 680 6.6373707e-39
-249.73413 423.21606 680 6.8217563e-39
-252.32239 432.87531 680 7.3749245e-39
-254.91052 442.53458 680 7.2838093e-39
-245.25134 445.12277 680 7.0075825e-39
-247.83948 454.78201 680 7.2838149e-39
-240.76843 467.02948 680 7.2805779e-39
-243.35669 476.68872 670 7.1919682e-39
-236.28564 488.93619 670 6.9146764e-39
-229.2146 501.18365 670 7.3792335e-39
-231.80273 510.8429 660 9.5004547e-39
-234.39099 520.5022 660 9.3124649e-39
-236.97913 530.16138 670 8.7571415e-39
-229.90808 542.40887 660 8.1132084e-39
-235.08447 561.72742 660 8.112498e-39
-237.67273 571.3866 660 8.0213687e-39
-240.26086 581.0459 660 8.3908729e-39
-252.5083 588.11694 670 8.3912232e-39
-245.43726 600.36438 660 8.0246113e-39
-248.02551 610.02368 660 8.3901428e-39
-250.61365 619.68292 660 8.9433222e-39
-272.52039 624.16577 670 9.8674421e-39
-566.27344 638.62946 780 2.3509886e-38
-561.79053 660.53619 770 2.3139674e-38
-593.35645 662.43085 780 2.1114988e-38
-598.53284 681.74933 780 2.1392278e-38
-569.55518 689.51392 770 1.5581125e-38
-565.07227 711.42065 770 3.2279471e-39
-837.61206 762.62671 860 3.2275645e-39
-808.63428 770.3913 850 3.2257722e-39
-823.46997 787.12164 860 2.951342e-39
-806.73962 801.95728 850 3.8696955e-39
-809.32788 811.61652 850 3.2279246e-39
-814.50427 830.93506 850 3.4123131e-39
-807.43323 843.1825 850 4.2431528e-39
-810.02136 852.84174 840 1.0788656e-38
-152.3125 832.3725 610 2.3509886e-38
-154.90063 842.0318 610 2.3509886e-38
-145.24146 844.62 600 2.3509886e-38
-138.17041 856.86743 600 2.3509886e-38
-140.75854 866.52667 600 2.3509886e-38
-133.6875 878.77417 600 2.3509886e-38
-124.0282 881.36237 590 2.3509886e-38
-126.61646 891.02161 590 2.3509886e-38
-138.86389 898.09265 590 2.3509886e-38
-97.638672 898.78619 580 2.3509886e-38
-294.79907 939.1319 650 2.3509886e-38
-319.29395 953.27399 650 2.3509886e-38
-462.98169 987.24219 700 2.3509886e-38
-776.7467 1037.7548 810 2.3509886e-38
-857.30249 1067.9336 840 2.3509886e-38
-1132.4304 1128.7988 940 2.3509886e-38
-1130.5359 1160.3649 930 2.3509886e-38
-948.21118 1136.7495 870 2.3509886e-38
-975.29419 1160.5508 870 2.3509886e-38
-977.88232 1170.2101 880 2.3509886e-38
-992.71802 1186.9404 880 2.1299278e-38
-205.31238 -631.21594 760 2.3509886e-38
-214.97168 -633.80408 760 6.4544312e-39
-251.02051 -653.81616 780 5.4380932e-39
-272.92725 -649.33325 780 1.4088624e-38
-282.58643 -651.92151 780 1.7499836e-38
-294.83398 -644.85046 790 1.5655947e-38
-300.01038 -625.53186 790 1.7498056e-38
-302.59851 -615.87268 790 1.7506353e-38
-305.18677 -606.21338 790 1.5377565e-38
-310.36316 -586.8949 790 2.3479608e-38
-312.95129 -577.2356 790 2.3475634e-38
-399.19104 -641.75464 820 2.3473478e-38
-1128.1182 -857.77637 1110 2.3496188e-38
-1159.6841 -855.88171 1120 2.3509886e-38
-382.3252 -202.41931 780 2.3509886e-38
-377.84229 -180.51263 770 2.3509886e-38
-380.43054 -170.85333 770 2.3509886e-38
-392.67798 -163.78229 780 2.3509886e-38
-299.36719 -87.015808 740 2.3509886e-38
-301.95532 -77.356567 740 2.3509886e-38
-287.81323 -52.861633 730 2.3509886e-38
-280.74219 -40.614197 730 2.3509886e-38
-285.91858 -21.295715 730 2.3509886e-38
-288.50684 -11.636414 730 2.3509886e-38
-281.43579 0.61102295 720 4.5179404e-39
-284.02393 10.270264 720 9.5839749e-39
-279.54114 32.177002 720 2.350987e-38
-275.05823 54.083679 710 2.3509886e-38
-267.98718 66.331177 710 2.3509886e-38
-260.91614 78.578613 710 2.3509886e-38
-263.50427 88.237854 710 2.3509886e-38
-278.33997 104.9682 710 9.1238109e-39
-261.60962 119.80383 700 5.1636699e-39
-264.19788 129.46307 700 4.6126626e-39
-266.78613 139.12238 700 5.3469906e-39
-271.96252 158.44086 700 5.3451801e-39
-284.20996 165.5119 710 2.3509886e-38
-286.7981 175.17114 710 2.3509886e-38
-414.95667 151.18384 750 2.3509886e-38
-427.2041 158.25488 760 2.3509869e-38
-439.45154 165.32593 760 2.3408642e-38
-461.35828 169.80878 770 2.1937819e-38
-466.53467 189.12732 770 1.8620954e-38
-449.80432 203.96295 760 9.3149746e-39
-283.70239 279.52832 700 8.4776707e-39
-276.63135 291.77576 690 7.1883837e-39
-279.21948 301.43506 690 7.2827177e-39
-272.14844 313.6825 690 1.0787959e-38
-274.73669 323.34177 690 1.0604683e-38
-279.91309 342.66028 690 6.6406301e-39
-263.18274 357.49591 680 5.1622252e-39
-246.45239 372.33157 680 5.8097526e-39
-249.04065 381.99084 670 6.2696588e-39
-251.62878 391.65009 670 6.2700287e-39
-244.55774 403.89755 670 6.6391545e-39
-249.73413 423.21606 670 6.3614957e-39
-252.32239 432.87531 670 6.6366448e-39
-254.91052 442.53458 670 6.7345802e-39
-245.25134 445.12277 670 9.4089807e-39
-247.83948 454.78201 670 1.0411271e-38
-250.42773 464.44128 660 8.6613459e-39
-243.35669 476.68872 660 7.9270221e-39
-245.94482 486.34799 660 8.0177786e-39
-238.87378 498.59546 660 7.3774356e-39
-241.46204 508.2547 660 7.9280927e-39
-244.05017 517.91394 660 7.8359125e-39
-249.22656 537.23242 660 8.113207e-39
-242.15552 549.47992 650 8.5702349e-39
-244.74377 559.13916 650 7.9291801e-39
-247.33191 568.79846 660 8.296169e-39
-249.92017 578.4577 650 8.5727474e-39
-262.1676 585.52875 660 8.3890666e-39
-255.09656 597.77618 660 8.2050369e-39
-257.68481 607.43542 650 8.3883506e-39
-260.27295 617.09473 660 7.4671187e-39
-275.10864 633.82501 660 8.01778e-39
-566.27344 638.62946 760 2.3509886e-38
-559.20227 650.87695 760 2.3509886e-38
-583.69727 665.01904 770 2.1759989e-38
-598.53284 681.74933 770 2.0289183e-38
-559.89587 692.10217 760 1.6596702e-38
-815.70532 758.14386 840 3.2286477e-39
-818.29358 767.8031 840 3.6881839e-39
-833.12915 784.53345 840 3.5970687e-39
-816.39893 799.36908 840 4.3313911e-39
-809.32788 811.61652 830 3.6878294e-39
-814.50427 830.93506 830 4.1470027e-39
-817.09241 840.5943 830 4.7938084e-39
-812.60962 862.50104 830 9.3128152e-39
-152.3125 832.3725 600 2.3509886e-38
-154.90063 842.0318 600 2.3509886e-38
-145.24146 844.62 590 2.3509886e-38
-138.17041 856.86743 590 2.3509886e-38
-140.75854 866.52667 590 2.3509886e-38
-143.3468 876.18591 590 2.3509886e-38
-133.6875 878.77417 580 2.3509886e-38
-136.27576 888.43341 580 2.3509886e-38
-148.52319 895.50446 590 2.3509886e-38
-141.45215 907.75189 590 2.3509886e-38
-285.13989 941.72009 630 2.3509886e-38
-319.29395 953.27399 640 2.350988e-38
-462.98169 987.24219 690 2.3509886e-38
-788.99414 1044.8258 800 2.3509886e-38
-857.30249 1067.9336 820 2.3509886e-38
-1132.4304 1128.7988 920 2.3509886e-38
-1130.5359 1160.3649 910 2.3509886e-38
-992.02466 1145.7152 870 2.3509886e-38
-1062.9211 1178.4823 890 2.3509886e-38
-1033.9434 1186.2468 880 2.3509886e-38
-1048.7791 1202.9772 880 2.3509886e-38
-195.6532 -628.62769 740 2.3509886e-38
-207.90063 -621.55664 740 1.4002897e-38
-243.94946 -641.56873 760 6.6348441e-39
-256.1969 -634.49768 760 1.5561583e-38
-275.51538 -639.67407 770 2.0074838e-38
-278.10364 -630.01477 770 1.7504887e-38
-290.35107 -622.94373 770 8.0174185e-39
-302.59851 -615.87268 770 1.2248685e-38
-307.7749 -596.5542 770 1.7038848e-38
-310.36316 -586.8949 770 1.8971747e-38
-305.88025 -564.98816 770 1.4553205e-38
-399.19104 -641.75464 810 1.336151e-38
-892.13477 -1043.0109 1020 2.3509886e-38
-1137.7773 -860.36462 1090 2.3498735e-38
-1159.6841 -855.88171 1100 2.3509886e-38
-391.98438 -205.00757 770 2.3509886e-38
-387.50159 -183.10083 760 2.3509886e-38
-390.08972 -173.44153 770 2.3509886e-38
-392.67798 -163.78229 760 2.3509886e-38
-316.09753 -101.8515 730 2.3509886e-38
-301.95532 -77.356567 720 2.3509886e-38
-287.81323 -52.861633 720 2.3509886e-38
-280.74219 -40.614197 710 2.3509886e-38
-285.91858 -21.295715 710 2.3509886e-38
-288.50684 -11.636414 710 1.8621417e-38
-281.43579 0.61102295 710 4.5175761e-39
-284.02393 10.270264 710 1.3274632e-38
-279.54114 32.177002 710 2.3509886e-38
-275.05823 54.083679 700 2.3509886e-38
-267.98718 66.331177 700 2.3509886e-38
-260.91614 78.578613 690 2.3509886e-38
-263.50427 88.237854 700 2.3509886e-38
-278.33997 104.9682 700 5.3502164e-39
-261.60962 119.80383 690 5.1640399e-39
-264.19788 129.46307 690 4.8888907e-39
-266.78613 139.12238 690 4.6112332e-39
-271.96252 158.44086 690 4.884925e-39
-284.20996 165.5119 690 2.3509886e-38
-296.4574 172.58295 700 2.3509886e-38
-328.02332 174.4776 710 2.3509886e-38
-405.29736 153.77203 740 2.3509886e-38
-427.2041 158.25488 740 2.3509872e-38
-439.45154 165.32593 750 2.3222802e-38
-461.35828 169.80878 760 2.046376e-38
-466.53467 189.12732 760 1.8526957e-38
-459.46362 201.37476 750 1.0230105e-38
-283.70239 279.52832 690 8.0184848e-39
-276.63135 291.77576 680 6.270379e-39
-279.21948 301.43506 680 6.733141e-39
-262.48926 316.27069 670 1.0788673e-38
-267.66565 335.5892 670 1.0604321e-38
-270.25378 345.24847 670 7.284552e-39
-263.18274 357.49591 670 4.794886e-39
-256.11169 369.74338 660 5.7164878e-39
-249.04065 381.99084 660 6.2728874e-39
-251.62878 391.65009 660 8.2068362e-39
-244.55774 403.89755 660 8.2943571e-39
-249.73413 423.21606 660 7.3745728e-39
-252.32239 432.87531 660 6.9150282e-39
-254.91052 442.53458 660 6.8242633e-39
-254.91052 442.53458 660 7.0086671e-39
-247.83948 454.78201 660 7.2838093e-39
-250.42773 464.44128 660 8.0177716e-39
-253.01587 474.10052 650 6.5466044e-39
-245.94482 486.34799 650 7.0994152e-39
-248.53308 496.00723 650 7.5600318e-39
-241.46204 508.2547 650 8.4801875e-39
-244.05017 517.91394 650 7.561115e-39
-249.22656 537.23242 650 7.652596e-39
-251.81482 546.89172 650 7.6479269e-39
-244.74377 559.13916 650 6.2624715e-39
-256.99121 566.21021 650 4.7902015e-39
-259.57947 575.86951 650 3.4094362e-39
-262.1676 585.52875 650 2.9509748e-39
-264.75586 595.18799 650 3.0428117e-39
-257.68481 607.43542 640 3.2264897e-39
-260.27295 617.09473 640 3.2282778e-39
-275.10864 633.82501 650 3.9665603e-39
-275.10864 633.82501 650 1.097522e-38
-574.03796 667.60724 750 2.1574509e-38
-242.34155 704.72156 630 1.7795575e-38
-264.24829 709.20441 640 5.3448592e-39
-806.04614 760.73206 820 3.9647624e-39
-820.88171 777.4624 830 3.9651253e-39
-833.12915 784.53345 830 4.2417094e-39
-816.39893 799.36908 820 4.4235812e-39
-811.91602 821.27582 820 4.3328331e-39
-814.50427 830.93506 820 3.8729395e-39
-817.09241 840.5943 820 4.7945189e-39
-812.60962 862.50104 820 7.9323961e-39
-152.3125 832.3725 590 2.3509874e-38
-154.90063 842.0318 590 2.3509886e-38
-154.90063 842.0318 580 2.3509886e-38
-147.82959 854.27924 580 2.3509886e-38
-140.75854 866.52667 580 2.3509886e-38
-143.3468 876.18591 580 2.3509886e-38
-133.6875 878.77417 580 2.3509886e-38
-148.52319 895.50446 580 2.3509886e-38
-151.11133 905.1637 580 2.3509886e-38
-151.11133 905.1637 580 2.3509886e-38
-272.89233 934.64905 620 2.3509886e-38
-319.29395 953.27399 630 2.3509866e-38
-462.98169 987.24219 680 2.3509886e-38
-779.33496 1047.4139 790 2.3509886e-38
-857.30249 1067.9336 810 2.3509886e-38
-1132.4304 1128.7988 900 2.3509886e-38
-1130.5359 1160.3649 900 2.3509886e-38
-1013.9312 1150.198 860 2.3509886e-38
-1084.8279 1182.9651 880 2.3509886e-38
-1065.5093 1188.1416 870 2.3509886e-38
-1070.6858 1207.4601 870 2.3509886e-38
-1063.6147 1219.7075 870 2.3134643e-38
-1046.8843 1234.5432 860 1.3181821e-38
-198.24133 -618.96838 720 2.3496243e-38
-207.90063 -621.55664 730 1.4640026e-38
-220.14807 -614.4856 730 1.2342678e-38
-239.46655 -619.66199 740 1.5563031e-38
-251.71411 -612.59094 740 2.0991039e-38
-263.96155 -605.5199 750 2.3485349e-38
-276.20898 -598.44885 750 2.3495057e-38
-278.79712 -588.78955 750 2.2476256e-38
-281.38538 -579.13025 750 2.3492166e-38
-243.44189 -527.55225 730 2.3506936e-38
-229.2998 -503.05737 730 8.8450113e-39
-399.19104 -641.75464 800 1.3080596e-38
-892.13477 -1043.0109 1000 2.3509886e-38
-1310.0708 -1144.6443 1150 2.3509886e-38
-1301.7988 -1059.6056 1150 2.3509886e-38
-1306.9751 -1040.2871 1150 2.3509886e-38
-1314.7397 -1011.3093 1140 2.3509886e-38
-1171.238 -890.03589 1080 2.3509873e-38
-1186.0737 -873.30554 1090 2.3509886e-38
-1164.8606 -836.56323 1080 2.3509886e-38
-391.98438 -205.00757 750 2.3509886e-38
-394.57263 -195.34827 750 2.3509886e-38
-390.08972 -173.44153 750 2.3509886e-38
-392.67798 -163.78229 750 2.3509886e-38
-378.53589 -139.28741 740 2.3509886e-38
-318.68567 -92.1922 720 2.3509886e-38
-304.54358 -67.697327 710 2.3509886e-38
-290.40149 -43.202393 700 2.3509886e-38
-285.91858 -21.295715 700 2.3509886e-38
-288.50684 -11.636414 700 1.2076239e-38
-281.43579 0.61102295 700 3.6870993e-39
-284.02393 10.270264 700 2.3509744e-38
-279.54114 32.177002 690 2.3509886e-38
-272.47009 44.424438 690 2.3509886e-38
-267.98718 66.331177 690 2.3509886e-38
-251.25684 81.166809 680 2.3509886e-38
-263.50427 88.237854 680 2.3509886e-38
-275.75183 95.308899 690 5.254788e-39
-261.60962 119.80383 680 5.0714785e-39
-264.19788 129.46307 680 4.8870915e-39
-266.78613 139.12238 680 4.424691e-39
-271.96252 158.44086 680 5.8043576e-39
-284.20996 165.5119 680 2.3509886e-38
-306.1167 169.99475 690 2.3509886e-38
-337.68262 171.8894 700 2.3509886e-38
-405.29736 153.77203 720 2.3509886e-38
-417.5448 160.84308 730 2.350986e-38
-429.79236 167.91412 730 2.2029658e-38
-461.35828 169.80878 740 1.9543257e-38
-466.53467 189.12732 740 1.7881947e-38
-459.46362 201.37476 740 9.6794467e-39
-303.02087 274.35193 680 7.5575221e-39
-276.63135 291.77576 670 7.1890871e-39
-279.21948 301.43506 670 7.5593186e-39
-272.14844 313.6825 660 1.0511735e-38
-267.66565 335.5892 660 8.9411656e-39
-260.5946 347.83667 660 7.2834534e-39
-253.52344 360.08411 660 7.6504352e-39
-256.11169 369.74338 650 6.6398804e-39
-249.04065 381.99084 650 7.1916179e-39
-251.62878 391.65009 650 6.9182596e-39
-244.55774 403.89755 650 7.3742155e-39
-249.73413 423.21606 650 7.1901787e-39
-252.32239 432.87531 650 7.1919724e-39
-254.91052 442.53458 650 7.4667614e-39
-254.91052 442.53458 650 7.0079427e-39
-247.83948 454.78201 650 6.3614943e-39
-250.42773 464.44128 640 6.912517e-39
-253.01587 474.10052 640 6.6330519e-39
-255.60413 483.7598 640 4.8813265e-39
-248.53308 496.00723 640 3.3176021e-39
-251.12122 505.6665 640 2.949893e-39
-256.29773 524.98499 640 3.1342857e-39
-258.88586 534.64429 640 2.8573443e-39
-251.81482 546.89172 640 3.0413712e-39
-244.74377 559.13916 630 3.5034297e-39
-256.99121 566.21021 640 3.4148298e-39
-259.57947 575.86951 640 4.5226249e-39
-262.1676 585.52875 640 5.2551551e-39
-264.75586 595.18799 640 5.0743582e-39
-257.68481 607.43542 630 7.0151355e-39
-260.27295 617.09473 630 7.7437182e-39
-275.10864 633.82501 640 7.2838093e-39
-277.69678 643.48425 640 1.1802833e-38
-280.28503 653.14355 640 2.065216e-38
-249.4126 692.47412 620 2.0375594e-38
-252.00085 702.13336 620 1.8442028e-38
-264.24829 709.20441 630 5.9909405e-39
-796.38684 763.32025 800 4.1470027e-39
-830.54102 774.87415 810 4.2392123e-39
-845.37671 791.60449 820 3.9636988e-39
-816.39893 799.36908 810 4.2406402e-39
-821.57532 818.68762 810 4.1480789e-39
-824.16345 828.34686 810 4.4232336e-39
-817.09241 840.5943 800 4.6112164e-39
-812.60962 862.50104 800 7.9291647e-39
-152.3125 832.3725 580 2.2315981e-38
-154.90063 842.0318 580 2.3509886e-38
-157.48889 851.69104 580 2.3509886e-38
-157.48889 851.69104 570 2.3509886e-38
-150.41785 863.93848 570 2.3509886e-38
-153.00598 873.59772 570 2.3509886e-38
-145.93494 885.84521 570 2.3509886e-38
-158.18237 892.91626 570 2.3509886e-38
-151.11133 905.1637 570 2.3509886e-38
-153.69958 914.82294 570 2.3509886e-38
-263.23315 937.23724 610 2.3509886e-38
-382.4259 957.06329 640 2.3509886e-38
-387.60229 976.38184 640 2.3509886e-38
-779.33496 1047.4139 770 2.3509886e-38
-857.30249 1067.9336 800 2.3509886e-38
-991.33105 1104.49 840 2.3509886e-38
-1130.5359 1160.3649 880 2.3509886e-38
-1035.8379 1154.6809 850 2.3509886e-38
-1104.1462 1177.7887 870 2.3509886e-38
-1087.416 1192.6244 860 2.3509886e-38
-1102.2517 1209.3547 870 2.3509886e-38
-1097.7688 1231.2615 860 2.3509886e-38
-1090.6978 1243.5088 860 1.2448162e-38
-188.58215 -616.38025 710 2.3509886e-38
-200.82959 -609.3092 710 1.6392815e-38
-213.07703 -602.23816 710 1.2985167e-38
-215.66528 -592.57886 720 1.3078798e-38
-218.25342 -582.91956 720 1.8228427e-38
-230.50085 -575.84851 720 2.2926437e-38
-223.42981 -563.60107 720 2.3491473e-38
-228.6062 -544.28259 720 2.3479243e-38
-231.19446 -534.62329 720 2.3479929e-38
-236.37085 -515.30481 720 2.3508013e-38
-246.03015 -517.89307 720 2.1922349e-38
-234.4762 -483.73889 710 2.0819599e-38
-404.36755 -622.43616 780 2.3509886e-38
-897.31104 -1023.6924 980 2.3509886e-38
-1336.4604 -1162.0681 1140 2.3509886e-38
-1320.4238 -1106.0072 1130 2.3509886e-38
-1335.2593 -1089.277 1140 2.3509886e-38
-1343.0239 -1060.2992 1140 2.3509886e-38
-1331.47 -1026.145 1130 2.3509886e-38
-1204.6987 -919.70728 1080 2.3509867e-38
-1193.1448 -885.5531 1070 2.3509886e-38
-1164.8606 -836.56323 1060 2.3509886e-38
-757.46313 -541.05127 890 2.3509886e-38
-789.02905 -539.15662 900 2.3509886e-38
-837.32532 -552.09753 920 2.3509886e-38
-842.50171 -532.77905 920 2.3509886e-38
-847.6781 -513.46057 920 2.3509886e-38
-418.37402 -222.4314 750 2.3509886e-38
-394.57263 -195.34827 740 2.3509886e-38
-390.08972 -173.44153 740 2.3509886e-38
-392.67798 -163.78229 740 2.3509886e-38
-388.19507 -141.87561 730 2.3509886e-38
-338.00415 -97.368591 710 2.3509886e-38
-304.54358 -67.697327 700 2.3509886e-38
-290.40149 -43.202393 690 2.3509886e-38
-285.91858 -21.295715 690 2.3509886e-38
-288.50684 -11.636414 690 7.3753253e-39
-281.43579 0.61102295 680 3.96261e-39
-284.02393 10.270264 690 2.3509886e-38
-296.27136 17.341309 690 2.3509886e-38
-311.10706 34.071655 690 2.3509886e-38
-294.37671 48.907288 690 2.3509886e-38
-280.23462 73.402222 680 2.3509886e-38
-273.16357 85.649658 670 1.3274027e-38
-285.41101 92.720703 680 4.887076e-39
-261.60962 119.80383 670 4.7012639e-39
-264.19788 129.46307 670 4.8870887e-39
-266.78613 139.12238 670 4.3360771e-39
-271.96252 158.44086 670 6.9081898e-39
-284.20996 165.5119 670 2.3509886e-38
-306.1167 169.99475 680 2.3509886e-38
-335.09436 162.23016 690 2.3509886e-38
-395.63818 156.36023 710 2.3509886e-38
-407.88562 163.43127 710 2.3505572e-38
-420.13306 170.50232 720 2.0646371e-38
-451.69897 172.39697 730 1.825432e-38
-466.53467 189.12732 730 1.6961433e-38
-459.46362 201.37476 730 1.0322298e-38
-293.36157 276.94012 660 7.558957e-39
-276.63135 291.77576 660 6.4533255e-39
-279.21948 301.43506 660 7.467825e-39
-262.48926 316.27069 650 7.2848967e-39
-258.00635 338.1774 650 7.6500793e-39
-260.5946 347.83667 650 7.099425e-39
-253.52344 360.08411 640 7.4685593e-39
-256.11169 369.74338 640 7.4660439e-39
-249.04065 381.99084 640 7.1926899e-39
-251.62878 391.65009 640 7.0057931e-39
-244.55774 403.89755 640 7.09726e-39
-249.73413 423.21606 640 6.7252377e-39
-252.32239 432.87531 640 4.6050998e-39
-254.91052 442.53458 640 3.2239674e-39
-254.91052 442.53458 640 2.5829168e-39
-257.49878 452.19382 640 2.5804014e-39
-260.08704 461.85309 640 2.8591351e-39
-262.67517 471.51233 630 2.8580589e-39
-255.60413 483.7598 630 3.3201175e-39
-258.19238 493.41904 630 3.8740087e-39
-260.78052 503.07831 630 5.072196e-39
-265.95691 522.39685 630 6.0863367e-39
-268.54517 532.05603 630 6.0917345e-39
-261.47412 544.30353 630 6.2721797e-39
-264.06226 553.96277 630 6.2693028e-39
-266.65051 563.62207 630 6.6369937e-39
-259.57947 575.86951 630 7.0083e-39
-262.1676 585.52875 630 7.1023005e-39
-264.75586 595.18799 630 6.1796225e-39
-257.68481 607.43542 620 7.7375904e-39
-260.27295 617.09473 620 6.5429988e-39
-272.52039 624.16577 630 7.010458e-39
-277.69678 643.48425 630 1.1526951e-38
-280.28503 653.14355 630 1.9642334e-38
-260.96655 658.31995 620 2.3509886e-38
-275.80212 675.05023 620 2.3509886e-38
-256.48364 680.22668 620 2.1477997e-38
-249.4126 692.47412 610 1.9820254e-38
-252.00085 702.13336 610 1.8623524e-38
-264.24829 709.20441 610 6.9103843e-39
-784.1394 756.24921 780 3.2268484e-39
-830.54102 774.87415 800 3.7789376e-39
-845.37671 791.60449 800 3.8722108e-39
-826.05811 796.78088 790 3.9644177e-39
-821.57532 818.68762 790 4.424307e-39
-824.16345 828.34686 790 4.0569608e-39
-817.09241 840.5943 790 4.7927434e-39
-159.38354 820.12506 570 7.2823561e-39
-152.3125 832.3725 570 2.1116329e-38
-154.90063 842.0318 570 2.3509886e-38
-157.48889 851.69104 570 2.3509886e-38
-160.07703 861.35028 570 2.3509886e-38
-150.41785 863.93848 560 2.3509886e-38
-162.66528 871.00952 570 2.3509886e-38
-167.84167 890.32806 570 2.3509886e-38
-167.84167 890.32806 570 2.3509886e-38
-160.77063 902.5755 560 2.3509886e-38
-163.35876 912.23474 560 2.3509886e-38
-263.23315 937.23724 590 2.3509886e-38
-385.01416 966.72253 630 2.3509886e-38
-387.60229 976.38184 630 2.3509886e-38
-776.7467 1037.7548 760 2.3509886e-38
-857.30249 1067.9336 780 2.3509886e-38
-991.33105 1104.49 820 2.3509886e-38
-1130.5359 1160.3649 870 2.3509886e-38
-1048.0854 1161.752 840 2.3509886e-38
-1116.3938 1184.8597 860 2.3509886e-38
-1109.3228 1197.1072 860 2.3509886e-38
-1114.499 1216.4258 860 2.3509886e-38
-1119.6755 1235.7443 860 2.3509886e-38
-1131.9229 1242.8153 860 1.4477545e-38
-188.58215 -616.38025 700 2.3509886e-38
-191.17029 -606.72095 700 1.8324957e-38
-203.41772 -599.6499 700 1.2528492e-38
-206.00598 -589.9906 700 1.2065373e-38
-208.59424 -580.33142 700 1.5838172e-38
-213.77063 -561.01294 700 1.9793585e-38
-226.01807 -553.94189 700 2.3481385e-38
-218.94702 -541.69434 700 1.8686165e-38
-224.12341 -522.37585 700 1.610791e-38
-226.71155 -512.71667 700 2.1819349e-38
-229.2998 -503.05737 700 2.3488196e-38
-193.94446 -441.82007 680 2.3488248e-38
-170.14319 -414.73694 670 2.3509886e-38
-316.23303 -526.3512 730 2.3509886e-38
-1354.5779 -1094.4534 1120 2.3509886e-38
-1350.095 -1072.5466 1120 2.3509886e-38
-1338.541 -1038.3925 1110 2.3509886e-38
-1171.238 -890.03589 1040 2.3509863e-38
-855.25671 -639.72437 920 2.3509886e-38
-860.43311 -620.40588 920 2.3509886e-38
-882.33984 -615.9231 920 2.3509886e-38
-884.92798 -606.26379 920 2.3509886e-38
-909.42285 -592.1217 930 2.3509886e-38
-921.67041 -585.05066 930 2.3509886e-38
-917.1875 -563.14392 930 2.3509886e-38
-915.29297 -531.57788 930 2.3509886e-38
-394.57263 -195.34827 730 2.3509886e-38
-390.08972 -173.44153 720 2.3509886e-38
-392.67798 -163.78229 720 2.3509886e-38
-388.19507 -141.87561 720 2.3509886e-38
-354.7345 -112.20428 710 2.3509886e-38
-323.86206 -72.873718 690 2.3509886e-38
-290.40149 -43.202393 680 2.3509886e-38
-285.91858 -21.295715 680 2.3509886e-38
-278.84753 -9.0482178 670 5.1629805e-39
-264.70544 15.446655 670 9.9556076e-39
-267.29358 25.105957 670 2.3509886e-38
-289.20032 29.588806 670 2.3509886e-38
-291.78857 39.248047 670 2.3509886e-38
-284.71753 51.495483 670 2.3509886e-38
-289.89392 70.814026 670 2.3509886e-38
-263.50427 88.237854 660 5.1586155e-39
-285.41101 92.720703 660 4.7030589e-39
-261.60962 119.80383 660 4.4275552e-39
-254.53857 132.05127 650 4.7034121e-39
-266.78613 139.12238 650 4.4268336e-39
-271.96252 158.44086 650 8.3779151e-39
-284.20996 165.5119 660 2.3509886e-38
-315.77588 167.40656 670 2.3509886e-38
-335.09436 162.23016 680 2.3509886e-38
-395.63818 156.36023 690 2.3509886e-38
-407.88562 163.43127 700 2.2035449e-38
-420.13306 170.50232 700 2.0186119e-38
-442.03979 174.98517 710 1.8343269e-38
-456.87537 191.71552 710 1.7234784e-38
-459.46362 201.37476 710 1.0415922e-38
-303.02087 274.35193 650 7.8330174e-39
-286.29053 289.18756 650 6.1756527e-39
-288.87878 298.84686 650 7.0994068e-39
-281.80774 311.0943 650 7.7444175e-39
-274.73669 323.34177 640 7.7426336e-39
-279.91309 342.66028 640 6.635577e-39
-272.84204 354.90771 640 5.4330696e-39
-275.43018 364.56699 640 3.6842211e-39
-268.35913 376.81442 630 3.0399348e-39
-261.28809 389.06189 630 2.9477448e-39
-254.21704 401.30936 630 2.4896365e-39
-259.39343 420.62787 630 2.9491812e-39
-261.98169 430.28711 630 3.3201259e-39
-254.91052 442.53458 630 4.3346435e-39
-254.91052 442.53458 630 4.6108563e-39
-257.49878 452.19382 620 4.8903271e-39
-260.08704 461.85309 620 5.9041259e-39
-253.01587 474.10052 620 5.3484213e-39
-255.60413 483.7598 620 6.0867024e-39
-258.19238 493.41904 620 6.6384441e-39
-260.78052 503.07831 620 6.4544003e-39
-265.95691 522.39685 620 6.9128702e-39
-268.54517 532.05603 620 7.0968943e-39
-271.1333 541.71533 620 6.6337539e-39
-264.06226 553.96277 620 5.8083149e-39
-276.30969 561.03381 620 6.3629418e-39
-269.23865 573.28131 620 6.6384441e-39
-271.8269 582.94055 620 7.3756406e-39
-264.75586 595.18799 620 6.7295649e-39
-267.34399 604.84729 610 7.1890983e-39
-269.93225 614.50653 610 6.7288446e-39
-272.52039 624.16577 610 7.0994138e-39
-277.69678 643.48425 620 1.1064897e-38
-280.28503 653.14355 620 1.9086279e-38
-260.96655 658.31995 610 2.3509886e-38
-263.55469 667.97919 610 2.3509886e-38
-266.14294 677.63843 610 2.1022392e-38
-259.0719 689.88593 600 1.9360721e-38
-252.00085 702.13336 600 1.8070359e-38
-266.83643 718.86365 600 7.0047407e-39
-774.4801 758.8374 770 3.1346514e-39
-830.54102 774.87415 780 3.3186867e-39
-855.03589 789.0163 790 4.0555245e-39
-826.05811 796.78088 780 4.4257336e-39
-821.57532 818.68762 780 4.3342778e-39
-824.16345 828.34686 780 4.7012541e-39
-817.09241 840.5943 780 4.6094298e-39
-159.38354 820.12506 560 5.9952201e-39
-152.3125 832.3725 560 1.7524305e-38
-154.90063 842.0318 560 2.3509886e-38
-167.14807 849.10284 560 2.3509886e-38
-160.07703 861.35028 560 2.3509886e-38
-160.07703 861.35028 560 2.3509886e-38
-165.25342 880.66882 560 2.3509886e-38
-177.50098 887.73987 560 2.3509886e-38
-167.84167 890.32806 560 2.3408284e-38
-160.77063 902.5755 550 2.3509886e-38
-173.01807 909.64655 560 2.3509886e-38
-250.98572 930.1662 580 2.3509886e-38
-350.85999 955.16864 610 2.3509886e-38
-387.60229 976.38184 620 2.3509886e-38
-767.08752 1040.3429 740 2.3509886e-38
-866.96179 1065.3453 770 2.3509886e-38
-991.33105 1104.49 810 2.3509886e-38
-1130.5359 1160.3649 850 2.3509886e-38
-1057.7446 1159.1638 820 2.3509886e-38
-1116.3938 1184.8597 840 2.3509886e-38
-1121.5701 1204.1782 840 2.3509886e-38
-1114.499 1216.4258 840 2.3509886e-38
-1117.0874 1226.085 840 2.3509886e-38
-1122.2637 1245.4036 840 1.4109108e-38
-188.58215 -616.38025 680 2.3509886e-38
-191.17029 -606.72095 680 1.2069691e-38
-193.75854 -597.06177 680 1.2617815e-38
-198.93494 -577.74316 680 1.2341952e-38
-211.18237 -570.67212 690 1.298696e-38
-213.77063 -561.01294 690 1.6943789e-38
-216.35876 -551.35364 690 2.3477413e-38
-218.94702 -541.69434 690 1.8880279e-38
-231.19446 -534.62329 690 1.400436e-38
-236.37085 -515.30481 690 1.5195685e-38
-229.2998 -503.05737 690 2.3295191e-38
-191.35632 -451.47937 670 2.3504383e-38
-170.14319 -414.73694 660 2.3509886e-38
-316.23303 -526.3512 720 2.3509886e-38
-846.61267 -865.16907 920 2.3509886e-38
-925.78125 -917.44055 950 2.3509886e-38
-923.88672 -885.87463 940 2.3509886e-38
-1098.9543 -1005.2534 1010 2.3509886e-38
-1260.5735 -1058.9121 1070 2.3509886e-38
-1213.6643 -963.52063 1040 2.3509886e-38
-1175.7209 -911.94263 1020 2.3509886e-38
-929.24902 -711.31445 930 2.3509842e-38
-905.44775 -684.23132 920 2.3509886e-38
-877.16345 -635.24158 910 2.3509886e-38
-882.33984 -615.9231 910 2.3509886e-38
-877.85706 -594.01636 900 2.3509886e-38
-873.37415 -572.10962 900 2.3509886e-38
-878.55054 -552.79114 900 2.3509886e-38
-883.72705 -533.47253 900 2.3509886e-38
-886.31519 -523.81335 900 2.3509886e-38
-901.15088 -507.08301 900 2.3509886e-38
-390.08972 -173.44153 710 2.3509886e-38
-383.01868 -161.19409 710 2.3509886e-38
-388.19507 -141.87561 710 2.3509886e-38
-364.3938 -114.79248 700 2.3509886e-38
-340.59241 -87.709351 690 2.3509886e-38
-290.40149 -43.202393 670 2.3509886e-38
-276.2594 -18.707458 660 2.3509886e-38
-269.18823 -6.460022 660 4.4250427e-39
-245.38696 20.623108 650 9.9441352e-39
-247.9751 30.282349 650 1.1773302e-38
-260.22253 37.353394 650 5.7089082e-39
-265.39893 56.671875 650 3.9615296e-39
-267.98718 66.331177 650 3.593466e-39
-260.91614 78.578613 650 3.6871007e-39
-263.50427 88.237854 650 3.5045003e-39
-275.75183 95.308899 650 3.965131e-39
-261.60962 119.80383 640 4.5168782e-39
-254.53857 132.05127 640 4.7026988e-39
-257.12683 141.71057 640 4.0587671e-39
-271.96252 158.44086 640 1.03122e-38
-284.20996 165.5119 650 2.3509886e-38
-313.18774 157.74731 660 2.3509886e-38
-335.09436 162.23016 660 2.3509886e-38
-385.97888 158.94843 680 2.3509886e-38
-398.22632 166.01947 680 2.2308792e-38
-413.06201 182.74982 690 1.8807134e-38
-425.30945 189.82086 690 1.7515324e-38
-427.89771 199.4801 690 1.6039111e-38
-326.82227 247.2688 650 1.0415923e-38
-312.68018 271.76373 650 7.3738385e-39
-305.60913 284.01117 640 6.177805e-39
-298.53796 296.25867 640 4.6097661e-39
-291.46692 308.5061 640 2.9502517e-39
-284.39587 320.75354 630 3.0413684e-39
-289.57227 340.07205 630 2.5832839e-39
-282.50122 352.31952 630 3.1371667e-39
-285.08948 361.97879 630 3.7796593e-39
-278.01843 374.22623 630 3.5052346e-39
-270.94739 386.47369 620 4.1520305e-39
-254.21704 401.30936 620 5.6253613e-39
-259.39343 420.62787 620 5.5335258e-39
-261.98169 430.28711 620 5.6260788e-39
-254.91052 442.53458 610 6.0856332e-39
-254.91052 442.53458 610 6.4540388e-39
-257.49878 452.19382 610 5.9930705e-39
-260.08704 461.85309 610 6.2660602e-39
-253.01587 474.10052 610 6.1785379e-39
-255.60413 483.7598 610 6.3629376e-39
-267.85156 490.83084 610 6.5476974e-39
-263.36877 512.73755 610 6.454413e-39
-275.61621 519.80859 610 7.1941136e-39
-278.20435 529.4679 610 7.288491e-39
-280.7926 539.12714 610 8.0174157e-39
-273.72156 551.37457 610 6.7284691e-39
-276.30969 561.03381 610 6.5451709e-39
-269.23865 573.28131 610 6.0859934e-39
-271.8269 582.94055 610 6.1695374e-39
-274.41504 592.59979 610 4.327794e-39
-267.34399 604.84729 600 3.7764153e-39
-250.61365 619.68292 600 3.1346458e-39
-253.2019 629.34216 600 2.950263e-39
-277.69678 643.48425 600 3.5001927e-39
-280.28503 653.14355 600 1.5304788e-38
-260.96655 658.31995 600 2.3509886e-38
-285.46143 672.46204 600 2.341805e-38
-288.04956 682.12134 600 2.1663462e-38
-290.63782 691.78058 600 1.9359999e-38
-273.90747 706.61621 600 1.8250786e-38
-276.49573 716.27545 600 7.3745938e-39
-774.4801 758.8374 750 2.8569897e-39
-830.54102 774.87415 770 3.3186657e-39
-855.03589 789.0163 780 3.779302e-39
-828.64636 806.44012 770 4.608334e-39
-821.57532 818.68762 760 4.5168656e-39
-824.16345 828.34686 760 4.7008911e-39
-817.09241 840.5943 760 4.8849236e-39
-159.38354 820.12506 550 6.2682098e-39
-161.97168 829.7843 550 1.6136334e-38
-164.55994 839.4436 550 2.3509886e-38
-167.14807 849.10284 550 2.3509886e-38
-169.73633 858.76208 550 2.3509886e-38
-162.66528 871.00952 550 2.3509886e-38
-174.91272 878.08057 550 2.3509886e-38
-177.50098 887.73987 550 1.8992273e-38
-180.08911 897.39911 550 2.3509886e-38
-170.42993 899.9873 550 2.3509886e-38
-173.01807 909.64655 550 2.3509886e-38
-241.32642 932.75439 570 2.3509886e-38
-360.51917 952.58044 600 2.3509886e-38
-387.60229 976.38184 610 2.3509874e-38
-754.84009 1033.2719 720 2.3509886e-38
-866.96179 1065.3453 760 2.3509886e-38
-991.33105 1104.49 790 2.3509886e-38
-1130.5359 1160.3649 830 2.3509886e-38
-1057.7446 1159.1638 810 2.3509886e-38
-1116.3938 1184.8597 830 2.3509886e-38
-1131.2295 1201.5901 830 2.3509886e-38
-1114.499 1216.4258 820 2.3509886e-38
-1107.428 1228.6732 820 2.3509886e-38
-1112.6045 1247.9917 820 1.2354893e-38
-188.58215 -616.38025 670 1.5578224e-38
-193.75854 -597.06177 670 1.1332487e-38
-196.34668 -587.40247 670 1.1241714e-38
-198.93494 -577.74316 670 1.0594912e-38
-201.52307 -568.08398 670 1.2523458e-38
-204.11133 -558.42468 670 1.4916577e-38
-216.35876 -551.35364 670 1.0955805e-38
-221.53516 -532.03516 670 1.2979049e-38
-224.12341 -522.37585 670 1.6841894e-38
-226.71155 -512.71667 680 1.7957573e-38
-222.22876 -490.80994 670 1.7958325e-38
-191.35632 -451.47937 660 2.3509886e-38
-186.87341 -429.57263 650 2.3509886e-38
