# .PCD v0.7 - Point Cloud Data file format
VERSION 0.7
FIELDS x y z rgb
SIZE 4 4 4 4
TYPE F F F F
COUNT 1 1 1 1
WIDTH 1217
HEIGHT 1
VIEWPOINT 0 0 0 1 0 0 0
POINTS 1217
DATA ascii
-182.82129 -693.5365 610 1.7888098e-38
-184.05396 -679.44812 610 1.4750955e-38
-185.2865 -665.35986 610 7.7444413e-39
-207.03528 -660.16455 610 4.1477215e-39
-98.994019 -515.84851 560 3.4105152e-39
-113.0824 -517.08118 570 3.1332081e-39
-120.7428 -510.65332 570 3.1339297e-39
-128.4032 -504.22546 570 3.2254065e-39
-142.49158 -505.45801 570 3.0420943e-39
-156.57996 -506.69055 570 2.9498958e-39
-178.32861 -501.49524 580 2.9502531e-39
-185.98914 -495.06738 580 3.2257596e-39
-187.22168 -480.97913 570 3.6860189e-39
-201.31006 -482.21167 570 3.777137e-39
-235.91455 -492.33728 580 2.7640682e-39
-250.00281 -493.56982 590 2.3034502e-39
-291.03528 -511.35596 600 2.1204995e-39
-298.69568 -504.9281 600 2.4889191e-39
-307.58875 -484.41187 590 2.8577002e-39
-308.82129 -470.32349 590 3.1332123e-39
-310.05383 -456.23523 590 3.3186811e-39
-311.2865 -442.14685 590 4.0551616e-39
-312.51904 -428.05859 580 5.9905369e-39
-327.83997 -415.20288 580 1.0778222e-38
-341.92822 -416.43542 580 1.4827621e-38
-349.58875 -410.00757 590 1.6022557e-38
-377.76538 -412.47266 590 1.6485328e-38
-418.79773 -430.25879 600 1.7774623e-38
-440.54651 -425.06348 600 1.8416023e-38
-454.63477 -426.29602 610 1.8508933e-38
-436.58374 -389.22644 600 1.7590574e-38
-404.44446 -350.92419 580 1.7134664e-38
-399.24915 -329.17542 580 1.6867821e-38
-406.90955 -322.74744 580 1.7330267e-38
-414.57007 -316.31958 580 1.6413696e-38
-429.89087 -303.46387 580 1.595092e-38
-443.97925 -304.69641 580 1.4376054e-38
-465.72803 -299.50122 580 8.5641224e-39
-479.81628 -300.73376 580 3.9622541e-39
-495.13721 -287.87805 590 2.7647871e-39
-502.79773 -281.45013 590 1.8446371e-39
-524.54639 -276.25488 590 2.3070501e-39
-532.20691 -269.82697 590 3.0420985e-39
-539.86731 -263.39911 590 2.9506245e-39
-561.61609 -258.2038 590 2.9506189e-39
-569.27661 -251.77594 590 3.2264841e-39
-576.93701 -245.34808 590 3.2268414e-39
-612.77405 -241.38538 600 2.6747565e-39
-626.86243 -242.61798 600 2.5829196e-39
-642.18335 -229.76221 600 2.5825664e-39
-670.35999 -232.22736 600 2.6736789e-39
-684.44824 -233.45996 610 2.5807602e-39
-726.71326 -237.15771 610 2.3978052e-39
-754.88989 -239.62286 620 2.2137811e-39
-770.21082 -226.76709 620 2.3052551e-39
-757.35498 -211.44623 620 2.1212212e-39
-278.78979 78.855957 470 5.8097526e-39
-286.45032 85.283813 470 5.5310147e-39
-286.45032 85.283813 470 1.013796e-39
-294.11072 91.71167 470 8.2940474e-40
-295.34326 105.79999 470 1.0145093e-39
-303.00378 112.22791 470 1.3825729e-39
-296.57593 119.88831 470 1.29002e-39
608.40515 -1461.8857 620 1.76166e-38
593.08423 -1449.03 620 1.7431131e-38
585.42383 -1442.6021 620 1.7064877e-38
571.33551 -1443.8347 620 1.7340015e-38
557.24719 -1445.0674 630 1.697412e-38
543.15887 -1446.2998 630 1.6971248e-38
535.49841 -1439.8721 630 1.6419517e-38
521.4101 -1441.1045 630 1.4851473e-38
507.32178 -1442.3372 630 1.4941485e-38
486.80557 -1451.2302 640 1.531352e-38
472.71725 -1452.4629 640 1.5498987e-38
458.62894 -1453.6953 640 1.4116773e-38
450.96851 -1447.2676 650 1.4853985e-38
430.4523 -1456.1604 650 1.6419865e-38
422.79187 -1449.7327 650 1.7341466e-38
407.47095 -1436.877 650 1.7341825e-38
399.81049 -1430.449 650 1.7063784e-38
384.48962 -1417.5933 650 1.6419135e-38
376.82916 -1411.1655 650 1.6419129e-38
361.50824 -1398.3096 650 1.5684815e-38
346.18738 -1385.4539 650 1.39317e-38
338.52692 -1379.0261 650 9.9632993e-39
323.20599 -1366.1704 650 7.9255942e-39
315.54559 -1359.7424 650 6.6337792e-39
300.22467 -1346.8867 650 8.1056582e-39
292.56421 -1340.4587 650 1.224943e-38
277.24329 -1327.603 650 1.2162252e-38
269.58289 -1321.1753 650 9.4867976e-39
254.26196 -1308.3195 650 9.8534165e-39
240.17365 -1309.5521 650 1.1514716e-38
226.08533 -1310.7847 660 1.290737e-38
200.37384 -1341.4265 670 1.6414076e-38
168.2345 -1379.7288 680 1.7798447e-38
154.14618 -1380.9612 680 1.871607e-38
132.3974 -1375.7661 680 1.7429684e-38
117.07654 -1362.9102 680 1.604421e-38
115.84393 -1348.822 680 1.6226085e-38
94.095154 -1343.6267 680 1.659919e-38
86.434692 -1337.1987 680 1.4942207e-38
71.113831 -1324.343 690 1.3192995e-38
57.025513 -1325.5757 690 1.4298248e-38
35.276733 -1320.3804 690 1.6414084e-38
27.616272 -1313.9524 690 1.5680489e-38
7.1000977 -1322.8455 700 1.3655775e-38
182.68005 -895.79553 580 1.4297182e-38
181.44751 -881.70715 580 1.5679755e-38
172.55444 -861.19104 580 1.6142534e-38
164.89404 -854.76318 570 1.3001432e-38
157.23358 -848.33533 580 6.2700553e-39
136.71735 -857.22827 580 2.7673164e-39
104.578 -895.53052 590 2.9506329e-39
46.727173 -964.47461 620 5.4359436e-39
14.58783 -1002.7769 630 1.1706677e-38
-13.588806 -1005.2421 630 1.6140727e-38
-34.10498 -1014.135 640 1.6691754e-38
-54.621155 -1023.0281 640 1.7340354e-38
-68.709473 -1024.2606 650 1.9827827e-38
-90.458252 -1019.0653 650 2.0750875e-38
-104.54663 -1020.298 650 2.1579547e-38
-118.63489 -1021.5305 660 2.1395517e-38
-140.38367 -1016.3352 660 2.1302245e-38
-154.47205 -1017.5677 660 2.1485917e-38
-194.27185 -1049.4421 670 2.1208976e-38
-356.20117 -1226.8651 740 2.1579188e-38
-371.52197 -1214.0094 740 2.0931676e-38
-386.8429 -1201.1537 740 1.992184e-38
-407.35913 -1210.0466 740 1.9088834e-38
-143.55151 -817.86621 620 1.8350187e-38
-146.0166 -789.68958 610 1.8254012e-38
-147.24915 -775.6012 610 1.7611881e-38
-149.71436 -747.42456 610 1.7887736e-38
-150.9469 -733.3363 600 1.7335291e-38
-159.83997 -712.82007 600 1.7242378e-38
-167.50037 -706.39221 600 1.7242019e-38
-176.39343 -685.87598 600 1.6593061e-38
-177.62598 -671.78772 600 1.0601781e-38
-185.2865 -665.35986 590 4.6990947e-39
-200.60742 -652.50403 600 3.5949093e-39
-92.566162 -508.18811 550 3.0428131e-39
-113.0824 -517.08118 550 3.2261226e-39
-133.59851 -525.97412 560 3.2261254e-39
-147.68689 -527.20679 560 3.0417369e-39
-155.34729 -520.77893 560 3.1339269e-39
-163.00781 -514.35107 560 3.224682e-39
-184.75659 -509.15576 570 2.8584205e-39
-198.84485 -510.38831 570 2.6725929e-39
-193.64954 -488.63953 560 2.1208582e-39
-221.82617 -491.10474 570 2.2126937e-39
-282.14221 -531.87207 590 2.4896421e-39
-296.23047 -533.10474 590 2.6743907e-39
-310.31885 -534.33728 590 2.8594967e-39
-325.63977 -521.48157 590 3.5945464e-39
-326.87231 -507.39319 590 3.8707717e-39
-334.53271 -500.96533 590 3.9618883e-39
-343.42578 -480.4491 580 3.2254051e-39
-331.80261 -451.03992 580 3.8722108e-39
-326.6073 -429.29114 570 7.7397358e-39
-334.26782 -422.86328 570 1.1328516e-38
-335.50037 -408.77502 570 1.1513269e-38
-343.16077 -402.34705 570 1.1972802e-38
-358.48169 -389.49133 570 1.1144489e-38
-366.14221 -383.06348 570 1.2432338e-38
-373.80261 -376.63562 570 1.4456678e-38
-381.46301 -370.20776 570 1.5010559e-38
-396.78394 -357.35205 570 1.6667191e-38
-391.58862 -335.60327 570 1.7312556e-38
-399.24915 -329.17542 560 1.804724e-38
-400.48169 -315.08704 560 1.7956125e-38
-408.14221 -308.65918 560 1.7957201e-38
-423.46301 -295.80347 560 1.6119412e-38
-437.55139 -297.03601 560 1.2441675e-38
-465.72803 -299.50122 570 7.0122292e-39
-479.81628 -300.73376 570 3.7843354e-39
-495.13721 -287.87805 570 3.5956282e-39
-509.22559 -289.1106 580 3.227203e-39
-524.54639 -276.25488 580 3.0424586e-39
-538.63477 -277.48743 580 3.0424544e-39
-539.86731 -263.39911 580 2.6743977e-39
-561.61609 -258.2038 580 2.7680227e-39
-562.84875 -244.11548 580 2.8602183e-39
-570.50916 -237.68762 570 2.8598624e-39
-598.68579 -240.15277 580 2.6744019e-39
-614.00671 -227.29706 580 2.7644354e-39
-628.09497 -228.52966 580 2.7647913e-39
-649.84375 -223.33435 580 2.397092e-39
-678.02039 -225.7995 590 2.4889303e-39
-720.2854 -229.49725 600 2.3048978e-39
-754.88989 -239.62286 610 2.3059711e-39
-770.21082 -226.76709 610 2.3052579e-39
-285.21765 71.195496 470 7.284161e-39
-292.87817 77.623352 460 5.9927117e-39
-286.45032 85.283813 460 1.0141533e-39
-294.11072 91.71167 460 9.2123603e-40
-295.34326 105.79999 460 1.1981817e-39
-296.57593 119.88831 460 1.3822142e-39
-290.14807 127.54877 460 1.3825757e-39
607.17261 -1447.7974 600 1.8725111e-38
593.08423 -1449.03 610 1.927505e-38
585.42383 -1442.6021 610 1.7986124e-38
571.33551 -1443.8347 610 1.8170864e-38
558.47974 -1459.1555 610 1.7894998e-38
537.96356 -1468.0486 620 1.7892478e-38
525.10779 -1483.3696 620 1.7338958e-38
511.0195 -1484.6021 630 1.6604259e-38
503.35907 -1478.1743 630 1.6788657e-38
489.27075 -1479.4067 630 1.6882992e-38
467.52197 -1474.2117 630 1.6511337e-38
459.86151 -1467.7837 630 1.623296e-38
444.54062 -1454.928 630 1.7247826e-38
430.4523 -1456.1604 630 1.8261989e-38
416.36398 -1457.3931 640 1.8446019e-38
408.70355 -1450.9653 640 1.8446019e-38
393.38263 -1438.1094 640 1.7708455e-38
378.06177 -1425.2537 640 1.623691e-38
376.82916 -1411.1655 630 1.5406433e-38
361.50824 -1398.3096 630 1.5497907e-38
352.61523 -1377.7935 630 1.4022429e-38
344.95477 -1371.3657 630 1.0149124e-38
323.20599 -1366.1704 630 8.3905436e-39
315.54559 -1359.7424 630 9.215261e-39
300.22467 -1346.8867 640 8.7553562e-39
292.56421 -1340.4587 640 1.0044641e-38
277.24329 -1327.603 630 1.0230484e-38
269.58289 -1321.1753 640 1.0229762e-38
247.83411 -1315.98 640 1.1792739e-38
234.97833 -1331.3008 640 1.2346988e-38
213.22961 -1326.1055 640 1.3830416e-38
195.17853 -1363.1753 660 1.6784298e-38
161.80664 -1387.3892 660 1.7802037e-38
147.71832 -1388.6218 670 1.7983561e-38
133.63 -1389.8542 670 1.7430396e-38
118.30908 -1376.9985 670 1.7246718e-38
104.22076 -1378.2312 670 1.5677595e-38
88.899902 -1365.3755 670 1.4479058e-38
73.578979 -1352.5198 670 1.4385432e-38
65.918518 -1346.0918 670 1.2545106e-38
44.169739 -1340.8965 670 1.2638015e-38
36.509277 -1334.4688 680 1.3559607e-38
27.616272 -1313.9524 670 1.4665974e-38
7.1000977 -1322.8455 680 1.4391552e-38
182.68005 -895.79553 570 1.4578463e-38
181.44751 -881.70715 560 1.5679759e-38
172.55444 -861.19104 560 1.420356e-38
164.89404 -854.76318 560 8.1161175e-39
163.66144 -840.6748 560 2.6744103e-39
141.91266 -835.47949 560 2.4903764e-39
35.104004 -993.88379 610 2.2137853e-39
-11.123657 -1033.4187 620 4.2392039e-39
-25.211975 -1034.6512 630 1.0692911e-38
-39.300293 -1035.8838 630 1.6415162e-38
-61.049072 -1030.6885 630 1.7338563e-38
-75.13739 -1031.9211 640 1.9552687e-38
-89.225708 -1033.1537 640 2.0751233e-38
-110.97449 -1027.9584 640 2.1393723e-38
-125.06274 -1029.1909 640 2.14852e-38
-146.81152 -1023.9957 640 2.111714e-38
-154.47205 -1017.5677 650 2.1208609e-38
-189.07654 -1027.6934 650 2.1026021e-38
-235.3042 -1067.2283 670 2.1392288e-38
-358.66626 -1198.6885 710 2.056576e-38
-393.27075 -1208.8141 720 2.0009361e-38
-407.35913 -1210.0466 720 1.9363977e-38
-143.55151 -817.86621 610 1.8994103e-38
-146.0166 -789.68958 600 1.8165067e-38
-148.48181 -761.51294 600 1.7794824e-38
-149.71436 -747.42456 590 1.760972e-38
-157.37476 -740.9967 590 1.6967948e-38
-166.26782 -720.48047 590 1.7701555e-38
-167.50037 -706.39221 590 1.7517893e-38
-176.39343 -685.87598 590 1.3090353e-38
-177.62598 -671.78772 580 6.2646407e-39
-178.85864 -657.69934 580 3.4105208e-39
-72.049988 -499.29504 530 2.8584261e-39
-79.710449 -492.86719 530 3.2257596e-39
-132.36597 -540.0625 550 3.0420886e-39
-146.45435 -541.29504 550 3.134643e-39
-179.82617 -565.50903 560 3.3175979e-39
-174.63098 -543.76025 560 3.4105138e-39
-175.86353 -529.67188 550 3.4097992e-39
-191.18445 -516.81616 550 2.9506119e-39
-198.84485 -510.38831 550 2.5811161e-39
-200.07739 -496.29993 550 2.4892764e-39
-228.25403 -498.76514 560 2.3967234e-39
-288.57007 -539.53259 570 2.2123322e-39
-302.65833 -540.76514 580 2.3952843e-39
-310.31885 -534.33728 580 2.1197736e-39
-325.63977 -521.48157 580 2.3038103e-39
-333.30017 -515.05371 580 2.3963661e-39
-334.53271 -500.96533 580 2.8562667e-39
-349.85364 -488.10962 570 3.4108712e-39
-338.23047 -458.70032 570 6.2653259e-39
-333.03516 -436.95166 560 9.2105456e-39
-334.26782 -422.86328 560 1.0683514e-38
-341.92822 -416.43542 560 1.1327095e-38
-363.677 -411.24011 560 1.1513273e-38
-377.76538 -412.47266 560 1.1880969e-38
-418.79773 -430.25879 570 1.2524176e-38
-446.97437 -432.72388 580 1.307591e-38
-468.72314 -427.52869 580 1.3629793e-38
-396.78394 -357.35205 560 1.3812753e-38
-398.0166 -343.26367 550 1.4087894e-38
-399.24915 -329.17542 550 1.4364114e-38
-400.48169 -315.08704 550 1.4455588e-38
-401.71423 -300.99878 550 1.3536518e-38
-402.9469 -286.9104 540 1.3812019e-38
-431.12354 -289.37561 550 1.4364471e-38
-451.63965 -298.26855 550 1.5010189e-38
-479.81628 -300.73376 560 1.547116e-38
-501.56506 -295.53845 560 1.5194949e-38
-529.7417 -298.00366 570 1.252812e-38
-537.40222 -291.57581 570 7.097239e-39
-545.06262 -285.14789 570 3.2268498e-39
-553.95569 -264.63171 560 2.8591435e-39
-561.61609 -258.2038 560 2.9516951e-39
-562.84875 -244.11548 560 3.0449683e-39
-570.50916 -237.68762 560 2.7676682e-39
-592.25793 -232.49237 560 2.6736775e-39
-606.34619 -233.72491 570 2.398171e-39
-621.66711 -220.8692 570 2.5811203e-39
-635.75549 -222.10175 570 2.6725985e-39
-657.50427 -216.90649 570 2.397092e-39
-693.34131 -212.94379 580 2.3967332e-39
-721.51794 -215.40894 580 2.3967361e-39
-743.26672 -210.21362 580 2.304895e-39
-285.21765 71.195496 460 8.1167915e-39
-292.87817 77.623352 460 6.2674994e-39
-294.11072 91.71167 450 1.1059874e-39
-294.11072 91.71167 450 6.4572814e-40
-295.34326 105.79999 450 9.219549e-40
-296.57593 119.88831 450 1.1981831e-39
-290.14807 127.54877 450 1.3814953e-39
584.19128 -1428.5139 590 1.7618052e-38
570.10291 -1429.7463 590 1.7890684e-38
563.67505 -1437.4067 600 1.7062722e-38
544.39148 -1460.3882 600 1.7430075e-38
523.87524 -1469.2812 610 1.7430777e-38
509.78693 -1470.5139 610 1.7432223e-38
502.1265 -1464.0859 610 1.6696098e-38
481.61029 -1472.979 610 1.6696822e-38
467.52197 -1474.2117 620 1.6880497e-38
459.86151 -1467.7837 620 1.6605702e-38
445.77319 -1469.0164 620 1.7155988e-38
431.68488 -1470.2488 620 1.7799215e-38
411.1687 -1479.1418 630 1.7803522e-38
391.88507 -1502.1233 630 1.8078677e-38
379.02936 -1517.4441 640 1.7434382e-38
363.70844 -1504.5884 640 1.5776643e-38
360.01068 -1462.3235 630 1.4852172e-38
356.31299 -1420.0583 620 1.5404987e-38
352.61523 -1377.7935 620 1.3746554e-38
338.52692 -1379.0261 620 1.4205372e-38
323.20599 -1366.1704 620 1.4944716e-38
315.54559 -1359.7424 620 1.4482663e-38
301.45721 -1360.9751 620 1.1902273e-38
287.3689 -1362.2075 620 9.0431115e-39
278.47589 -1341.6914 620 8.2173025e-39
264.38757 -1342.9241 620 1.1252195e-38
242.63879 -1337.7288 630 1.4655863e-38
223.35522 -1360.71 630 1.3456592e-38
202.83899 -1369.603 640 1.4475073e-38
182.32281 -1378.4961 640 1.7152727e-38
161.80664 -1387.3892 650 1.7984281e-38
154.14618 -1380.9612 650 1.8442751e-38
132.3974 -1375.7661 650 1.7616932e-38
124.73694 -1369.3381 650 1.678503e-38
109.41608 -1356.4824 650 1.586451e-38
95.327759 -1357.7151 650 1.6047828e-38
80.006836 -1344.8591 650 1.5773031e-38
58.258057 -1339.6641 660 1.522022e-38
50.597595 -1333.2361 660 1.4667774e-38
36.509277 -1334.4688 660 1.4757808e-38
21.188416 -1321.6128 660 1.4389735e-38
-18.611389 -1353.4873 670 1.4387934e-38
183.91266 -909.88391 550 1.4939321e-38
181.44751 -881.70715 550 1.4755646e-38
172.55444 -861.19104 550 1.1346218e-38
164.89404 -854.76318 550 5.7179591e-39
157.23358 -848.33533 550 2.2137909e-39
148.34052 -827.81909 550 2.2130693e-39
35.104004 -993.88379 600 2.4892932e-39
-9.8910522 -1047.507 610 2.398178e-39
-31.639832 -1042.3116 620 3.2268484e-39
-45.728149 -1043.5443 620 8.7582191e-39
-59.816467 -1044.7769 620 1.6687765e-38
-87.993103 -1047.2419 620 1.909028e-38
-95.653564 -1040.8141 630 2.0746916e-38
-117.40234 -1035.6189 630 2.1303681e-38
-131.4906 -1036.8514 630 2.1028175e-38
-153.23938 -1031.6561 630 2.1118575e-38
-167.32776 -1032.8887 630 2.1391929e-38
-189.07654 -1027.6934 640 2.157452e-38
-222.44849 -1051.9073 650 2.0934187e-38
-249.39246 -1068.4608 650 2.0658676e-38
-352.2384 -1191.0281 690 2.1023511e-38
-386.8429 -1201.1537 700 2.0011519e-38
-413.78699 -1217.7072 710 1.9455816e-38
-149.97937 -825.52661 590 1.8902985e-38
-152.44446 -797.34998 590 1.7519333e-38
-147.24915 -775.6012 580 1.6965075e-38
-156.14221 -755.08508 580 1.6966518e-38
-163.80273 -748.6571 580 1.7243453e-38
-166.26782 -720.48047 580 1.7240583e-38
-173.92834 -714.05261 580 1.5581066e-38
-182.82129 -693.5365 570 9.3117656e-39
-184.05396 -679.44812 570 4.055886e-39
-178.85864 -657.69934 570 3.5034311e-39
-200.60742 -652.50403 570 3.3175993e-39
-201.83997 -638.41577 570 3.1342843e-39
-151.64954 -563.04382 540 3.2261226e-39
-165.73792 -564.27637 550 3.226124e-39
-179.82617 -565.50903 550 3.2264785e-39
-168.203 -536.09973 540 3.2264841e-39
-175.86353 -529.67188 540 3.3176049e-39
-191.18445 -516.81616 540 2.7658661e-39
-198.84485 -510.38831 540 2.3048921e-39
-200.07739 -496.29993 540 1.751717e-39
-241.10986 -514.08606 550 1.5662453e-39
-294.99792 -547.19299 560 1.7506366e-39
-302.65833 -540.76514 560 1.4747713e-39
-310.31885 -534.33728 560 1.4747699e-39
-325.63977 -521.48157 560 1.8428308e-39
-333.30017 -515.05371 560 2.1194191e-39
-340.96057 -508.62573 560 2.397085e-39
-349.85364 -488.10962 560 4.0537224e-39
-344.65833 -466.36084 550 5.9873097e-39
-339.46313 -444.61206 550 8.1042009e-39
-334.26782 -422.86328 550 9.4846158e-39
-348.35608 -424.09583 550 9.854113e-39
-376.53271 -426.56104 550 1.0497326e-38
-384.19324 -420.13318 550 1.058952e-38
-439.31384 -439.15173 570 1.1141253e-38
-493.20203 -472.25879 580 1.1419991e-38
-356.98413 -325.47766 530 1.2063197e-38
-410.87231 -358.58459 550 1.2339062e-38
-405.677 -336.83582 540 1.1970636e-38
-413.3374 -330.40796 540 1.0497313e-38
-414.57007 -316.31958 540 9.3002119e-39
-429.89087 -303.46387 540 8.7477528e-39
-443.97925 -304.69641 540 9.3009238e-39
-445.21179 -290.60815 540 1.022396e-38
-479.81628 -300.73376 550 1.1789484e-38
-501.56506 -295.53845 550 1.3536151e-38
-523.31384 -290.34314 550 1.3721257e-38
-530.97437 -283.91528 550 1.4272271e-38
-538.63477 -277.48743 550 1.3906719e-38
-533.43945 -255.73865 550 1.1330298e-38
-541.09998 -249.31079 550 6.2685573e-39
-556.42078 -236.45508 550 3.9622485e-39
-564.0813 -230.02716 550 3.6845854e-39
-578.16956 -231.25977 550 2.7665948e-39
-593.49048 -218.40405 550 2.7662332e-39
-615.23926 -213.20874 550 2.5822021e-39
-629.32764 -214.44128 550 2.5811245e-39
-644.64844 -201.58557 550 2.4892848e-39
-658.73682 -202.81818 560 2.3052509e-39
-680.4856 -197.62286 560 2.304895e-39
-702.23438 -192.42755 560 2.2127007e-39
-285.21765 71.195496 450 6.915017e-39
-306.96643 76.390808 450 2.4878513e-39
-294.11072 91.71167 440 8.301208e-40
-301.77124 98.139587 440 8.2868447e-40
-295.34326 105.79999 440 1.0137904e-39
-282.48755 121.12091 440 1.6587983e-39
-283.72021 135.20923 440 1.6591584e-39
561.2099 -1409.2302 580 2.010695e-38
541.92627 -1432.2117 580 1.9284018e-38
529.07056 -1447.5325 590 1.974176e-38
521.4101 -1441.1045 590 1.8823405e-38
512.51709 -1420.5884 590 1.8914165e-38
492.00089 -1429.4814 590 1.8729776e-38
479.14514 -1444.8022 590 1.8730135e-38
465.05682 -1446.0349 600 1.9004207e-38
450.96851 -1447.2676 600 1.8450324e-38
430.4523 -1456.1604 600 1.835526e-38
417.59656 -1471.4814 610 1.8636865e-38
403.50824 -1472.7141 610 1.817697e-38
389.41992 -1473.9465 610 1.771564e-38
372.86646 -1447.0024 610 1.6980597e-38
363.97345 -1426.4863 610 1.6238371e-38
355.08038 -1405.9702 610 1.5041983e-38
346.18738 -1385.4539 600 1.3745474e-38
332.09906 -1386.6865 610 1.5124799e-38
312.81543 -1409.668 610 1.9091736e-38
287.10394 -1440.3096 620 2.1856488e-38
267.82037 -1463.291 630 1.7799205e-38
253.73199 -1464.5237 630 1.7336398e-38
231.98328 -1459.3284 630 2.0659398e-38
223.09021 -1438.812 630 2.1118217e-38
214.1972 -1418.2959 630 2.0379945e-38
200.10889 -1419.5286 630 1.5493937e-38
192.44843 -1413.1006 630 1.3649646e-38
177.1275 -1400.2449 630 1.7429667e-38
161.80664 -1387.3892 630 1.8260865e-38
147.71832 -1388.6218 630 1.7705555e-38
125.96954 -1383.4265 640 1.7244927e-38
118.30908 -1376.9985 640 1.6326561e-38
102.98822 -1364.1428 640 1.6601357e-38
95.327759 -1357.7151 640 1.5865951e-38
73.578979 -1352.5198 640 1.5494662e-38
59.490662 -1353.7522 640 1.5403531e-38
44.169739 -1340.8965 640 1.5125155e-38
36.509277 -1334.4688 640 1.5491053e-38
14.760559 -1329.2734 640 1.4390472e-38
-10.950928 -1359.9153 650 1.4571968e-38
183.91266 -909.88391 540 1.4847475e-38
187.87537 -874.04675 540 1.4201023e-38
172.55444 -861.19104 530 9.8685618e-39
171.3219 -847.10266 530 3.6896553e-39
156.00098 -834.24695 530 2.1215939e-39
161.19629 -812.49817 530 2.2127063e-39
147.10797 -813.73083 530 2.1215939e-39
-9.8910522 -1047.507 600 2.1215911e-39
-36.835144 -1064.0604 600 2.4900107e-39
-58.583862 -1058.8651 610 2.9509888e-39
-79.100098 -1067.7582 610 8.2961591e-39
-94.420959 -1054.9025 610 1.7422092e-38
-108.50928 -1056.135 610 2.1391201e-38
-122.59766 -1057.3676 610 2.1484482e-38
-137.91846 -1044.5118 620 2.1393003e-38
-159.66724 -1039.3165 620 2.1486994e-38
-167.32776 -1032.8887 620 2.0843069e-38
-189.07654 -1027.6934 620 2.065868e-38
-203.16479 -1028.926 620 2.0471063e-38
-223.68103 -1037.819 630 2.0379933e-38
-258.28552 -1047.9446 640 2.0285945e-38
-373.98718 -1185.8328 680 1.9273589e-38
-413.78699 -1217.7072 690 1.8994836e-38
-143.55151 -817.86621 580 1.8255826e-38
-146.0166 -789.68958 570 1.8069634e-38
-147.24915 -775.6012 570 1.7059416e-38
-156.14221 -755.08508 570 1.7334934e-38
-163.80273 -748.6571 570 1.7426046e-38
-166.26782 -720.48047 560 1.7239847e-38
-173.92834 -714.05261 560 1.3368735e-38
-182.82129 -693.5365 560 6.5448247e-39
-184.05396 -679.44812 560 3.2268428e-39
-178.85864 -657.69934 550 3.0424516e-39
-194.17957 -644.84363 550 3.1332081e-39
-182.5564 -615.43445 550 3.8696899e-39
-151.64954 -563.04382 530 3.4115886e-39
-165.73792 -564.27637 530 3.3172378e-39
-173.39832 -557.84851 530 3.5016319e-39
-168.203 -536.09973 530 3.5027081e-39
-175.86353 -529.67188 530 3.4108754e-39
-191.18445 -516.81616 530 3.2264841e-39
-198.84485 -510.38831 530 2.8577044e-39
-206.50525 -503.96045 530 2.5803986e-39
-260.39343 -537.06738 540 2.119782e-39
-288.57007 -539.53259 550 1.5673285e-39
-302.65833 -540.76514 550 1.1067105e-39
-310.31885 -534.33728 550 1.0145107e-39
-325.63977 -521.48157 550 1.1981803e-39
-333.30017 -515.05371 550 1.6587983e-39
-340.96057 -508.62573 550 2.0265046e-39
-349.85364 -488.10962 550 2.7629822e-39
-344.65833 -466.36084 540 3.9608009e-39
-345.89099 -452.27246 540 4.9731564e-39
-334.26782 -422.86328 530 6.0780592e-39
-362.44446 -425.32849 540 6.8141837e-39
-376.53271 -426.56104 540 7.5506656e-39
-384.19324 -420.13318 540 7.7361358e-39
-439.31384 -439.15173 550 8.287146e-39
-847.4375 -723.29102 670 9.7601111e-39
-896.13037 -734.64929 670 1.0036346e-38
-410.87231 -358.58459 530 1.0589873e-38
-412.10486 -344.49622 530 1.1050839e-38
-427.42578 -331.6405 530 1.1786244e-38
-428.65833 -317.55225 530 1.1970989e-38
-429.89087 -303.46387 530 1.2431242e-38
-458.0675 -305.92908 530 1.4088236e-38
-465.72803 -299.50122 530 1.5376452e-38
-500.33252 -309.62683 540 1.4824722e-38
-507.99292 -303.19897 540 1.3904579e-38
-321.84973 -159.14795 480 1.3537949e-38
-537.40222 -291.57581 540 1.2985855e-38
-532.20691 -269.82697 530 1.2338691e-38
-479.55139 -222.63171 520 1.2063543e-38
-528.24414 -233.98987 530 1.2246858e-38
-542.33252 -235.22247 530 1.2891129e-38
-549.99292 -228.79462 530 1.2066057e-38
-565.31384 -215.93884 530 9.2148462e-39
-579.40222 -217.17145 530 5.1640189e-39
-601.151 -211.97614 540 2.950263e-39
-649.84375 -223.33435 540 2.6736733e-39
-657.50427 -216.90649 540 2.4896407e-39
-652.30896 -195.15771 540 2.5807574e-39
-653.5415 -181.0694 540 2.3967361e-39
-412.27759 -17.999756 470 2.1212212e-39
-419.93799 -11.571899 470 1.8446329e-39
-407.08228 3.7490234 470 5.993418e-39
-305.73389 62.30249 440 8.2965137e-39
-333.91052 59.837341 450 2.8566324e-39
-321.05481 75.158203 440 8.2940054e-40
-308.1991 90.479126 440 7.3756504e-40
-274.82715 114.69305 430 1.19746e-39
-283.72021 135.20923 420 3.6802624e-39
-297.80847 133.97668 430 1.0119911e-39
539.46112 -1404.0349 560 1.4559733e-38
514.98224 -1448.7651 570 1.5664646e-38
517.71234 -1398.8396 570 1.7322734e-38
502.39145 -1385.9839 570 2.0270124e-38
494.73102 -1379.5559 570 2.2573951e-38
479.4101 -1366.7002 570 2.3499841e-38
471.74966 -1360.2725 570 2.3509886e-38
457.66135 -1361.5049 570 2.3509886e-38
438.37772 -1384.4863 570 2.3509886e-38
417.86154 -1393.3794 580 2.3509886e-38
408.96851 -1372.8633 580 2.3509886e-38
401.30804 -1366.4353 580 2.240786e-38
385.98718 -1353.5796 580 1.9101782e-38
373.13141 -1368.9004 580 1.6163046e-38
359.04309 -1370.1331 580 1.4501393e-38
338.52692 -1379.0261 590 1.5229956e-38
318.01074 -1387.9192 590 1.7897139e-38
287.10394 -1440.3096 610 1.9920766e-38
266.58777 -1449.2026 610 2.1121445e-38
252.49945 -1450.4353 610 2.0014397e-38
238.41113 -1451.668 610 1.964489e-38
223.09021 -1438.812 620 1.88137e-38
215.42975 -1432.3843 620 1.7889933e-38
201.34143 -1433.6169 620 1.4576647e-38
179.59271 -1428.4216 620 1.4023117e-38
165.50439 -1429.6541 620 1.7895702e-38
150.18347 -1416.7983 620 1.8264478e-38
136.09515 -1418.031 630 1.7713825e-38
122.00684 -1419.2634 630 1.68837e-38
106.68591 -1406.4077 630 1.6974105e-38
104.22076 -1378.2312 620 1.6881541e-38
95.327759 -1357.7151 620 1.6695724e-38
73.578979 -1352.5198 620 1.6696803e-38
65.918518 -1346.0918 620 1.6601731e-38
50.597595 -1333.2361 620 1.5959953e-38
28.848877 -1328.0408 620 1.6142901e-38
14.760559 -1329.2734 630 1.5771236e-38
0.67224121 -1330.5059 630 1.6228977e-38
183.91266 -909.88391 530 1.6415176e-38
187.87537 -874.04675 520 1.4849281e-38
185.41022 -845.87012 520 8.7611422e-39
177.74976 -839.44226 520 2.490389e-39
175.28461 -811.26562 510 1.9379187e-39
166.39154 -790.74939 510 1.846086e-39
165.159 -776.66113 510 2.0297514e-39
-36.835144 -1064.0604 590 2.2148643e-39
-63.779175 -1080.6139 600 2.3988983e-39
-85.527954 -1075.4186 600 2.8587918e-39
-99.616211 -1076.6512 600 8.1110476e-39
-121.36499 -1071.4559 600 1.7332773e-38
-129.02551 -1065.0281 600 2.102674e-38
-144.34644 -1052.1724 600 2.1025305e-38
-152.00684 -1045.7445 600 2.0749789e-38
-167.32776 -1032.8887 600 2.056469e-38
-182.64868 -1020.033 600 2.0288455e-38
-196.73694 -1021.2655 600 1.9917864e-38
-218.48572 -1016.0703 610 1.9640571e-38
-239.00195 -1024.9633 610 1.9089195e-38
-408.59167 -1195.9584 670 1.7521502e-38
-143.55151 -817.86621 560 1.7520407e-38
-146.0166 -789.68958 560 1.7149107e-38
-147.24915 -775.6012 550 1.6687761e-38
-156.14221 -755.08508 550 1.6689912e-38
-157.37476 -740.9967 550 1.6230013e-38
-166.26782 -720.48047 550 1.6320419e-38
-167.50037 -706.39221 550 1.1155318e-38
-182.82129 -693.5365 540 4.4236036e-39
-184.05396 -679.44812 540 3.0420914e-39
-172.43079 -650.03894 540 3.1342857e-39
-174.89587 -621.8623 530 3.133571e-39
-143.98914 -569.47168 520 3.043169e-39
-145.22168 -555.38342 520 3.1346472e-39
-159.31006 -556.61597 520 3.2257624e-39
-173.39832 -557.84851 520 2.9506189e-39
-161.77515 -528.43933 510 3.3172378e-39
-175.86353 -529.67188 510 3.1342899e-39
-191.18445 -516.81616 520 3.2254065e-39
-192.41699 -502.72791 510 2.9498958e-39
-212.93323 -511.62085 520 2.580393e-39
-273.24915 -552.38831 530 2.2130538e-39
-288.57007 -539.53259 530 2.120138e-39
-302.65833 -540.76514 540 1.5673313e-39
-310.31885 -534.33728 540 1.1070678e-39
-325.63977 -521.48157 540 8.2975927e-40
-333.30017 -515.05371 540 9.219549e-40
-334.53271 -500.96533 530 1.1056245e-39
-349.85364 -488.10962 530 1.2892983e-39
-351.08618 -474.02124 530 1.7502736e-39
-358.7467 -467.59338 530 2.3942053e-39
-340.69568 -430.52368 520 3.1314046e-39
-388.15588 -455.97021 530 3.6835022e-39
-409.90466 -450.7749 540 3.9608065e-39
-398.28149 -421.36572 530 4.9731522e-39
-850.1676 -773.21643 660 5.7096396e-39
-871.91638 -768.02112 660 6.6294351e-39
-893.66516 -762.82593 660 7.0907678e-39
-908.98608 -749.97009 660 7.8268923e-39
-917.87915 -729.45398 660 8.1038309e-39
-433.85364 -339.30103 520 8.7473955e-39
-447.94189 -340.53357 520 8.5633671e-39
-449.17456 -326.44519 520 9.2994846e-39
-504.29529 -345.46387 530 1.012673e-38
-552.98804 -356.82202 540 1.0957563e-38
-560.64856 -350.39417 540 1.1325628e-38
-582.39722 -345.19885 540 1.1232719e-38
-307.76135 -157.91534 470 1.0681341e-38
-302.56616 -136.16656 460 1.0220722e-38
-506.49536 -239.18518 510 1.0680258e-38
-555.18823 -250.5434 520 1.0587342e-38
-569.27661 -251.77594 530 1.0405102e-38
-564.0813 -230.02716 520 1.0864643e-38
-571.7417 -223.5993 520 1.1231985e-38
-587.06262 -210.74359 520 1.1601843e-38
-615.23926 -213.20874 530 1.2152133e-38
-656.27161 -230.99481 530 1.1603637e-38
-671.59253 -218.13904 530 1.0592369e-38
-658.73682 -202.81818 530 7.4660061e-39
-659.96936 -188.72986 530 4.8002614e-39
-404.61707 -24.427612 460 1.160688e-38
-419.93799 -11.571899 460 1.0407624e-38
-427.59851 -5.144043 460 6.9967659e-39
-394.22656 19.069885 450 2.9452127e-39
-401.88696 25.497803 450 1.7499163e-39
-382.60339 48.479126 440 9.219577e-40
-308.1991 90.479126 430 8.2868167e-40
-290.14807 127.54877 420 5.6095183e-39
-324.75256 117.42316 420 1.5630027e-39
500.62894 -1528.0996 570 6.8246514e-39
482.57791 -1565.1694 580 7.1934367e-39
477.64758 -1508.8162 580 7.4696677e-39
462.32669 -1495.9602 570 7.5622277e-39
416.89392 -1301.189 550 8.670013e-39
408.00092 -1280.6729 550 8.763282e-39
388.71729 -1303.6542 550 8.7622058e-39
368.20111 -1312.5471 560 8.6707276e-39
355.34534 -1327.8682 560 8.855479e-39
340.02448 -1315.0125 560 9.3135831e-39
319.5083 -1323.9053 570 9.4976016e-39
306.65253 -1339.2263 570 9.7720417e-39
286.13635 -1348.1194 570 1.0599984e-38
272.04803 -1349.3518 580 1.1886042e-38
251.53186 -1358.2449 580 1.4920225e-38
232.24823 -1381.2263 590 1.7499191e-38
206.53674 -1411.8682 600 1.9990279e-38
186.02057 -1420.761 600 2.248712e-38
165.50439 -1429.6541 610 2.3048197e-38
150.18347 -1416.7983 610 2.240786e-38
142.52301 -1410.3706 610 2.0020137e-38
120.77423 -1405.1753 610 1.6897012e-38
100.25806 -1414.0684 610 1.4774028e-38
84.937134 -1401.2124 610 1.3846285e-38
77.276733 -1394.7847 610 1.4017352e-38
56.760498 -1403.6777 620 1.5020325e-38
41.439636 -1390.822 620 1.7506368e-38
20.923462 -1399.7148 620 1.926242e-38
18.458252 -1371.5383 620 1.8811167e-38
-9.7183838 -1374.0034 620 1.8080438e-38
12.295349 -1301.0967 610 1.7802061e-38
195.53583 -880.47461 510 1.5865582e-38
193.07068 -852.29797 500 1.3188347e-38
190.60547 -824.12134 500 7.3807217e-39
189.37292 -810.03308 500 2.1212296e-39
181.71246 -803.60522 500 1.9375614e-39
172.81946 -783.08899 500 2.0290395e-39
171.58685 -769.00061 490 1.8450056e-39
144.64282 -785.55408 500 2.1212324e-39
-65.01178 -1066.5256 580 2.3063383e-39
-91.955811 -1083.0791 580 2.6747565e-39
-106.04419 -1084.3116 590 2.5832867e-39
-127.79285 -1079.1163 590 8.0195695e-39
-135.45337 -1072.6885 590 1.7333123e-38
-150.77429 -1059.8328 590 2.1026011e-38
-158.43469 -1053.4049 590 2.0381379e-38
-173.75562 -1040.5492 590 1.9920046e-38
-189.07654 -1027.6934 590 1.955306e-38
-196.73694 -1021.2655 590 1.9641642e-38
-212.05786 -1008.4098 590 1.9366865e-38
-226.14612 -1009.6423 590 1.8533146e-38
-278.80176 -1056.8376 610 1.8070711e-38
-137.12354 -810.20569 540 1.6598815e-38
-139.58875 -782.02905 540 1.6229313e-38
-148.48181 -761.51294 540 1.6503725e-38
-149.71436 -747.42456 530 1.5766886e-38
-150.9469 -733.3363 530 1.63197e-38
-166.26782 -720.48047 530 1.5213002e-38
-167.50037 -706.39221 530 9.0355403e-39
-182.82129 -693.5365 530 3.2257694e-39
-177.62598 -671.78772 530 3.041374e-39
-146.71924 -619.39709 510 2.8569827e-39
-149.18445 -591.22046 510 2.7655046e-39
-150.41699 -577.1322 510 3.1342885e-39
-151.64954 -563.04382 510 3.4097978e-39
-165.73792 -564.27637 510 3.3183154e-39
-166.97046 -550.18811 510 3.3186755e-39
-168.203 -536.09973 500 3.1346472e-39
-175.86353 -529.67188 500 3.1342843e-39
-184.75659 -509.15576 500 2.7662262e-39
-185.98914 -495.06738 500 2.6733131e-39
-219.36108 -519.28137 510 2.3963689e-39
-273.24915 -552.38831 520 2.1205037e-39
-294.99792 -547.19299 520 2.488203e-39
-302.65833 -540.76514 520 2.0283053e-39
-310.31885 -534.33728 520 1.8442741e-39
-319.21191 -513.82104 520 1.3825785e-39
-326.87231 -507.39319 520 1.106349e-39
-334.53271 -500.96533 520 1.2903787e-39
-349.85364 -488.10962 520 1.107065e-39
-357.51416 -481.68176 520 1.2907374e-39
-392.11865 -491.80737 530 5.2562173e-39
-413.86743 -486.61206 530 1.3279751e-38
-866.98608 -824.37451 650 1.3836926e-38
-901.59058 -834.50012 660 7.0158782e-39
-896.39526 -812.75134 650 3.5023521e-39
-905.28833 -792.23511 650 3.9615198e-39
-914.1814 -771.71887 650 4.7891239e-39
-921.8418 -765.29102 650 5.0649863e-39
-924.30701 -737.11438 640 5.3397753e-39
-919.11169 -715.3656 640 5.524884e-39
-473.65344 -371.17529 520 5.9840629e-39
-508.25793 -381.3009 530 6.2606526e-39
-463.26282 -327.67786 510 6.2620903e-39
-497.86731 -337.80347 520 6.2610085e-39
-511.95569 -339.03601 520 6.8123817e-39
-554.22058 -342.73376 530 7.0893231e-39
-306.52881 -172.00366 460 7.4581084e-39
-334.70544 -174.46881 470 8.011994e-39
-329.51013 -152.72003 460 8.4718932e-39
-384.63086 -171.73871 470 8.3797004e-39
-438.51892 -204.84564 480 7.9198026e-39
-541.09998 -249.31079 510 8.2878593e-39
-562.84875 -244.11548 510 8.5633657e-39
-549.99292 -228.79462 500 8.6552026e-39
-571.7417 -223.5993 510 8.3789745e-39
-579.40222 -217.17145 510 8.5630028e-39
-615.23926 -213.20874 510 8.6559145e-39
-670.35999 -232.22736 520 9.1154465e-39
-678.02039 -225.7995 520 8.9314182e-39
-631.79272 -186.26465 510 9.7590153e-39
-639.45325 -179.83679 510 1.1049741e-38
-418.70544 -25.660217 450 1.0682767e-38
-419.93799 -11.571899 450 9.5785841e-39
-427.59851 -5.144043 450 6.81489e-39
-394.22656 19.069885 440 2.6707852e-39
-292.87817 77.623352 420 1.1981845e-39
-286.45032 85.283813 410 1.0137904e-39
-308.1991 90.479126 420 6.4536941e-40
-310.66418 118.65576 410 6.7115442e-39
-400.3894 89.511536 430 2.9412568e-39
512.25208 -1498.6904 550 9.1555503e-39
444.27567 -1533.03 570 6.8401946e-39
440.57791 -1490.7651 560 6.8351345e-39
431.68488 -1470.2488 560 6.2797887e-39
427.98715 -1427.9839 550 6.0935912e-39
413.8988 -1429.2166 560 6.1839736e-39
398.57794 -1416.3608 550 6.2743615e-39
385.72217 -1431.6816 560 6.1814428e-39
382.02448 -1389.4167 550 6.1800135e-39
367.93616 -1390.6492 560 6.0881738e-39
364.2384 -1348.3843 550 6.364039e-39
350.15009 -1349.6169 550 6.365111e-39
342.75458 -1265.0869 540 6.1803624e-39
313.08038 -1331.5659 550 6.3647495e-39
280.94104 -1369.8682 560 6.4580283e-39
261.65747 -1392.8494 570 7.0068819e-39
251.53186 -1358.2449 570 6.9154121e-39
243.8714 -1351.8171 570 7.2834688e-39
228.55048 -1338.9614 570 7.3774665e-39
213.22961 -1326.1055 570 7.3771091e-39
210.7644 -1297.929 560 7.6536918e-39
196.67609 -1299.1615 560 7.9299228e-39
169.73206 -1315.7151 570 7.838453e-39
150.44843 -1338.6963 580 8.2983536e-39
123.50439 -1355.2498 580 7.8402453e-39
115.84393 -1348.822 580 7.7498489e-39
94.095154 -1343.6267 590 7.2874358e-39
68.383667 -1374.2686 590 7.5618535e-39
53.062805 -1361.4126 590 8.570602e-39
45.402344 -1354.9849 590 1.0224724e-38
36.509277 -1334.4688 590 1.3168856e-38
-21.341553 -1403.4126 610 1.6945277e-38
186.37781 -938.06055 510 2.0632751e-38
195.53583 -880.47461 500 2.1657705e-38
193.07068 -852.29797 490 1.567473e-38
191.83807 -838.20972 490 5.7204843e-39
189.37292 -810.03308 490 2.0290395e-39
180.47986 -789.51685 480 1.8453685e-39
179.24731 -775.42847 480 1.7531673e-39
171.58685 -769.00061 480 1.6609717e-39
156.26593 -756.1449 480 1.7524484e-39
130.5545 -786.78674 490 2.2130665e-39
-85.527954 -1075.4186 570 2.3981738e-39
-118.8999 -1099.6326 580 2.3985339e-39
-126.5603 -1093.2047 580 2.7665948e-39
-141.88123 -1080.349 580 9.1259198e-39
-157.20215 -1067.4932 570 1.8346206e-38
-164.86255 -1061.0653 570 2.0745127e-38
-180.18347 -1048.2096 570 1.9827839e-38
-189.07654 -1027.6934 570 1.9640581e-38
-196.73694 -1021.2655 570 1.9087745e-38
-212.05786 -1008.4098 570 1.8442734e-38
-213.29041 -994.32153 570 1.7887765e-38
-247.8949 -1004.4471 580 1.7058006e-38
-125.50049 -780.79651 520 1.6504809e-38
-126.73303 -766.70813 520 1.6504097e-38
-135.6261 -746.19202 520 1.6135677e-38
-143.2865 -739.76416 520 1.5952717e-38
-150.9469 -733.3363 520 1.5215513e-38
-166.26782 -720.48047 520 1.383044e-38
-167.50037 -706.39221 520 7.9273962e-39
-182.82129 -693.5365 520 2.8584219e-39
-177.62598 -671.78772 510 2.9491798e-39
-140.29138 -611.73669 500 2.5811189e-39
-142.75659 -583.56006 490 2.8577002e-39
-143.98914 -569.47168 490 3.0417341e-39
-151.64954 -563.04382 490 3.3183168e-39
-159.31006 -556.61597 490 3.3183182e-39
-160.5426 -542.52771 490 3.5023493e-39
-161.77515 -528.43933 490 3.4097922e-39
-169.43567 -522.01147 490 3.3175979e-39
-184.75659 -509.15576 490 3.1332095e-39
-198.84485 -510.38831 490 2.6743879e-39
-259.16089 -551.15576 500 2.4892848e-39
-279.677 -560.04871 510 2.3970864e-39
-294.99792 -547.19299 510 2.6729488e-39
-302.65833 -540.76514 510 2.4885631e-39
-310.31885 -534.33728 510 2.3038131e-39
-325.63977 -521.48157 510 2.0283067e-39
-326.87231 -507.39319 510 2.0286654e-39
-334.53271 -500.96533 510 2.2130567e-39
-349.85364 -488.10962 510 2.0283067e-39
-357.51416 -481.68176 510 1.9353908e-39
-879.8418 -839.69531 640 1.7610442e-38
-914.44629 -849.82092 640 1.7240942e-38
-923.33936 -829.30481 640 1.7057268e-38
-932.23242 -808.78857 640 1.5127999e-38
-933.46497 -794.70032 640 9.8782531e-39
-948.78589 -781.84448 640 4.8006538e-39
-957.67896 -761.32837 630 3.225038e-39
-939.62781 -724.25867 630 3.2225226e-39
-440.28149 -346.96143 500 3.3143595e-39
-455.60242 -334.10571 500 3.5909408e-39
-449.17456 -326.44519 490 4.1437517e-39
-470.92334 -321.25 500 5.065345e-39
-465.72803 -299.50122 490 6.4471893e-39
-479.81628 -300.73376 490 7.0904035e-39
-347.56116 -189.78973 460 7.3669904e-39
-382.16565 -199.91534 460 7.4595405e-39
-342.36584 -168.04095 450 7.826528e-39
-370.54248 -170.5061 460 8.0109136e-39
-438.51892 -204.84564 470 7.7364889e-39
-534.672 -241.65033 490 7.0925643e-39
-562.84875 -244.11548 500 7.3677036e-39
-557.65344 -222.36676 490 7.091837e-39
-571.7417 -223.5993 490 7.5495782e-39
-579.40222 -217.17145 490 7.2747835e-39
-621.66711 -220.8692 500 7.5488579e-39
-676.78784 -239.88782 510 7.7339638e-39
-678.02039 -225.7995 510 9.2980357e-39
-625.36487 -178.60425 490 9.576782e-39
-618.93701 -170.94379 490 8.2878494e-39
-417.4729 -39.748535 440 8.7491905e-39
-398.18921 -16.767151 440 7.7346785e-39
-419.93799 -11.571899 440 5.8925792e-39
-413.51013 -3.911438 440 3.9589989e-39
-278.78979 78.855957 400 2.4856765e-39
-251.84583 95.409424 400 1.5658866e-39
-253.07837 109.49774 400 7.3792657e-40
-226.13428 126.05121 390 7.3684477e-40
-296.57593 119.88831 400 6.4360377e-39
-406.81726 81.851074 420 3.3089575e-39
530.56812 -1383.5188 520 1.9073394e-38
447.97339 -1575.2949 560 2.3509886e-38
450.70352 -1525.3696 550 2.3509886e-38
443.30804 -1440.8396 540 2.3509886e-38
426.75458 -1413.8955 540 2.3509886e-38
413.8988 -1429.2166 540 2.3509886e-38
403.77319 -1394.6121 540 2.3509886e-38
384.48962 -1417.5933 540 2.3509886e-38
380.79187 -1375.3284 540 2.3509886e-38
367.93616 -1390.6492 540 2.0203808e-38
357.81055 -1356.0447 540 1.7722097e-38
344.95477 -1371.3657 540 2.0203808e-38
340.02448 -1315.0125 530 1.8183427e-38
151.41608 -1430.8867 580 4.9847129e-39
142.52301 -1410.3706 570 5.4417212e-39
132.3974 -1375.7661 570 5.4413596e-39
118.30908 -1376.9985 570 5.5339098e-39
109.41608 -1356.4824 570 5.4413526e-39
100.52301 -1335.9663 570 5.2562509e-39
86.434692 -1337.1987 570 5.3498731e-39
77.541687 -1316.6826 570 5.5317546e-39
68.648682 -1296.1664 570 5.2566012e-39
194.03827 -944.4884 490 5.7161389e-39
185.1452 -923.97217 490 5.5331867e-39
195.53583 -880.47461 480 5.625025e-39
193.07068 -852.29797 480 4.4246882e-39
191.83807 -838.20972 480 2.3978165e-39
189.37292 -810.03308 470 1.8457217e-39
180.47986 -789.51685 470 1.7528072e-39
179.24731 -775.42847 470 1.4762231e-39
171.58685 -769.00061 470 1.4765776e-39
156.26593 -756.1449 470 1.7524484e-39
142.17761 -757.37744 470 2.0297542e-39
116.46619 -788.01929 480 2.029757e-39
-66.244324 -1052.4373 540 2.2137825e-39
-118.8999 -1099.6326 560 2.2137783e-39
-132.98816 -1100.8651 560 2.3978165e-39
-148.30908 -1088.0094 560 2.9502658e-39
-157.20215 -1067.4932 560 1.0415936e-38
-164.86255 -1061.0653 560 1.8899385e-38
-180.18347 -1048.2096 560 2.0009358e-38
-187.84387 -1041.7817 560 1.9641278e-38
-196.73694 -1021.2655 560 1.8351981e-38
-212.05786 -1008.4098 560 1.7703363e-38
-213.29041 -994.32153 560 1.6781045e-38
-235.03918 -989.12622 560 1.6138557e-38
-110.17957 -793.65222 510 1.6045267e-38
-99.78894 -750.15466 500 1.6135313e-38
-113.87732 -751.38733 500 1.6595929e-38
-129.19812 -738.53149 500 1.5950922e-38
-136.85864 -732.10364 500 1.5860885e-38
-144.51904 -725.67578 500 1.5949836e-38
-159.83997 -712.82007 500 1.2446772e-38
-161.07251 -698.73181 500 6.0842053e-39
-182.82129 -693.5365 500 2.949177e-39
-171.19812 -664.1272 500 2.8569855e-39
-133.86353 -604.07617 480 2.765143e-39
-142.75659 -583.56006 480 2.6740306e-39
-143.98914 -569.47168 480 2.8580603e-39
-151.64954 -563.04382 480 3.3172378e-39
-152.8822 -548.95557 480 3.1335696e-39
-154.11475 -534.86719 480 3.0417327e-39
-155.34729 -520.77893 470 3.1339227e-39
-169.43567 -522.01147 470 3.0417299e-39
-178.32861 -501.49524 470 2.5814776e-39
-198.84485 -510.38831 480 2.3041705e-39
-278.44446 -574.13708 500 2.672953e-39
-286.10486 -567.70923 500 2.5818364e-39
-301.42578 -554.85339 500 2.8569827e-39
-309.0863 -548.42554 500 2.4882044e-39
-317.97925 -527.90942 500 2.3970864e-39
-325.63977 -521.48157 500 2.4896407e-39
-333.30017 -515.05371 490 2.8573429e-39
-334.53271 -500.96533 490 2.7658703e-39
-349.85364 -488.10962 490 2.6725971e-39
-357.51416 -481.68176 490 3.0438837e-39
-858.09302 -844.89062 620 1.7794114e-38
-919.6416 -871.5697 630 1.7149105e-38
-928.53467 -851.05359 630 1.7239497e-38
-923.33936 -829.30481 620 1.6871437e-38
-932.23242 -808.78857 620 1.6414055e-38
-933.46497 -794.70032 620 1.6870714e-38
-942.35803 -774.18408 620 1.6134238e-38
-937.16272 -752.4353 610 1.5304461e-38
-939.62781 -724.25867 610 1.1897911e-38
-440.28149 -346.96143 480 6.1821505e-39
-441.51404 -332.87305 480 2.9484553e-39
-442.7467 -318.78479 480 3.5916625e-39
-458.0675 -305.92908 480 4.5114552e-39
-459.30017 -291.8407 480 4.9724305e-39
-325.81238 -194.98499 440 5.4323255e-39
-333.4729 -188.55713 440 5.8933008e-39
-368.07739 -198.68274 450 6.0780508e-39
-356.45422 -169.27356 440 6.6287079e-39
-370.54248 -170.5061 450 6.5375884e-39
-432.09106 -197.18518 460 6.2606456e-39
-547.52783 -256.97125 480 6.4457571e-39
-589.79272 -260.66901 490 5.9862125e-39
-570.50916 -237.68762 480 5.9847804e-39
-571.7417 -223.5993 480 6.0773348e-39
-572.97424 -209.51099 480 5.524877e-39
-594.72302 -204.31573 480 5.2497363e-39
-670.35999 -232.22736 500 5.0642646e-39
-698.53662 -234.6925 500 4.9717089e-39
-357.15686 1.0188599 420 6.8141725e-39
-371.24512 -0.21368408 420 6.4450313e-39
-378.90564 6.2141724 420 6.0766075e-39
-386.56604 12.642029 420 3.7756852e-39
-353.19409 36.855957 410 1.6580794e-39
-258.27368 87.748962 390 1.5658838e-39
-238.98999 110.73035 390 9.2159757e-40
-219.70642 133.71167 380 7.372035e-40
-304.23633 126.31622 390 5.1489031e-39
-406.81726 81.851074 410 4.5978887e-39
531.80066 -1397.6069 510 1.4856174e-38
503.35907 -1478.1743 520 1.4762175e-38
456.86642 -1595.811 550 1.4487759e-38
442.77811 -1597.0437 550 1.4763252e-38
449.47095 -1511.2812 530 1.4486319e-38
448.50333 -1419.0908 520 1.4578518e-38
426.75458 -1413.8955 520 1.3845621e-38
419.09412 -1407.4678 520 1.3567948e-38
403.77319 -1394.6121 520 1.3473956e-38
379.29431 -1439.342 530 1.2832899e-38
358.77814 -1448.2351 530 1.2278292e-38
357.54553 -1434.1467 530 1.1634718e-38
287.3689 -1362.2075 530 1.0325941e-38
229.51807 -1431.1516 550 1.2162295e-38
219.39246 -1396.5471 540 1.335939e-38
201.34143 -1433.6169 550 1.4559375e-38
134.5976 -1482.0447 570 1.5680886e-38
106.42096 -1484.5098 570 1.4304431e-38
106.68591 -1406.4077 560 1.2552717e-38
102.98822 -1364.1428 550 1.1998457e-38
95.327759 -1357.7151 550 1.1349855e-38
56.760498 -1403.6777 570 1.0707354e-38
64.685974 -1332.0034 550 9.6006531e-39
62.220764 -1303.8269 550 8.7690876e-39
196.50342 -972.66504 480 7.4801494e-39
194.03827 -944.4884 480 6.3745081e-39
185.1452 -923.97217 480 5.3581926e-39
189.10797 -888.13513 470 4.6184513e-39
186.64276 -859.9585 470 3.3248216e-39
191.83807 -838.20972 460 2.0308416e-39
189.37292 -810.03308 460 2.0290367e-39
180.47986 -789.51685 460 1.8446469e-39
179.24731 -775.42847 460 1.5684159e-39
171.58685 -769.00061 460 1.4762161e-39
156.26593 -756.1449 460 1.66025e-39
148.60553 -749.71704 460 1.9371998e-39
134.51721 -750.94958 460 2.121231e-39
102.37781 -789.25183 470 2.0293941e-39
-106.04419 -1084.3116 540 2.121231e-39
-139.41602 -1108.5256 550 1.9368369e-39
-154.73694 -1095.6698 550 2.3059754e-39
-155.96948 -1081.5815 540 3.0424642e-39
-171.29041 -1068.7258 540 1.0599976e-38
-180.18347 -1048.2096 540 1.8714279e-38
-187.84387 -1041.7817 540 1.8259077e-38
-196.73694 -1021.2655 540 1.7889566e-38
-212.05786 -1008.4098 540 1.6874327e-38
-219.71826 -1001.9819 540 1.6780688e-38
-228.61133 -981.4657 540 1.6320773e-38
-79.272766 -741.26172 480 1.6137465e-38
-93.361084 -742.49426 480 1.5769048e-38
-101.02148 -736.06641 490 1.6135672e-38
-122.77026 -730.87109 490 1.613496e-38
-130.43079 -724.44324 490 1.5859087e-38
-138.09119 -718.01538 490 1.6043843e-38
-153.41211 -705.15967 490 1.1987963e-38
-161.07251 -698.73181 490 5.807617e-39
-182.82129 -693.5365 490 2.8573401e-39
-106.91943 -587.52271 460 2.5814762e-39
-114.57996 -581.09485 460 2.8569855e-39
-136.32874 -575.89954 470 3.041374e-39
-137.56128 -561.81128 460 3.0413754e-39
-145.22168 -555.38342 460 3.1328521e-39
-152.8822 -548.95557 460 2.9491812e-39
-154.11475 -534.86719 460 3.0420928e-39
-155.34729 -520.77893 460 3.2254037e-39
-163.00781 -514.35107 460 2.5800385e-39
-157.8125 -492.60229 460 2.304532e-39
-205.27271 -518.04871 470 3.1335626e-39
-291.30017 -589.45801 490 3.3183196e-39
-300.19324 -568.94177 490 2.948821e-39
-307.85364 -562.51392 490 2.4874883e-39
-315.51416 -556.08606 480 2.6740278e-39
-324.4071 -535.56982 480 3.0420914e-39
-332.06763 -529.14197 480 3.04209e-39
-339.72803 -522.71411 480 3.041374e-39
-348.62109 -502.19788 480 2.6729516e-39
-349.85364 -488.10962 480 2.5811203e-39
-370.36987 -497.00256 480 4.9799849e-39
-870.94873 -860.21155 600 1.6783911e-38
-919.6416 -871.5697 610 1.7240939e-38
-914.44629 -849.82092 610 1.7147298e-38
-923.33936 -829.30481 600 1.6779949e-38
-932.23242 -808.78857 600 1.6320769e-38
-927.03711 -787.03979 600 1.6228219e-38
-935.93018 -766.52368 600 1.5856569e-38
-930.73486 -744.7749 590 1.5210819e-38
-412.10486 -344.49622 470 1.46573e-38
-433.85364 -339.30103 470 1.0046454e-38
-435.08618 -325.21265 460 4.1452118e-39
-436.31885 -311.12439 460 3.0413782e-39
-450.4071 -312.35693 460 2.8577058e-39
-465.72803 -299.50122 470 3.6838595e-39
-413.07251 -252.30591 450 4.2355872e-39
-347.56116 -189.78973 430 4.1433901e-39
-368.07739 -198.68274 440 4.1433929e-39
-342.36584 -168.04095 430 4.2345096e-39
-370.54248 -170.5061 430 3.9600793e-39
-432.09106 -197.18518 450 3.9593632e-39
-534.672 -241.65033 470 3.6835036e-39
-548.76038 -242.88293 470 3.5920282e-39
-335.6731 -82.278442 420 3.7749804e-39
-572.97424 -209.51099 470 3.866813e-39
-601.151 -211.97614 470 3.5909464e-39
-287.94788 21.270081 390 5.341562e-39
-254.57593 45.484009 390 5.5248742e-39
-289.18042 35.358398 390 5.3415648e-39
-317.35706 32.89325 400 5.340127e-39
-325.01746 39.321106 400 4.6987163e-39
-305.73389 62.30249 390 3.5959855e-39
-292.87817 77.623352 390 2.1219358e-39
-232.56213 118.39081 370 9.2123743e-40
-205.61816 134.94427 370 6.4572814e-40
-296.57593 119.88831 380 2.2987671e-39
-400.3894 89.511536 400 3.4933502e-39
518.94495 -1412.928 490 1.6881946e-38
486.54062 -1529.3323 510 1.6974857e-38
451.67114 -1617.5598 530 1.6606439e-38
442.77811 -1597.0437 530 1.6698992e-38
449.47095 -1511.2812 520 1.7343271e-38
439.34534 -1476.6768 510 1.6425279e-38
431.68488 -1470.2488 510 1.6333085e-38
426.75458 -1413.8955 510 1.697378e-38
412.66626 -1415.1282 510 1.614762e-38
398.57794 -1416.3608 510 1.6881946e-38
367.67114 -1468.7512 520 1.6514599e-38
226.78796 -1481.0771 540 1.6053991e-38
235.94598 -1423.4912 530 1.5962509e-38
150.18347 -1416.7983 540 1.4670708e-38
142.52301 -1410.3706 540 1.4211516e-38
133.63 -1389.8542 540 1.3567232e-38
118.30908 -1376.9985 540 1.273927e-38
109.41608 -1356.4824 540 1.1631492e-38
