# .PCD v0.7 - Point Cloud Data file format
VERSION 0.7
FIELDS x y z rgb
SIZE 4 4 4 4
TYPE F F F F
COUNT 1 1 1 1
WIDTH 1193
HEIGHT 1
VIEWPOINT 0 0 0 1 0 0 0
POINTS 1193
DATA ascii
480.33417 -1316.9915 -140 1.7436187e-38
466.32965 -1318.9597 -150 1.7159605e-38
452.32513 -1320.9277 -150 1.6884457e-38
438.32065 -1322.896 -150 1.6606435e-38
424.31613 -1324.8643 -150 1.5776318e-38
412.27985 -1340.8369 -150 1.5315707e-38
392.2572 -1350.7915 -160 1.5499737e-38
376.28448 -1338.7554 -160 1.522387e-38
362.27997 -1340.7234 -160 1.4946202e-38
354.29364 -1334.7053 -160 1.4854365e-38
342.37085 -1300.6782 -160 1.4024618e-38
332.41626 -1280.6555 -150 1.4116444e-38
318.41174 -1282.6238 -160 1.3563273e-38
310.42542 -1276.6056 -150 1.2918257e-38
290.40277 -1286.5602 -160 1.2641664e-38
270.38007 -1296.5148 -160 1.2545876e-38
256.37561 -1298.483 -160 1.1991242e-38
240.40289 -1286.4467 -160 1.1623901e-38
232.4165 -1280.4286 -160 1.1438783e-38
216.44379 -1268.3922 -160 1.1253684e-38
208.45746 -1262.3741 -160 1.0332093e-38
186.46655 -1258.3242 -160 7.010486e-39
176.51202 -1238.3015 -160 6.0871018e-39
166.55743 -1218.2789 -160 7.6547848e-39
158.57104 -1212.2607 -160 6.6427951e-39
144.56653 -1214.229 -160 6.0888969e-39
140.63013 -1186.22 -160 5.163698e-39
118.63928 -1182.17 -160 6.3625831e-39
92.59845 -1200.111 -170 5.6235803e-39
78.593994 -1202.0792 -170 5.6196216e-39
46.535034 -1228.0065 -170 5.9945376e-39
42.598572 -1199.9974 -170 4.2417178e-39
28.594116 -1201.9657 -170 3.6885441e-39
-3.4648438 -1227.8929 -180 4.0594874e-39
-17.46936 -1229.8612 -180 4.5222928e-39
-21.405762 -1201.8522 -180 4.2453458e-39
-37.378479 -1189.8159 -180 5.1647672e-39
-57.401123 -1199.7705 -180 5.6279047e-39
-67.355713 -1179.7478 -180 4.7074086e-39
-95.364746 -1183.6842 -180 5.9952663e-39
-109.36926 -1185.6525 -180 5.8126771e-39
-131.36011 -1181.6025 -190 5.6282915e-39
-151.38269 -1191.5571 -190 5.8144708e-39
-149.30103 -1155.5618 -180 6.3669411e-39
-177.31006 -1159.4982 -190 6.0892752e-39
-50.588501 -841.78503 -130 5.2609397e-39
-46.538574 -819.79419 -130 4.3364596e-39
-66.561218 -829.74878 -130 2.6744286e-39
-70.497681 -801.73975 -130 8.2976067e-40
-72.465881 -787.73523 -130 9.230381e-40
-88.438599 -775.69897 -130 9.2232064e-40
-96.424988 -769.68079 -130 6.4644981e-40
-130.45215 -781.60352 -130 4.4290028e-39
-114.36597 -743.64001 -130 4.335368e-39
-537.49072 -1238.6808 -230 3.0439089e-39
-559.48157 -1234.6309 -230 2.3052705e-39
-573.48608 -1236.5991 -240 6.4501208e-40
-587.4906 -1238.5673 -240 3.6878252e-40
-591.427 -1210.5583 -230 2.7658969e-40
-117.84839 -515.63147 -100 2.8602393e-39
-125.83472 -509.6134 -100 2.6754879e-39
-141.80737 -497.57703 -100 2.1212324e-39
-149.79382 -491.55896 -100 1.6588095e-39
-163.79834 -493.5271 -100 1.383296e-39
-197.82544 -505.44995 -100 1.2907374e-39
-193.77551 -483.45911 -100 1.1981845e-39
-201.76184 -477.44092 -100 8.301222e-40
-209.74829 -471.42273 -100 9.219577e-40
-225.72095 -459.38647 -100 9.2159616e-40
-233.70728 -453.36829 -100 7.3720631e-40
-241.69373 -447.35022 -100 8.2940194e-40
-237.6438 -425.35938 -100 7.372035e-40
-245.63013 -419.34119 -100 8.3012361e-40
-247.59827 -405.33667 -100 1.1059888e-39
-249.56653 -391.33215 -100 9.2231643e-40
-251.53479 -377.32764 -90 1.1067105e-39
-267.50745 -365.29138 -90 9.2231643e-40
-263.45752 -343.30054 -90 1.1059888e-39
-380.94421 -117.03326 -70 2.7658689e-40
-408.95325 -120.96967 -80 3.6842098e-40
-396.91699 -104.99695 -70 2.7658689e-40
-398.88513 -90.992493 -70 5.5281365e-40
-544.83484 -68.661133 -80 4.6061942e-40
-1353.6135 -410.82617 -210 5.5245351e-40
-1353.6135 -410.82617 -210 1.8410245e-39
-1353.6135 -410.82617 -210 2.4856723e-39
726.05658 -1439.5496 -150 5.7132129e-39
708.00214 -1463.5085 -160 7.0065175e-39
700.01581 -1457.4905 -160 7.8369901e-39
684.04309 -1445.4541 -150 8.4823721e-39
676.0567 -1439.436 -150 9.4957939e-39
660.08398 -1427.3997 -150 9.9582042e-39
660.19751 -1377.3999 -150 1.0050419e-38
650.24292 -1357.3772 -150 9.5026379e-39
630.22028 -1367.3318 -150 9.9604001e-39
618.18396 -1383.3044 -150 1.0608635e-38
604.17944 -1385.2727 -150 1.116147e-38
594.22491 -1365.25 -150 1.1070708e-38
586.23853 -1359.2319 -150 1.1255833e-38
576.28394 -1339.2092 -150 1.1993045e-38
568.29761 -1333.1912 -150 1.4113538e-38
546.30676 -1329.1411 -150 1.4574894e-38
532.30225 -1331.1094 -150 1.5036234e-38
518.29773 -1333.0776 -160 1.5406086e-38
510.31137 -1327.0596 -160 1.6421678e-38
502.32501 -1321.0413 -160 1.6696477e-38
480.33417 -1316.9915 -160 1.7431158e-38
466.32965 -1318.9597 -160 1.6878713e-38
452.32513 -1320.9277 -160 1.632948e-38
444.33878 -1314.9097 -160 1.6142576e-38
430.33429 -1316.8779 -160 1.5500457e-38
410.31165 -1326.8325 -170 1.5220992e-38
396.30713 -1328.8008 -170 1.5405015e-38
388.3208 -1322.7825 -170 1.5312109e-38
366.3299 -1318.7327 -170 1.4852219e-38
362.39349 -1290.7236 -170 1.4208641e-38
354.4071 -1284.7054 -170 1.393205e-38
338.43439 -1272.6692 -170 1.3838778e-38
324.42987 -1274.6375 -170 1.3562553e-38
310.42542 -1276.6056 -170 1.2734947e-38
290.40277 -1286.5602 -170 1.2270732e-38
270.38007 -1296.5148 -180 1.1533531e-38
256.37561 -1298.483 -180 1.1807929e-38
246.42102 -1278.4603 -180 1.0978532e-38
224.43018 -1274.4104 -180 1.1070722e-38
222.46191 -1260.4059 -180 1.0976372e-38
206.4892 -1248.3696 -180 1.0609746e-38
202.5528 -1220.3606 -170 6.1814652e-39
194.56641 -1214.3424 -170 7.2838247e-39
190.63 -1186.3335 -170 6.9146891e-39
168.63916 -1182.2836 -170 5.44244e-39
148.61646 -1192.238 -180 4.5183384e-39
138.66193 -1172.2155 -170 5.7171912e-39
118.63928 -1182.17 -180 5.810847e-39
98.616638 -1192.1246 -180 5.9952411e-39
82.643921 -1180.0883 -180 5.8141022e-39
80.675659 -1166.0839 -180 2.4893114e-39
58.684814 -1162.0339 -180 4.6141171e-39
56.716614 -1148.0294 -180 4.6097871e-39
30.675781 -1165.9703 -180 5.1669209e-39
-1.3831177 -1191.8976 -190 6.0892626e-39
-23.374023 -1187.8477 -190 6.4602115e-39
-31.360352 -1181.8296 -190 6.8304346e-39
-65.387512 -1193.7523 -200 6.8289983e-39
-57.287659 -1149.7706 -190 6.4569703e-39
-83.32843 -1167.7115 -190 6.0874647e-39
-99.301147 -1155.6753 -190 5.6282817e-39
-101.26941 -1141.6708 -190 5.7208416e-39
-203.57788 -1277.4388 -220 5.9052413e-39
-149.30103 -1155.5618 -200 6.0899955e-39
-183.32812 -1167.4845 -210 6.0896353e-39
-185.29639 -1153.48 -200 5.5375322e-39
-12.511475 -807.87134 -140 5.2598747e-39
-20.497803 -801.85327 -140 5.1669588e-39
-34.502319 -803.82141 -140 4.0598797e-39
-62.511292 -807.75781 -150 2.2109085e-39
-70.497681 -801.73975 -150 7.3756644e-40
-78.484009 -795.72156 -140 1.0141547e-39
-88.438599 -775.69897 -140 9.2231783e-40
-102.44312 -777.66711 -140 6.4608828e-40
-130.45215 -781.60352 -150 4.9800186e-39
-132.42029 -767.59912 -150 3.9673086e-39
-104.29785 -713.66272 -140 3.3212245e-39
-513.41809 -1206.7354 -240 2.8598834e-39
-527.42261 -1208.7036 -250 2.1212366e-39
-535.40894 -1202.6854 -250 6.4573094e-40
-563.41797 -1206.6218 -250 3.6842379e-40
-573.37256 -1186.5992 -250 2.7694702e-40
-123.86646 -523.6178 -110 3.1357458e-39
-131.85291 -517.59973 -110 2.9506343e-39
-141.80737 -497.57703 -110 2.2134266e-39
-149.79382 -491.55896 -110 1.8435553e-39
-157.78015 -485.54077 -110 1.4751301e-39
-165.76648 -479.52258 -110 1.3825757e-39
-187.75732 -475.47266 -110 1.1989033e-39
-195.74377 -469.45459 -110 1.1974642e-39
-203.7301 -463.4364 -110 9.2159616e-40
-219.70276 -451.40015 -110 9.2123603e-40
-221.67102 -437.39563 -110 7.3720491e-40
-229.65735 -431.37744 -110 7.3720631e-40
-231.62561 -417.37292 -110 7.3828531e-40
-245.63013 -419.34119 -110 1.0145135e-39
-261.60278 -407.30493 -110 9.219591e-40
-263.57104 -393.30042 -110 1.107065e-39
-251.53479 -377.32764 -110 1.0141547e-39
-267.50745 -365.29138 -110 1.0145163e-39
-243.43494 -333.34595 -100 9.2232204e-40
-464.97131 -128.84253 -90 5.5281365e-40
-1345.6272 -416.84424 -220 4.6025788e-40
-1367.6182 -412.79431 -220 4.6061942e-40
-1397.5955 -402.72632 -230 1.2885738e-39
-1397.5955 -402.72632 -230 2.0254158e-39
728.02478 -1453.554 -170 4.6987107e-39
709.97034 -1477.5132 -170 7.0057833e-39
700.01581 -1457.4905 -170 7.1948675e-39
684.04309 -1445.4541 -170 8.0224617e-39
674.0885 -1425.4314 -170 8.3948358e-39
664.13391 -1405.4089 -170 9.1302512e-39
662.27917 -1341.4045 -160 9.7763465e-39
654.29285 -1335.3862 -160 1.01455e-38
636.2384 -1359.3455 -160 1.0884881e-38
616.21576 -1369.3 -170 1.1071066e-38
610.19763 -1377.2864 -170 1.1807205e-38
594.22491 -1365.25 -170 1.2085954e-38
580.2204 -1367.2183 -170 1.217779e-38
570.26587 -1347.1956 -170 1.3744395e-38
562.27948 -1341.1775 -170 1.4206102e-38
554.29309 -1335.1594 -170 1.4851114e-38
532.30225 -1331.1094 -170 1.467068e-38
518.29773 -1333.0776 -170 1.5681959e-38
510.31137 -1327.0596 -170 1.5686639e-38
502.32501 -1321.0413 -170 1.6234763e-38
486.35229 -1309.005 -170 1.5223494e-38
466.32965 -1318.9597 -170 1.5774872e-38
458.34329 -1312.9414 -180 1.5128784e-38
444.33878 -1314.9097 -180 1.549865e-38
436.35242 -1308.8915 -180 1.5588327e-38
410.31165 -1326.8325 -180 1.5036605e-38
396.30713 -1328.8008 -180 1.494513e-38
386.35254 -1308.7781 -180 1.5219912e-38
376.39801 -1288.7554 -180 1.4116791e-38
366.44342 -1268.7328 -180 1.4300101e-38
364.47522 -1254.7283 -180 1.4022082e-38
348.50244 -1242.6919 -180 1.3287041e-38
334.49799 -1244.6602 -180 1.3655466e-38
320.49347 -1246.6284 -180 1.291575e-38
294.4527 -1264.5693 -180 1.282282e-38
280.44818 -1266.5375 -190 1.1624647e-38
266.44366 -1268.5057 -190 1.0798461e-38
244.45282 -1264.4558 -190 1.1252598e-38
236.46643 -1258.4376 -190 1.0795573e-38
226.51184 -1238.415 -190 1.0793064e-38
218.52551 -1232.3969 -190 1.0888487e-38
208.57092 -1212.3743 -190 1.0884897e-38
204.63452 -1184.3652 -180 1.0609748e-38
204.74799 -1134.3654 -180 9.4090424e-39
200.81158 -1106.3563 -170 8.4848958e-39
192.8252 -1100.3383 -170 7.1927165e-39
182.87061 -1080.3156 -170 6.7328075e-39
162.84796 -1090.2701 -170 6.545538e-39
100.81183 -1106.1294 -180 4.7955979e-39
80.789185 -1116.084 -190 5.8133848e-39
72.802795 -1110.0658 -190 5.1683559e-39
56.830078 -1098.0295 -190 5.6297208e-39
48.84375 -1092.0114 -190 6.5513324e-39
28.821106 -1101.9659 -190 7.1041488e-39
0.81207275 -1105.9023 -190 7.1045146e-39
-13.192444 -1107.8706 -200 7.3803672e-39
-23.146973 -1087.8479 -190 6.7349992e-39
-87.264893 -1139.7025 -210 5.7194053e-39
5.5429688 -783.91223 -150 4.9854402e-39
-8.4614868 -785.88049 -150 5.1680266e-39
-22.466003 -787.84875 -150 4.0598755e-39
-56.493164 -799.77148 -160 9.2160317e-40
-70.497681 -801.73975 -160 8.2976207e-40
-78.484009 -795.72156 -160 1.1981845e-39
-88.438599 -775.69897 -160 7.3792938e-40
-102.44312 -777.66711 -160 5.5353531e-40
-136.47021 -789.58997 -160 4.4289846e-39
-138.43848 -775.58545 -160 4.2431766e-39
-110.31592 -721.64917 -150 3.4134159e-39
-541.42712 -1210.6718 -270 2.1208792e-39
-535.40894 -1202.6854 -270 6.4537221e-40
-545.36353 -1182.6628 -260 1.8475279e-40
-579.39075 -1194.5856 -270 3.6842379e-40
-129.88464 -531.60425 -130 3.0439117e-39
-125.83472 -509.6134 -120 2.7655284e-39
-141.80737 -497.57703 -120 2.1212282e-39
-143.77563 -483.57251 -120 1.5676886e-39
-151.76196 -477.55444 -120 1.6595199e-39
-159.74841 -471.53625 -120 1.3822156e-39
-181.73926 -467.48633 -120 1.2907346e-39
-189.72559 -461.46814 -120 1.105986e-39
-197.71191 -455.45007 -120 1.10527e-39
-219.70276 -451.40015 -130 9.2159616e-40
-221.67102 -437.39563 -120 8.301194e-40
-235.67554 -439.36389 -130 9.2124024e-40
-231.62561 -417.37292 -120 9.2231923e-40
-259.63464 -421.30945 -130 1.1059846e-39
-261.60278 -407.30493 -120 1.1056315e-39
-257.55286 -385.31409 -120 1.0141505e-39
-233.48035 -353.36865 -110 6.4680854e-40
-235.44849 -339.36414 -110 9.219605e-40
-1371.668 -434.78516 -250 3.6842239e-40
-1401.6453 -424.71716 -250 4.6097955e-40
-1429.6543 -428.65356 -250 5.5245351e-40
-1429.6543 -428.65356 -250 1.4729623e-39
722.00665 -1461.5403 -180 4.5172117e-39
709.97034 -1477.5132 -190 6.2714594e-39
700.01581 -1457.4905 -180 7.4689264e-39
690.06122 -1437.4678 -180 8.1150189e-39
674.0885 -1425.4314 -180 8.0257029e-39
664.13391 -1405.4089 -180 9.2202847e-39
668.29736 -1333.4182 -170 1.014477e-38
654.29285 -1335.3862 -170 1.0790155e-38
636.2384 -1359.3455 -180 1.0982123e-38
616.21576 -1369.3 -180 1.1900482e-38
604.17944 -1385.2727 -180 1.1997713e-38
596.19312 -1379.2546 -180 1.3284862e-38
582.1886 -1381.2227 -190 1.3563604e-38
572.23401 -1361.2002 -180 1.4297944e-38
556.26135 -1349.1638 -180 1.4759287e-38
548.27496 -1343.1458 -180 1.5493962e-38
532.30225 -1331.1094 -180 1.5680161e-38
524.31592 -1325.0913 -180 1.5129143e-38
516.32953 -1319.073 -180 1.4946188e-38
494.33865 -1315.0232 -190 1.6141491e-38
486.35229 -1309.005 -190 1.5956748e-38
478.36594 -1302.9869 -190 1.5408611e-38
456.37509 -1298.937 -190 1.5128792e-38
448.3887 -1292.9188 -190 1.4759291e-38
434.38422 -1294.8871 -190 1.5222776e-38
420.3797 -1296.8552 -190 1.4484498e-38
402.32526 -1320.8142 -200 1.411931e-38
386.35254 -1308.7781 -200 1.439122e-38
376.39801 -1288.7554 -200 1.4112122e-38
362.39349 -1290.7236 -200 1.347286e-38
356.48883 -1248.7101 -190 1.3746201e-38
352.55243 -1220.701 -190 1.3194832e-38
350.58417 -1206.6965 -190 1.3561104e-38
340.62964 -1186.674 -180 1.3100842e-38
330.67505 -1166.6512 -180 1.2178166e-38
314.70233 -1154.615 -180 1.1624263e-38
300.69781 -1156.5833 -180 1.1345149e-38
298.72961 -1142.5787 -180 1.1071796e-38
278.70697 -1152.5333 -190 1.1071809e-38
262.73425 -1140.4969 -190 1.0794494e-38
242.71155 -1150.4515 -190 1.0884901e-38
244.79327 -1114.4562 -180 1.1068192e-38
228.82056 -1102.4199 -180 1.0332449e-38
226.85236 -1088.4154 -180 1.0423183e-38
212.84784 -1090.3837 -180 8.4888839e-39
202.89325 -1070.361 -180 7.9306543e-39
186.92053 -1058.3247 -180 7.3785567e-39
60.766541 -1126.0385 -210 6.0885437e-39
56.830078 -1098.0295 -200 6.3658565e-39
42.825562 -1099.9977 -200 6.7360838e-39
26.852844 -1087.9614 -200 6.7368026e-39
30.902771 -1065.9706 -200 7.1981269e-39
-6.4932861 -799.88501 -160 5.1673147e-39
-8.4614868 -785.88049 -160 4.9821976e-39
-22.466003 -787.84875 -170 4.0595084e-39
-50.475037 -791.78516 -170 8.301222e-40
-70.497681 -801.73975 -170 9.219577e-40
-78.484009 -795.72156 -170 1.0141519e-39
-94.456726 -783.6853 -170 9.219577e-40
-96.424988 -769.68079 -170 6.4500787e-40
-118.41589 -765.63086 -170 4.4279056e-39
-138.43848 -775.58545 -180 4.0577105e-39
-134.38855 -753.5946 -170 3.135757e-39
-515.38635 -1192.7308 -280 1.9368509e-39
-533.32727 -1166.6901 -280 3.6842239e-40
-585.40881 -1202.5719 -290 2.7658689e-40
-101.98914 -577.6676 -140 2.2148685e-39
-129.99817 -581.60413 -150 2.5832923e-39
-144.00269 -583.57227 -150 2.9517119e-39
-133.93457 -553.59509 -140 3.0435502e-39
-123.86646 -523.6178 -140 2.9513518e-39
-119.81653 -501.62695 -130 2.5822133e-39
-127.80298 -495.60889 -130 2.0290311e-39
-137.75745 -475.58618 -130 1.4758517e-39
-145.7439 -469.56812 -130 1.6584423e-39
-153.73022 -463.54993 -130 1.3829344e-39
-167.73474 -465.51807 -130 1.1985446e-39
-189.72559 -461.46814 -140 1.0141519e-39
-209.74829 -471.42273 -140 1.0137904e-39
-225.72095 -459.38647 -140 8.2975927e-40
-227.68921 -445.38196 -140 8.3047953e-40
-241.69373 -447.35022 -140 8.3083827e-40
-237.6438 -425.35938 -140 1.1059902e-39
-245.63013 -419.34119 -140 1.0148722e-39
-261.60278 -407.30493 -140 9.230353e-40
-249.56653 -391.33215 -130 9.219591e-40
-1407.6633 -432.70349 -270 4.6097815e-40
-1417.6179 -412.68079 -270 4.6097675e-40
-1417.6179 -412.68079 -270 1.2882165e-39
722.00665 -1461.5403 -200 4.887439e-39
708.00214 -1463.5085 -200 6.6384441e-39
698.04761 -1443.4858 -200 7.1919892e-39
688.09302 -1423.4634 -200 7.470381e-39
684.15656 -1395.4543 -190 8.3912541e-39
670.26556 -1347.4226 -190 9.405399e-39
672.34729 -1311.4272 -180 1.0422086e-38
656.37457 -1299.391 -180 1.1165417e-38
648.38818 -1293.3728 -180 1.2362189e-38
628.36554 -1303.3274 -180 1.2639856e-38
610.31116 -1327.2864 -190 1.2734566e-38
596.30664 -1329.2546 -190 1.3561809e-38
580.2204 -1367.2183 -200 1.4114631e-38
572.23401 -1361.2002 -200 1.4483416e-38
552.21143 -1371.1548 -200 1.4668529e-38
550.24316 -1357.1501 -200 1.5587961e-38
528.25232 -1353.1003 -200 1.5773077e-38
526.28406 -1339.0957 -200 1.6050019e-38
516.32953 -1319.073 -200 1.6418075e-38
494.33865 -1315.0232 -200 1.6142926e-38
490.40222 -1287.0142 -200 1.6236198e-38
482.41586 -1280.996 -200 1.6142217e-38
468.41138 -1282.9642 -200 1.5865986e-38
452.43866 -1270.928 -200 1.4946549e-38
438.43414 -1272.8961 -200 1.4941514e-38
424.42963 -1274.8644 -200 1.4207186e-38
404.40698 -1284.819 -210 1.4389417e-38
396.42065 -1278.8008 -210 1.4022431e-38
392.48419 -1250.7917 -200 1.392845e-38
370.49335 -1246.7418 -200 1.3379941e-38
368.52515 -1232.7374 -200 1.3101925e-38
358.57056 -1212.7147 -200 1.3286298e-38
332.52972 -1230.6556 -210 1.3376348e-38
326.5116 -1238.642 -210 1.245656e-38
274.31653 -1324.5237 -230 1.199233e-38
244.22583 -1364.4556 -240 1.1900136e-38
234.27124 -1344.4329 -240 1.1069278e-38
240.40289 -1286.4467 -230 1.0979615e-38
232.4165 -1280.4286 -230 1.1529171e-38
268.75238 -1132.5106 -200 1.1346594e-38
260.76599 -1126.4926 -200 1.097708e-38
248.8432 -1092.4653 -200 1.1068934e-38
56.716614 -1148.0294 -220 6.7342803e-39
58.79834 -1112.0341 -220 6.4598542e-39
36.807434 -1107.9841 -220 6.8290025e-39
38.88916 -1071.9888 -220 7.2874597e-39
46.989014 -1028.007 -210 7.4714838e-39
-22.466003 -787.84875 -180 3.6907315e-39
-50.475037 -791.78516 -180 8.301194e-40
-70.497681 -801.73975 -190 9.2159897e-40
-90.520325 -811.69434 -190 1.0145149e-39
-94.456726 -783.6853 -190 8.3012361e-40
-90.406799 -761.69446 -180 5.5317518e-40
-106.37952 -749.65808 -180 4.4271895e-39
-108.34778 -735.65369 -180 4.1495362e-39
-541.42712 -1210.6718 -300 1.9364838e-39
-81.966492 -567.71313 -150 1.1992508e-39
-95.971008 -569.68127 -150 2.4882156e-39
-111.94373 -557.64502 -160 2.5800483e-39
-125.94824 -559.61328 -160 2.3945738e-39
-121.89832 -537.62231 -150 2.392769e-39
-117.84839 -515.63147 -150 1.7488373e-39
-113.79846 -493.64062 -150 1.1971027e-39
-121.78479 -487.62244 -140 8.2868447e-40
-137.75745 -475.58618 -140 4.6098095e-40
-145.7439 -469.56812 -150 4.6098095e-40
-159.74841 -471.53625 -150 4.6097815e-40
-181.73926 -467.48633 -150 4.6061802e-40
-195.74377 -469.45459 -150 4.6025928e-40
-229.77087 -481.37732 -160 2.7694702e-40
-225.72095 -459.38647 -150 8.3048094e-40
-239.72546 -461.35474 -150 9.219591e-40
-279.77075 -481.26379 -160 9.2231503e-40
-1407.6633 -432.70349 -280 4.6097815e-40
-1397.5955 -402.72632 -280 5.5209478e-40
-1397.5955 -402.72632 -280 6.4428621e-40
722.00665 -1461.5403 -210 5.1625853e-39
709.97034 -1477.5132 -220 6.4555018e-39
672.00677 -1461.4268 -220 8.2082935e-39
656.60156 -1199.3912 -180 1.282245e-38
632.41553 -1281.3365 -190 1.3190521e-38
624.42908 -1275.3184 -190 1.3467821e-38
614.47455 -1255.2958 -190 1.4021719e-38
606.48816 -1249.2776 -190 1.4389058e-38
556.26135 -1349.1638 -210 1.5036221e-38
550.35669 -1307.1503 -210 1.5128415e-38
544.3385 -1315.1367 -210 1.5406081e-38
528.36584 -1303.1003 -210 1.5496853e-38
508.34317 -1313.0549 -210 1.6140428e-38
496.30688 -1329.0276 -220 1.5775228e-38
492.37045 -1301.0187 -210 1.6048222e-38
472.34781 -1310.9731 -220 1.4853625e-38
456.37509 -1298.937 -220 1.4852554e-38
454.40686 -1284.9325 -220 1.4942593e-38
438.43414 -1272.8961 -220 1.4024234e-38
420.3797 -1296.8552 -220 1.4114982e-38
396.30713 -1328.8008 -230 1.4113556e-38
390.40247 -1286.7872 -220 1.4020997e-38
386.46606 -1258.7782 -220 1.3561097e-38
372.46155 -1260.7463 -220 1.3469979e-38
344.56604 -1214.683 -220 1.2640232e-38
294.33917 -1314.5691 -240 1.227108e-38
270.2666 -1346.5146 -250 1.2452235e-38
250.24396 -1356.4692 -250 1.1625707e-38
240.28937 -1336.4465 -250 1.1528827e-38
300.81128 -1106.5834 -200 1.1070732e-38
272.80231 -1110.5198 -210 1.1346595e-38
260.76599 -1126.4926 -210 1.0978889e-38
248.8432 -1092.4653 -210 1.1160403e-38
246.875 -1078.4608 -210 1.0240246e-38
-16.182129 -1543.865 -310 8.5814341e-39
42.825562 -1099.9977 -230 6.5531316e-39
60.99353 -1026.0388 -220 7.1948927e-39
46.989014 -1028.007 -220 7.1045005e-39
-52.443237 -777.78064 -200 8.2976347e-40
-84.502197 -803.70789 -200 1.1059916e-39
-106.49304 -799.65796 -200 9.2159897e-40
-108.4613 -785.65344 -200 5.5317518e-40
-118.41589 -765.63086 -200 2.1165422e-39
-132.42029 -767.59912 -200 1.3814967e-39
-14.025696 -593.86731 -160 1.0141533e-39
-101.98914 -577.6676 -170 7.3756644e-40
-117.96179 -565.63135 -170 6.4573375e-40
-131.96631 -567.59961 -170 7.3792657e-40
-127.91638 -545.60876 -170 6.4609108e-40
-129.88464 -531.60425 -170 6.4573094e-40
-119.81653 -501.62695 -160 6.4537221e-40
-127.80298 -495.60889 -160 6.4501208e-40
-137.75745 -475.58618 -160 4.6097815e-40
-145.7439 -469.56812 -160 4.6097815e-40
-153.73022 -463.54993 -160 4.6061942e-40
-167.73474 -465.51807 -160 3.6878252e-40
-189.72559 -461.46814 -160 3.6878252e-40
-209.74829 -471.42273 -170 7.3792938e-40
-205.69836 -449.43188 -160 1.0141533e-39
-233.70728 -453.36829 -170 9.2231783e-40
-279.77075 -481.26379 -180 1.0145135e-39
-1441.6907 -444.62622 -310 3.6914265e-40
-1409.6316 -418.69897 -300 3.6842239e-40
-1409.6316 -418.69897 -300 5.5281365e-40
726.1701 -1389.5496 -210 5.3469724e-39
714.13379 -1405.5222 -220 6.3636677e-39
708.22913 -1363.5088 -210 7.2848953e-39
702.32452 -1321.4954 -200 7.5611361e-39
690.28821 -1337.468 -210 8.2976151e-39
656.03406 -1449.3906 -230 9.4990337e-39
670.37903 -1297.4227 -210 1.0975634e-38
654.40637 -1285.3865 -200 1.2455106e-38
648.38818 -1293.3728 -210 1.3098316e-38
626.28381 -1339.3228 -220 1.3375625e-38
540.17511 -1387.1274 -240 1.5222046e-38
524.20239 -1375.0911 -240 1.5497547e-38
524.31592 -1325.0913 -230 1.5038745e-38
518.41125 -1283.0778 -220 1.6047855e-38
500.35681 -1307.0369 -230 1.577306e-38
486.35229 -1309.005 -230 1.5403562e-38
470.37958 -1296.9688 -230 1.4942236e-38
462.39322 -1290.9506 -230 1.4668148e-38
452.43866 -1270.928 -230 1.4206839e-38
444.45227 -1264.9098 -230 1.3652924e-38
428.47955 -1252.8735 -230 1.3286305e-38
416.44327 -1268.8462 -230 1.3467821e-38
404.52051 -1234.8191 -230 1.3376336e-38
414.70203 -1154.842 -210 1.3101189e-38
402.66577 -1170.8147 -220 1.3006496e-38
400.81104 -1106.8103 -210 1.263806e-38
402.89276 -1070.8149 -200 1.2179255e-38
364.70221 -1154.7285 -220 1.1995928e-38
344.67957 -1164.6831 -220 1.2732055e-38
274.31653 -1324.5237 -260 1.2545863e-38
254.29388 -1334.4783 -260 1.1904096e-38
250.35742 -1306.4694 -260 1.1166526e-38
302.77954 -1120.5879 -220 1.1623547e-38
274.77051 -1124.5243 -230 1.0794865e-38
254.74786 -1134.4789 -230 1.0794498e-38
248.8432 -1092.4653 -220 1.0608676e-38
250.92493 -1056.47 -220 1.0240954e-38
285.40607 -844.54773 -180 9.2250028e-39
277.41974 -838.52954 -180 8.6732612e-39
251.37891 -856.47046 -180 8.4867161e-39
243.39258 -850.45239 -180 8.1179462e-39
227.41986 -838.41602 -180 8.2115684e-39
219.43347 -832.39795 -180 7.5644053e-39
217.46527 -818.39343 -180 7.3785749e-39
197.44263 -828.34802 -190 7.2860163e-39
181.46991 -816.31165 -190 7.0079833e-39
139.3429 -872.21619 -200 6.6366672e-39
121.62897 -746.17566 -180 2.4856863e-39
61.44751 -826.03931 -200 1.751361e-39
-6.3798218 -749.88513 -200 1.0145135e-39
-46.42511 -769.79431 -210 9.219563e-40
-84.502197 -803.70789 -220 1.0141547e-39
-112.51123 -807.64441 -220 8.301222e-40
38.055908 -557.98547 -160 1.0141519e-39
24.051392 -559.95374 -160 9.219577e-40
16.065063 -553.93555 -160 7.3793078e-40
0.092346191 -541.89929 -160 6.4609248e-40
-7.894043 -535.8811 -160 5.5281785e-40
-3.8441162 -513.89026 -160 4.6061661e-40
-17.848633 -515.85852 -160 2.7694562e-40
-79.998291 -581.71753 -180 3.6842239e-40
-94.002747 -583.68579 -180 4.6133548e-40
-101.98914 -577.6676 -180 7.3756924e-40
-111.94373 -557.64502 -180 6.4573235e-40
-125.94824 -559.61328 -180 7.3756784e-40
-115.88013 -529.63599 -180 6.4573515e-40
-123.86646 -523.6178 -170 7.3720911e-40
-119.81653 -501.62695 -170 5.5389405e-40
-127.80298 -495.60889 -170 6.4536941e-40
-137.75745 -475.58618 -170 5.5245491e-40
-151.76196 -477.55444 -170 4.6097815e-40
-153.73022 -463.54993 -170 4.6061942e-40
-167.73474 -465.51807 -170 4.6025928e-40
-183.7074 -453.48181 -170 7.3792377e-40
-191.69385 -447.46375 -170 8.2976207e-40
-199.68018 -441.44556 -170 7.3756784e-40
-221.67102 -437.39563 -170 1.0141547e-39
-1409.6316 -418.69897 -320 4.6025928e-40
732.18823 -1381.5632 -230 5.0703827e-39
718.18372 -1383.5315 -230 6.5466114e-39
708.22913 -1363.5088 -230 6.9161142e-39
696.3064 -1329.4817 -220 7.1930682e-39
680.22015 -1367.4453 -230 8.0221058e-39
660.08398 -1427.3997 -240 8.9476522e-39
662.27917 -1341.4045 -230 1.0791604e-38
662.3927 -1291.4045 -220 1.2179594e-38
648.38818 -1293.3728 -220 1.300721e-38
624.31561 -1325.3184 -230 1.3193023e-38
612.2793 -1341.291 -230 1.3192679e-38
528.25232 -1353.1003 -250 1.4853275e-38
526.28406 -1339.0957 -250 1.5493967e-38
508.34317 -1313.0549 -240 1.5313893e-38
486.35229 -1309.005 -240 1.50355e-38
476.39774 -1288.9824 -240 1.4573807e-38
500.6973 -1157.0372 -220 1.3929505e-38
462.50671 -1240.9507 -240 1.3744396e-38
448.50223 -1242.9189 -240 1.3375268e-38
432.52948 -1230.8827 -240 1.3190151e-38
424.54312 -1224.8645 -240 1.3187987e-38
420.60669 -1196.8555 -230 1.309544e-38
416.67026 -1168.8466 -230 1.2727012e-38
406.7157 -1148.8239 -230 1.3188335e-38
402.77924 -1120.8148 -220 1.2359307e-38
408.91089 -1062.8286 -210 1.207911e-38
382.87012 -1080.7695 -220 1.2076944e-38
330.56152 -1216.6511 -250 1.2071547e-38
274.31653 -1324.5237 -270 1.2067216e-38
266.33014 -1318.5056 -280 1.1050183e-38
256.37561 -1298.483 -270 9.8505439e-39
290.74323 -1136.5605 -240 9.2962799e-39
274.77051 -1124.5243 -240 6.9957177e-39
210.76611 -1126.379 -250 3.3183322e-39
273.36981 -860.52039 -200 2.4896519e-39
265.38342 -854.50232 -200 2.1212254e-39
251.37891 -856.47046 -200 2.0290339e-39
243.39258 -850.45239 -200 1.9371984e-39
227.41986 -838.41602 -200 1.9368327e-39
219.43347 -832.39795 -200 1.7528058e-39
211.44714 -826.37976 -200 1.7524442e-39
197.44263 -828.34802 -200 1.6606115e-39
189.45624 -822.32983 -200 1.5687704e-39
169.43359 -832.28442 -200 1.5676957e-39
149.41095 -842.23901 -210 1.475863e-39
123.37018 -860.17993 -210 1.3840219e-39
97.329407 -878.12085 -220 1.3836589e-39
77.306702 -888.07544 -220 1.2911032e-39
-12.397949 -757.87146 -210 8.312026e-40
-26.402466 -759.83972 -220 7.3792657e-40
-46.42511 -769.79431 -220 8.2976347e-40
-78.484009 -795.72156 -230 1.0145121e-39
-94.456726 -783.6853 -230 9.219591e-40
40.024109 -571.98999 -180 6.4537081e-40
44.074036 -549.99915 -170 9.2231363e-40
30.06958 -551.96741 -170 8.3012501e-40
28.101318 -537.96289 -170 6.4644981e-40
12.128601 -525.92651 -170 7.3756504e-40
4.1422729 -519.90845 -170 4.6169842e-40
-3.8441162 -513.89026 -170 3.6878252e-40
-23.86676 -523.84485 -180 2.7658969e-40
-92.034546 -597.69031 -200 2.7658829e-40
-100.02087 -591.67212 -200 4.6169561e-40
-108.00732 -585.65405 -200 7.3756924e-40
-117.96179 -565.63135 -190 7.3792798e-40
-125.94824 -559.61328 -200 6.4609108e-40
-127.91638 -545.60876 -190 6.4537221e-40
-123.86646 -523.6178 -190 6.4536941e-40
-131.85291 -517.59973 -190 6.4572674e-40
-147.82556 -505.56348 -190 5.5317518e-40
-149.79382 -491.55896 -190 4.6097955e-40
-151.76196 -477.55444 -180 4.6097675e-40
-153.73022 -463.54993 -180 3.6878392e-40
-161.71655 -457.53174 -180 7.3828811e-40
-183.7074 -453.48181 -180 9.219591e-40
-185.67566 -439.47729 -180 9.2231923e-40
-193.66199 -433.45923 -180 1.0145107e-39
-221.67102 -437.39563 -190 1.1056287e-39
-247.71179 -455.33655 -190 9.2231923e-40
-1351.759 -474.83044 -340 4.6097535e-40
-1407.6633 -432.70349 -340 3.6842379e-40
-1377.5728 -392.77173 -330 2.7694702e-40
728.13831 -1403.5542 -240 2.4864065e-39
714.13379 -1405.5222 -250 2.8559037e-39
708.22913 -1363.5088 -240 2.8562625e-39
698.2746 -1343.4861 -240 3.3158015e-39
686.23828 -1359.459 -240 3.4076356e-39
678.36542 -1303.4409 -230 3.7771384e-39
668.41089 -1283.4182 -230 4.3303247e-39
664.47443 -1255.4092 -230 4.8842202e-39
644.45178 -1265.3638 -230 4.9753396e-39
632.302 -1331.3364 -240 4.9760543e-39
616.32922 -1319.3 -240 4.424684e-39
594.22491 -1365.25 -250 4.7001821e-39
544.22504 -1365.1365 -260 4.4246798e-39
528.25232 -1353.1003 -260 4.1491705e-39
518.29773 -1333.0776 -260 4.3317695e-39
504.29324 -1335.0459 -260 4.1495348e-39
490.28873 -1337.0142 -260 3.6885595e-39
482.30237 -1330.9958 -260 3.8718703e-39
472.34781 -1310.9731 -260 3.5045255e-39
458.34329 -1312.9414 -260 3.3208546e-39
454.40686 -1284.9325 -260 3.411974e-39
444.45227 -1264.9098 -260 3.2286547e-39
448.61572 -1192.9191 -240 3.1357444e-39
430.56128 -1216.8782 -250 3.0439103e-39
424.65662 -1174.8646 -240 2.8602365e-39
410.6521 -1176.8329 -250 2.9517133e-39
402.66577 -1170.8147 -250 2.7673234e-39
406.82916 -1098.824 -230 2.7680367e-39
394.90637 -1064.7969 -230 2.5836482e-39
274.31653 -1324.5237 -290 2.8591533e-39
264.36194 -1304.5011 -290 2.4914582e-39
262.39374 -1290.4966 -290 2.5832853e-39
226.62537 -1188.4152 -270 2.4907309e-39
222.6889 -1160.4061 -270 2.5822105e-39
224.77063 -1124.4108 -260 2.3985367e-39
194.67993 -1164.3425 -270 2.2145042e-39
180.67542 -1166.3108 -270 2.3059796e-39
303.46051 -820.58862 -200 2.121947e-39
279.38794 -852.53406 -200 2.1215883e-39
265.38342 -854.50232 -210 1.8453601e-39
257.39703 -848.48413 -210 1.7528086e-39
243.39258 -850.45239 -210 1.8449958e-39
233.43799 -830.42969 -210 1.7524456e-39
225.4516 -824.4115 -210 1.7528044e-39
217.46527 -818.39343 -210 1.7520841e-39
203.46075 -820.36157 -210 1.8439196e-39
187.48804 -808.32532 -210 1.5680572e-39
173.48352 -810.29358 -210 1.4762175e-39
159.479 -812.26172 -210 1.5676942e-39
145.47455 -814.22998 -220 1.3840219e-39
137.48816 -808.21179 -220 1.3836575e-39
133.55176 -780.20288 -210 1.1996236e-39
91.424744 -836.1073 -230 1.198546e-39
115.61078 -754.16199 -210 1.1985488e-39
67.465637 -818.05298 -230 1.107428e-39
79.615417 -752.08032 -210 1.1996278e-39
69.660889 -732.05774 -210 1.107435e-39
43.620056 -749.99866 -220 1.1070748e-39
29.61554 -751.9668 -220 1.1067175e-39
25.679138 -723.95789 -220 1.1981887e-39
-6.3798218 -749.88513 -230 1.0145149e-39
-20.384338 -751.85339 -230 7.3757064e-40
-40.406982 -761.80786 -230 8.2940054e-40
-62.397827 -757.75793 -230 1.1059902e-39
-70.384155 -751.73987 -230 7.3757064e-40
34.005981 -579.97632 -190 5.5317518e-40
38.055908 -557.98547 -190 1.0141491e-39
30.06958 -551.96741 -190 8.2976347e-40
22.083191 -545.94922 -180 7.3792657e-40
6.1104736 -533.91296 -180 7.3792377e-40
4.1422729 -519.90845 -180 4.6134109e-40
-9.8622437 -521.87659 -180 3.6878252e-40
-29.884888 -531.83118 -190 2.7694842e-40
-92.034546 -597.69031 -210 2.7658829e-40
-100.02087 -591.67212 -210 4.6133688e-40
-108.00732 -585.65405 -210 7.3756644e-40
-117.96179 -565.63135 -210 6.4644981e-40
-125.94824 -559.61328 -210 8.2940054e-40
-133.93457 -553.59509 -210 6.4536941e-40
-129.88464 -531.60425 -200 6.4572814e-40
-145.8573 -519.56787 -200 4.6098095e-40
-147.82556 -505.56348 -200 4.6098095e-40
-149.79382 -491.55896 -200 5.5281505e-40
-151.76196 -477.55444 -200 4.6061942e-40
-153.73022 -463.54993 -190 5.5317518e-40
-161.71655 -457.53174 -190 1.1067077e-39
-177.68933 -445.49548 -190 1.1070706e-39
-185.67566 -439.47729 -190 1.1992621e-39
-187.64392 -425.47278 -190 1.1056301e-39
-201.64844 -427.44104 -190 6.4501208e-40
-223.63928 -423.39111 -200 4.6134109e-40
-1351.759 -474.83044 -360 4.6097815e-40
-1363.5681 -390.80347 -340 5.5209478e-40
728.25183 -1353.5542 -250 1.1992677e-39
726.28357 -1339.5498 -250 1.291822e-39
710.31085 -1327.5134 -250 1.567683e-39
700.35632 -1307.4908 -240 1.6598843e-39
688.32001 -1323.4636 -250 1.7517268e-39
680.44714 -1267.4456 -240 2.0286696e-39
676.51074 -1239.4365 -230 2.3978165e-39
664.58789 -1205.4093 -230 2.5840126e-39
656.60156 -1199.3912 -230 2.6762082e-39
632.302 -1331.3364 -260 2.7680465e-39
614.36108 -1305.2957 -250 2.9517119e-39
594.22491 -1365.25 -270 2.8602407e-39
584.27032 -1345.2273 -270 2.952435e-39
534.27045 -1345.114 -270 3.1364675e-39
524.31592 -1325.0913 -270 3.2290205e-39
486.35229 -1309.005 -270 2.9527951e-39
476.39774 -1288.9824 -270 3.1357444e-39
498.72906 -1143.0327 -240 3.2283016e-39
478.70642 -1152.9873 -250 2.8595247e-39
448.50223 -1242.9189 -270 2.8602365e-39
456.71558 -1148.9374 -250 2.8595191e-39
444.67929 -1164.91 -250 2.6754893e-39
438.77463 -1122.8966 -250 2.7669605e-39
418.75198 -1132.8511 -250 2.7669563e-39
416.78378 -1118.8467 -250 2.6751222e-39
400.81104 -1106.8103 -250 2.7666074e-39
408.91089 -1062.8286 -240 2.5832923e-39
388.88824 -1072.7832 -240 2.5825692e-39
294.33917 -1314.5691 -300 2.6751236e-39
276.28473 -1338.5283 -310 2.6747621e-39
248.72974 -1142.4652 -280 2.2148643e-39
297.10187 -978.57458 -240 2.3063397e-39
246.875 -1078.4608 -260 2.3052607e-39
204.74799 -1134.3654 -280 2.1215883e-39
196.76166 -1128.3472 -280 2.0293927e-39
299.41058 -842.57947 -210 1.8464349e-39
285.40607 -844.54773 -220 1.9368369e-39
265.38342 -854.50232 -220 1.8453573e-39
257.39703 -848.48413 -220 1.8446371e-39
243.39258 -850.45239 -220 1.6609703e-39
227.41986 -838.41602 -220 1.8446399e-39
219.43347 -832.39795 -220 1.476579e-39
217.46527 -818.39343 -220 1.6595297e-39
203.46075 -820.36157 -220 1.5684145e-39
187.48804 -808.32532 -220 1.3840205e-39
179.50171 -802.30725 -220 1.4754986e-39
165.49719 -804.27539 -220 1.4751301e-39
157.5108 -798.25732 -230 1.2911046e-39
165.61066 -754.27551 -210 1.291106e-39
145.58801 -764.2301 -220 1.1992649e-39
107.51093 -798.1438 -230 1.1989061e-39
105.54272 -784.13928 -230 1.2911004e-39
79.501953 -802.0802 -240 1.2903829e-39
59.479309 -812.03479 -240 1.1989103e-39
79.615417 -752.08032 -230 1.1996292e-39
69.660889 -732.05774 -220 1.0152379e-39
43.620056 -749.99866 -230 1.1989117e-39
-0.47515869 -791.89868 -250 1.1985516e-39
-8.4614868 -785.88049 -250 1.0141575e-39
-22.466003 -787.84875 -250 1.0141561e-39
-38.438721 -775.81238 -250 8.2940474e-40
-52.443237 -777.78064 -250 8.2940194e-40
-62.397827 -757.75793 -250 9.2160037e-40
-52.329773 -727.78076 -240 8.3012501e-40
34.005981 -579.97632 -200 5.5281505e-40
38.055908 -557.98547 -200 9.2159336e-40
24.051392 -559.95374 -200 9.208787e-40
22.083191 -545.94922 -200 6.4501348e-40
6.1104736 -533.91296 -200 6.4536801e-40
4.1422729 -519.90845 -200 5.5281505e-40
-15.880371 -529.86304 -200 4.6061942e-40
-29.884888 -531.83118 -200 3.6842519e-40
-86.016418 -589.70398 -220 3.6878392e-40
-100.02087 -591.67212 -220 5.5316958e-40
-108.00732 -585.65405 -220 7.3756924e-40
-117.96179 -565.63135 -220 7.3720911e-40
-125.94824 -559.61328 -220 6.4537221e-40
-133.93457 -553.59509 -220 8.290432e-40
-135.90283 -539.59058 -220 6.4501068e-40
-145.8573 -519.56787 -220 6.4501208e-40
-147.82556 -505.56348 -210 5.5317518e-40
-149.79382 -491.55896 -210 5.5281224e-40
-151.76196 -477.55444 -210 5.5317098e-40
-153.73022 -463.54993 -210 1.0148708e-39
-161.71655 -457.53174 -210 1.1059888e-39
-169.70288 -451.51367 -210 9.208773e-40
-179.65747 -431.49097 -200 5.5317518e-40
-187.64392 -425.47278 -200 5.5353672e-40
-195.63025 -419.45471 -200 5.5317658e-40
-209.63477 -421.42285 -210 6.4537081e-40
-225.60742 -409.3866 -210 6.4501348e-40
-239.61194 -411.35486 -210 5.5389685e-40
-247.59827 -405.33667 -210 7.3756784e-40
-281.62549 -417.25952 -220 8.2976067e-40
-271.55737 -387.28223 -210 8.301222e-40
-217.39417 -315.40503 -190 1.106349e-39
-245.40308 -319.34143 -190 9.219591e-40
-259.40759 -321.30969 -200 1.106349e-39
-1365.7634 -476.79871 -380 4.6097955e-40
-1407.7769 -482.70337 -390 6.4500647e-40
-1365.6499 -426.79883 -370 5.5245491e-40
-1387.6409 -422.7489 -370 3.6878112e-40
-1363.5681 -390.80347 -360 5.5281224e-40
-1363.5681 -390.80347 -360 4.6025788e-40
-1363.5681 -390.80347 -360 1.5647992e-39
-1363.5681 -390.80347 -360 1.8413847e-39
734.26996 -1345.5679 -260 1.1992635e-39
724.31537 -1325.5452 -260 1.3832988e-39
720.37891 -1297.5363 -250 1.475493e-39
704.40625 -1285.5 -250 1.4754944e-39
698.38806 -1293.4863 -260 1.660243e-39
684.49707 -1245.4546 -250 1.9368327e-39
680.56067 -1217.4457 -240 2.3063383e-39
670.60608 -1197.423 -240 2.6754851e-39
636.46545 -1259.3457 -260 2.6762026e-39
634.49719 -1245.3412 -260 2.5843769e-39
622.5744 -1211.314 -250 2.7673234e-39
610.53809 -1227.2867 -260 2.7680409e-39
604.63342 -1185.2732 -250 2.7691157e-39
584.61084 -1195.2278 -250 2.9520692e-39
580.78784 -1117.2189 -240 3.1360976e-39
514.2478 -1355.0684 -290 3.1361018e-39
568.97858 -1033.1919 -220 2.8609596e-39
550.92419 -1057.151 -230 3.0435488e-39
508.68365 -1163.0553 -260 2.9520734e-39
484.72458 -1145.001 -260 2.9524322e-39
452.55215 -1220.9281 -280 3.0439019e-39
456.71558 -1148.9374 -260 2.6762096e-39
438.66113 -1172.8965 -270 2.7676794e-39
434.7247 -1144.8875 -260 2.4925288e-39
418.75198 -1132.8511 -260 2.4918114e-39
414.81555 -1104.8422 -260 2.6751278e-39
406.82916 -1098.824 -260 2.4918142e-39
408.91089 -1062.8286 -250 2.5832909e-39
392.93817 -1050.7924 -250 2.3996171e-39
378.93365 -1052.7605 -250 2.4910953e-39
248.72974 -1142.4652 -290 2.3981766e-39
297.10187 -978.57458 -250 2.3063411e-39
277.07922 -988.52917 -260 2.2137825e-39
269.09283 -982.51099 -260 2.3052551e-39
190.74347 -1136.3336 -300 2.1208694e-39
289.34253 -872.55676 -230 2.0293871e-39
273.36981 -860.52039 -230 1.753519e-39
259.3653 -862.48865 -230 1.9361152e-39
251.37891 -856.47046 -240 1.8446343e-39
243.39258 -850.45239 -240 1.7520813e-39
227.41986 -838.41602 -240 1.56769e-39
219.43347 -832.39795 -240 1.5673313e-39
211.44714 -826.37976 -240 1.3843792e-39
203.46075 -820.36157 -240 1.474777e-39
187.48804 -808.32532 -240 1.3829415e-39
179.50171 -802.30725 -230 1.1059888e-39
171.51532 -796.28906 -240 1.1978271e-39
155.5426 -784.25281 -240 1.1063504e-39
169.66058 -732.28467 -220 1.0141519e-39
149.63794 -742.23926 -230 1.0141533e-39
131.5835 -766.19836 -240 1.0148708e-39
111.56085 -776.15295 -240 9.2231643e-40
83.55188 -780.08936 -240 1.1059916e-39
69.547363 -782.0575 -250 9.2231783e-40
61.560974 -776.03943 -250 1.0141547e-39
57.624573 -748.0304 -240 1.0145121e-39
37.601929 -757.98499 -250 8.3012361e-40
-12.511475 -807.87134 -270 8.3084107e-40
-20.497803 -801.85327 -270 1.1067105e-39
-22.466003 -787.84875 -260 1.7517198e-39
-44.456909 -783.79883 -260 9.219605e-40
-52.443237 -777.78064 -270 8.2975927e-40
-56.3797 -749.77161 -260 1.0145135e-39
-22.239014 -687.849 -240 8.3012361e-40
3.9152832 -619.9082 -230 5.5353391e-40
26.019592 -573.95825 -210 1.0145107e-39
18.033264 -567.94006 -210 6.4717148e-40
16.065063 -553.93555 -210 6.4609248e-40
6.1104736 -533.91296 -210 4.6134109e-40
-1.8759155 -527.89478 -210 4.6097955e-40
-15.880371 -529.86304 -210 4.6097955e-40
-29.884888 -531.83118 -210 3.6878252e-40
-67.961975 -565.74487 -230 2.7658969e-40
-94.002747 -583.68579 -230 5.5281505e-40
-108.00732 -585.65405 -230 7.3756644e-40
-117.96179 -565.63135 -230 6.4572954e-40
-125.94824 -559.61328 -230 8.2940194e-40
-133.93457 -553.59509 -230 6.4572954e-40
-135.90283 -539.59058 -230 7.3756364e-40
-145.8573 -519.56787 -230 7.3756224e-40
-147.82556 -505.56348 -230 7.3756364e-40
-149.79382 -491.55896 -220 7.3756224e-40
-151.76196 -477.55444 -220 9.2124024e-40
-153.73022 -463.54993 -220 5.5353531e-40
-155.69849 -449.54541 -220 5.5353531e-40
-163.68481 -443.52722 -220 6.4537361e-40
-179.65747 -431.49097 -220 7.3792237e-40
-181.62573 -417.48645 -210 8.2940474e-40
-189.61206 -411.46838 -210 7.3792657e-40
-197.59851 -405.4502 -220 6.4573235e-40
-219.58936 -401.40027 -220 7.3864684e-40
-233.59387 -403.36853 -220 1.0145107e-39
-241.5802 -397.35034 -220 8.3048514e-40
-249.56653 -391.33215 -220 9.2267797e-40
-265.53931 -379.2959 -220 1.1059902e-39
-203.38965 -313.43677 -200 9.219563e-40
-217.39417 -315.40503 -200 1.1067091e-39
-239.38501 -311.3551 -200 1.0130771e-39
-253.38953 -313.32336 -200 3.6878392e-40
-261.37585 -307.30518 -200 3.6842519e-40
-1337.7544 -472.8623 -390 5.5245211e-40
-1367.7317 -462.79419 -390 4.6061802e-40
-1369.7 -448.78967 -390 3.6878252e-40
-1325.6047 -406.88965 -380 4.6025928e-40
-1347.5955 -402.83972 -380 2.7694702e-40
-1349.5637 -388.83521 -380 5.5281365e-40
732.41522 -1281.5635 -260 1.475493e-39
712.39258 -1291.5181 -270 1.4754958e-39
708.45618 -1263.509 -260 1.56769e-39
698.50159 -1243.4865 -260 1.6598843e-39
688.547 -1223.4637 -260 1.7531575e-39
678.59241 -1203.4412 -250 2.12194e-39
674.65601 -1175.4321 -250 2.6744089e-39
664.70142 -1155.4094 -250 2.5843601e-39
646.64697 -1179.3685 -250 2.767322e-39
634.61072 -1195.3413 -260 2.6758551e-39
628.70605 -1153.3278 -250 2.6765669e-39
612.73334 -1141.2915 -250 2.9524266e-39
596.87415 -1079.2554 -240 2.9524406e-39
590.85596 -1087.2417 -240 2.7691241e-39
574.88324 -1075.2054 -240 2.9524308e-39
568.97858 -1033.1919 -240 3.1368206e-39
556.94226 -1049.1646 -240 3.1361032e-39
546.98773 -1029.142 -240 2.952072e-39
444.67929 -1164.91 -280 2.7676724e-39
432.7565 -1130.8829 -280 2.8587932e-39
454.97433 -1034.9331 -250 2.6758411e-39
436.91992 -1058.8922 -260 2.5825664e-39
416.89728 -1068.8468 -260 2.582928e-39
417.01077 -1018.8469 -260 2.6736887e-39
396.9881 -1028.8015 -260 2.3988955e-39
395.0199 -1014.797 -260 2.3988941e-39
385.06531 -994.77429 -260 2.3985353e-39
303.00653 -1020.5881 -270 2.3056236e-39
295.02014 -1014.5699 -270 2.3056208e-39
297.10187 -978.57458 -270 2.2141427e-39
283.09735 -980.54285 -270 2.0304675e-39
269.09283 -982.51099 -270 1.8453629e-39
287.37427 -858.55225 -240 1.8449972e-39
279.38794 -852.53406 -240 1.9364754e-39
265.38342 -854.50232 -250 1.843921e-39
251.37891 -856.47046 -250 1.7520799e-39
243.39258 -850.45239 -250 1.5680502e-39
227.41986 -838.41602 -250 1.4755e-39
219.43347 -832.39795 -250 1.2911018e-39
211.44714 -826.37976 -250 1.2911018e-39
203.46075 -820.36157 -250 1.2914619e-39
193.50616 -800.33899 -250 1.0152323e-39
185.51984 -794.3208 -250 8.2976207e-40
177.53345 -788.30273 -250 8.2940194e-40
167.57892 -768.28003 -240 7.3792517e-40
175.67877 -724.29834 -230 8.2976067e-40
161.67426 -726.26648 -240 7.3792657e-40
129.6153 -752.19385 -240 8.2976207e-40
115.61078 -754.16199 -250 7.3792657e-40
95.588135 -764.11658 -250 9.2124164e-40
81.583679 -766.08484 -260 8.2976207e-40
79.615417 -752.08032 -250 7.3828531e-40
69.660889 -732.05774 -250 9.2231783e-40
61.6745 -726.03955 -250 1.1978215e-39
29.61554 -751.9668 -260 1.0134317e-39
21.629211 -745.94873 -260 9.2267516e-40
-12.397949 -757.87146 -270 1.105986e-39
-32.420593 -767.82605 -270 1.1985446e-39
-40.406982 -761.80786 -270 1.1981845e-39
-26.28894 -709.83984 -260 1.0145079e-39
-16.220886 -679.86255 -250 1.1989005e-39
9.9334106 -611.92175 -240 1.1978243e-39
26.019592 -573.95825 -230 7.3756784e-40
24.051392 -559.95374 -220 9.219563e-40
22.083191 -545.94922 -220 1.1063518e-39
6.1104736 -533.91296 -220 1.014875e-39
-1.8759155 -527.89478 -220 1.0145135e-39
-15.880371 -529.86304 -220 9.219549e-40
-29.884888 -531.83118 -230 9.2159616e-40
-55.925659 -549.77209 -230 7.3792657e-40
-94.002747 -583.68579 -250 6.4537221e-40
-101.98914 -577.6676 -250 6.4537081e-40
-117.96179 -565.63135 -250 7.3684617e-40
-125.94824 -559.61328 -250 8.2868027e-40
-133.93457 -553.59509 -250 7.3720491e-40
-135.90283 -539.59058 -240 7.3756504e-40
-145.8573 -519.56787 -240 9.208773e-40
-147.82556 -505.56348 -240 8.2940054e-40
-149.79382 -491.55896 -240 9.2159476e-40
-151.76196 -477.55444 -230 1.1067105e-39
-153.73022 -463.54993 -230 9.2231643e-40
-155.69849 -449.54541 -230 1.1063462e-39
-163.68481 -443.52722 -230 1.106349e-39
-173.6394 -423.50464 -230 1.2914577e-39
-181.62573 -417.48645 -230 1.475493e-39
-189.61206 -411.46838 -230 1.3829358e-39
-197.59851 -405.4502 -230 1.291099e-39
-211.60291 -407.41846 -230 1.383296e-39
-233.59387 -403.36853 -230 1.2911018e-39
-235.56201 -389.36401 -230 1.2907402e-39
-243.54834 -383.34583 -230 1.1981817e-39
-245.5166 -369.34131 -230 1.1052672e-39
-235.44849 -339.36414 -220 7.3684617e-40
-223.41223 -323.39136 -210 4.6133548e-40
-239.38501 -311.3551 -210 4.6097675e-40
-253.38953 -313.32336 -220 2.7730716e-40
-261.37585 -307.30518 -220 3.6878392e-40
-283.3667 -303.25525 -220 2.7658829e-40
-291.35303 -297.23706 -220 2.7622676e-40
-1337.7544 -472.8623 -410 4.6061942e-40
-1367.7317 -462.79419 -410 4.6061802e-40
-1349.6772 -438.83508 -410 2.7694562e-40
-1331.6228 -414.8761 -400 3.6842239e-40
-1321.5547 -384.8988 -390 2.7658689e-40
-1309.5183 -368.92615 -390 5.5281365e-40
767.23682 -919.6416 -190 1.3836575e-39
726.51056 -1239.55 -270 1.3836589e-39
706.48792 -1249.5045 -270 1.5680474e-39
704.51971 -1235.5001 -270 1.6595241e-39
692.59692 -1201.4729 -260 1.9368299e-39
680.67413 -1167.4458 -260 2.1222988e-39
676.73767 -1139.4368 -250 2.6736845e-39
666.78308 -1119.4141 -250 2.4907309e-39
656.71509 -1149.3914 -260 2.5829294e-39
646.7605 -1129.3687 -260 2.6744019e-39
632.75598 -1131.3369 -260 2.5836525e-39
624.76965 -1125.3187 -260 2.7666004e-39
614.81506 -1105.2961 -260 2.7680409e-39
606.82867 -1099.278 -260 2.9517105e-39
602.89221 -1071.2689 -250 3.2279401e-39
588.88776 -1073.2372 -250 3.0446264e-39
578.93317 -1053.2145 -250 3.2282946e-39
574.9967 -1025.2056 -250 3.0449781e-39
560.99219 -1027.1737 -250 2.952072e-39
551.03766 -1007.1511 -250 3.0439047e-39
553.11938 -971.15576 -240 2.8595191e-39
521.17395 -947.08313 -240 2.6751236e-39
519.20569 -933.07861 -240 2.6747635e-39
485.06506 -995.00134 -250 2.6754781e-39
467.01062 -1018.9603 -260 2.5829294e-39
469.09235 -982.96497 -250 2.4910925e-39
439.00162 -1022.8969 -270 2.4907338e-39
424.99713 -1024.865 -270 2.4910897e-39
421.0607 -996.85608 -260 2.3985367e-39
413.07434 -990.83789 -260 2.3066984e-39
429.27405 -902.87439 -240 2.3988927e-39
397.10162 -978.80164 -260 2.3978179e-39
383.09711 -980.76978 -270 2.3981794e-39
339.11536 -972.66992 -270 2.2145056e-39
321.06097 -996.62903 -280 2.4892904e-39
301.03827 -1006.5836 -280 2.4896505e-39
309.13818 -962.60193 -280 2.2141385e-39
289.11548 -972.5564 -280 2.0304661e-39
275.11102 -974.52466 -280 2.0297486e-39
293.39246 -850.5658 -250 1.9379103e-39
285.40607 -844.54773 -250 2.0297458e-39
271.40155 -846.51587 -260 1.8453531e-39
257.39703 -848.48413 -260 1.93719e-39
249.41071 -842.46594 -260 1.7524386e-39
233.43799 -830.42969 -260 1.7520813e-39
225.4516 -824.4115 -260 1.5680502e-39
217.46527 -818.39343 -260 1.7513596e-39
201.49255 -806.35718 -260 1.5666082e-39
193.50616 -800.33899 -260 9.2267797e-40
191.53796 -786.33447 -260 6.4536941e-40
175.56525 -774.29822 -260 4.6134389e-40
173.59705 -760.2937 -250 9.2195209e-40
175.67877 -724.29834 -250 8.3047953e-40
167.69238 -718.28015 -250 9.2159476e-40
147.66974 -728.23474 -250 9.2231923e-40
139.68335 -722.21655 -250 8.2976627e-40
113.64258 -740.15759 -260 1.0137932e-39
105.65625 -734.1394 -260 8.3048514e-40
107.73792 -698.14404 -250 9.2231783e-40
99.751587 -692.12585 -250 1.0141547e-39
79.728943 -702.08044 -260 1.1067077e-39
-12.511475 -807.87134 -290 9.2231783e-40
55.769836 -684.026 -260 9.219549e-40
29.729065 -701.96692 -260 1.1056273e-39
-2.329895 -727.89429 -280 1.29002e-39
5.7699585 -683.91248 -260 1.105986e-39
-8.2344971 -685.88074 -270 9.219563e-40
-4.1845703 -663.88989 -260 1.1056273e-39
27.987854 -587.96277 -240 9.2231363e-40
20.001465 -581.94458 -240 9.2159476e-40
18.033264 -567.94006 -240 7.3756504e-40
16.065063 -553.93555 -240 1.0145107e-39
0.092346191 -541.89929 -240 1.1063462e-39
-1.8759155 -527.89478 -230 1.1981845e-39
-15.880371 -529.86304 -240 1.1989019e-39
-29.884888 -531.83118 -240 1.1981831e-39
-49.907532 -541.78577 -240 1.1985432e-39
-87.984619 -575.69946 -260 1.1067049e-39
-101.98914 -577.6676 -260 1.29002e-39
-117.96179 -565.63135 -260 1.1067091e-39
-125.94824 -559.61328 -260 1.0145107e-39
-133.93457 -553.59509 -260 9.2267236e-40
-135.90283 -539.59058 -260 7.3792798e-40
-145.8573 -519.56787 -250 8.2975927e-40
-147.82556 -505.56348 -250 5.5389685e-40
-149.79382 -491.55896 -250 8.2976207e-40
-151.76196 -477.55444 -250 7.3756784e-40
-153.73022 -463.54993 -240 6.4573375e-40
-155.69849 -449.54541 -240 1.1981873e-39
-157.66663 -435.54089 -240 1.1992635e-39
-159.63489 -421.53638 -240 1.1999809e-39
-175.60754 -409.50012 -240 1.5666082e-39
-183.59399 -403.48193 -240 1.381854e-39
-197.59851 -405.4502 -240 4.6097955e-40
-205.58484 -399.43201 -240 4.6097955e-40
-227.57568 -395.38208 -240 3.6878392e-40
-229.54395 -381.37756 -240 5.5317238e-40
-237.53027 -375.3595 -240 6.4500928e-40
-239.49841 -361.35498 -240 5.5281505e-40
-241.46667 -347.35046 -230 5.5281224e-40
-243.43494 -333.34595 -230 5.5245491e-40
-257.43945 -335.31421 -230 4.6097955e-40
-259.40759 -321.30969 -230 3.6878392e-40
-293.43481 -333.23242 -240 3.6878252e-40
-321.44373 -337.16895 -240 3.6878252e-40
-329.43018 -331.15076 -240 3.6878112e-40
-337.4165 -325.13257 -240 2.7658829e-40
