# .PCD v0.7 - Point Cloud Data file format
VERSION 0.7
FIELDS x y z rgb
SIZE 4 4 4 4
TYPE F F F F
COUNT 1 1 1 1
WIDTH 1221
HEIGHT 1
VIEWPOINT 0 0 0 1 0 0 0
POINTS 1221
DATA ascii
-90.499817 -832.46069 450 1.475238e-38
-80.956421 -802.31238 440 1.5031488e-38
-91.258972 -782.46655 440 1.4201007e-38
-99.349121 -776.58862 440 1.3738595e-38
-101.56146 -762.62061 440 1.3462339e-38
-111.86401 -742.77478 440 2.4900079e-39
-114.07629 -728.80676 440 2.3052467e-39
-51.632324 -625.8468 420 2.4914316e-39
-59.722473 -619.96899 410 2.4882002e-39
-56.056946 -597.91077 410 2.6715139e-39
-64.147156 -592.03296 410 3.0417285e-39
-66.359436 -578.06494 410 3.4101523e-39
-74.449646 -572.18701 410 2.3056096e-39
-90.630005 -560.4314 410 2.5796756e-39
-98.720154 -554.55347 410 3.1324892e-39
-112.68823 -556.76587 410 3.5945436e-39
-134.74634 -553.10034 410 2.7665906e-39
-154.59229 -563.40283 420 2.6733103e-39
-194.28394 -584.00781 420 3.3176007e-39
-220.00769 -602.40051 430 3.0431718e-39
-236.18799 -590.64478 430 3.5945436e-39
-238.40039 -576.67676 430 3.4097936e-39
-246.4906 -570.79895 430 3.0417341e-39
-268.54871 -567.13342 430 2.8569869e-39
-276.63892 -561.25562 430 2.5814748e-39
-292.81921 -549.49988 430 2.3956528e-39
-344.26672 -586.28528 440 1.4567233e-38
-536.08838 -731.21436 480 1.5763295e-38
-583.87024 -745.94153 490 1.5765809e-38
-785.99451 -871.02478 520 1.5214422e-38
-808.05261 -867.35925 520 1.5304466e-38
-824.23303 -855.60352 520 1.5397374e-38
-840.41333 -843.84778 520 1.4660541e-38
-842.62573 -829.87976 520 1.4106277e-38
-815.44873 -775.46094 510 1.3183594e-38
-378.90479 -412.79114 420 1.309104e-38
-395.08521 -401.03552 420 1.3091395e-38
-377.45166 -376.76489 410 1.9364754e-39
-399.50977 -373.09937 420 2.4900135e-39
-413.47778 -375.31177 420 2.3974451e-39
-415.69019 -361.34375 420 2.2130581e-39
-417.90247 -347.37573 410 2.2134252e-39
-465.68445 -362.10291 420 2.2137839e-39
-406.90588 -281.20111 400 2.2137853e-39
-414.99609 -275.3233 400 2.0304717e-39
-417.20837 -261.35529 400 2.121947e-39
-399.57495 -237.08472 400 2.2130637e-39
-387.81921 -220.90436 390 2.0290353e-39
807.18414 -804.82825 350 2.7673094e-39
799.09393 -798.95044 340 2.5818462e-39
791.00378 -793.07251 340 2.4907267e-39
782.91357 -787.1947 340 2.1222974e-39
780.70129 -773.22668 340 2.3978094e-39
770.39874 -753.38086 340 1.3929414e-38
619.98236 -1385.7375 440 1.9647055e-38
609.67981 -1365.8916 440 1.9925073e-38
597.03485 -1060.0483 400 2.0015473e-38
571.31116 -1078.4409 400 2.0109461e-38
561.76776 -1108.5894 410 2.0748722e-38
472.21198 -1401.9829 450 2.0659398e-38
433.27936 -1472.582 470 2.0201297e-38
338.34454 -1280.0013 450 1.9647055e-38
308.95526 -1320.4521 460 2.028811e-38
294.98724 -1322.6644 460 2.010695e-38
269.26355 -1341.0571 470 2.0012245e-38
239.87433 -1381.5081 470 1.9276484e-38
225.90631 -1383.7205 470 1.9739249e-38
215.60382 -1363.8745 470 1.9276843e-38
195.75793 -1374.177 480 1.8725113e-38
187.66779 -1368.2991 480 1.8170871e-38
177.36523 -1348.4534 480 1.7155277e-38
149.4292 -1352.8779 480 1.6233685e-38
280.12994 -1002.8531 420 1.5404621e-38
269.82745 -983.00732 420 1.4850356e-38
253.64709 -971.25159 420 1.5306309e-38
245.55688 -965.37378 420 1.4847479e-38
243.3446 -951.40576 420 1.3927325e-38
244.79779 -915.37952 410 8.4841868e-39
249.9165 -857.29517 400 7.5607871e-39
257.2475 -813.17871 400 8.851519e-39
249.15735 -807.3009 400 7.3778476e-39
241.06714 -801.4231 400 6.0867529e-39
230.76465 -781.57715 400 3.2239982e-39
216.79663 -783.78955 400 8.3049215e-40
208.70648 -777.91162 400 1.3836603e-39
206.49414 -763.9436 400 1.9368397e-39
184.43597 -760.27808 400 1.8453671e-39
164.59009 -770.58069 400 2.0283221e-39
156.49988 -764.70276 400 1.6609731e-39
148.40973 -758.82495 400 1.6609675e-39
122.68604 -777.21765 410 1.7524498e-39
-112.42786 -1100.8246 470 1.6602486e-39
-122.73035 -1080.9788 470 1.6598885e-39
-138.91064 -1069.223 470 1.3840247e-39
-147.00085 -1063.3452 470 2.1226575e-39
-163.18115 -1051.5895 470 1.4384686e-38
-165.39355 -1037.6215 470 1.4843145e-38
-163.94031 -1001.5952 460 1.4753478e-38
-103.70868 -884.66736 440 1.4661985e-38
-96.377686 -840.5509 440 1.4568714e-38
-86.83429 -810.40259 430 1.4478312e-38
-91.258972 -782.46655 430 1.447615e-38
-99.349121 -776.58862 430 1.4015159e-38
-101.56146 -762.62061 430 1.3183593e-38
-111.86401 -742.77478 420 1.8442811e-39
-108.19849 -720.71655 420 2.0279395e-39
-51.632324 -625.8468 400 1.7495548e-39
-53.844604 -611.87878 400 1.7506352e-39
-56.056946 -597.91077 400 1.7545938e-39
-58.269287 -583.94275 400 2.9491741e-39
-66.359436 -578.06494 400 2.1197834e-39
-74.449646 -572.18701 400 2.9488196e-39
-96.507812 -568.52148 400 3.7771327e-39
-98.720154 -554.55347 400 3.1353661e-39
-112.68823 -556.76587 400 2.6722313e-39
-120.77832 -550.88794 400 3.1335682e-39
-142.83655 -547.22253 400 3.2257666e-39
-174.43811 -573.70532 410 3.5027123e-39
-202.37415 -578.13 410 3.5027039e-39
-224.43237 -574.46448 410 3.3190371e-39
-232.52258 -568.58667 410 2.7662276e-39
-246.4906 -570.79895 410 2.3981626e-39
-262.6709 -559.04321 410 2.3963633e-39
-276.63892 -561.25562 420 2.2130538e-39
-298.69714 -557.59009 420 2.3974367e-39
-387.6239 -628.94849 430 1.116279e-38
-476.55078 -700.30688 450 1.5489585e-38
-536.08838 -731.21436 460 1.5121176e-38
-569.90222 -743.72913 470 1.5674335e-38
-617.6842 -758.4563 470 1.6409365e-38
-776.45105 -840.87634 500 1.521191e-38
-798.50928 -837.21082 500 1.5212273e-38
-814.6897 -825.4552 500 1.4293187e-38
-799.26843 -787.21655 490 1.3643494e-38
-404.62854 -431.18384 410 1.2906644e-38
-412.71875 -425.30603 410 1.1615561e-38
-409.05322 -403.2478 410 1.2907402e-39
-431.11133 -399.58228 410 2.305618e-39
-407.59998 -367.22156 400 2.2134266e-39
-409.81226 -353.25354 400 2.213421e-39
-398.05664 -337.07324 400 2.1219456e-39
-400.26892 -323.10522 400 2.0297542e-39
-402.48132 -309.13721 390 2.1215883e-39
-406.90588 -281.20111 390 2.0311961e-39
-395.15027 -265.02075 390 1.0155953e-39
-391.48474 -242.96259 390 1.2925395e-39
-393.69702 -228.99457 380 1.6616877e-39
803.51862 -826.88647 340 2.2148629e-39
801.30627 -812.91846 340 1.8464405e-39
793.21606 -807.04053 340 1.7542421e-39
785.12592 -801.16272 340 1.5687732e-39
774.82343 -781.31689 340 1.9364712e-39
766.73328 -775.43896 330 3.7829117e-39
622.1947 -1399.7056 430 2.0108026e-38
606.01434 -1387.9497 420 1.9927225e-38
597.92419 -1382.072 420 2.0473575e-38
588.9447 -1054.1704 380 2.0569356e-38
577.18896 -1070.3508 390 2.0844145e-38
561.76776 -1108.5894 390 2.112001e-38
462.66861 -1432.1313 440 2.0567562e-38
436.94489 -1450.5239 450 2.0750157e-38
442.0636 -1392.4395 440 2.0660115e-38
338.34454 -1280.0013 440 2.0385685e-38
314.83313 -1312.3619 440 2.0843786e-38
289.10944 -1330.7546 450 2.0109461e-38
256.05469 -1393.2637 460 2.0383174e-38
230.33093 -1411.6565 460 2.0012603e-38
222.24078 -1405.7786 460 2.0014756e-38
206.06042 -1394.0229 460 2.0015473e-38
192.09241 -1396.2351 460 1.955522e-38
175.91205 -1384.4795 460 1.8631484e-38
165.60956 -1364.6335 460 1.7803156e-38
151.64154 -1366.8459 460 1.7340011e-38
277.9176 -988.88513 410 1.6416612e-38
269.82745 -983.00732 400 1.6321168e-38
259.5249 -963.1615 400 1.5769437e-38
251.43475 -957.28357 400 1.5217349e-38
241.13226 -937.43774 400 1.5307021e-38
242.58545 -901.4115 400 8.391631e-39
255.79431 -849.20496 390 7.469302e-39
257.2475 -813.17871 390 8.7611296e-39
249.15735 -807.3009 390 6.2704057e-39
241.06714 -801.4231 390 5.8083499e-39
230.76465 -781.57715 380 8.3923429e-39
216.79663 -783.78955 380 1.0152393e-39
208.70648 -777.91162 390 1.2918276e-39
206.49414 -763.9436 380 1.7531659e-39
186.64825 -774.24622 390 2.0293899e-39
164.59009 -770.58069 390 2.0297556e-39
156.49988 -764.70276 390 1.8450014e-39
142.53186 -766.91516 390 1.7520827e-39
128.56384 -769.12744 390 1.9368327e-39
91.084473 -803.70044 400 1.7524498e-39
-100.67212 -1084.6443 450 1.5684117e-39
-122.73035 -1080.9788 450 1.476579e-39
-138.91064 -1069.223 450 1.752447e-39
-141.12305 -1055.255 450 1.6595325e-39
-163.18115 -1051.5895 450 1.0887684e-38
-165.39355 -1037.6215 450 1.4384685e-38
-163.94031 -1001.5952 450 1.4752029e-38
-168.36499 -973.65918 440 1.4385405e-38
-108.1333 -856.73132 420 1.4385752e-38
-92.712158 -818.49268 420 1.4108814e-38
-97.13678 -790.55664 410 1.4107736e-38
-105.22699 -784.67883 410 1.3276524e-38
-107.43933 -770.71082 410 1.1986135e-38
-111.86401 -742.77478 410 1.7509967e-39
-114.07629 -728.80676 410 2.1197778e-39
-51.632324 -625.8468 390 2.396722e-39
-53.844604 -611.87878 390 2.6725915e-39
-50.179138 -589.82056 390 2.9495385e-39
-58.269287 -583.94275 380 2.3041677e-39
-66.359436 -578.06494 380 3.5012675e-39
-74.449646 -572.18701 390 2.3996073e-39
-90.630005 -560.4314 380 2.1197792e-39
-98.720154 -554.55347 390 2.5796756e-39
-106.81036 -548.67566 390 3.4090705e-39
-114.90051 -542.79785 390 3.594545e-39
-142.83655 -547.22253 390 3.5945436e-39
-162.68237 -557.52502 390 3.501992e-39
-190.61841 -561.94958 390 3.3172392e-39
-230.31018 -582.55469 400 2.6740292e-39
-238.40039 -576.67676 400 2.5803986e-39
-252.36841 -578.88916 400 2.2116161e-39
-274.42664 -575.22363 400 1.9357509e-39
-296.48474 -571.55811 410 1.9361068e-39
-310.45276 -573.77039 410 2.120138e-39
-375.86829 -612.76807 420 8.1221249e-39
-421.43787 -641.46326 430 1.548958e-38
-524.33264 -715.03394 440 1.4938576e-38
-532.42285 -709.15613 440 1.5766169e-38
-528.75732 -687.0979 440 1.567325e-38
-525.0918 -665.03979 440 1.56754e-38
-610.35315 -714.33997 450 1.5397025e-38
-675.76855 -753.33765 460 1.4844212e-38
-555.99939 -605.5022 430 1.4658014e-38
-678.73999 -689.37537 450 1.3458737e-38
-608.20593 -592.29321 440 1.263006e-38
-604.54041 -570.23511 430 5.347404e-39
-632.47644 -574.65979 440 1.3836491e-39
-622.93311 -544.51135 430 2.2141455e-39
-393.63196 -365.00928 390 2.3052607e-39
-607.51184 -506.27283 420 2.304902e-39
-649.41589 -512.90979 430 2.1215897e-39
-394.39111 -315.01501 380 2.3974563e-39
-371.63879 -232.6601 370 8.2940194e-40
-399.57495 -237.08472 370 7.3720631e-40
-387.81921 -220.90436 370 7.3756644e-40
-481.17065 -264.32672 380 7.3756644e-40
-483.38306 -250.3587 380 7.3756644e-40
809.39642 -818.79626 330 2.2152343e-39
801.30627 -812.91846 330 1.5691404e-39
793.21606 -807.04053 330 1.2911046e-39
779.24805 -809.25293 330 1.1074364e-39
777.03577 -795.28491 330 2.672953e-39
766.73328 -775.43896 330 3.1364577e-39
618.52917 -1421.7637 410 2.0015832e-38
604.56116 -1423.9761 410 2.0016191e-38
581.04974 -1456.3367 420 2.0567204e-38
551.66052 -1496.7876 430 2.0383533e-38
515.6994 -1631.3491 450 2.1120369e-38
472.34213 -1674.0122 450 2.0936698e-38
463.49283 -1618.1401 450 2.1397669e-38
455.40265 -1612.2622 450 2.1121087e-38
450.21887 -1534.332 440 2.1030327e-38
453.12524 -1462.2795 430 2.1305834e-38
439.15723 -1464.4919 430 2.1305834e-38
438.39807 -1414.4978 430 2.1673176e-38
322.92334 -1318.2399 430 2.1395158e-38
311.1676 -1334.4202 430 2.084558e-38
275.90051 -1382.9612 440 2.0845939e-38
250.17682 -1401.354 440 2.0477521e-38
232.54327 -1425.6245 450 2.0753386e-38
216.36292 -1413.8687 450 2.0660833e-38
200.18262 -1402.113 450 2.056828e-38
186.21454 -1404.3254 450 2.0750875e-38
170.03424 -1392.5696 450 1.9644903e-38
159.73169 -1372.7239 450 1.8262333e-38
151.64154 -1366.8459 450 1.7799199e-38
277.9176 -988.88513 390 1.7151661e-38
275.70526 -974.91711 390 1.6229694e-38
265.40277 -955.07129 390 1.6506992e-38
257.31262 -949.19348 390 1.6047097e-38
247.01007 -929.34753 390 1.4851079e-38
248.46332 -893.32141 380 8.3005116e-39
255.79431 -849.20496 380 7.2838359e-39
257.2475 -813.17871 370 9.0362647e-39
249.15735 -807.3009 370 6.2714804e-39
241.06714 -801.4231 370 5.901263e-39
224.88684 -789.66736 370 8.6692913e-39
216.79663 -783.78955 370 1.5673734e-39
208.70648 -777.91162 370 1.3836575e-39
200.61627 -772.03381 370 1.7524456e-39
186.64825 -774.24622 370 2.0286752e-39
164.59009 -770.58069 380 1.9371998e-39
156.49988 -764.70276 380 1.8449972e-39
136.65405 -775.00525 380 1.6609689e-39
128.56384 -769.12744 380 1.752803e-39
108.71802 -779.42993 380 1.9375516e-39
-122.73035 -1080.9788 440 1.5684159e-39
-133.03284 -1061.1328 440 1.4762189e-39
-135.24512 -1047.1648 430 1.3836631e-39
-157.30334 -1043.4994 440 1.8460748e-39
-165.39355 -1037.6215 430 1.3831518e-38
-163.94031 -1001.5952 430 1.4383966e-38
-168.36499 -973.65918 430 1.4109533e-38
-131.64478 -889.09192 410 1.4109175e-38
-98.589966 -826.58289 400 1.3831874e-38
-103.01465 -798.64685 400 1.337053e-38
-111.10486 -792.76904 400 1.28159e-38
-107.43933 -770.71082 400 1.161412e-38
-111.86401 -742.77478 400 2.3956374e-39
-119.9541 -736.89697 400 2.0286598e-39
-51.632324 -625.8468 380 2.5814706e-39
-53.844604 -611.87878 380 2.3963647e-39
-50.179138 -589.82056 370 3.2261184e-39
-58.269287 -583.94275 370 2.2148531e-39
-66.359436 -578.06494 370 2.5793168e-39
-74.449646 -572.18701 370 3.5927457e-39
-90.630005 -560.4314 370 4.0544385e-39
-98.720154 -554.55347 370 4.0551616e-39
-112.68823 -556.76587 370 4.0544399e-39
-120.77832 -550.88794 370 3.6871007e-39
-142.83655 -547.22253 380 3.4105152e-39
-156.80457 -549.43481 380 3.5931058e-39
-178.86279 -545.76929 380 3.1342885e-39
-204.58643 -564.16199 380 2.6729516e-39
-232.52258 -568.58667 390 2.7655074e-39
-252.36841 -578.88916 390 2.5804e-39
-280.30444 -583.31384 390 2.3038131e-39
-302.36267 -579.64832 390 2.1194205e-39
-322.2085 -589.95081 400 1.9364684e-39
-344.26672 -586.28528 400 2.8623595e-39
-372.20276 -590.70996 400 1.5583941e-38
-411.89441 -611.31494 410 1.5949477e-38
-388.38306 -578.95422 400 1.6043836e-38
-416.31909 -583.37891 400 1.6042746e-38
-444.25513 -587.80359 410 1.5674691e-38
-472.19116 -592.22815 410 1.5304819e-38
-557.45251 -641.52832 420 1.0611499e-38
-597.14429 -662.13342 430 9.400671e-39
-619.20239 -658.4679 430 1.1255054e-38
-666.98438 -673.19507 440 1.2539298e-38
-649.35083 -648.92444 430 1.2813731e-38
-659.65332 -629.07861 430 1.2629698e-38
-604.54041 -570.23511 420 2.5811231e-39
-669.95581 -609.23279 430 3.2272002e-39
-660.41248 -579.08435 420 1.755684e-39
-635.44788 -510.69751 410 6.4608687e-40
-631.78235 -488.63928 410 5.5389405e-40
-647.96277 -476.88354 410 7.372035e-40
-681.77661 -489.39844 410 6.4536941e-40
-371.63879 -232.6601 360 6.4572954e-40
-451.02234 -273.87012 370 6.4536941e-40
-427.51099 -241.5094 360 7.3684757e-40
809.39642 -818.79626 320 1.93756e-39
799.09393 -798.95044 320 1.5687704e-39
793.21606 -807.04053 320 1.1992691e-39
779.24805 -809.25293 320 1.750282e-39
771.1579 -803.375 320 2.2148643e-39
760.85541 -783.52917 320 2.3992584e-39
628.07251 -1391.6152 390 1.8630756e-38
618.52917 -1421.7637 400 1.964562e-38
598.68329 -1432.0662 400 1.9830726e-38
583.26208 -1470.3047 410 2.0381739e-38
549.44818 -1482.8196 410 2.1029968e-38
529.60229 -1493.1221 410 2.1030327e-38
495.85352 -1641.6516 430 2.1121087e-38
588.9447 -1054.1704 360 2.0845221e-38
471.58301 -1624.0181 430 2.0846656e-38
455.40265 -1612.2622 430 2.0938133e-38
448.76566 -1570.3582 430 2.1305834e-38
439.91635 -1514.4861 420 2.1489505e-38
441.36954 -1478.46 420 2.1397669e-38
321.47009 -1354.2661 420 2.139731e-38
283.99072 -1388.8391 420 2.0753745e-38
266.35718 -1413.1096 430 2.1028892e-38
250.17682 -1401.354 430 2.1119652e-38
236.2088 -1403.5662 430 2.0475368e-38
222.24078 -1405.7786 430 2.1578112e-38
206.06042 -1394.0229 430 2.0383891e-38
189.88007 -1382.2671 430 2.0108026e-38
175.91205 -1384.4795 430 1.9642392e-38
165.60956 -1364.6335 430 1.8265204e-38
151.64154 -1366.8459 430 1.7524768e-38
277.9176 -988.88513 380 1.6967981e-38
281.58313 -966.82703 380 1.6692828e-38
265.40277 -955.07129 380 1.6047098e-38
263.19043 -941.10327 370 1.5863073e-38
252.88794 -921.25745 370 1.1533875e-38
248.46332 -893.32141 370 8.4834637e-39
255.79431 -849.20496 360 7.5600599e-39
257.2475 -813.17871 360 9.311774e-39
249.15735 -807.3009 360 5.9949006e-39
241.06714 -801.4231 360 7.3742113e-39
224.88684 -789.66736 360 8.39271e-39
216.79663 -783.78955 360 1.6606494e-39
208.70648 -777.91162 360 1.4747798e-39
200.61627 -772.03381 360 1.5680586e-39
186.64825 -774.24622 360 1.8442853e-39
164.59009 -770.58069 360 1.9368369e-39
150.62207 -772.79297 360 2.0286738e-39
136.65405 -775.00525 370 1.5680558e-39
128.56384 -769.12744 370 1.5684145e-39
114.59583 -771.33972 370 1.5676957e-39
-127.15503 -1053.0427 420 1.4762203e-39
-135.24512 -1047.1648 420 1.2914703e-39
-151.42554 -1035.4092 420 1.4755014e-39
-159.51575 -1029.5312 420 1.2726256e-38
-158.0625 -993.50513 410 1.3371615e-38
-168.36499 -973.65918 410 1.3463087e-38
-164.69946 -951.60107 410 1.3737174e-38
-110.3457 -842.76331 390 1.3186502e-38
-108.89246 -806.73706 390 1.3092846e-38
-116.98267 -800.85913 390 1.2169813e-38
-113.31714 -778.80103 390 1.1156728e-38
-111.86401 -742.77478 380 2.3052467e-39
-119.9541 -736.89697 380 1.5691222e-39
-51.632324 -625.8468 360 1.9368271e-39
-47.966797 -603.78857 360 2.9477308e-39
-50.179138 -589.82056 360 2.3960074e-39
-58.269287 -583.94275 360 3.2250464e-39
-66.359436 -578.06494 360 3.8700528e-39
-74.449646 -572.18701 360 4.1473572e-39
-90.630005 -560.4314 360 4.1469985e-39
-104.59802 -562.64368 360 3.8711304e-39
-106.81036 -548.67566 360 3.8714948e-39
-114.90051 -542.79785 360 3.5027109e-39
-136.95874 -539.13232 360 3.4090705e-39
-150.92676 -541.3446 360 3.2261184e-39
-164.89478 -543.55701 360 3.3183182e-39
-198.70862 -556.07178 370 2.8577058e-39
-226.64465 -560.49646 370 2.4892764e-39
-252.36841 -578.88916 370 2.7651472e-39
-280.30444 -583.31384 380 2.6722327e-39
-308.24048 -587.7384 380 2.5803944e-39
-322.2085 -589.95081 380 2.3030943e-39
-350.14453 -594.37537 390 2.3041677e-39
-389.8363 -614.98047 390 1.0340661e-38
-417.77234 -619.40503 390 1.2273183e-38
-445.70837 -623.82971 400 1.3283736e-38
-453.79858 -617.9519 400 1.1074636e-38
-498.67407 -560.62659 390 3.7774887e-39
-522.94458 -542.99304 390 1.2028704e-39
-572.93884 -543.7522 400 8.2940054e-40
-612.63049 -564.35718 400 7.3720771e-40
-622.93311 -544.51135 400 6.4573094e-40
-650.86914 -548.93604 400 6.4501348e-40
-607.51184 -506.27283 400 5.5353672e-40
-629.57007 -502.6073 400 6.4501068e-40
-657.5061 -507.03198 400 6.4536941e-40
-665.59631 -501.15405 400 7.3720631e-40
-385.60693 -234.87238 350 6.4500928e-40
-490.71411 -294.4751 360 6.4536941e-40
-447.35681 -251.81189 360 5.5353531e-40
807.18414 -804.82825 310 1.5687817e-39
796.88159 -784.98242 300 1.3833072e-39
791.00378 -793.07251 310 1.1074336e-39
785.12592 -801.16272 310 1.3858127e-39
771.1579 -803.375 310 1.7524456e-39
768.94556 -789.40698 310 2.3059782e-39
630.28485 -1405.5833 380 1.7525474e-38
618.52917 -1421.7637 380 1.8815155e-38
604.56116 -1423.9761 390 1.9367961e-38
583.26208 -1470.3047 390 2.0569715e-38
563.41626 -1480.6072 390 2.0845221e-38
549.44818 -1482.8196 400 2.0751951e-38
541.35803 -1476.9417 400 2.1027816e-38
512.72791 -1567.3867 410 2.1213998e-38
594.82251 -1046.0803 350 2.1305834e-38
463.49283 -1618.1401 420 2.1487711e-38
453.19034 -1598.2942 410 2.1305834e-38
452.43118 -1548.3 410 2.0662985e-38
436.25085 -1536.5444 410 2.1213998e-38
429.61386 -1494.6404 410 2.1213998e-38
309.71442 -1370.4463 400 2.1028892e-38
272.99414 -1455.0137 410 2.1121445e-38
262.69165 -1435.1677 410 2.1028892e-38
252.38916 -1415.322 410 2.1302605e-38
242.08667 -1395.4761 410 2.084558e-38
222.24078 -1405.7786 410 2.0566845e-38
211.93829 -1385.9326 410 2.0840558e-38
195.75793 -1374.177 410 2.0385326e-38
181.78992 -1376.3894 410 1.8725472e-38
159.73169 -1372.7239 410 1.8076513e-38
145.76367 -1374.936 420 1.7154906e-38
283.79547 -980.79504 360 1.6416601e-38
273.49298 -960.9491 360 1.6598474e-38
271.28064 -946.98108 360 1.6322959e-38
255.10028 -935.22546 360 1.5953468e-38
258.76581 -913.16724 360 9.0391878e-39
254.34113 -885.2312 360 8.0260799e-39
255.79431 -849.20496 350 7.4689446e-39
257.2475 -813.17871 350 9.495452e-39
249.15735 -807.3009 350 4.9818402e-39
241.06714 -801.4231 350 8.391233e-39
224.88684 -789.66736 350 8.3901905e-39
216.79663 -783.78955 350 1.2914899e-39
202.82861 -786.00183 350 1.3836631e-39
200.61627 -772.03381 350 1.4758616e-39
186.64825 -774.24622 350 1.7520869e-39
164.59009 -770.58069 350 1.9364866e-39
156.49988 -764.70276 350 1.8453629e-39
136.65405 -775.00525 350 1.476579e-39
134.44171 -761.03723 350 1.6606115e-39
114.59583 -771.33972 350 1.7520897e-39
-129.36731 -1039.0747 400 1.2918276e-39
-145.54773 -1027.319 400 1.2911088e-39
-153.63782 -1021.4412 400 1.2634754e-38
-158.0625 -993.50513 400 1.3553842e-38
-168.36499 -973.65918 400 1.3095025e-38
-170.57739 -959.69116 400 1.3922632e-38
-122.10132 -858.9436 380 1.3001384e-38
-126.526 -831.00757 380 1.1897187e-38
-134.61621 -825.12976 380 1.1616994e-38
-130.95068 -803.07153 380 1.0972334e-38
-125.83203 -744.98706 370 2.1194163e-39
-45.754456 -617.75659 350 2.212335e-39
-47.966797 -603.78857 350 2.4885603e-39
-50.179138 -589.82056 350 3.2250436e-39
-58.269287 -583.94275 350 3.6867378e-39
-66.359436 -578.06494 350 3.7789348e-39
-74.449646 -572.18701 350 4.1477159e-39
-84.752136 -552.34119 350 4.0555273e-39
-98.720154 -554.55347 350 2.767308e-39
-100.9325 -540.58545 350 3.1339227e-39
-109.02271 -534.70764 350 3.3186797e-39
-125.203 -522.9519 350 3.7774943e-39
-145.04883 -533.25452 350 3.6870979e-39
-159.01685 -535.4668 350 2.8573457e-39
-192.83081 -547.98157 350 3.2254079e-39
-220.76685 -552.40625 360 2.8573415e-39
-234.73486 -554.61865 360 2.7655088e-39
-262.6709 -559.04321 360 3.0410138e-39
-288.39465 -577.43591 360 3.1339297e-39
-304.57495 -565.6803 360 3.2254093e-39
-306.78723 -551.71228 360 3.0417341e-39
-340.6012 -564.22705 370 4.8863404e-39
-226.70972 -424.48181 340 8.1978146e-39
804.9718 -790.86023 290 1.4762203e-39
802.75946 -776.89221 290 1.1077937e-39
788.79144 -779.10449 290 1.1985502e-39
782.91357 -787.1947 300 1.1989047e-39
771.1579 -803.375 300 1.5684131e-39
628.83167 -1441.6096 370 1.7151285e-38
614.86365 -1443.8218 370 1.8535321e-38
600.89563 -1446.0342 370 1.9369037e-38
577.38428 -1478.3948 380 2.0198427e-38
565.62854 -1494.5752 380 2.0659398e-38
549.44818 -1482.8196 380 2.1119652e-38
539.14569 -1462.9736 380 2.1763218e-38
455.40265 -1612.2622 400 2.1122163e-38
445.10016 -1592.4165 400 2.1397669e-38
432.58533 -1558.6025 400 2.057115e-38
429.61386 -1494.6404 390 2.0937416e-38
422.97687 -1452.7363 390 2.1856488e-38
403.13098 -1463.0388 390 2.1305834e-38
398.70636 -1435.1028 390 2.1578112e-38
320.01691 -1390.2922 390 2.1764652e-38
300.17108 -1400.5947 390 2.139731e-38
255.3606 -1479.2842 400 2.1212205e-38
250.93597 -1451.3481 400 2.0569715e-38
246.51129 -1423.4121 400 2.0845939e-38
236.2088 -1403.5662 390 2.0477879e-38
222.24078 -1405.7786 400 2.0753745e-38
206.06042 -1394.0229 400 2.056254e-38
195.75793 -1374.177 390 1.9554143e-38
181.78992 -1376.3894 400 1.9091013e-38
159.73169 -1372.7239 400 1.7710243e-38
297.76349 -978.58264 350 1.6970871e-38
283.79547 -980.79504 350 1.6601713e-38
279.37079 -952.85901 350 1.5953482e-38
271.28064 -946.98108 350 1.5863071e-38
260.97815 -927.13525 350 1.5311683e-38
258.76581 -913.16724 340 8.6703717e-39
260.21899 -877.14099 340 8.2997955e-39
261.67218 -841.11475 340 7.1923563e-39
257.2475 -813.17871 340 9.4968912e-39
249.15735 -807.3009 340 4.0595196e-39
241.06714 -801.4231 340 9.0369794e-39
224.88684 -789.66736 330 2.5825861e-39
216.79663 -783.78955 340 4.6022131e-39
208.70648 -777.91162 340 5.9808413e-39
200.61627 -772.03381 330 5.3369125e-39
184.43597 -760.27808 340 3.6831519e-39
164.59009 -770.58069 340 1.8453671e-39
150.62207 -772.79297 340 1.8446413e-39
136.65405 -775.00525 340 1.6606144e-39
128.56384 -769.12744 340 1.7520897e-39
120.47369 -763.24963 340 1.7517268e-39
-123.4895 -1030.9845 380 1.1996306e-39
-139.6698 -1019.2288 380 1.1992719e-39
-161.72803 -1015.5632 380 1.1712421e-38
-158.0625 -993.50513 380 1.3279062e-38
-168.36499 -973.65918 380 1.337125e-38
-170.57739 -959.69116 380 1.3095028e-38
-157.36841 -907.48462 370 1.2722998e-38
-150.03748 -863.36829 370 1.2171617e-38
-152.24976 -849.40027 370 1.115314e-38
-160.33997 -843.52234 370 1.0970899e-38
-170.64246 -823.67651 370 7.7498307e-39
-149.34338 -777.34778 360 1.5673229e-39
-51.632324 -625.8468 340 2.488203e-39
-53.844604 -611.87878 340 2.9491741e-39
-56.056946 -597.91077 340 3.1332081e-39
-58.269287 -583.94275 340 3.6863791e-39
-66.359436 -578.06494 340 4.3321044e-39
-68.571777 -564.09692 330 4.0555231e-39
-70.784119 -550.12891 330 3.3186769e-39
-92.842346 -546.46338 330 3.5023493e-39
-95.054626 -532.49536 330 3.7792907e-39
-109.02271 -534.70764 330 3.5027081e-39
-117.11279 -528.82983 330 3.6874553e-39
-139.17102 -525.16431 330 3.5023507e-39
-153.13904 -527.37659 340 3.2254037e-39
-192.83081 -547.98157 340 3.2254037e-39
-220.76685 -552.40625 340 3.5016291e-39
-228.85706 -546.52844 340 3.6856602e-39
-242.82507 -548.74072 350 4.238834e-39
-264.88318 -545.0752 350 4.238471e-39
-267.09558 -531.10718 340 3.5959855e-39
-251.67432 -492.86865 340 2.307053e-39
-222.28516 -452.41785 330 2.2126951e-39
-175.26233 -387.69641 320 1.0134317e-39
-220.83191 -416.3916 330 7.3756364e-40
-260.52368 -436.99658 340 7.372035e-40
-242.89014 -412.72607 330 7.3720491e-40
-470.73804 -556.20203 360 1.8417546e-39
810.84961 -782.77002 280 1.2918276e-39
800.54712 -762.92419 280 1.1070748e-39
792.45697 -757.04626 280 1.1067105e-39
786.5791 -765.13647 280 1.1992677e-39
774.82343 -781.31689 290 1.9364754e-39
634.70947 -1433.5193 350 1.5860548e-38
622.95386 -1449.6997 360 1.6046723e-38
608.98584 -1451.9121 360 1.7523666e-38
600.89563 -1446.0342 360 1.9549839e-38
577.38428 -1478.3948 360 1.9738891e-38
563.41626 -1480.6072 360 1.9925073e-38
555.32605 -1474.7292 360 2.1119652e-38
542.81122 -1440.9155 360 2.0844145e-38
532.50867 -1421.0696 360 2.1305116e-38
524.41858 -1415.1917 360 2.1213998e-38
509.69138 -1367.4099 360 2.139731e-38
440.67551 -1564.4805 380 2.1027816e-38
432.58533 -1558.6025 380 2.0846656e-38
425.94833 -1516.6985 380 2.1397669e-38
415.64584 -1496.8525 370 2.1030327e-38
395.79999 -1507.155 380 2.1578829e-38
325.89478 -1382.2021 370 2.1213998e-38
300.17108 -1400.5947 370 2.0754821e-38
257.57294 -1493.2522 380 2.0938133e-38
250.93597 -1451.3481 380 2.1028534e-38
252.38916 -1415.322 380 2.0570791e-38
242.08667 -1395.4761 380 2.0111972e-38
225.90631 -1383.7205 380 2.075231e-38
217.8161 -1377.8425 380 2.0109102e-38
207.51361 -1357.9966 380 1.9186443e-38
185.45544 -1354.3311 380 1.890627e-38
165.60956 -1364.6335 380 1.7709509e-38
309.51917 -962.40234 330 1.6602448e-38
289.67328 -972.70483 340 1.613966e-38
279.37079 -952.85901 330 1.595885e-38
277.15845 -938.89099 330 1.549393e-38
260.97815 -927.13525 330 1.5675806e-38
264.64362 -905.07703 330 8.6689354e-39
266.0968 -869.05078 330 8.2994382e-39
261.67218 -841.11475 320 7.652966e-39
257.2475 -813.17871 320 9.2221007e-39
249.15735 -807.3009 320 3.9651548e-39
241.06714 -801.4231 320 2.9542805e-39
230.76465 -781.57715 320 1.0148806e-39
216.79663 -783.78955 320 5.2565858e-39
208.70648 -777.91162 320 8.0224814e-39
206.49414 -763.9436 320 8.6664144e-39
190.31378 -752.18799 320 9.9585854e-39
170.4679 -762.49048 320 1.0142626e-38
150.62207 -772.79297 330 1.0877663e-38
136.65405 -775.00525 330 7.2708739e-39
134.44171 -761.03723 330 1.9361166e-39
120.47369 -763.24963 330 1.8442811e-39
-123.4895 -1030.9845 370 1.1989117e-39
-139.6698 -1019.2288 370 1.2911018e-39
-155.85022 -1007.4731 370 8.2067689e-39
-158.0625 -993.50513 370 1.2724802e-38
-168.36499 -973.65918 370 1.3093949e-38
-176.4552 -967.78137 370 1.2909201e-38
-186.75769 -947.93555 360 1.2171632e-38
-177.21436 -917.78711 360 1.161773e-38
-187.51685 -897.94128 360 1.0970906e-38
-189.72913 -883.97327 360 1.0419519e-38
-194.15381 -856.03723 360 1.6598955e-39
-178.73254 -817.79871 350 1.9361068e-39
-51.632324 -625.8468 330 2.6736691e-39
-53.844604 -611.87878 330 2.7647871e-39
-56.056946 -597.91077 320 3.3179567e-39
-58.269287 -583.94275 320 3.5023479e-39
-66.359436 -578.06494 320 4.0548014e-39
-68.571777 -564.09692 320 3.4094348e-39
-70.784119 -550.12891 320 3.8696913e-39
-86.964478 -538.37317 320 4.0540826e-39
-95.054626 -532.49536 320 4.3324645e-39
-109.02271 -534.70764 320 4.2391941e-39
-117.11279 -528.82983 320 3.5019864e-39
-133.29321 -517.0741 320 3.5934674e-39
-147.26123 -519.2865 320 4.054084e-39
-181.07507 -531.80127 330 4.6987345e-39
-200.92102 -542.10376 330 4.8842006e-39
-217.10132 -530.34802 330 4.3328261e-39
-231.06934 -532.56042 330 3.7803754e-39
-239.15955 -526.68262 330 3.2268498e-39
-241.37183 -512.7146 330 1.5676872e-39
-237.7063 -490.65637 330 1.5673243e-39
-228.16296 -460.50793 320 1.4736965e-39
-224.49744 -438.44983 320 8.2976207e-40
-232.58765 -432.5719 320 6.4536941e-40
-254.64575 -428.90637 320 5.5353531e-40
-237.01221 -404.63586 320 6.4500928e-40
-233.3468 -382.57776 320 5.5317518e-40
-281.12866 -397.30481 320 6.4500928e-40
808.63733 -768.802 270 1.1070762e-39
806.42499 -754.83398 270 1.107072e-39
798.33484 -748.95618 270 9.2339823e-40
656.7677 -1437.1848 340 1.5676497e-38
636.92188 -1447.4873 340 1.5586824e-38
622.95386 -1449.6997 340 1.6229678e-38
608.98584 -1451.9121 340 1.7245997e-38
600.89563 -1446.0342 340 1.8630029e-38
577.38428 -1478.3948 350 1.9553426e-38
563.41626 -1480.6072 350 2.0841275e-38
558.99158 -1452.6711 350 2.0938133e-38
550.14221 -1396.7991 340 2.1030327e-38
538.3866 -1412.9795 340 2.1213998e-38
528.08405 -1393.1335 340 2.1212922e-38
521.44702 -1351.2295 340 2.1305834e-38
490.60464 -1427.7065 350 2.084558e-38
458.30902 -1540.21 360 2.1212922e-38
436.25085 -1536.5444 360 2.1305834e-38
431.82617 -1508.6084 360 2.139731e-38
415.64584 -1496.8525 360 2.158134e-38
398.01227 -1521.123 360 2.0938492e-38
340.62195 -1429.9839 360 2.1118934e-38
283.29669 -1474.8596 360 2.0662985e-38
245.81726 -1509.4326 370 2.1393006e-38
234.06158 -1525.6128 370 2.0662985e-38
240.63348 -1431.5022 360 2.1120728e-38
242.08667 -1395.4761 360 2.0476086e-38
220.02844 -1391.8105 360 2.0844504e-38
211.93829 -1385.9326 360 1.9371549e-38
207.51361 -1357.9966 360 1.9643468e-38
191.33325 -1346.241 360 1.8170504e-38
159.73169 -1372.7239 360 1.7156698e-38
309.51917 -962.40234 320 1.6875438e-38
295.55115 -964.61462 320 1.6323705e-38
285.24866 -944.7688 320 1.6136068e-38
277.15845 -938.89099 320 1.6136762e-38
266.85596 -919.04504 320 1.3930218e-38
256.55347 -899.19922 320 8.6696542e-39
258.00665 -863.17297 310 8.2987207e-39
267.54999 -833.02466 310 7.7444511e-39
257.2475 -813.17871 310 9.2231797e-39
249.15735 -807.3009 310 4.5175901e-39
241.06714 -801.4231 310 2.3056685e-39
230.76465 -781.57715 310 2.0293913e-39
222.6745 -775.69934 310 5.531742e-39
214.58429 -769.82153 310 7.8380873e-39
206.49414 -763.9436 310 8.7600478e-39
190.31378 -752.18799 310 1.0325939e-38
170.4679 -762.49048 310 9.9593112e-39
150.62207 -772.79297 310 1.0695789e-38
142.53186 -766.91516 310 1.023409e-38
134.44171 -761.03723 310 1.0325923e-38
120.47369 -763.24963 310 7.0054722e-39
104.29333 -751.4939 310 2.2127021e-39
-117.61157 -1022.8943 350 1.3833044e-39
-133.79199 -1011.1387 350 1.1992663e-39
-155.85022 -1007.4731 350 8.8546887e-39
-158.0625 -993.50513 350 1.2173069e-38
-168.36499 -973.65918 350 1.2541136e-38
-182.33301 -975.87158 350 1.2909557e-38
-198.51343 -964.11584 350 1.1986515e-38
-194.8479 -942.05762 350 1.1338979e-38
-205.15039 -922.21179 350 1.0511e-38
-215.45288 -902.36597 350 1.0325525e-38
-217.66516 -888.39795 350 2.2109141e-39
-166.97693 -801.61829 340 1.8442713e-39
-51.632324 -625.8468 310 2.3048865e-39
-53.844604 -611.87878 310 2.8580575e-39
-56.056946 -597.91077 310 3.225761e-39
-58.269287 -583.94275 310 3.0428131e-39
-66.359436 -578.06494 310 3.5938275e-39
-68.571777 -564.09692 310 3.870413e-39
-70.784119 -550.12891 310 3.8707689e-39
-86.964478 -538.37317 310 4.424656e-39
-95.054626 -532.49536 310 3.9629659e-39
-103.14484 -526.61743 310 4.1513075e-39
-111.23499 -520.73962 310 5.1618651e-39
-133.29321 -517.0741 310 4.7945203e-39
-141.38342 -511.19629 310 4.8845593e-39
-181.07507 -531.80127 310 4.4246644e-39
-195.04309 -534.01355 310 2.7673094e-39
-217.10132 -530.34802 320 2.3074075e-39
-225.19153 -524.47021 320 2.12194e-39
-233.28162 -518.59241 320 2.3056068e-39
-235.49402 -504.62439 310 3.0413726e-39
-237.7063 -490.65637 310 3.0402936e-39
-234.04077 -468.59814 310 3.6892545e-39
-236.25317 -454.63013 310 1.1996194e-39
-252.43347 -442.87439 310 6.4572674e-40
-260.52368 -436.99658 310 7.3684617e-40
-262.73596 -423.02856 310 7.3684617e-40
-270.82617 -417.15076 310 6.4537081e-40
-273.03845 -403.18274 310 5.5317238e-40
-300.97449 -407.60742 310 4.6133828e-40
798.33484 -748.95618 260 1.0141561e-39
796.1225 -734.98816 260 1.106356e-39
650.88989 -1445.2751 320 1.5490673e-38
636.92188 -1447.4873 330 1.5124408e-38
622.95386 -1449.6997 330 1.567614e-38
608.98584 -1451.9121 330 1.7150551e-38
600.89563 -1446.0342 330 1.8352705e-38
579.59656 -1492.3628 330 1.9001337e-38
563.41626 -1480.6072 330 2.0199144e-38
558.99158 -1452.6711 330 2.0385326e-38
554.56689 -1424.7351 330 2.0938492e-38
534.72107 -1435.0376 330 2.0937416e-38
520.75305 -1437.25 330 2.139731e-38
514.11603 -1395.3459 330 2.1672458e-38
496.48248 -1419.6165 330 2.1122163e-38
472.9711 -1451.9771 340 2.1580623e-38
455.33755 -1476.2476 340 2.1122163e-38
433.27936 -1472.582 340 2.1213998e-38
425.18921 -1466.7043 340 2.1305475e-38
399.46552 -1485.0969 340 2.1397669e-38
398.70636 -1435.1028 340 2.1303323e-38
397.9472 -1385.1084 330 2.1030327e-38
383.97919 -1387.3208 340 2.1580981e-38
370.01117 -1389.5332 340 2.1212205e-38
288.48047 -1552.7898 350 2.1213998e-38
280.39026 -1546.9119 350 2.0938492e-38
264.20996 -1535.1562 350 2.1396593e-38
238.48621 -1553.5488 360 2.0754103e-38
212.76251 -1571.9417 360 2.1305475e-38
231.09009 -1461.6506 350 2.1122163e-38
245.7522 -1373.418 340 2.0568997e-38
237.66199 -1367.54 340 2.0289904e-38
215.60382 -1363.8745 340 1.9186084e-38
211.17914 -1335.9385 340 1.8818383e-38
197.21112 -1338.1509 340 1.7616602e-38
165.60956 -1364.6335 350 1.6971941e-38
309.51917 -962.40234 310 1.5954561e-38
293.33881 -950.64661 310 1.6138229e-38
285.24866 -944.7688 310 1.5496444e-38
274.94617 -924.92297 310 1.5585777e-38
266.85596 -919.04504 310 1.0425749e-38
262.43134 -891.10901 300 8.9455138e-39
263.88452 -855.08276 300 8.2997969e-39
267.54999 -833.02466 300 7.6529758e-39
257.2475 -813.17871 300 9.2213931e-39
249.15735 -807.3009 300 5.6242936e-39
246.94501 -793.33289 300 2.3049244e-39
230.76465 -781.57715 300 2.5822147e-39
222.6745 -775.69934 300 5.6250194e-39
214.58429 -769.82153 300 7.9302773e-39
198.40399 -758.0658 300 8.9440761e-39
190.31378 -752.18799 300 1.0141902e-38
170.4679 -762.49048 300 1.0329167e-38
156.49988 -764.70276 300 1.0602521e-38
148.40973 -758.82495 300 1.0233366e-38
140.31958 -752.94714 300 9.8667541e-39
118.26135 -749.28162 300 1.0141535e-38
110.1712 -743.40369 300 1.2627922e-38
-119.82397 -1008.9263 340 1.383303e-39
-133.79199 -1011.1387 340 1.0145205e-39
-155.85022 -1007.4731 340 9.0372765e-39
-158.0625 -993.50513 340 1.1989755e-38
-168.36499 -973.65918 330 1.2450016e-38
-182.33301 -975.87158 340 1.2079805e-38
-210.26904 -980.29626 340 1.1618805e-38
-200.72571 -950.14783 330 1.0512467e-38
-211.0282 -930.302 330 1.02337e-38
-227.2085 -918.54626 330 1.032336e-38
-223.54309 -896.48804 330 4.6055005e-39
-96.442749 -704.53625 310 1.9353852e-39
-51.632324 -625.8468 300 2.2119734e-39
-47.966797 -603.78857 300 2.3974437e-39
-56.056946 -597.91077 300 3.2264827e-39
-58.269287 -583.94275 300 3.5023451e-39
-60.481628 -569.97473 300 3.6867392e-39
-62.69397 -556.00671 300 3.41159e-39
-70.784119 -550.12891 300 3.8718493e-39
-86.964478 -538.37317 300 2.3978094e-39
-95.054626 -532.49536 300 2.3978024e-39
-103.14484 -526.61743 300 2.5818364e-39
-111.23499 -520.73962 300 2.4900009e-39
-127.41528 -508.98389 300 2.5832783e-39
-141.38342 -511.19629 300 3.043169e-39
-161.22925 -521.49878 300 2.9466602e-39
-189.16528 -525.92346 300 2.3931277e-39
-203.1333 -528.13574 300 1.3818554e-39
-219.3136 -516.38 300 1.013789e-39
-227.40381 -510.5022 300 1.0130715e-39
-229.61609 -496.53418 300 1.105986e-39
-231.82849 -482.56616 300 1.3814925e-39
-228.16296 -460.50793 300 1.7509953e-39
-236.25317 -454.63013 300 1.0134373e-39
-252.43347 -442.87439 300 1.2885864e-39
-260.52368 -436.99658 300 7.3720491e-40
-268.61377 -431.11877 300 6.4500787e-40
-276.70398 -425.24084 300 5.5281365e-40
-298.76221 -421.57544 300 5.5281505e-40
-312.73022 -423.78772 300 4.6097815e-40
-362.16052 -66.497009 270 7.382825e-40
804.21265 -740.86597 250 9.2268217e-40
796.1225 -734.98816 250 1.1063532e-39
679.51996 -1354.8298 300 1.4846019e-38
650.88989 -1445.2751 310 1.4847822e-38
636.92188 -1447.4873 310 1.5398839e-38
622.95386 -1449.6997 310 1.5770852e-38
614.86365 -1443.8218 310 1.4942546e-38
598.68329 -1432.0662 310 1.7982497e-38
581.04974 -1456.3367 310 1.9277194e-38
572.95959 -1450.4587 310 2.0105874e-38
560.44476 -1416.645 310 2.1119652e-38
556.02008 -1388.709 310 2.075231e-38
532.50867 -1421.0696 310 2.1122163e-38
520.75305 -1437.25 320 2.158134e-38
504.57266 -1425.4941 320 2.0570432e-38
484.72681 -1435.7969 320 2.0938492e-38
472.9711 -1451.9771 320 2.1765011e-38
456.79077 -1440.2214 320 2.102961e-38
442.82272 -1442.4338 320 2.112001e-38
432.52023 -1422.5879 320 2.0938492e-38
418.55222 -1424.8003 320 2.1397669e-38
423.67093 -1366.7158 320 2.1397669e-38
420.69946 -1302.7535 310 2.1672817e-38
370.01117 -1389.5332 320 2.1030327e-38
252.45422 -1551.3367 340 2.1119652e-38
226.73053 -1569.7292 340 2.158134e-38
228.18372 -1533.7031 340 2.1305834e-38
240.63348 -1431.5022 330 2.0934187e-38
239.87433 -1381.5081 330 2.0477162e-38
225.90631 -1383.7205 330 2.0013321e-38
217.8161 -1377.8425 330 1.9647055e-38
207.51361 -1357.9966 330 1.7895723e-38
191.33325 -1346.241 330 1.7432946e-38
171.48743 -1356.5435 330 1.6418428e-38
309.51917 -962.40234 290 1.5863439e-38
299.21667 -942.55652 290 1.5955631e-38
291.12646 -936.67859 290 1.6044956e-38
274.94617 -924.92297 290 1.549286e-38
272.73383 -910.95496 290 8.94483e-39
262.43134 -891.10901 290 8.4845497e-39
269.76233 -846.99268 290 8.1161315e-39
267.54999 -833.02466 290 7.6529688e-39
257.2475 -813.17871 290 8.7618513e-39
249.15735 -807.3009 290 5.9934502e-39
241.06714 -801.4231 280 2.3049076e-39
230.76465 -781.57715 280 2.7666074e-39
222.6745 -775.69934 280 5.2573173e-39
214.58429 -769.82153 280 8.0210408e-39
198.40399 -758.0658 280 9.3124999e-39
190.31378 -752.18799 280 1.0142968e-38
170.4679 -762.49048 290 1.0325581e-38
156.49988 -764.70276 290 1.0235537e-38
148.40973 -758.82495 290 9.9571448e-39
140.31958 -752.94714 290 8.6678452e-39
124.13922 -741.19141 290 9.4047025e-39
110.1712 -743.40369 290 1.2172336e-38
96.203186 -745.61609 290 4.7030996e-39
-119.82397 -1008.9263 320 1.2918234e-39
-133.79199 -1011.1387 320 1.1063532e-39
-155.85022 -1007.4731 320 8.7614e-39
-163.94031 -1001.5952 320 1.1618105e-38
-168.36499 -973.65918 320 1.1711381e-38
-188.21082 -983.96167 320 1.1344034e-38
-222.02478 -996.47656 320 1.1341865e-38
-206.60352 -958.23804 320 1.069432e-38
-211.0282 -930.302 320 9.681246e-39
-221.33069 -910.45605 320 9.8638338e-39
-158.88672 -807.49622 310 8.4794728e-39
-102.32062 -712.62634 300 1.8431909e-39
-51.632324 -625.8468 290 2.2119748e-39
-53.844604 -611.87878 290 2.7647843e-39
-56.056946 -597.91077 290 2.6736719e-39
-58.269287 -583.94275 280 3.0410138e-39
-60.481628 -569.97473 280 2.6729502e-39
-62.69397 -556.00671 280 3.0431733e-39
-70.784119 -550.12891 280 2.394927e-39
-86.964478 -538.37317 280 2.9484609e-39
-95.054626 -532.49536 280 2.6725943e-39
-103.14484 -526.61743 280 2.2116147e-39
-111.23499 -520.73962 280 2.3960088e-39
-127.41528 -508.98389 280 2.4871226e-39
-135.50549 -503.10608 280 1.9353894e-39
-149.47351 -505.31836 280 2.397085e-39
-157.56372 -499.44055 280 3.3179567e-39
-179.62195 -495.77502 290 4.2406234e-39
-187.71204 -489.89722 280 3.8678934e-39
-189.92444 -475.9292 280 3.0399377e-39
-206.10474 -464.17346 280 2.7615487e-39
-220.07275 -466.38586 290 2.486045e-39
-228.16296 -460.50793 290 1.6602458e-39
-250.22119 -456.84241 290 1.4736895e-39
-258.31128 -450.9646 290 1.0141505e-39
-266.40149 -445.08679 290 9.2123743e-40
-274.4917 -439.20886 290 5.5389265e-40
-276.70398 -425.24084 290 5.5281505e-40
-292.8844 -413.48523 290 4.6133688e-40
-300.97449 -407.60742 290 4.6097955e-40
-328.91052 -412.03198 290 3.6914265e-40
-348.1925 -64.284668 260 6.4573094e-40
804.21265 -740.86597 240 8.3084387e-40
802.00031 -726.89795 240 1.1063546e-39
675.85443 -1376.8882 290 1.4752392e-38
653.10217 -1459.2432 300 1.512225e-38
639.13416 -1461.4553 300 1.4848905e-38
622.95386 -1449.6997 300 1.5400995e-38
614.86365 -1443.8218 300 1.6231824e-38
606.77344 -1437.9441 300 1.7431843e-38
586.92761 -1448.2466 300 1.8540717e-38
570.74725 -1436.4907 300 1.9830367e-38
560.44476 -1416.645 300 2.0386761e-38
552.35461 -1410.7671 300 2.0385685e-38
528.8432 -1443.1277 300 2.0753027e-38
514.87518 -1445.3401 300 2.0938492e-38
498.69482 -1433.5845 300 2.0846297e-38
490.60464 -1427.7065 300 2.1305834e-38
476.63663 -1429.9189 300 2.1397669e-38
468.54645 -1424.041 300 2.1489505e-38
448.70059 -1434.3435 300 2.1122163e-38
438.39807 -1414.4978 300 2.1028892e-38
414.88669 -1446.8584 310 2.0478238e-38
421.45859 -1352.7478 300 2.0659398e-38
401.61273 -1363.0503 300 2.0936339e-38
350.92444 -1449.8298 310 2.1303681e-38
264.20996 -1535.1562 320 2.1489146e-38
238.48621 -1553.5488 320 2.1395876e-38
247.27045 -1473.4062 320 2.0753386e-38
246.51129 -1423.4121 310 2.0292056e-38
242.08667 -1395.4761 310 2.0748364e-38
225.90631 -1383.7205 310 1.9829291e-38
209.72595 -1371.9646 310 1.9738173e-38
199.42346 -1352.1189 310 1.7802087e-38
197.21112 -1338.1509 310 1.7524051e-38
175.15295 -1334.4854 310 1.6416629e-38
309.51917 -962.40234 280 1.6137514e-38
299.21667 -942.55652 280 1.5494667e-38
291.12646 -936.67859 280 1.549429e-38
280.82397 -916.83276 280 1.5309899e-38
272.73383 -910.95496 280 8.8522462e-39
268.30914 -883.0188 280 8.7600562e-39
269.76233 -846.99268 270 8.2094048e-39
267.54999 -833.02466 270 7.7455273e-39
251.36969 -821.26892 270 8.6685794e-39
249.15735 -807.3009 270 5.9009057e-39
241.06714 -801.4231 270 2.9509846e-39
230.76465 -781.57715 270 3.1350326e-39
222.6745 -775.69934 270 5.1644042e-39
214.58429 -769.82153 270 7.7458959e-39
198.40399 -758.0658 270 9.1277429e-39
184.43597 -760.27808 270 1.0142607e-38
170.4679 -762.49048 270 1.0509957e-38
156.49988 -764.70276 270 1.0512471e-38
148.40973 -758.82495 270 9.7738354e-39
146.19739 -744.85693 270 7.7451756e-39
124.13922 -741.19141 270 9.8645933e-39
116.04901 -735.3136 270 8.7578954e-39
102.08099 -737.52588 280 4.6094788e-39
-119.82397 -1008.9263 300 1.3843764e-39
-133.79199 -1011.1387 300 1.1063546e-39
-155.85022 -1007.4731 310 5.4455958e-39
-163.94031 -1001.5952 310 1.079194e-38
-168.36499 -973.65918 300 1.1343671e-38
-188.21082 -983.96167 310 1.1617391e-38
-227.90259 -1004.5668 310 1.0787978e-38
-206.60352 -958.23804 300 1.0141878e-38
-140.49402 -833.21985 290 9.4954114e-39
-136.82849 -811.16174 290 9.2181028e-39
-129.49744 -767.04529 290 9.4010508e-39
-114.07629 -728.80676 280 1.7509995e-39
-57.510132 -633.93701 280 1.6602388e-39
-53.844604 -611.87878 270 2.489275e-39
-56.056946 -597.91077 270 2.304525e-39
-52.391418 -575.85254 270 2.6733103e-39
-54.60376 -561.88452 270 3.3190329e-39
-62.69397 -556.00671 270 2.3041649e-39
-70.784119 -550.12891 270 3.1328479e-39
-86.964478 -538.37317 270 3.4083572e-39
-89.176819 -524.40515 270 3.5956212e-39
-103.14484 -526.61743 270 3.5019948e-39
-111.23499 -520.73962 270 3.5012661e-39
-127.41528 -508.98389 270 3.4101495e-39
-129.62769 -495.01587 270 4.0519232e-39
-137.7179 -489.13806 270 3.8675333e-39
-145.80798 -483.26025 270 3.9658428e-39
-153.89819 -477.38232 270 2.4907211e-39
-170.07849 -465.62671 270 3.2232429e-39
-178.1687 -459.74878 270 2.946656e-39
-192.13672 -461.96118 270 2.6697076e-39
-220.07275 -466.38586 270 1.1056357e-39
-234.04077 -468.59814 270 1.4751301e-39
-250.22119 -456.84241 270 1.9335803e-39
-258.31128 -450.9646 270 1.0134331e-39
-266.40149 -445.08679 270 8.301194e-40
-274.4917 -439.20886 270 7.3720771e-40
-276.70398 -425.24084 270 4.6097955e-40
-292.8844 -413.48523 270 4.6061802e-40
-300.97449 -407.60742 270 4.6097955e-40
-309.0647 -401.72949 270 3.6878392e-40
-311.27698 -387.76147 270 4.6026068e-40
-636.27209 -324.6886 280 6.4428901e-40
-644.3623 -318.81067 280 5.5281365e-40
-292.32043 -55.435364 250 4.6061661e-40
-359.94824 -80.465027 250 4.6025928e-40
-368.03845 -74.587219 250 3.6878112e-40
804.21265 -740.86597 230 9.219605e-40
675.85443 -1376.8882 280 1.4569432e-38
645.01202 -1453.3652 280 1.4203525e-38
636.92188 -1447.4873 280 1.5121175e-38
628.83167 -1441.6096 280 1.5124038e-38
618.52917 -1421.7637 280 1.5585746e-38
604.56116 -1423.9761 280 1.7429317e-38
594.25867 -1404.1301 280 1.7803525e-38
580.29065 -1406.3425 280 1.9554143e-38
564.11023 -1394.5867 280 2.0020137e-38
552.35461 -1410.7671 280 2.0476803e-38
531.05554 -1457.0957 290 2.1030327e-38
517.08752 -1459.3081 290 2.0846656e-38
500.90714 -1447.5525 290 2.1213998e-38
490.60464 -1427.7065 290 2.0938492e-38
476.63663 -1429.9189 290 2.1305834e-38
466.33414 -1410.073 290 2.1213281e-38
452.36609 -1412.2854 290 2.0754821e-38
442.0636 -1392.4395 290 2.1948682e-38
418.55222 -1424.8003 290 2.1671382e-38
406.03738 -1390.9863 290 2.1489505e-38
400.15955 -1399.0764 290 2.0662985e-38
348.01807 -1521.8823 300 2.1397669e-38
341.3811 -1479.9783 300 2.1213998e-38
256.81378 -1443.2581 300 2.1210052e-38
252.38916 -1415.322 300 2.0845221e-38
242.08667 -1395.4761 300 2.029098e-38
225.90631 -1383.7205 300 2.0199862e-38
217.8161 -1377.8425 300 1.8999902e-38
199.42346 -1352.1189 290 1.7985037e-38
197.21112 -1338.1509 290 1.6785424e-38
184.69629 -1304.3369 290 1.6417681e-38
303.6413 -970.49255 270 1.5955287e-38
299.21667 -942.55652 270 1.5219864e-38
297.00433 -928.58838 270 1.5493211e-38
280.82397 -916.83276 270 1.5216264e-38
272.73383 -910.95496 270 8.8526092e-39
268.30914 -883.0188 260 8.5770999e-39
269.76233 -846.99268 260 8.0232184e-39
267.54999 -833.02466 260 7.7448141e-39
251.36969 -821.26892 260 8.4859874e-39
249.15735 -807.3009 260 4.705975e-39
241.06714 -801.4231 260 3.5056116e-39
230.76465 -781.57715 260 3.3197868e-39
216.79663 -783.78955 260 5.4388317e-39
214.58429 -769.82153 260 7.8369971e-39
206.49414 -763.9436 260 9.2213833e-39
184.43597 -760.27808 260 1.0233025e-38
170.4679 -762.49048 260 1.0050775e-38
162.37775 -756.61267 260 1.0143694e-38
154.2876 -750.73474 260 9.5883679e-39
146.19739 -744.85693 260 9.3103195e-39
130.01703 -733.1012 260 1.1341521e-38
116.04901 -735.3136 260 7.0101315e-39
102.08099 -737.52588 260 2.8625052e-39
-91.887939 -1004.5017 290 1.2921906e-39
-119.82397 -1008.9263 290 1.2911074e-39
-133.79199 -1011.1387 290 1.0141617e-39
-155.85022 -1007.4731 290 3.9636624e-39
-163.94031 -1001.5952 290 1.051464e-38
-168.36499 -973.65918 290 1.1066373e-38
-188.21082 -983.96167 290 1.1155326e-38
-233.7804 -1012.6569 290 1.0329505e-38
-126.526 -831.00757 280 1.0232632e-38
-128.7384 -817.03955 280 8.8514895e-39
-119.19495 -786.89111 270 8.6667339e-39
-123.61963 -758.95508 270 9.0340605e-39
-90.56488 -696.44604 270 1.933946e-39
-57.510132 -633.93701 260 2.1201351e-39
-53.844604 -611.87878 260 2.6722355e-39
-50.179138 -589.82056 260 2.8569813e-39
-52.391418 -575.85254 260 2.766585e-39
-54.60376 -561.88452 260 2.2123392e-39
-62.69397 -556.00671 260 3.1342857e-39
-70.784119 -550.12891 260 3.5030696e-39
-86.964478 -538.37317 260 3.965833e-39
-89.176819 -524.40515 260 4.8831258e-39
-103.14484 -526.61743 260 5.2522628e-39
-117.11279 -528.82983 260 4.2424297e-39
-127.41528 -508.98389 260 1.6638443e-39
-135.50549 -503.10608 260 1.0152351e-39
-137.7179 -489.13806 260 2.8548135e-39
-145.80798 -483.26025 260 3.3208419e-39
-148.02039 -469.29224 260 3.410874e-39
-150.23267 -455.32422 260 3.3215594e-39
-152.44495 -441.3562 260 1.5727305e-39
-174.50317 -437.69067 260 1.5691278e-39
-200.22693 -456.08337 260 1.293257e-39
-239.9187 -476.68835 260 8.322802e-40
-256.099 -464.93262 260 2.2126951e-39
-258.31128 -450.9646 260 7.4080204e-40
-266.40149 -445.08679 260 8.3048094e-40
-274.4917 -439.20886 260 5.5317658e-40
-276.70398 -425.24084 260 3.6914265e-40
-292.8844 -413.48523 260 3.6878112e-40
-295.09668 -399.51721 260 3.6878252e-40
-303.18689 -393.63928 260 4.6097535e-40
-305.39917 -379.67126 260 3.6842379e-40
-634.05981 -338.65662 270 3.6878392e-40
-628.18188 -330.56641 270 4.6061802e-40
-644.3623 -318.81067 270 4.6061661e-40
-646.57458 -304.84265 270 4.6025928e-40
-648.78699 -290.87463 270 3.6878392e-40
-642.90906 -282.78448 270 4.6061942e-40
-284.23035 -61.313232 240 3.6878112e-40
