# .PCD v0.7 - Point Cloud Data file format
VERSION 0.7
FIELDS x y z rgb
SIZE 4 4 4 4
TYPE F F F F
COUNT 1 1 1 1
WIDTH 1210
HEIGHT 1
VIEWPOINT 0 0 0 1 0 0 0
POINTS 1210
DATA ascii
182.49957 -866.85486 470 3.4126915e-39
22.768799 -1212.5223 560 3.5978016e-39
23.508911 -1198.3997 560 3.7821942e-39
16.817627 -1190.9681 560 3.6889182e-39
-10.687744 -1175.3651 560 4.1513411e-39
-32.982117 -1195.4391 570 4.426849e-39
-39.673401 -1188.0077 570 5.3498661e-39
-46.364746 -1180.5762 570 2.3509886e-38
-53.05603 -1173.1448 570 2.3509886e-38
-66.43866 -1158.2819 570 2.3509886e-38
-73.129944 -1150.8505 570 2.3509886e-38
-79.821289 -1143.4189 570 2.3509886e-38
-86.512573 -1135.9875 570 2.3509886e-38
-92.463806 -1114.4333 570 2.3509886e-38
-99.15509 -1107.002 570 2.3509886e-38
-105.84637 -1099.5704 570 2.3509886e-38
-111.79761 -1078.0162 560 2.3509886e-38
-157.12634 -1132.2869 580 2.3509886e-38
-45.684875 -897.38098 520 2.3509886e-38
-44.944763 -883.25818 520 2.3509886e-38
-50.895935 -861.70398 510 2.3509886e-38
-57.587219 -854.27258 510 2.3509886e-38
-64.278564 -846.84119 510 2.3509886e-38
-63.538391 -832.71838 510 2.3509886e-38
-70.229736 -825.28699 510 6.0863437e-39
-76.180908 -803.73279 510 5.4398925e-39
-75.440796 -789.60999 510 4.8874432e-39
-51.666199 -741.29053 490 4.9796388e-39
-57.617371 -719.73633 490 5.0714673e-39
-56.877258 -705.61365 490 5.8061513e-39
-63.568542 -698.18213 490 6.2653316e-39
-70.259888 -690.75073 480 5.9905481e-39
-69.519714 -676.62793 480 5.8994301e-39
-76.21106 -669.19653 480 6.1738562e-39
-82.902344 -661.76501 480 5.5295728e-39
-89.593689 -654.33362 480 4.7930867e-39
-103.71643 -653.59351 490 5.0675212e-39
-110.40771 -646.16211 490 5.4380974e-39
-124.53052 -645.42188 490 4.9767704e-39
-131.2218 -637.99048 490 3.5027179e-39
-137.91315 -630.55908 490 3.7800166e-39
-144.60443 -623.12756 490 4.4246672e-39
-158.72717 -622.38745 490 4.2413605e-39
-172.84991 -621.64734 490 4.7938126e-39
-195.14429 -641.72131 500 3.9626128e-39
-231.56134 -661.05505 510 3.595631e-39
-238.25269 -653.62366 510 3.1360905e-39
-244.94397 -646.19214 510 3.41196e-39
-251.63531 -638.76074 510 3.4130446e-39
-258.3266 -631.32935 510 3.9633359e-39
-271.70923 -616.46643 510 3.5963526e-39
-270.96912 -602.34363 510 3.1342885e-39
-277.6604 -594.91223 510 1.7707154e-38
-276.92029 -580.78949 510 2.3509886e-38
-283.61157 -573.35803 510 2.3509886e-38
-379.48022 -646.22229 540 2.3509886e-38
-505.07458 -745.85193 580 2.3509886e-38
-837.26917 -1004.5927 700 2.3509886e-38
-843.96045 -997.16125 690 2.3509886e-38
-857.34302 -982.29834 700 2.3509886e-38
-856.60291 -968.17554 690 9.7021365e-39
-855.86279 -954.05286 690 5.8068715e-39
-869.24548 -939.18994 690 5.6188761e-39
-868.50525 -925.06726 690 5.5259672e-39
-867.02502 -896.82166 680 5.0653478e-39
-851.422 -869.31628 670 5.0664212e-39
-363.16724 -470.05798 500 6.7194658e-39
-362.42712 -455.93518 500 6.6305043e-39
-354.25549 -435.12115 500 8.0094829e-39
-360.94678 -427.6897 500 9.3913299e-39
-360.20667 -413.56696 500 1.1879518e-38
-352.03516 -392.75287 490 1.2891164e-38
-373.58936 -398.70404 490 1.3813098e-38
-395.14355 -404.65521 500 1.4181161e-38
-486.57141 -392.78302 510 1.3906735e-38
-529.67981 -404.68536 530 1.3536149e-38
-492.52258 -371.22882 510 1.3168093e-38
-520.76807 -369.74854 520 1.3628698e-38
-520.02795 -355.62579 520 1.3628352e-38
-526.71924 -348.19434 520 1.3443599e-38
-525.97913 -334.07159 510 1.2524872e-38
-532.67041 -326.64014 510 1.224758e-38
-546.79321 -325.90002 510 1.3165568e-38
-575.0387 -324.41974 520 1.2521632e-38
-581.72998 -316.98834 520 1.3165925e-38
-595.85278 -316.24817 520 1.4086424e-38
-595.11267 -302.12543 520 1.8414564e-38
-601.80396 -294.69397 520 1.8602538e-38
-615.18652 -279.83112 520 1.7125278e-38
-382.56128 -164.56842 450 1.6387352e-38
-389.25256 -157.13696 450 1.344358e-38
-395.94397 -149.70551 450 9.0254215e-39
-395.20374 -135.58276 450 4.8838306e-39
-395.20374 -135.58276 450 2.2497118e-38
-329.06091 -89.483704 430 3.9619178e-39
-329.06091 -89.483704 430 2.2130524e-39
-335.7522 -82.052246 430 1.6587955e-39
-342.4436 -74.620819 430 1.56696e-39
-349.13489 -67.189392 430 1.566967e-39
-305.28638 -41.164246 420 1.8428364e-39
-239.88361 -9.1879578 400 1.7506408e-39
-239.14349 4.9347839 400 1.3829344e-39
-217.58929 10.885986 390 1.2228148e-38
-245.83484 12.366241 400 1.2972526e-38
-238.40338 19.057556 390 6.5307557e-39
-237.66327 33.180298 390 4.8751944e-39
-237.66327 33.180298 390 6.8058936e-39
-236.9231 47.30307 390 1.0942085e-38
-236.9231 47.30307 390 1.2228144e-38
-243.61444 54.734497 390 1.2227066e-38
-250.30573 62.165955 390 1.1950848e-38
-256.99707 69.597382 390 1.1215081e-38
-278.55127 63.64621 390 9.1010706e-39
289.56061 -985.75793 460 1.2172381e-38
290.30072 -971.63513 460 1.2448952e-38
284.34955 -950.08093 450 1.1898658e-38
294.00137 -901.02136 440 1.1988698e-38
294.74152 -886.89856 440 1.3094309e-38
288.0502 -879.46716 440 1.355205e-38
273.92743 -878.72705 440 1.548096e-38
267.23615 -871.29553 440 1.9254855e-38
267.23615 -871.29553 440 5.8101618e-39
260.54483 -863.86414 440 3.5045438e-39
253.85352 -856.43274 440 3.1375479e-39
247.1622 -849.00122 440 2.1223226e-39
240.47089 -841.56982 440 2.5829462e-39
233.77957 -834.13831 440 2.3985423e-39
189.19092 -874.28625 460 3.5988862e-39
182.49957 -866.85486 460 3.5970869e-39
175.80829 -859.42334 460 3.4134117e-39
168.37683 -866.11462 460 3.6907133e-39
-18.119202 -1182.0565 550 4.0573392e-39
-40.413513 -1202.1304 560 4.7034359e-39
-47.104858 -1194.699 560 7.2802164e-39
-60.487488 -1179.8361 560 2.3509886e-38
-67.178772 -1172.4047 560 2.3509886e-38
-73.129944 -1150.8505 560 2.3509886e-38
-79.821289 -1143.4189 560 2.3509886e-38
-86.512573 -1135.9875 560 2.3509886e-38
-99.895203 -1121.1246 560 2.3509886e-38
-99.15509 -1107.002 550 2.3509886e-38
-105.84637 -1099.5704 550 2.3509886e-38
-111.79761 -1078.0162 550 2.3509886e-38
-117.74878 -1056.462 550 2.3509886e-38
-210.62671 -1207.3716 590 2.3509886e-38
-45.684875 -897.38098 510 2.3509886e-38
-44.944763 -883.25818 500 2.3509886e-38
-43.464478 -855.0127 500 2.3509886e-38
-50.155762 -847.5813 500 2.3509886e-38
-56.847107 -840.14978 500 2.3509886e-38
-63.538391 -832.71838 500 1.3740838e-38
-76.921021 -817.85547 500 6.2689315e-39
-68.749451 -797.04138 500 5.2547936e-39
-67.269226 -768.7959 490 4.9778395e-39
-50.926086 -727.16785 480 4.7952391e-39
-50.185913 -713.04504 480 4.9771179e-39
-56.877258 -705.61365 480 5.3451745e-39
-63.568542 -698.18213 480 5.8979896e-39
-62.82843 -684.05945 470 5.6206992e-39
-69.519714 -676.62793 470 6.1752953e-39
-76.21106 -669.19653 470 5.0696792e-39
-82.902344 -661.76501 470 5.6214027e-39
-89.593689 -654.33362 470 5.8979994e-39
-103.71643 -653.59351 480 5.6224873e-39
-110.40771 -646.16211 480 3.8718535e-39
-117.09906 -638.73059 480 3.7803726e-39
-131.2218 -637.99048 480 4.2384808e-39
-137.91315 -630.55908 480 3.9654883e-39
-144.60443 -623.12756 480 4.7023331e-39
-158.72717 -622.38745 480 5.5285022e-39
-181.02155 -642.46143 490 3.687821e-39
-202.57574 -648.4126 490 4.3317499e-39
-224.12988 -654.36377 500 4.0580384e-39
-230.82123 -646.93237 500 4.5168586e-39
-237.51251 -639.50085 500 4.8860026e-39
-244.20386 -632.06946 500 4.8849321e-39
-250.89514 -624.63794 500 4.241006e-39
-264.27777 -609.77515 500 3.9654911e-39
-270.96912 -602.34363 500 4.333189e-39
-270.22894 -588.22095 500 2.3509886e-38
-276.92029 -580.78949 500 2.3509886e-38
-320.7688 -606.81458 510 2.3509886e-38
-431.50037 -693.06152 550 2.3509886e-38
-571.95764 -806.07373 590 2.3509886e-38
-742.14062 -945.85107 650 2.3509886e-38
-852.13208 -1017.9753 680 2.3509886e-38
-851.39185 -1003.8525 680 2.3509886e-38
-857.34302 -982.29834 680 2.3509886e-38
-864.03442 -974.86694 680 2.3509886e-38
-863.29431 -960.74414 680 2.3509886e-38
-876.67688 -945.88123 680 2.3509886e-38
-875.93677 -931.75854 670 2.1673176e-38
-881.88794 -910.20435 670 7.1095046e-39
-858.85352 -876.00757 660 4.4224994e-39
-378.03015 -483.44061 500 4.6958506e-39
-369.85852 -462.62653 490 5.0664282e-39
-361.68701 -441.81244 490 6.8148998e-39
-360.94678 -427.6897 490 8.0116367e-39
-352.77527 -406.87561 480 8.9310707e-39
-337.91235 -393.49298 480 9.7608173e-39
-344.60364 -386.06158 480 1.1234147e-38
-336.43213 -365.2475 470 1.1878441e-38
-328.2605 -344.43341 470 1.2707108e-38
-334.95178 -337.00195 470 1.2800744e-38
-311.91736 -302.8053 460 1.3352128e-38
-471.7085 -379.40039 500 1.2985134e-38
-522.24829 -397.99408 510 1.3075897e-38
-514.07678 -377.17999 510 1.2064275e-38
-520.76807 -369.74854 510 1.2154304e-38
-527.45935 -362.31714 510 1.2523442e-38
-534.15063 -354.88568 510 1.2338333e-38
-533.41052 -340.76294 500 1.1876994e-38
-525.23901 -319.94885 500 1.0958996e-38
-546.79321 -325.90002 500 9.9448428e-39
-581.72998 -316.98834 510 1.6851553e-38
-588.42126 -309.55688 510 1.1694396e-38
-595.11267 -302.12543 510 1.0682402e-38
-609.23535 -301.38531 510 1.3811639e-38
-608.49524 -287.26257 510 1.3349588e-38
-375.12988 -157.87708 440 1.4175752e-38
-381.82117 -150.44562 440 1.583489e-38
-388.51245 -143.01422 440 1.5376808e-38
-395.20374 -135.58276 440 4.6054501e-39
-387.77234 -128.89148 440 2.3508706e-38
-271.08966 -64.19873 410 4.6054935e-39
-292.64386 -70.149902 410 2.3963689e-39
-270.34955 -50.075958 400 1.3829373e-39
-226.50098 -24.050842 390 1.3829316e-39
-297.85492 -34.472961 410 1.8431839e-39
-239.88361 -9.1879578 390 1.5673257e-39
-239.14349 4.9347839 390 1.2907388e-39
-239.14349 4.9347839 390 1.6577179e-39
-245.83484 12.366241 390 1.0023018e-38
-238.40338 19.057556 380 1.1402347e-38
-237.66327 33.180298 380 1.0941013e-38
-237.66327 33.180298 380 9.8371937e-39
-236.9231 47.30307 380 6.6200787e-39
-236.9231 47.30307 380 3.587708e-39
-243.61444 54.734497 380 2.0257843e-39
-250.30573 62.165955 380 1.4729679e-39
-256.99707 69.597382 380 1.29002e-39
-278.55127 63.64621 390 1.6591654e-39
289.56061 -985.75793 450 8.5760167e-39
290.30072 -971.63513 450 8.3008647e-39
291.04086 -957.51233 440 8.300506e-39
294.00137 -901.02136 430 8.4852504e-39
294.74152 -886.89856 430 8.7607653e-39
288.0502 -879.46716 430 9.0362717e-39
281.35889 -872.03577 430 9.0380738e-39
267.23615 -871.29553 430 1.1063484e-38
267.23615 -871.29553 430 5.5465761e-39
260.54483 -863.86414 430 3.5052528e-39
253.85352 -856.43274 430 3.0449977e-39
247.1622 -849.00122 430 2.3985479e-39
240.47089 -841.56982 430 2.3996255e-39
233.77957 -834.13831 430 2.492896e-39
189.19092 -874.28625 450 3.5063332e-39
182.49957 -866.85486 450 3.3230112e-39
175.80829 -859.42334 450 3.6896357e-39
169.117 -851.99194 450 3.5056073e-39
161.68555 -858.68323 450 3.5970827e-39
-40.413513 -1202.1304 550 4.3360855e-39
-54.536316 -1201.3903 550 4.3346492e-39
-60.487488 -1179.8361 550 1.6751488e-38
-67.178772 -1172.4047 550 2.3509886e-38
-73.870117 -1164.9731 550 2.3509886e-38
-87.252747 -1150.1104 550 2.3509886e-38
-86.512573 -1135.9875 550 2.3509886e-38
-93.203918 -1128.5562 540 2.3509886e-38
-106.58655 -1113.6932 540 2.3509886e-38
-105.84637 -1099.5704 540 2.3509886e-38
-119.229 -1084.7076 540 2.3509886e-38
-118.48889 -1070.5848 540 2.3509886e-38
-46.424988 -911.50378 500 2.3509886e-38
-38.253418 -890.6897 490 2.3509886e-38
-44.944763 -883.25818 490 2.3509886e-38
-43.464478 -855.0127 490 2.3509886e-38
-50.155762 -847.5813 490 2.3509886e-38
-56.847107 -840.14978 490 2.3509886e-38
-56.106995 -826.0271 490 1.1064267e-38
-69.489624 -811.16418 490 5.4391792e-39
-68.749451 -797.04138 480 4.7012569e-39
-44.234741 -734.59924 470 5.1597141e-39
-43.494629 -720.47644 470 5.3487773e-39
-50.185913 -713.04504 470 5.3455431e-39
-56.877258 -705.61365 460 5.7139668e-39
-56.137085 -691.49084 460 5.3462591e-39
-62.82843 -684.05945 460 5.6224929e-39
-69.519714 -676.62793 460 4.9782025e-39
-76.21106 -669.19653 460 5.8083093e-39
-82.902344 -661.76501 460 5.8990714e-39
-89.593689 -654.33362 460 4.5175859e-39
-103.71643 -653.59351 460 3.6863973e-39
-110.40771 -646.16211 470 3.9636862e-39
-117.09906 -638.73059 470 4.2413465e-39
-123.79034 -631.29919 470 5.4402568e-39
-130.48169 -623.86768 470 6.0834654e-39
-137.17297 -616.43628 470 4.6087011e-39
-174.3302 -649.89282 480 3.7800082e-39
-195.8844 -655.84399 480 4.7023331e-39
-210.00714 -655.10388 490 4.8860054e-39
-224.12988 -654.36377 490 5.2533432e-39
-230.82123 -646.93237 490 5.2547838e-39
-237.51251 -639.50085 490 4.9789227e-39
-244.20386 -632.06946 490 4.9764004e-39
-250.89514 -624.63794 490 4.1488061e-39
-264.27777 -609.77515 490 4.0569692e-39
-270.96912 -602.34363 490 9.3149199e-39
-270.22894 -588.22095 490 2.3509886e-38
-276.92029 -580.78949 490 2.3509886e-38
-357.92603 -640.27112 510 2.3509886e-38
-476.08899 -733.20935 550 2.3509886e-38
-623.97766 -852.91284 600 2.3509886e-38
-801.59216 -999.38159 660 2.3509886e-38
-852.13208 -1017.9753 670 2.3509886e-38
-851.39185 -1003.8525 670 2.3509886e-38
-857.34302 -982.29834 660 2.3509886e-38
-856.60291 -968.17554 660 2.3509886e-38
-863.29431 -960.74414 660 2.3509886e-38
-876.67688 -945.88123 660 2.3509886e-38
-875.93677 -931.75854 660 2.3509886e-38
-874.45654 -903.51306 650 2.3509886e-38
-866.28491 -882.69897 650 1.3632847e-38
-820.95618 -828.42834 630 3.223966e-39
-339.39258 -421.73853 470 5.5256043e-39
-331.96118 -415.04718 470 6.5383073e-39
-345.34375 -400.18433 470 7.9179949e-39
-345.34375 -400.18433 470 7.643929e-39
-344.60364 -386.06158 470 8.8385121e-39
-329.00061 -358.55615 460 9.5753611e-39
-320.8291 -337.74213 450 1.0588412e-38
-327.52039 -330.31067 450 1.1139793e-38
-297.79462 -303.54541 440 1.0405832e-38
-311.91736 -302.8053 440 1.0955763e-38
-355.02576 -314.70764 460 1.0128164e-38
-449.41418 -359.32648 480 1.0313632e-38
-514.81689 -391.30273 500 1.0773167e-38
-492.52258 -371.22882 490 1.0037769e-38
-520.76807 -369.74854 500 9.8551695e-39
-534.89075 -369.00842 500 1.0036334e-38
-534.15063 -354.88568 500 1.0129243e-38
-533.41052 -340.76294 490 9.3002049e-39
-517.8075 -313.25751 490 8.9321455e-39
-546.79321 -325.90002 490 8.471889e-39
-574.29858 -310.297 500 7.549218e-39
-580.98987 -302.8656 500 7.9208606e-39
-587.68115 -295.43414 500 1.0220355e-38
-594.37244 -288.00269 500 1.1695471e-38
-601.06384 -280.57123 490 1.169619e-38
-375.12988 -157.87708 430 9.5742709e-39
-381.82117 -150.44562 430 8.0123486e-39
-388.51245 -143.01422 430 5.4323199e-39
-388.51245 -143.01422 430 5.7103431e-39
-250.27557 -72.3703 390 9.2345639e-39
-249.53546 -58.247528 390 4.1466608e-39
-271.08966 -64.19873 400 2.3960032e-39
-262.91809 -43.384644 390 1.6584423e-39
-255.48663 -36.693329 390 1.3825701e-39
-233.19232 -16.619415 380 1.5666054e-39
-247.31506 -15.879272 380 3.3179581e-39
-239.88361 -9.1879578 380 8.2821195e-39
-239.14349 4.9347839 380 1.4740497e-39
-239.14349 4.9347839 380 1.106349e-39
-245.83484 12.366241 380 1.2896598e-39
-238.40338 19.057556 380 1.381854e-39
-237.66327 33.180298 380 1.3825715e-39
-237.66327 33.180298 370 1.3836519e-39
-244.35455 40.611755 370 1.5684061e-39
-236.9231 47.30307 370 2.0268717e-39
-243.61444 54.734497 370 2.0283011e-39
-250.30573 62.165955 370 1.843914e-39
-264.42847 62.906067 370 2.1197778e-39
-292.67401 64.386353 380 1.6598787e-39
296.99203 -979.06653 440 2.0479314e-38
290.30072 -971.63513 440 1.8642604e-38
291.04086 -957.51233 430 1.7262202e-38
301.43283 -894.33008 420 1.394895e-38
294.74152 -886.89856 420 1.1456118e-38
288.0502 -879.46716 420 9.4224023e-39
281.35889 -872.03577 420 7.7581754e-39
267.23615 -871.29553 420 1.2080517e-38
267.23615 -871.29553 420 9.6870852e-39
260.54483 -863.86414 420 3.5970855e-39
253.85352 -856.43274 420 3.0442719e-39
247.1622 -849.00122 420 2.30779e-39
240.47089 -841.56982 420 2.4010591e-39
233.77957 -834.13831 420 2.4910967e-39
189.19092 -874.28625 440 3.321586e-39
182.49957 -866.85486 440 3.5056088e-39
175.80829 -859.42334 440 3.6878448e-39
169.117 -851.99194 440 3.5056045e-39
162.42566 -844.56042 440 3.5985148e-39
-54.536316 -1201.3903 540 3.7821984e-39
-61.2276 -1193.9589 540 4.1502523e-39
-74.610229 -1179.0959 540 2.3476676e-38
-73.870117 -1164.9731 540 2.3509886e-38
-87.252747 -1150.1104 530 2.3509886e-38
-93.944031 -1142.6788 530 2.3509886e-38
-100.63538 -1135.2474 530 2.3509886e-38
-107.32666 -1127.816 530 2.3509886e-38
-113.27783 -1106.2618 530 2.3509886e-38
-119.96918 -1098.8303 530 2.3509886e-38
-125.92035 -1077.2761 530 2.3509886e-38
-46.424988 -911.50378 490 2.3509886e-38
-38.253418 -890.6897 480 2.3509886e-38
-44.944763 -883.25818 480 2.3509886e-38
-43.464478 -855.0127 480 2.3509886e-38
-50.155762 -847.5813 480 2.3509886e-38
-56.847107 -840.14978 480 2.3509886e-38
-63.538391 -832.71838 480 7.6537114e-39
-69.489624 -811.16418 480 4.9774836e-39
-68.749451 -797.04138 470 4.793807e-39
-36.803284 -727.90796 460 5.0693107e-39
-43.494629 -720.47644 460 5.1607917e-39
-42.754517 -706.35376 450 4.9785528e-39
-49.445801 -698.92224 450 5.8061625e-39
-56.137085 -691.49084 450 6.0834654e-39
-62.82843 -684.05945 450 5.9001546e-39
-69.519714 -676.62793 450 6.1749408e-39
-76.21106 -669.19653 450 5.8972833e-39
-82.902344 -661.76501 450 4.2384822e-39
-89.593689 -654.33362 450 3.5956268e-39
-96.284973 -646.90222 450 4.7019673e-39
-102.97632 -639.4707 450 5.9905439e-39
-117.09906 -638.73059 460 4.2388382e-39
-123.79034 -631.29919 460 4.795965e-39
-130.48169 -623.86768 460 4.0551672e-39
-137.17297 -616.43628 460 3.5055989e-39
-189.19312 -663.27551 470 4.4268224e-39
-203.31586 -662.53528 480 5.3455487e-39
-224.87006 -668.48657 480 5.4388163e-39
-231.56134 -661.05505 480 6.0834556e-39
-230.82123 -646.93237 480 5.8075988e-39
-237.51251 -639.50085 480 4.2402829e-39
-244.20386 -632.06946 480 4.607978e-39
-257.58649 -617.20654 480 3.9640534e-39
-264.27777 -609.77515 480 4.4246672e-39
-263.53766 -595.65234 480 2.3509884e-38
-270.22894 -588.22095 480 2.3509886e-38
-284.35175 -587.48083 480 2.3509886e-38
-380.22034 -660.34509 510 2.3509886e-38
-499.12341 -767.40613 550 2.3509886e-38
-661.13489 -886.36951 600 2.3509886e-38
-831.31799 -1026.1469 650 2.3509886e-38
-844.70056 -1011.2839 650 2.3509886e-38
-843.96045 -997.16125 650 2.3509886e-38
-849.91162 -975.60706 640 2.3509886e-38
-856.60291 -968.17554 640 2.3509886e-38
-863.29431 -960.74414 640 2.3509886e-38
-869.24548 -939.18994 640 2.3509886e-38
-868.50525 -925.06726 640 2.3509886e-38
-867.02502 -896.82166 630 2.3509886e-38
-858.85352 -876.00757 630 5.4402778e-39
-828.38757 -835.11963 620 4.6126415e-39
-369.85852 -462.62653 470 4.703775e-39
-369.11841 -448.50378 470 4.9785654e-39
-383.24109 -447.76361 470 4.8878187e-39
-382.50098 -433.64087 470 5.3455473e-39
-366.89795 -406.1355 460 5.8972791e-39
-358.72644 -385.32141 460 6.8156173e-39
-329.00061 -358.55615 450 6.9985694e-39
-328.2605 -344.43341 450 6.8141809e-39
-327.52039 -330.31067 440 6.9985638e-39
-312.65753 -316.92804 440 6.7230713e-39
-319.34882 -309.49658 440 6.1716982e-39
-362.45728 -321.39899 450 5.9909097e-39
-442.72278 -366.75787 470 6.1731401e-39
-514.81689 -391.30273 490 5.8047261e-39
-506.64526 -370.48871 480 5.7110872e-39
-528.19946 -376.43988 490 5.9865993e-39
-534.89075 -369.00842 490 6.8131047e-39
-534.15063 -354.88568 480 7.0911279e-39
-504.42493 -328.12042 470 6.9978505e-39
-488.8219 -300.61505 470 6.4453928e-39
-311.2074 -154.1463 410 8.7495451e-39
-325.3302 -153.40619 420 8.5648063e-39
-361.00708 -158.61725 420 7.3680652e-39
-375.12988 -157.87708 420 7.2762241e-39
-381.82117 -150.44562 420 8.2864103e-39
-388.51245 -143.01422 420 5.712141e-39
-286.69269 -91.704102 400 1.3098925e-38
-279.26123 -85.012756 390 1.9633636e-38
-264.39838 -71.630157 390 4.3310562e-39
-271.08966 -64.19873 390 2.1204995e-39
-270.34955 -50.075958 390 1.3829344e-39
-270.34955 -50.075958 390 1.1989019e-39
-240.62378 -23.310699 380 1.568755e-39
-233.19232 -16.619415 380 2.3056082e-39
-239.88361 -9.1879578 370 2.6718754e-39
-239.14349 4.9347839 370 2.3038188e-39
-239.14349 4.9347839 370 2.0286654e-39
-245.83484 12.366241 370 2.2116217e-39
-252.52612 19.797668 370 2.2119748e-39
-252.52612 19.797668 370 1.9361068e-39
-245.09467 26.488983 370 2.0279437e-39
-251.78601 33.920441 370 1.7524344e-39
-258.47729 41.351868 370 1.7527946e-39
-265.16864 48.783325 370 1.9357523e-39
-279.29138 49.523438 370 1.7520827e-39
-285.98267 56.954895 370 1.8442713e-39
-321.65967 51.743835 380 1.8435581e-39
296.99203 -979.06653 430 1.5125551e-38
290.30072 -971.63513 430 1.5952062e-38
291.04086 -957.51233 430 1.7516141e-38
301.43283 -894.33008 410 1.908095e-38
294.74152 -886.89856 410 2.074083e-38
288.0502 -879.46716 410 1.9647773e-38
281.35889 -872.03577 410 1.9369755e-38
267.23615 -871.29553 410 1.4575612e-38
267.23615 -871.29553 410 1.4478329e-38
260.54483 -863.86414 410 3.7851103e-39
253.85352 -856.43274 420 2.3981892e-39
247.1622 -849.00122 410 2.2152343e-39
240.47089 -841.56982 410 2.8595205e-39
233.77957 -834.13831 410 2.3067082e-39
227.08826 -826.70691 410 2.3989039e-39
204.0538 -860.90356 430 2.9528021e-39
196.62234 -867.59497 430 3.4137761e-39
189.93103 -860.16345 430 3.5063248e-39
175.80829 -859.42334 430 3.4134159e-39
169.117 -851.99194 430 3.5967184e-39
161.68555 -858.68323 430 3.3205014e-39
154.9942 -851.25183 430 2.1215953e-39
-54.536316 -1201.3903 520 3.7818299e-39
-68.659058 -1200.6501 520 3.6899972e-39
-74.610229 -1179.0959 520 4.7023471e-39
-81.301514 -1171.6646 520 2.350981e-38
-87.992859 -1164.233 520 2.3509886e-38
-101.37549 -1149.3701 520 2.3509886e-38
-100.63538 -1135.2474 520 2.3509886e-38
-107.32666 -1127.816 520 2.3509886e-38
-120.70929 -1112.9531 520 2.3509886e-38
-112.53772 -1092.139 520 2.3509886e-38
-133.35181 -1083.9674 520 2.3509886e-38
-46.424988 -911.50378 480 2.3509886e-38
-45.684875 -897.38098 470 2.3509886e-38
-52.37616 -889.94958 470 2.3509886e-38
-50.895935 -861.70398 470 2.3509886e-38
-57.587219 -854.27258 470 2.3509886e-38
-64.278564 -846.84119 470 2.3509886e-38
-63.538391 -832.71838 470 5.8094121e-39
-69.489624 -811.16418 460 5.2551369e-39
-68.749451 -797.04138 460 4.6069004e-39
-36.803284 -727.90796 450 5.1615077e-39
-36.063171 -713.78516 440 5.5320909e-39
-42.754517 -706.35376 440 5.8050779e-39
-49.445801 -698.92224 440 5.8980036e-39
-56.137085 -691.49084 440 6.0838298e-39
-62.82843 -684.05945 440 5.4377387e-39
-69.519714 -676.62793 440 4.1477243e-39
-76.21106 -669.19653 440 3.7814614e-39
-82.902344 -661.76501 440 5.4395338e-39
-89.593689 -654.33362 440 5.8987182e-39
-96.284973 -646.90222 440 3.9622541e-39
-110.40771 -646.16211 440 4.2417192e-39
-117.09906 -638.73059 450 5.1625965e-39
-123.79034 -631.29919 450 4.8849335e-39
-130.48169 -623.86768 450 4.9785612e-39
-144.60443 -623.12756 450 5.5299343e-39
-189.19312 -663.27551 460 5.163307e-39
-210.74731 -669.22668 470 5.8079533e-39
-224.87006 -668.48657 470 5.991267e-39
-231.56134 -661.05505 470 6.083827e-39
-230.82123 -646.93237 470 5.9898349e-39
-237.51251 -639.50085 470 4.5154279e-39
-244.20386 -632.06946 470 4.0580539e-39
-250.15503 -610.51526 470 3.7807411e-39
-256.84637 -603.08374 470 5.2554928e-39
-263.53766 -595.65234 460 2.3509886e-38
-270.22894 -588.22095 460 2.3509886e-38
-314.07751 -614.24597 480 2.3509886e-38
-418.11768 -707.92444 510 2.3509886e-38
-551.14355 -814.24524 550 2.3509886e-38
-721.32654 -954.02271 600 2.3509886e-38
-831.31799 -1026.1469 630 2.3509886e-38
-844.70056 -1011.2839 630 2.3509886e-38
-836.52905 -990.46997 630 2.3509886e-38
-849.91162 -975.60706 630 2.3509886e-38
-849.17151 -961.48425 630 2.3509886e-38
-855.86279 -954.05286 630 2.3509886e-38
-869.24548 -939.18994 620 2.3509886e-38
-861.07385 -918.37585 620 2.3509886e-38
-859.59363 -890.13037 620 2.3509886e-38
-334.18152 -457.41547 450 4.147737e-39
-340.87292 -449.98401 460 5.5342615e-39
-354.99561 -449.2439 460 4.7034149e-39
-354.25549 -435.12115 460 4.9796556e-39
-368.3783 -434.38098 460 4.6094256e-39
-367.63818 -420.25824 450 5.1626007e-39
-359.46655 -399.44421 450 4.6108647e-39
-358.72644 -385.32141 450 4.7941742e-39
-343.86353 -371.93878 440 4.6101472e-39
-328.2605 -344.43341 440 4.3342792e-39
-334.95178 -337.00195 440 4.8845761e-39
-305.22607 -310.23676 430 4.2431626e-39
-319.34882 -309.49658 430 4.887453e-39
-355.02576 -314.70764 440 4.8881789e-39
-412.99707 -339.99261 450 4.978934e-39
-492.52258 -371.22882 470 4.9781997e-39
-285.92242 -212.11755 410 4.239934e-39
-292.61371 -204.68616 410 3.9637086e-39
-306.73645 -203.94598 410 4.056256e-39
-328.29065 -209.89722 420 3.9658526e-39
-275.53046 -148.93524 400 5.3415634e-39
-238.37323 -115.4787 390 7.458809e-39
-267.35889 -128.12115 390 7.9194341e-39
-295.60437 -126.64093 400 6.6308645e-39
-288.17291 -119.94958 390 7.3673421e-39
-294.86426 -112.51819 390 8.2885781e-39
-280.00134 -99.135559 390 1.9368227e-38
-279.26123 -85.012756 390 2.2489174e-38
-285.95258 -77.58136 390 2.1185168e-38
-278.52112 -70.890015 390 5.2504902e-39
-271.08966 -64.19873 380 2.9491826e-39
-270.34955 -50.075958 380 2.3052495e-39
-262.91809 -43.384644 380 2.3045348e-39
-240.62378 -23.310699 370 2.1208582e-39
-247.31506 -15.879272 370 2.1205023e-39
-232.45221 -2.4966431 370 2.121217e-39
-239.14349 4.9347839 370 1.9364712e-39
-239.14349 4.9347839 370 2.0268647e-39
-245.83484 12.366241 370 2.1197904e-39
-252.52612 19.797668 370 2.1201394e-39
-266.64886 20.537811 370 2.0290241e-39
-259.21741 27.229126 360 1.9364698e-39
-273.34021 27.969269 370 2.1201464e-39
-272.60004 42.09201 370 1.8446315e-39
-272.60004 42.09201 370 1.8435581e-39
-293.41412 50.26358 370 1.8446301e-39
-285.98267 56.954895 370 1.6598871e-39
-321.65967 51.743835 370 1.8435553e-39
296.99203 -979.06653 420 2.2775202e-38
290.30072 -971.63513 420 2.3050708e-38
291.04086 -957.51233 420 2.1856847e-38
301.43283 -894.33008 400 2.0938492e-38
294.74152 -886.89856 400 1.9652795e-38
288.0502 -879.46716 400 1.873444e-38
281.35889 -872.03577 400 1.7256104e-38
267.23615 -871.29553 400 1.3924118e-38
267.23615 -871.29553 410 1.4937512e-38
260.54483 -863.86414 410 1.2452218e-38
253.85352 -856.43274 410 2.773129e-39
247.1622 -849.00122 410 2.1230386e-39
240.47089 -841.56982 410 2.5843741e-39
233.77957 -834.13831 410 2.5836496e-39
219.6568 -833.39819 410 2.860968e-39
212.22537 -840.0896 410 3.2283156e-39
212.22537 -840.0896 410 3.4126985e-39
198.10263 -839.34937 410 3.59781e-39
191.41132 -831.91797 410 3.2293806e-39
183.97986 -838.60925 420 3.1368248e-39
162.42566 -844.56042 420 3.1371808e-39
154.9942 -851.25183 420 2.2159559e-39
-61.2276 -1193.9589 510 3.8743829e-39
-75.350342 -1193.2188 510 3.8725878e-39
-81.301514 -1171.6646 510 4.6101542e-39
-87.992859 -1164.233 510 2.3509886e-38
-94.684143 -1156.8016 510 2.3509886e-38
-108.06677 -1141.9387 510 2.3509886e-38
-114.75812 -1134.5073 510 2.3509886e-38
-121.4494 -1127.0758 510 2.3509886e-38
-119.96918 -1098.8303 510 2.3509886e-38
-134.09192 -1098.0902 510 2.3509886e-38
-124.44006 -1049.0306 500 2.3509886e-38
-45.684875 -897.38098 460 2.3509886e-38
-59.807617 -896.64087 460 2.3509886e-38
-59.067505 -882.51807 460 2.3509886e-38
-65.018677 -860.96387 460 2.3509886e-38
-71.709961 -853.53247 460 2.3509886e-38
-78.401306 -846.10095 460 4.6097871e-39
-70.229736 -825.28699 460 4.4243084e-39
-76.180908 -803.73279 450 5.9909041e-39
-29.371887 -721.21655 430 5.8057995e-39
-36.063171 -713.78516 430 5.7139626e-39
-42.754517 -706.35376 430 5.8983497e-39
-49.445801 -698.92224 430 5.4395239e-39
-56.137085 -691.49084 430 5.8057869e-39
-62.82843 -684.05945 430 5.2529901e-39
-69.519714 -676.62793 430 6.36076e-39
-76.21106 -669.19653 430 6.2646267e-39
-82.902344 -661.76501 430 3.9611765e-39
-89.593689 -654.33362 430 3.7807285e-39
-96.284973 -646.90222 430 4.79417e-39
-110.40771 -646.16211 430 5.8987098e-39
-117.09906 -638.73059 440 5.346985e-39
-123.79034 -631.29919 440 5.3462689e-39
-130.48169 -623.86768 440 5.4391722e-39
-144.60443 -623.12756 440 5.531728e-39
-189.19312 -663.27551 450 5.8079533e-39
-218.17871 -675.91797 460 5.9941481e-39
-224.87006 -668.48657 460 6.0838172e-39
-224.12988 -654.36377 460 5.6228516e-39
-230.82123 -646.93237 460 5.1633154e-39
-237.51251 -639.50085 460 4.2395654e-39
-244.20386 -632.06946 460 3.7778642e-39
-250.15503 -610.51526 450 4.0576853e-39
-256.84637 -603.08374 450 2.2132249e-38
-263.53766 -595.65234 450 2.3509886e-38
-292.52332 -608.2948 460 2.3509886e-38
-374.26917 -681.89929 490 2.3509886e-38
-492.43213 -774.83752 520 2.3509886e-38
-558.57495 -820.93652 540 2.3509886e-38
-683.4292 -906.44336 570 2.3509886e-38
-786.72925 -985.99902 600 2.3509886e-38
-837.26917 -1004.5927 610 2.3509886e-38
-836.52905 -990.46997 610 2.3509886e-38
-842.48022 -968.91577 610 2.3509886e-38
-841.74011 -954.79297 610 2.3509886e-38
-855.86279 -954.05286 610 2.3509886e-38
-861.81396 -932.49866 610 2.3509886e-38
-853.64246 -911.68457 600 2.3509886e-38
-852.16211 -883.43909 600 2.0181566e-38
-320.05884 -458.15558 440 2.2130595e-39
-333.44141 -443.29272 440 4.8881761e-39
-340.13281 -435.86127 440 4.886374e-39
-354.25549 -435.12115 450 4.5193837e-39
-368.3783 -434.38098 450 4.7016226e-39
-360.20667 -413.56696 440 4.7956189e-39
-359.46655 -399.44421 440 4.8870971e-39
-358.72644 -385.32141 440 4.8853048e-39
-336.43213 -365.2475 430 4.7023387e-39
-328.2605 -344.43341 430 4.334289e-39
-334.95178 -337.00195 430 4.6097843e-39
-312.65753 -316.92804 420 4.8860223e-39
-319.34882 -309.49658 420 4.8856579e-39
-355.02576 -314.70764 430 4.7949028e-39
-354.28564 -300.5849 420 4.5186733e-39
-184.84271 -174.93024 380 3.8733067e-39
-227.95111 -186.83258 390 4.1480901e-39
-271.05951 -198.73492 390 4.149525e-39
-271.05951 -198.73492 390 3.9654939e-39
-262.88794 -177.9209 390 3.9644247e-39
-277.01068 -177.18079 390 3.9647834e-39
-283.70203 -169.74933 390 3.5967226e-39
-276.27057 -163.05798 390 3.8711459e-39
-275.53046 -148.93524 390 3.6817197e-39
-282.22174 -141.50378 390 2.3016467e-39
-288.91309 -134.07239 390 4.3263451e-39
-303.03583 -133.33221 390 4.8813167e-39
-288.17291 -119.94958 380 5.3419431e-39
-294.86426 -112.51819 380 3.5923828e-39
-280.00134 -99.135559 380 2.9491756e-39
-279.26123 -85.012756 380 2.8566268e-39
-279.26123 -85.012756 380 2.3059754e-39
-278.52112 -70.890015 380 2.4896421e-39
-263.6582 -57.507416 370 2.2130538e-39
-270.34955 -50.075958 370 2.3052509e-39
-262.91809 -43.384644 370 2.1205037e-39
-269.60938 -35.953217 370 2.3048964e-39
-247.31506 -15.879272 360 2.1212198e-39
-239.88361 -9.1879578 360 2.0275906e-39
-254.00641 -8.4478149 360 2.120145e-39
-260.69769 -1.0163879 360 2.2116175e-39
-267.38904 6.4150696 360 1.8446343e-39
-274.08032 13.846497 360 2.0272291e-39
-288.20306 14.586639 360 2.120138e-39
-309.75726 8.635437 370 2.0286612e-39
-338.00281 10.115723 370 1.7517254e-39
-366.24829 11.595978 380 2.0275864e-39
-337.2627 24.238464 370 1.6602458e-39
-322.39978 37.621094 370 1.8439126e-39
-307.53687 51.003723 360 1.8439168e-39
-343.21387 45.792664 370 1.5676858e-39
296.99203 -979.06653 410 2.3509886e-38
290.30072 -971.63513 410 2.3509886e-38
284.34955 -950.08093 400 2.3509886e-38
301.43283 -894.33008 390 2.3509886e-38
294.74152 -886.89856 390 2.240786e-38
288.0502 -879.46716 400 2.1856847e-38
281.35889 -872.03577 390 1.983252e-38
267.23615 -871.29553 400 1.3373806e-38
267.23615 -871.29553 400 1.5032229e-38
260.54483 -863.86414 400 1.1620661e-38
253.85352 -856.43274 400 1.0240961e-38
247.1622 -849.00122 400 3.0439342e-39
233.03943 -848.26111 400 2.8598876e-39
226.34811 -840.82971 400 2.4903778e-39
218.91669 -847.521 400 3.4130628e-39
212.22537 -840.0896 400 3.1371962e-39
205.53406 -832.65808 400 3.4134145e-39
198.84274 -825.22668 400 3.6885721e-39
198.84274 -825.22668 400 3.3204986e-39
184.71997 -824.48657 400 3.227224e-39
170.59723 -823.74646 400 3.3204972e-39
170.59723 -823.74646 410 3.0453537e-39
149.04303 -829.69763 410 3.227217e-39
-61.2276 -1193.9589 500 3.4123383e-39
-75.350342 -1193.2188 500 3.6892783e-39
-88.732971 -1178.3558 500 3.7814754e-39
-95.424316 -1170.9243 500 1.0770676e-38
-102.1156 -1163.4929 500 2.3509886e-38
-108.80695 -1156.0615 500 2.3509886e-38
-122.18958 -1141.1986 500 2.3509886e-38
-121.4494 -1127.0758 500 2.3509886e-38
-134.83203 -1112.213 500 2.3509886e-38
-141.52338 -1104.7815 500 2.3509886e-38
-132.61163 -1069.8447 490 2.3509886e-38
-53.116333 -904.07227 450 2.3509886e-38
-59.807617 -896.64087 450 2.3509886e-38
-66.498962 -889.20935 450 2.3509886e-38
-65.758789 -875.08667 450 2.3509886e-38
-72.450134 -867.65515 450 2.3509886e-38
-79.141418 -860.22375 450 4.7008967e-39
-85.09259 -838.66956 450 4.4250315e-39
-83.612366 -810.42407 440 4.7945455e-39
-29.371887 -721.21655 420 4.6998177e-39
-36.063171 -713.78516 420 4.2395556e-39
-42.754517 -706.35376 420 4.7934441e-39
-49.445801 -698.92224 420 5.256583e-39
-56.137085 -691.49084 420 6.9142911e-39
-62.82843 -684.05945 420 5.8065114e-39
-69.519714 -676.62793 420 3.7785887e-39
-76.21106 -669.19653 420 3.9644079e-39
-82.902344 -661.76501 420 4.9789143e-39
-89.593689 -654.33362 420 5.9026643e-39
-96.284973 -646.90222 420 6.9128548e-39
-110.40771 -646.16211 420 5.5320853e-39
-117.09906 -638.73059 430 5.8980008e-39
-123.79034 -631.29919 430 5.3466235e-39
-130.48169 -623.86768 430 6.4515193e-39
-144.60443 -623.12756 430 6.5444366e-39
-196.62451 -669.9668 440 6.7273915e-39
-218.17871 -675.91797 450 6.2674924e-39
-224.87006 -668.48657 450 5.71432e-39
-224.12988 -654.36377 450 5.3462661e-39
-230.82123 -646.93237 450 5.3462493e-39
-237.51251 -639.50085 450 3.5027109e-39
-244.20386 -632.06946 440 4.7934525e-39
-250.15503 -610.51526 440 1.3294788e-38
-256.84637 -603.08374 440 2.3509886e-38
-263.53766 -595.65234 440 2.3509886e-38
-360.14636 -682.6394 470 2.3509886e-38
-485.74084 -782.26892 510 2.3509886e-38
-544.45227 -821.67676 520 2.3509886e-38
-558.57495 -820.93652 520 2.3509886e-38
-638.84058 -866.29553 550 2.3509886e-38
-764.43494 -965.92505 580 2.3509886e-38
-822.40625 -991.21008 590 2.3509886e-38
-821.66614 -977.08728 590 2.3509886e-38
-835.04871 -962.22437 590 2.3509886e-38
-834.30859 -948.10168 590 2.3509886e-38
-840.99988 -940.67017 590 2.3509886e-38
-854.38257 -925.80737 590 2.3509886e-38
-846.21094 -904.99329 580 2.3509886e-38
-305.93604 -458.89575 430 6.6370246e-39
-326.75012 -450.72418 430 3.689965e-39
-333.44141 -443.29272 430 4.8878215e-39
-347.56421 -442.55255 430 4.9792801e-39
-361.68701 -441.81244 440 4.8867327e-39
-368.3783 -434.38098 440 4.5186705e-39
-360.20667 -413.56696 430 4.4264776e-39
-359.46655 -399.44421 430 4.5186761e-39
-358.72644 -385.32141 430 4.6101416e-39
-329.00061 -358.55615 420 4.2442402e-39
-328.2605 -344.43341 420 4.3332072e-39
-334.95178 -337.00195 420 4.6105018e-39
-326.78027 -316.18793 410 5.1636755e-39
-319.34882 -309.49658 410 4.7949084e-39
-326.04016 -302.06519 410 4.3342848e-39
-332.73145 -294.63373 410 4.7023513e-39
-288.14282 -254.48584 400 4.5161579e-39
-294.83411 -247.05438 400 3.966217e-39
-301.52539 -239.62299 400 3.9651506e-39
-271.79962 -212.85773 390 4.0566161e-39
-271.05951 -198.73492 390 3.7829033e-39
-271.05951 -198.73492 390 3.873657e-39
-270.3194 -184.61218 380 3.505613e-39
-284.44214 -183.87207 390 2.949184e-39
-283.70203 -169.74933 380 1.8464209e-39
-276.27057 -163.05798 380 2.7658773e-39
-275.53046 -148.93524 380 3.3168805e-39
-282.22174 -141.50378 380 2.7647913e-39
-288.91309 -134.07239 380 2.4885687e-39
-288.91309 -134.07239 380 2.580407e-39
-280.74152 -113.2583 370 2.3052551e-39
-280.74152 -113.2583 370 2.3970934e-39
-272.56995 -92.444214 370 2.2134154e-39
-279.26123 -85.012756 370 2.3967318e-39
-271.82977 -78.321472 370 2.0293829e-39
-271.08966 -64.19873 370 2.3052481e-39
-271.08966 -64.19873 370 2.396729e-39
-270.34955 -50.075958 360 2.2126965e-39
-277.04083 -42.644531 360 1.9371942e-39
-298.59503 -48.595703 370 2.1212184e-39
-283.73218 -35.213074 360 2.2123378e-39
-239.88361 -9.1879578 350 1.936111e-39
-254.00641 -8.4478149 350 1.8439168e-39
-260.69769 -1.0163879 350 1.9371858e-39
-267.38904 6.4150696 350 1.9368285e-39
-274.08032 13.846497 360 1.751724e-39
-295.63452 7.8953247 360 1.6609619e-39
-323.88 9.3755798 360 1.9346733e-39
-366.9884 -2.5267944 370 1.9364712e-39
-387.80249 5.6447754 380 1.8431979e-39
-409.35669 -0.30639648 380 1.8431923e-39
-430.17078 7.8651733 380 4.6022061e-39
-444.29346 8.6053162 380 4.5056972e-39
-458.41626 9.3454285 390 2.0243396e-39
296.99203 -979.06653 400 2.3509886e-38
297.73218 -964.94385 400 2.3509886e-38
291.78098 -943.38965 390 2.3509886e-38
301.43283 -894.33008 390 2.3509886e-38
294.74152 -886.89856 390 2.3509886e-38
288.0502 -879.46716 390 2.3234379e-38
281.35889 -872.03577 390 1.7707389e-38
267.23615 -871.29553 390 1.3278371e-38
267.23615 -871.29553 390 1.6229325e-38
260.54483 -863.86414 390 1.2355342e-38
253.85352 -856.43274 390 1.0517925e-38
239.73074 -855.6925 390 5.7277136e-39
233.03943 -848.26111 390 2.3067082e-39
233.03943 -848.26111 390 1.6606087e-39
218.91669 -847.521 390 3.1353871e-39
204.79391 -846.78088 390 3.0453607e-39
204.79391 -846.78088 390 3.3212161e-39
198.10263 -839.34937 390 3.5052486e-39
191.41132 -831.91797 390 3.5048885e-39
184.71997 -824.48657 390 3.1364647e-39
178.02869 -817.05505 390 3.136106e-39
170.59723 -823.74646 400 3.4130488e-39
156.47449 -823.00623 400 2.7669647e-39
141.61157 -836.38892 400 3.0453467e-39
-67.918945 -1186.5273 490 2.952072e-39
-89.473145 -1192.4785 490 3.0446334e-39
-102.85571 -1177.6157 490 3.2297393e-39
-102.1156 -1163.4929 490 2.350983e-38
-108.80695 -1156.0615 490 2.3509886e-38
-122.18958 -1141.1986 490 2.3509886e-38
-128.88086 -1133.7672 490 2.3509886e-38
-135.57214 -1126.3357 490 2.3509886e-38
-141.52338 -1104.7815 490 2.3509886e-38
-147.47455 -1083.2273 480 2.3509886e-38
-53.116333 -904.07227 440 2.3509886e-38
-59.807617 -896.64087 440 2.3509886e-38
-66.498962 -889.20935 440 2.3509886e-38
-73.190247 -881.77795 440 2.3509886e-38
-79.881592 -874.34656 440 2.1305116e-38
-79.141418 -860.22375 440 4.0558874e-39
-92.524048 -845.36084 440 4.3288772e-39
-76.921021 -817.85547 440 4.514702e-39
-29.371887 -721.21655 410 5.9937837e-39
-36.063171 -713.78516 410 5.4355835e-39
-42.754517 -706.35376 410 4.9760431e-39
-49.445801 -698.92224 410 5.8075974e-39
-48.705688 -684.79956 410 4.7905714e-39
-62.82843 -684.05945 410 3.9633331e-39
-69.519714 -676.62793 410 4.8856439e-39
-76.21106 -669.19653 410 6.3611187e-39
-82.902344 -661.76501 410 7.0046987e-39
-89.593689 -654.33362 410 5.2511866e-39
-96.284973 -646.90222 410 3.7789376e-39
-110.40771 -646.16211 410 4.795249e-39
-117.09906 -638.73059 420 5.9005063e-39
-123.79034 -631.29919 420 6.6355602e-39
-137.91315 -630.55908 420 6.8195885e-39
-152.03589 -629.81885 420 6.7281146e-39
-218.17871 -675.91797 440 5.7150402e-39
-232.30151 -675.17786 440 5.3459046e-39
-231.56134 -661.05505 440 4.8867187e-39
-230.82123 -646.93237 430 4.7938084e-39
-237.51251 -639.50085 430 3.8725752e-39
-244.20386 -632.06946 430 1.3840376e-38
-257.58649 -617.20654 430 2.3509886e-38
-264.27777 -609.77515 430 2.3509886e-38
-286.57214 -629.849 440 2.3509886e-38
-404.73511 -722.78723 470 2.3509886e-38
-515.46655 -809.03418 500 2.3509886e-38
-559.31506 -835.05933 510 2.3509886e-38
-566.00647 -827.62793 510 2.3509886e-38
-623.97766 -852.91284 530 2.3509886e-38
-727.27771 -932.46851 550 2.3509886e-38
-800.11194 -971.13611 570 2.3509886e-38
-806.80322 -963.70471 570 2.3509886e-38
-820.18591 -948.8418 570 2.3509886e-38
-826.8772 -941.4104 570 2.3509886e-38
-833.56848 -933.97888 570 2.3509886e-38
-840.25977 -926.54749 570 2.3509886e-38
-838.77954 -898.302 570 2.3509886e-38
-313.36749 -465.58704 420 4.3328471e-39
-326.75012 -450.72418 420 5.3480738e-39
-333.44141 -443.29272 420 4.9792899e-39
-347.56421 -442.55255 420 4.5201068e-39
-354.25549 -435.12115 420 4.8874516e-39
-368.3783 -434.38098 430 4.2424367e-39
-360.20667 -413.56696 420 4.4261161e-39
-359.46655 -399.44421 420 4.609427e-39
-358.72644 -385.32141 420 4.2428066e-39
-329.00061 -358.55615 410 4.4257616e-39
-328.2605 -344.43341 410 4.7012625e-39
-342.3833 -343.6933 410 4.150981e-39
-341.64319 -329.57056 410 4.3335645e-39
-340.90308 -315.44781 400 3.8740297e-39
-347.59436 -308.01636 400 3.7818341e-39
-340.16284 -301.32501 400 4.2413703e-39
-280.71136 -247.79456 390 3.7829075e-39
-294.83411 -247.05438 390 3.8736654e-39
-301.52539 -239.62299 390 4.0576951e-39
-279.23108 -219.54901 380 3.9651366e-39
-285.92242 -212.11755 380 3.8718591e-39
-277.75085 -191.30353 380 3.2243233e-39
-277.75085 -191.30353 380 2.6722341e-39
-284.44214 -183.87207 380 2.3960116e-39
-291.13348 -176.44061 380 2.0293871e-39
-290.39331 -162.31787 370 2.3974451e-39
-297.08466 -154.88641 380 2.2130595e-39
-289.6532 -148.19513 370 2.3967276e-39
-296.34448 -140.76367 370 2.3045334e-39
-303.03583 -133.33221 370 2.1212212e-39
-288.17291 -119.94958 370 2.1212212e-39
-287.4328 -105.82684 370 2.2134168e-39
-272.56995 -92.444214 360 1.8450014e-39
-279.26123 -85.012756 360 2.0286696e-39
-271.82977 -78.321472 360 2.121217e-39
-278.52112 -70.890015 360 2.212335e-39
-277.78094 -56.767273 360 2.2123364e-39
-299.33514 -62.718445 360 2.1208638e-39
-306.02649 -55.287018 360 1.8435581e-39
-312.71777 -47.85556 360 2.0283053e-39
-297.85492 -34.472961 360 2.1197834e-39
-319.40912 -40.424133 360 2.2116189e-39
-275.56061 -14.399017 350 1.935395e-39
-260.69769 -1.0163879 350 2.0275878e-39
-274.82043 -0.27624512 350 1.7506394e-39
-281.51178 7.1551819 350 1.4733336e-39
-295.63452 7.8953247 350 1.0145079e-39
-309.75726 8.635437 350 1.1059818e-39
-395.23389 -1.0465393 370 1.2903745e-39
-423.47949 0.43374634 370 1.6573535e-39
-430.17078 7.8651733 370 1.84067e-39
-451.72498 1.9140015 380 1.3804079e-39
-450.98486 16.036743 380 9.2015423e-40
296.99203 -979.06653 390 2.3509886e-38
291.04086 -957.51233 390 2.3509886e-38
299.95258 -922.57556 380 2.3509886e-38
301.43283 -894.33008 380 2.3509886e-38
294.74152 -886.89856 380 2.3509886e-38
280.61874 -886.15845 380 2.3326215e-38
281.35889 -872.03577 380 1.5218114e-38
267.23615 -871.29553 380 1.2818828e-38
267.23615 -871.29553 380 1.6598117e-38
260.54483 -863.86414 380 1.1341902e-38
253.85352 -856.43274 380 1.0422115e-38
239.73074 -855.6925 380 1.3648208e-38
239.73074 -855.6925 380 2.4943659e-39
233.03943 -848.26111 380 1.7528128e-39
218.91669 -847.521 380 2.9527951e-39
204.79391 -846.78088 380 3.0449949e-39
204.79391 -846.78088 380 3.414132e-39
198.10263 -839.34937 380 3.6889224e-39
191.41132 -831.91797 390 3.3212231e-39
177.28857 -831.17786 390 3.1353857e-39
177.28857 -831.17786 390 3.1357472e-39
163.16577 -830.43774 390 3.4119684e-39
156.47449 -823.00623 390 2.8591603e-39
142.35175 -822.26611 390 3.4126957e-39
127.48883 -835.6488 400 3.2290135e-39
-89.473145 -1192.4785 480 3.4116082e-39
-96.164429 -1185.0471 480 2.7673206e-39
-109.54706 -1170.1842 480 6.5415611e-39
-116.23834 -1162.7528 480 2.3509886e-38
-122.92969 -1155.3214 480 2.3509886e-38
-136.31232 -1140.4585 480 2.3509886e-38
-135.57214 -1126.3357 470 2.3509886e-38
-141.52338 -1104.7815 470 2.3509886e-38
-148.21466 -1097.3501 470 2.3509886e-38
-53.116333 -904.07227 430 2.3509886e-38
-60.547729 -910.76355 430 2.3509886e-38
-66.498962 -889.20935 430 2.3509886e-38
-73.190247 -881.77795 430 2.3509886e-38
-79.881592 -874.34656 430 9.2149835e-39
-79.141418 -860.22375 430 4.2395556e-39
-92.524048 -845.36084 430 3.5041472e-39
-76.921021 -817.85547 420 4.2402731e-39
-29.371887 -721.21655 400 3.965854e-39
-36.063171 -713.78516 400 3.5985078e-39
-35.323059 -699.66235 400 5.1629469e-39
-42.014343 -692.23096 400 3.7785873e-39
-48.705688 -684.79956 400 4.8852838e-39
-55.396973 -677.36804 400 5.8097526e-39
-62.088318 -669.93665 400 6.5458813e-39
-76.21106 -669.19653 400 4.5164999e-39
-75.470947 -655.07373 400 3.8714948e-39
-89.593689 -654.33362 400 4.9774794e-39
-96.284973 -646.90222 400 6.1756527e-39
-110.40771 -646.16211 400 5.9927173e-39
-117.09906 -638.73059 400 6.729904e-39
-131.2218 -637.99048 410 6.9128576e-39
-137.91315 -630.55908 410 6.727037e-39
-152.03589 -629.81885 410 6.4515249e-39
-181.76166 -656.58411 420 6.081306e-39
-210.74731 -669.22668 420 4.884925e-39
-224.87006 -668.48657 430 4.1491621e-39
-224.12988 -654.36377 420 4.2413535e-39
-230.82123 -646.93237 420 4.5164999e-39
-237.51251 -639.50085 420 3.8722221e-39
-244.20386 -632.06946 420 2.3509841e-38
-250.89514 -624.63794 420 2.3509886e-38
-264.27777 -609.77515 420 2.3509886e-38
-294.00354 -636.54041 430 2.3509886e-38
-389.87219 -709.40466 460 2.3509886e-38
-485.74084 -782.26892 480 2.3509886e-38
-544.45227 -821.67676 500 2.3509886e-38
-558.57495 -820.93652 500 2.3509886e-38
-586.82043 -819.4563 500 2.3509886e-38
-652.96338 -865.55542 520 2.3509886e-38
-785.24902 -957.75354 550 2.3509886e-38
-791.94031 -950.32202 550 2.3509886e-38
-812.75439 -942.15051 550 2.3509886e-38
-812.01428 -928.02771 550 2.3509886e-38
-818.70557 -920.59631 550 2.3509886e-38
-832.82837 -919.8562 550 2.3509886e-38
-306.67621 -473.01849 410 2.3226844e-38
-313.36749 -465.58704 410 2.5796938e-39
-334.18152 -457.41547 410 4.7030813e-39
-340.87292 -449.98401 410 4.3357183e-39
-347.56421 -442.55255 410 4.3342932e-39
-361.68701 -441.81244 420 4.795256e-39
-375.80969 -441.07233 420 4.4264734e-39
-375.06958 -426.94958 420 4.4250413e-39
-366.89795 -406.1355 410 4.4257546e-39
-373.58936 -398.70404 410 4.4268364e-39
-351.29504 -378.63013 410 4.4264818e-39
-335.69202 -351.12476 400 4.2417347e-39
-349.8147 -350.38458 400 4.0580595e-39
-356.50598 -342.95319 400 4.1513313e-39
-348.33447 -322.1391 400 4.0587811e-39
-333.47156 -308.75647 390 4.0584182e-39
-325.30005 -287.94238 390 3.7782286e-39
-288.14282 -254.48584 380 2.947026e-39
-294.83411 -247.05438 380 2.396006e-39
-301.52539 -239.62299 380 2.1201422e-39
-264.36823 -206.16638 370 2.0283081e-39
-278.49097 -205.42627 370 2.2126909e-39
-271.05951 -198.73492 370 2.4889233e-39
-262.88794 -177.9209 360 1.9371858e-39
-269.57928 -170.48944 370 2.2126923e-39
-262.14783 -163.79816 360 2.2123476e-39
-261.40771 -149.67535 360 2.2123392e-39
-268.099 -142.24396 360 2.1219428e-39
-318.63885 -160.83759 370 2.2134154e-39
-325.3302 -153.40619 370 2.1208568e-39
-332.02148 -145.97473 370 1.9375474e-39
-338.71277 -138.54327 370 2.303816e-39
-302.29572 -119.20947 360 2.2123392e-39
-308.987 -111.77802 360 2.0290227e-39
-308.24689 -97.655273 360 2.1205065e-39
-322.36963 -96.915161 360 2.1212212e-39
-235.41272 -58.987671 340 2.2112602e-39
-256.22675 -50.816101 350 2.120145e-39
-364.73792 -94.694763 370 2.3041733e-39
-400.41479 -99.905823 370 1.6588053e-39
-267.38904 6.4150696 340 1.9335831e-39
-281.51178 7.1551819 340 1.5651635e-39
-295.63452 7.8953247 340 1.2885738e-39
-402.66541 -7.7378235 360 6.4573094e-40
-423.47949 0.43374634 360 6.4609248e-40
-423.47949 0.43374634 360 9.2231923e-40
-422.73926 14.556488 360 6.4681135e-40
-429.43066 21.987946 360 1.1992593e-39
296.99203 -979.06653 380 2.3509886e-38
291.04086 -957.51233 380 2.3509886e-38
299.95258 -922.57556 370 2.3509886e-38
294.00137 -901.02136 370 2.3509886e-38
287.31006 -893.58997 370 2.3509886e-38
280.61874 -886.15845 370 2.3509886e-38
273.92743 -878.72705 370 1.4571629e-38
267.23615 -871.29553 370 1.3279091e-38
267.23615 -871.29553 370 1.521377e-38
260.54483 -863.86414 370 1.133973e-38
246.42206 -863.12402 370 1.023556e-38
246.42206 -863.12402 370 1.40199e-38
239.73074 -855.6925 370 5.819912e-39
225.608 -854.95239 370 2.2130665e-39
218.91669 -847.521 370 2.5836525e-39
204.79391 -846.78088 370 3.1364717e-39
204.79391 -846.78088 370 3.5056116e-39
198.10263 -839.34937 380 3.4141404e-39
191.41132 -831.91797 380 3.4137733e-39
177.28857 -831.17786 380 2.9524378e-39
177.28857 -831.17786 380 2.7683996e-39
163.16577 -830.43774 380 3.4123285e-39
156.47449 -823.00623 380 3.4112495e-39
142.35175 -822.26611 380 3.2275883e-39
134.92029 -828.9574 380 2.8591463e-39
97.022949 -876.53674 390 3.2290191e-39
-96.164429 -1185.0471 460 2.9520762e-39
-109.54706 -1170.1842 460 3.2286673e-39
-116.23834 -1162.7528 460 2.3046996e-38
-122.92969 -1155.3214 460 2.3509886e-38
-136.31232 -1140.4585 460 2.3509886e-38
-135.57214 -1126.3357 460 2.3509886e-38
-141.52338 -1104.7815 460 2.3509886e-38
-155.64612 -1104.0414 460 2.3509886e-38
-53.116333 -904.07227 420 2.3509886e-38
-60.547729 -910.76355 420 2.3509886e-38
-59.067505 -882.51807 420 2.3509886e-38
-65.758789 -875.08667 420 2.3509886e-38
-72.450134 -867.65515 420 3.410881e-39
-78.401306 -846.10095 420 4.1466467e-39
-85.09259 -838.66956 420 4.241715e-39
-76.180908 -803.73279 410 4.6083424e-39
-29.371887 -721.21655 390 5.3469752e-39
-36.063171 -713.78516 390 5.3458976e-39
-42.754517 -706.35376 390 4.056965e-39
-42.014343 -692.23096 390 5.6253669e-39
-48.705688 -684.79956 390 6.4479305e-39
-55.396973 -677.36804 390 3.7774999e-39
-62.088318 -669.93665 390 3.778939e-39
-68.779602 -662.50525 390 4.611571e-39
-75.470947 -655.07373 390 5.7164766e-39
