# .PCD v0.7 - Point Cloud Data file format
VERSION 0.7
FIELDS x y z rgb
SIZE 4 4 4 4
TYPE F F F F
COUNT 1 1 1 1
WIDTH 1225
HEIGHT 1
VIEWPOINT 0 0 0 1 0 0 0
POINTS 1225
DATA ascii
-166.58829 -1091.9032 460 1.2914703e-39
-176.24756 -1089.3151 460 1.4762203e-39
-185.90683 -1086.7269 460 1.3840289e-39
-192.97791 -1074.4795 460 1.4758545e-39
-202.63715 -1071.8912 460 1.2914661e-39
-209.70825 -1059.6438 460 2.8573344e-39
-219.36749 -1057.0557 450 1.3093593e-38
-96.013855 -789.87799 380 1.3556718e-38
-105.6731 -787.28979 380 1.4015182e-38
-115.33237 -784.70166 380 1.3370537e-38
-115.33237 -784.70166 380 1.3186514e-38
-124.99164 -782.11346 380 1.38308e-38
-134.65088 -779.52527 380 1.3185432e-38
-144.31015 -776.93707 380 1.355096e-38
-72.026703 -661.71942 350 1.5673341e-39
-81.685974 -659.13129 350 2.2119748e-39
-81.685974 -659.13129 340 2.3038103e-39
-88.75705 -646.88379 340 2.397085e-39
-83.580688 -627.56531 340 2.7651402e-39
-80.992493 -617.90601 330 2.7655074e-39
-78.404297 -608.24677 330 3.1342885e-39
-88.063568 -605.65857 330 2.9495357e-39
-88.063568 -605.65857 330 2.949184e-39
-97.722839 -603.07043 330 3.0417327e-39
-97.722839 -603.07043 330 3.0406579e-39
-107.38208 -600.48224 330 3.2264869e-39
-104.79391 -590.82294 330 3.3186797e-39
-114.45316 -588.2348 330 3.7785803e-39
-111.86499 -578.5755 330 3.8714906e-39
770.86768 -1456.9735 480 1.7062004e-38
754.13733 -1442.1379 480 1.7061664e-38
737.40698 -1427.3022 470 1.7430426e-38
737.40698 -1427.3022 470 1.697448e-38
725.15955 -1434.3733 470 1.752406e-38
712.91211 -1441.4445 480 1.7798859e-38
712.91211 -1441.4445 480 1.770702e-38
691.00537 -1445.9274 480 1.7896437e-38
678.75793 -1452.9984 480 1.8815155e-38
669.09869 -1450.4102 480 1.9183214e-38
659.43945 -1447.822 480 1.8539289e-38
649.78015 -1445.2339 480 1.9370114e-38
640.12091 -1442.6456 480 1.9185008e-38
630.46167 -1440.0575 480 1.9737814e-38
620.80237 -1437.4692 480 1.9368679e-38
611.14319 -1434.8811 480 1.9737814e-38
598.89569 -1441.9521 490 1.9556296e-38
589.23645 -1439.364 490 1.9737456e-38
576.98901 -1446.4351 490 1.9554143e-38
574.40082 -1456.0944 490 2.0935622e-38
564.74158 -1453.5061 490 2.0289186e-38
261.32935 -1465.3822 510 2.102961e-38
254.25827 -1453.1346 510 2.185577e-38
242.01083 -1460.2058 510 2.0938133e-38
227.86868 -1435.7109 510 2.1396593e-38
265.86166 -907.54755 380 2.1304758e-38
256.20239 -904.95935 380 2.0845221e-38
246.54315 -902.37115 380 2.0569356e-38
243.95496 -912.0304 380 2.0570432e-38
234.2957 -909.44226 380 2.0567921e-38
224.63644 -906.85406 380 2.0382098e-38
222.04825 -916.51331 380 9.8671352e-39
228.61157 -814.74432 360 9.1288541e-39
218.95232 -812.15613 360 9.7731221e-39
209.29306 -809.56799 360 8.3905478e-39
209.29306 -809.56799 360 3.6874805e-39
199.63379 -806.9798 360 5.3487927e-39
187.38635 -814.05084 360 4.9796822e-39
187.38635 -814.05084 360 1.2914633e-39
180.31528 -801.80341 360 1.3822226e-39
170.65602 -799.21521 360 1.0137918e-39
168.06784 -808.87451 360 5.8090492e-39
166.17313 -777.30853 350 7.4693048e-39
159.10205 -765.0611 350 8.4834679e-39
159.10205 -765.0611 350 9.1284702e-39
152.03098 -752.81366 350 9.4983373e-39
142.37172 -750.22546 350 1.0050068e-38
142.37172 -750.22546 350 1.0509247e-38
130.12427 -757.29651 350 1.0693634e-38
120.46501 -754.70837 350 1.0969866e-38
120.46501 -754.70837 350 1.106206e-38
110.80576 -752.12018 350 1.0416699e-38
98.558304 -759.19122 350 9.4961583e-39
98.558304 -759.19122 350 1.0235527e-38
88.899048 -756.60309 350 1.023588e-38
76.651611 -763.67413 360 9.8638772e-39
74.063416 -773.33337 360 5.9930929e-39
74.063416 -773.33337 360 1.7520827e-39
64.40416 -770.74524 360 2.120868e-39
64.40416 -770.74524 360 2.0290339e-39
54.744904 -768.15704 360 1.8442853e-39
45.085632 -765.56885 360 1.1989131e-39
30.25 -782.29919 360 1.1992733e-39
-29.78598 -890.44574 390 1.3836631e-39
-54.974335 -945.81311 410 1.4751441e-39
-89.82196 -998.59229 420 1.5676971e-39
-132.43414 -1080.3492 450 1.475863e-39
-159.51721 -1104.1506 450 1.4762161e-39
-169.17648 -1101.5625 450 1.5676942e-39
-166.58829 -1091.9032 450 1.568053e-39
-173.65936 -1079.6558 450 1.1996292e-39
-183.31863 -1077.0676 450 1.3833044e-39
-192.97791 -1074.4795 450 1.291106e-39
-202.63715 -1071.8912 450 1.3836617e-39
-209.70825 -1059.6438 450 1.3836631e-39
-219.36749 -1057.0557 450 1.2818439e-38
-231.61493 -1064.1267 450 1.3462735e-38
-96.013855 -789.87799 370 1.3737876e-38
-108.26129 -796.9491 370 1.3369826e-38
-115.33237 -784.70166 370 1.3644606e-38
-124.99164 -782.11346 370 1.3463457e-38
-124.99164 -782.11346 370 1.3554567e-38
-134.65088 -779.52527 370 1.3553126e-38
-144.31015 -776.93707 370 1.3001391e-38
-144.31015 -776.93707 370 2.5797022e-39
-81.685974 -659.13129 340 2.1205023e-39
-79.097778 -649.47198 340 2.2123336e-39
-76.509613 -639.81274 330 2.304532e-39
-83.580688 -627.56531 330 2.3967248e-39
-80.992493 -617.90601 330 2.5807588e-39
-78.404297 -608.24677 330 3.134643e-39
-88.063568 -605.65857 330 3.318321e-39
-88.063568 -605.65857 330 3.5027067e-39
-97.722839 -603.07043 330 3.3179623e-39
-97.722839 -603.07043 330 3.2254051e-39
-104.79391 -590.82294 330 3.5941862e-39
-104.79391 -590.82294 320 3.4090789e-39
-111.86499 -578.5755 320 3.4108768e-39
-111.86499 -578.5755 320 4.1462838e-39
763.79663 -1444.7261 470 1.6506287e-38
754.13733 -1442.1379 460 1.6507366e-38
737.40698 -1427.3022 460 1.6508096e-38
727.74774 -1424.7141 460 1.6232598e-38
725.15955 -1434.3733 460 1.72435e-38
712.91211 -1441.4445 470 1.733569e-38
685.82904 -1465.2458 480 1.8444578e-38
676.1698 -1462.6576 470 1.8814078e-38
663.92236 -1469.7288 480 1.9185366e-38
654.26306 -1467.1405 480 1.9457286e-38
637.53271 -1452.3049 470 1.909389e-38
630.46167 -1440.0575 470 1.9737814e-38
618.21423 -1447.1285 470 1.9828215e-38
608.55493 -1444.5404 480 1.9278637e-38
598.89569 -1441.9521 480 2.0383533e-38
589.23645 -1439.364 470 2.0292056e-38
579.57715 -1436.7758 480 2.0016549e-38
567.32971 -1443.8469 480 2.0200579e-38
261.32935 -1465.3822 500 2.1765011e-38
254.25827 -1453.1346 500 2.158134e-38
242.01083 -1460.2058 500 2.112001e-38
227.86868 -1435.7109 500 2.1765011e-38
265.86166 -907.54755 370 2.1397669e-38
256.20239 -904.95935 370 2.1028534e-38
243.95496 -912.0304 370 2.1305475e-38
243.95496 -912.0304 370 2.0935622e-38
234.2957 -909.44226 370 2.1122163e-38
224.63644 -906.85406 370 2.0567204e-38
222.04825 -916.51331 370 9.6841817e-39
228.61157 -814.74432 350 8.9448118e-39
218.95232 -812.15613 350 9.405427e-39
209.29306 -809.56799 350 8.2994284e-39
206.70486 -819.22723 350 3.2272226e-39
199.63379 -806.9798 350 5.9938048e-39
187.38635 -814.05084 350 5.0725953e-39
187.38635 -814.05084 350 1.1985544e-39
180.31528 -801.80341 350 9.2231923e-40
173.2442 -789.55597 350 1.0141533e-39
170.65602 -799.21521 350 5.9019763e-39
168.76131 -767.64929 340 7.5611473e-39
156.51387 -774.72034 340 8.5752964e-39
161.69023 -755.40186 340 9.4050557e-39
152.03098 -752.81366 340 9.7749144e-39
142.37172 -750.22546 340 1.0325934e-38
142.37172 -750.22546 340 1.0234818e-38
130.12427 -757.29651 340 1.0696516e-38
120.46501 -754.70837 340 1.051033e-38
120.46501 -754.70837 340 1.1246447e-38
110.80576 -752.12018 340 1.0417048e-38
98.558304 -759.19122 350 9.9574938e-39
98.558304 -759.19122 350 1.0785825e-38
88.899048 -756.60309 350 9.9564316e-39
76.651611 -763.67413 350 6.8221361e-39
74.063416 -773.33337 350 9.5901574e-39
74.063416 -773.33337 350 5.0779679e-39
64.40416 -770.74524 350 2.3081362e-39
64.40416 -770.74524 350 2.3085005e-39
54.744904 -768.15704 350 1.7524555e-39
45.085632 -765.56885 350 1.1992691e-39
30.25 -782.29919 360 1.3825827e-39
-52.386169 -936.15381 400 1.4751427e-39
-87.233795 -988.93311 410 1.291829e-39
-132.43414 -1080.3492 440 1.4754972e-39
-159.51721 -1104.1506 440 1.5673341e-39
-169.17648 -1101.5625 440 1.3836617e-39
-166.58829 -1091.9032 440 1.4754944e-39
-173.65936 -1079.6558 440 1.1996306e-39
-183.31863 -1077.0676 440 1.2918262e-39
-192.97791 -1074.4795 440 1.2914703e-39
-202.63715 -1071.8912 440 1.2911088e-39
-209.70825 -1059.6438 440 1.3829415e-39
-219.36749 -1057.0557 440 1.3184342e-38
-214.1911 -1037.7371 430 1.3094309e-38
-98.60202 -799.53729 370 1.3460212e-38
-108.26129 -796.9491 370 1.30918e-38
-117.92056 -794.3609 370 1.3183995e-38
-124.99164 -782.11346 370 1.3094675e-38
-124.99164 -782.11346 370 1.3367301e-38
-134.65088 -779.52527 370 1.2817359e-38
-144.31015 -776.93707 370 1.2632971e-38
-144.31015 -776.93707 370 7.7441386e-39
-79.097778 -649.47198 330 2.2126965e-39
-79.097778 -649.47198 330 2.1208582e-39
-73.921417 -630.1535 330 2.3041705e-39
-80.992493 -617.90601 320 2.3048879e-39
-80.992493 -617.90601 320 2.3974409e-39
-78.404297 -608.24677 320 2.3974423e-39
-88.063568 -605.65857 320 2.9495357e-39
-88.063568 -605.65857 320 2.9498986e-39
-97.722839 -603.07043 320 2.7651472e-39
-95.134644 -593.41113 320 2.7651486e-39
-104.79391 -590.82294 320 2.9484595e-39
-104.79391 -590.82294 320 3.4101537e-39
-102.20572 -581.1637 320 3.7796565e-39
-109.27679 -568.91626 310 2.7637123e-39
754.13733 -1442.1379 450 1.5125149e-38
737.40698 -1427.3022 450 1.60453e-38
727.74774 -1424.7141 450 1.558613e-38
725.15955 -1434.3733 450 1.6232929e-38
708.4292 -1419.5377 450 1.6415536e-38
705.84106 -1429.197 460 1.6599553e-38
676.1698 -1462.6576 460 1.8075773e-38
663.92236 -1469.7288 470 1.8627868e-38
654.26306 -1467.1405 470 1.853568e-38
637.53271 -1452.3049 460 1.6969814e-38
630.46167 -1440.0575 460 1.6316498e-38
618.21423 -1447.1285 460 1.8908066e-38
608.55493 -1444.5404 460 1.9555578e-38
603.3786 -1463.8589 470 2.0291338e-38
589.23645 -1439.364 470 2.084558e-38
591.1311 -1470.9299 470 2.0751233e-38
571.81262 -1465.7535 470 2.0384968e-38
263.91754 -1455.7229 490 2.1397669e-38
249.77539 -1431.228 480 2.158134e-38
244.59901 -1450.5465 490 2.1122163e-38
227.86868 -1435.7109 490 2.1122163e-38
265.86166 -907.54755 360 2.1305475e-38
253.61423 -914.61859 360 2.1764652e-38
243.95496 -912.0304 360 2.075231e-38
243.95496 -912.0304 370 2.1763218e-38
234.2957 -909.44226 370 2.0199503e-38
224.63644 -906.85406 370 1.982965e-38
222.04825 -916.51331 370 9.9593155e-39
228.61157 -814.74432 340 8.5760321e-39
216.36414 -821.81543 350 9.5905287e-39
206.70486 -819.22723 350 7.8377286e-39
206.70486 -819.22723 350 2.9506385e-39
197.04562 -816.63904 350 5.9934656e-39
187.38635 -814.05084 350 5.0733114e-39
187.38635 -814.05084 350 1.1978299e-39
182.90347 -792.14417 340 1.1985488e-39
175.83238 -779.89673 340 1.3825841e-39
173.2442 -789.55597 340 6.0863633e-39
168.76131 -767.64929 340 7.9302843e-39
156.51387 -774.72034 340 8.5749391e-39
159.10205 -765.0611 340 9.5880134e-39
152.03098 -752.81366 340 1.0050066e-38
142.37172 -750.22546 340 9.8663954e-39
139.78354 -759.8847 340 1.0326289e-38
130.12427 -757.29651 340 1.0510684e-38
120.46501 -754.70837 340 1.0786555e-38
120.46501 -754.70837 340 1.0602886e-38
110.80576 -752.12018 340 1.0326643e-38
98.558304 -759.19122 340 9.6816285e-39
98.558304 -759.19122 340 1.0784036e-38
86.310867 -766.26233 340 8.85044e-39
76.651611 -763.67413 340 7.4671286e-39
76.651611 -763.67413 340 9.5887323e-39
74.063416 -773.33337 340 9.4975806e-39
64.40416 -770.74524 340 1.2169829e-38
64.40416 -770.74524 340 1.2170197e-38
57.333084 -758.49774 340 9.7713173e-39
45.085632 -765.56885 340 1.291106e-39
30.25 -782.29919 350 1.1070762e-39
-29.78598 -890.44574 380 1.7520869e-39
-52.386169 -936.15381 390 1.5676928e-39
-87.233795 -988.93311 400 1.2914703e-39
-132.43414 -1080.3492 430 1.4765804e-39
-159.51721 -1104.1506 430 1.2921822e-39
-169.17648 -1101.5625 430 1.4754972e-39
-166.58829 -1091.9032 430 1.3833016e-39
-173.65936 -1079.6558 430 1.3833058e-39
-183.31863 -1077.0676 430 1.1985558e-39
-192.97791 -1074.4795 430 1.2914689e-39
-202.63715 -1071.8912 430 1.290743e-39
-207.12006 -1049.9845 420 1.1992719e-39
-219.36749 -1057.0557 430 1.1436583e-38
-209.01477 -1018.4186 420 1.244751e-38
-96.013855 -789.87799 360 1.244966e-38
-108.26129 -796.9491 360 1.2636568e-38
-115.33237 -784.70166 360 1.2634041e-38
-124.99164 -782.11346 360 1.2448229e-38
-124.99164 -782.11346 360 1.2815561e-38
-134.65088 -779.52527 360 1.1897556e-38
-144.31015 -776.93707 360 1.2079072e-38
-144.31015 -776.93707 360 1.1340432e-38
-79.097778 -649.47198 330 2.6733117e-39
-73.921417 -630.1535 320 1.9361068e-39
-73.921417 -630.1535 320 2.3963661e-39
-83.580688 -627.56531 320 2.212335e-39
-80.992493 -617.90601 320 2.856624e-39
-78.404297 -608.24677 320 2.6736705e-39
-88.063568 -605.65857 320 2.948821e-39
-88.063568 -605.65857 320 2.7640724e-39
-97.722839 -603.07043 310 2.5807616e-39
-95.134644 -593.41113 310 2.397085e-39
-104.79391 -590.82294 310 2.3974437e-39
-102.20572 -581.1637 310 3.6863833e-39
-99.617523 -571.50446 310 2.3956514e-39
-109.27679 -568.91626 310 1.5673257e-39
761.20837 -1454.3854 450 1.4384686e-38
754.13733 -1442.1379 440 1.4843866e-38
747.06628 -1429.8905 440 1.5306278e-38
727.74774 -1424.7141 440 1.5124761e-38
725.15955 -1434.3733 440 1.5950561e-38
715.50031 -1431.7852 440 1.5217332e-38
703.25281 -1438.8562 450 1.6045647e-38
669.09869 -1450.4102 450 1.7334964e-38
663.92236 -1469.7288 460 1.6971213e-38
656.85126 -1457.4813 450 1.7614421e-38
637.53271 -1452.3049 450 1.7890299e-38
630.46167 -1440.0575 450 1.5776645e-38
620.80237 -1437.4692 450 1.6233994e-38
611.14319 -1434.8811 450 1.9462308e-38
598.89569 -1441.9521 450 2.0291338e-38
589.23645 -1439.364 450 2.0104439e-38
584.06006 -1458.6825 460 2.1119652e-38
574.40082 -1456.0944 460 2.038138e-38
562.15338 -1463.1654 460 2.057115e-38
237.52795 -1438.2991 480 2.1212563e-38
265.86166 -907.54755 360 2.158134e-38
253.61423 -914.61859 360 2.1030327e-38
253.61423 -914.61859 360 2.1305116e-38
243.95496 -912.0304 360 2.1673176e-38
234.2957 -909.44226 360 2.0751233e-38
224.63644 -906.85406 360 1.6323041e-38
222.04825 -916.51331 360 1.0326674e-38
228.61157 -814.74432 340 8.5767509e-39
216.36414 -821.81543 340 9.4976184e-39
206.70486 -819.22723 340 7.7462616e-39
206.70486 -819.22723 340 2.5822161e-39
197.04562 -816.63904 340 6.3615209e-39
187.38635 -814.05084 340 5.0722338e-39
187.38635 -814.05084 340 1.7524456e-39
182.90347 -792.14417 330 2.1219512e-39
175.83238 -779.89673 330 1.6595354e-39
175.83238 -779.89673 330 6.2700371e-39
168.76131 -767.64929 330 8.1143098e-39
159.10205 -765.0611 330 8.7593233e-39
161.69023 -755.40186 330 9.313223e-39
152.03098 -752.81366 330 1.0141182e-38
142.37172 -750.22546 330 9.8663968e-39
139.78354 -759.8847 330 1.0419559e-38
130.12427 -757.29651 330 1.0234825e-38
120.46501 -754.70837 330 1.0786558e-38
120.46501 -754.70837 330 1.0603592e-38
110.80576 -752.12018 330 1.0048987e-38
98.558304 -759.19122 330 1.023265e-38
98.558304 -759.19122 330 9.8635143e-39
86.310867 -766.26233 330 7.9284879e-39
76.651611 -763.67413 340 8.2064943e-39
76.651611 -763.67413 340 9.0355641e-39
76.651611 -763.67413 340 9.8649394e-39
66.99234 -761.08594 340 1.2077276e-38
66.99234 -761.08594 340 1.1707777e-38
57.333084 -758.49774 340 8.2965375e-39
47.673828 -755.90961 340 1.4755e-39
-32.374176 -900.10498 370 1.2903899e-39
-52.386169 -936.15381 380 1.4751385e-39
-135.02234 -1090.0085 420 1.5676928e-39
-156.92905 -1094.4915 420 1.1996306e-39
-169.17648 -1101.5625 420 1.5684117e-39
-164.00012 -1082.244 420 1.291106e-39
-171.0712 -1069.9966 420 1.2914675e-39
-180.73044 -1067.4083 420 1.107435e-39
-190.38971 -1064.8202 420 1.2907514e-39
-200.04898 -1062.2319 420 1.1992677e-39
-192.28442 -1033.2542 410 1.291106e-39
-219.36749 -1057.0557 420 6.3639647e-39
-211.60291 -1028.0779 410 1.2265984e-38
-108.26129 -796.9491 350 1.2817718e-38
-115.33237 -784.70166 350 1.281736e-38
-115.33237 -784.70166 350 1.2909201e-38
-124.99164 -782.11346 350 1.2910992e-38
-134.65088 -779.52527 350 1.2444988e-38
-134.65088 -779.52527 350 1.1895047e-38
-144.31015 -776.93707 350 1.1158196e-38
-79.097778 -649.47198 320 2.3063299e-39
-73.921417 -630.1535 320 2.0279395e-39
-73.921417 -630.1535 310 2.0283025e-39
-83.580688 -627.56531 310 3.0420943e-39
-80.992493 -617.90601 310 2.9484581e-39
-80.992493 -617.90601 310 2.6729502e-39
-88.063568 -605.65857 310 2.396729e-39
-88.063568 -605.65857 310 2.8577016e-39
-95.134644 -593.41113 310 2.7658661e-39
-95.134644 -593.41113 310 2.857703e-39
-102.20572 -581.1637 310 3.6860231e-39
-99.617523 -571.50446 300 2.4892792e-39
-99.617523 -571.50446 300 1.6588053e-39
-99.617523 -571.50446 300 1.936111e-39
763.79663 -1444.7261 440 1.3737139e-38
754.13733 -1442.1379 430 1.3647106e-38
737.40698 -1427.3022 430 1.364712e-38
737.40698 -1427.3022 430 1.4108096e-38
725.15955 -1434.3733 430 1.5123687e-38
715.50031 -1431.7852 430 1.5307365e-38
712.91211 -1441.4445 440 1.5769058e-38
700.66467 -1448.5155 440 1.5491045e-38
691.00537 -1445.9274 440 1.6226446e-38
676.1698 -1462.6576 440 1.7058009e-38
666.5105 -1460.0695 440 1.6693887e-38
656.85126 -1457.4813 440 1.6969048e-38
637.53271 -1452.3049 440 1.7797721e-38
627.87347 -1449.7167 440 1.8534943e-38
618.21423 -1447.1285 440 1.8720772e-38
608.55493 -1444.5404 440 1.9180699e-38
596.3075 -1451.6115 440 1.9370472e-38
589.23645 -1439.364 440 2.0198785e-38
576.98901 -1446.4351 440 2.0289545e-38
548.01123 -1438.6705 450 2.1489505e-38
265.86166 -907.54755 350 2.1489505e-38
253.61423 -914.61859 350 2.1122163e-38
253.61423 -914.61859 350 2.0661909e-38
243.95496 -912.0304 350 2.0938492e-38
234.2957 -909.44226 350 2.0844504e-38
224.63644 -906.85406 350 1.2445807e-38
228.61157 -814.74432 330 9.4047152e-39
226.02339 -824.40363 330 8.6693039e-39
216.36414 -821.81543 330 9.7749228e-39
206.70486 -819.22723 330 7.652631e-39
206.70486 -819.22723 330 2.4889387e-39
197.04562 -816.63904 330 5.9019917e-39
187.38635 -814.05084 330 4.9800326e-39
187.38635 -814.05084 330 2.2130693e-39
182.90347 -792.14417 330 2.3052663e-39
175.83238 -779.89673 330 1.6606144e-39
173.2442 -789.55597 330 5.9012518e-39
168.76131 -767.64929 320 7.9299354e-39
159.10205 -765.0611 320 8.3916282e-39
161.69023 -755.40186 320 9.1284772e-39
152.03098 -752.81366 320 1.0234835e-38
142.37172 -750.22546 320 1.0232668e-38
139.78354 -759.8847 320 1.0233749e-38
130.12427 -757.29651 320 1.0234102e-38
120.46501 -754.70837 320 1.0877672e-38
120.46501 -754.70837 320 1.051068e-38
110.80576 -752.12018 330 9.6816398e-39
98.558304 -759.19122 330 1.0048626e-38
98.558304 -759.19122 330 8.9444362e-39
86.310867 -766.26233 330 7.4675055e-39
76.651611 -763.67413 330 8.7614715e-39
76.651611 -763.67413 330 9.0362774e-39
76.651611 -763.67413 330 9.8649506e-39
66.99234 -761.08594 330 1.1798169e-38
66.99234 -761.08594 330 9.4929283e-39
57.333084 -758.49774 330 6.5448289e-39
47.673828 -755.90961 330 1.568053e-39
-32.374176 -900.10498 360 1.2914647e-39
-49.797974 -926.49463 370 1.2911046e-39
-144.68158 -1087.4204 410 1.1992691e-39
-169.17648 -1101.5625 410 1.3833016e-39
-168.483 -1060.3373 410 1.2911046e-39
-178.14227 -1057.7491 410 1.0145261e-39
-187.10803 -1013.9357 400 1.1074322e-39
-179.34351 -984.95789 390 4.1491649e-39
-206.42657 -1008.7593 400 1.1803573e-38
-96.013855 -789.87799 340 1.2357458e-38
-105.6731 -787.28979 340 1.2173438e-38
-112.74417 -775.04236 340 1.2541497e-38
-112.74417 -775.04236 340 1.2908128e-38
-122.40344 -772.45416 340 1.2448588e-38
-132.06271 -769.86603 340 1.2446791e-38
-132.06271 -769.86603 340 1.2262376e-38
-141.72195 -767.27783 340 1.1618091e-38
-79.097778 -649.47198 310 3.7782622e-39
-73.921417 -630.1535 310 2.1197792e-39
-73.921417 -630.1535 310 2.1194191e-39
-83.580688 -627.56531 310 1.9361082e-39
-83.580688 -627.56531 310 2.5811161e-39
-80.992493 -617.90601 310 2.4885659e-39
-88.063568 -605.65857 300 2.0268703e-39
-88.063568 -605.65857 300 2.3967234e-39
-95.134644 -593.41113 300 2.39565e-39
-95.134644 -593.41113 300 3.4105138e-39
-92.546448 -583.75189 300 2.8569841e-39
-99.617523 -571.50446 300 1.6591612e-39
-99.617523 -571.50446 300 2.0283067e-39
-97.029358 -561.84515 300 2.4896407e-39
768.27948 -1466.6328 430 1.263079e-38
761.20837 -1454.3854 430 1.3275804e-38
744.47809 -1439.5497 420 1.3737857e-38
734.81885 -1436.9615 420 1.3648906e-38
725.15955 -1434.3733 420 1.5213715e-38
715.50031 -1431.7852 420 1.548779e-38
703.25281 -1438.8562 430 1.5305216e-38
703.25281 -1438.8562 430 1.6044565e-38
691.00537 -1445.9274 430 1.5769428e-38
656.85126 -1457.4813 430 1.6781426e-38
637.53271 -1452.3049 430 1.6598834e-38
630.46167 -1440.0575 430 1.7337831e-38
618.21423 -1447.1285 430 1.743147e-38
611.14319 -1434.8811 430 1.7802075e-38
598.89569 -1441.9521 430 1.9274691e-38
589.23645 -1439.364 430 1.9186084e-38
579.57715 -1436.7758 430 2.0199503e-38
569.91791 -1434.1876 430 2.038712e-38
550.59937 -1429.0112 430 2.0477879e-38
265.86166 -907.54755 340 2.1027457e-38
253.61423 -914.61859 340 2.0937416e-38
253.61423 -914.61859 340 2.1030327e-38
243.95496 -912.0304 340 2.0753745e-38
234.2957 -909.44226 340 2.0570791e-38
222.04825 -916.51331 340 1.0420673e-38
228.61157 -814.74432 320 9.4043536e-39
226.02339 -824.40363 330 8.760066e-39
216.36414 -821.81543 330 9.5894609e-39
216.36414 -821.81543 330 7.4689586e-39
206.70486 -819.22723 330 2.1212366e-39
197.04562 -816.63904 330 5.9027007e-39
187.38635 -814.05084 330 4.7038128e-39
187.38635 -814.05084 330 2.3049062e-39
182.90347 -792.14417 320 2.2141483e-39
175.83238 -779.89673 320 1.9368397e-39
175.83238 -779.89673 320 5.4406422e-39
168.76131 -767.64929 320 8.0232072e-39
159.10205 -765.0611 320 8.4841882e-39
161.69023 -755.40186 320 9.4983345e-39
152.03098 -752.81366 320 1.0141546e-38
142.37172 -750.22546 320 1.0141186e-38
139.78354 -759.8847 320 1.0326656e-38
130.12427 -757.29651 320 1.0140477e-38
120.46501 -754.70837 320 1.041921e-38
120.46501 -754.70837 320 1.0418129e-38
110.80576 -752.12018 320 9.5905189e-39
98.558304 -759.19122 320 9.2195882e-39
98.558304 -759.19122 320 9.0366305e-39
86.310867 -766.26233 320 6.9136101e-39
76.651611 -763.67413 320 9.3128586e-39
76.651611 -763.67413 320 9.5883665e-39
76.651611 -763.67413 320 8.9433657e-39
66.99234 -761.08594 320 9.2199343e-39
66.99234 -761.08594 320 7.0076022e-39
57.333084 -758.49774 320 6.9164785e-39
-32.374176 -900.10498 360 1.1077979e-39
-49.797974 -926.49463 360 8.3013061e-40
-142.09341 -1077.7611 400 1.1070776e-39
-151.75266 -1075.1729 400 1.2914661e-39
-165.89481 -1050.678 390 1.291106e-39
-175.55408 -1048.0898 390 1.1985502e-39
-172.27243 -997.20532 380 3.1382317e-39
-174.16711 -965.6394 380 4.5211718e-39
-196.7673 -1011.3475 390 1.2078358e-38
-93.425659 -780.21875 340 1.2079811e-38
-105.6731 -787.28979 340 1.2173071e-38
-112.74417 -775.04236 340 1.2174868e-38
-112.74417 -775.04236 340 1.2632969e-38
-122.40344 -772.45416 340 1.2264203e-38
-132.06271 -769.86603 340 1.244642e-38
-132.06271 -769.86603 330 1.1710287e-38
-141.72195 -767.27783 340 1.1248594e-38
-79.097778 -649.47198 310 5.2501651e-39
-73.921417 -630.1535 300 1.475493e-39
-73.921417 -630.1535 300 1.6595227e-39
-83.580688 -627.56531 300 2.3970864e-39
-83.580688 -627.56531 300 2.2126979e-39
-90.651764 -615.31787 300 2.0275878e-39
-88.063568 -605.65857 300 2.3041733e-39
-85.475372 -595.99933 300 2.4889233e-39
-95.134644 -593.41113 300 3.3168819e-39
-92.546448 -583.75189 300 3.1335668e-39
-92.546448 -583.75189 290 1.8428378e-39
-99.617523 -571.50446 290 1.9364698e-39
-99.617523 -571.50446 290 2.397808e-39
-97.029358 -561.84515 290 3.410874e-39
768.27948 -1466.6328 420 1.2260208e-38
758.62024 -1464.0446 420 1.2905573e-38
751.54919 -1451.7971 420 1.3552021e-38
741.88989 -1449.209 420 1.3645301e-38
732.23059 -1446.6208 420 1.5211917e-38
722.57141 -1444.0326 420 1.5305549e-38
710.32391 -1451.1036 420 1.5216956e-38
700.66467 -1448.5155 420 1.5768707e-38
676.1698 -1462.6576 420 1.6138567e-38
666.5105 -1460.0695 420 1.6137845e-38
656.85126 -1457.4813 420 1.6232902e-38
640.12091 -1442.6456 420 1.568154e-38
630.46167 -1440.0575 420 1.6231488e-38
620.80237 -1437.4692 420 1.7061243e-38
613.73132 -1425.2218 420 1.7612996e-38
601.48389 -1432.293 420 1.8353814e-38
591.82458 -1429.7047 420 2.0014397e-38
582.16541 -1427.1166 420 1.9369396e-38
569.91791 -1434.1876 420 2.1211846e-38
560.25867 -1431.5995 420 2.0754103e-38
550.59937 -1429.0112 420 2.0937057e-38
540.94012 -1426.4231 420 2.1396952e-38
528.69269 -1433.4941 420 2.0475009e-38
263.27347 -917.20679 340 2.084558e-38
253.61423 -914.61859 340 2.130404e-38
253.61423 -914.61859 340 2.158134e-38
243.95496 -912.0304 340 2.0202014e-38
234.2957 -909.44226 340 2.0843786e-38
222.04825 -916.51331 340 1.0789435e-38
228.61157 -814.74432 320 8.7607849e-39
226.02339 -824.40363 320 8.3019619e-39
216.36414 -821.81543 320 9.7731207e-39
216.36414 -821.81543 320 7.4689586e-39
206.70486 -819.22723 320 2.0290297e-39
197.04562 -816.63904 320 5.3506186e-39
194.45743 -826.29828 320 4.6123361e-39
184.79817 -823.71014 320 2.3981752e-39
185.49164 -782.48492 310 2.4896604e-39
175.83238 -779.89673 310 2.7655144e-39
175.83238 -779.89673 310 5.4413498e-39
168.76131 -767.64929 310 7.7459001e-39
161.69023 -755.40186 310 8.5749391e-39
161.69023 -755.40186 310 9.6816496e-39
152.03098 -752.81366 310 1.0233746e-38
142.37172 -750.22546 310 1.0417055e-38
139.78354 -759.8847 310 1.0327376e-38
130.12427 -757.29651 310 1.0601809e-38
120.46501 -754.70837 310 1.0877668e-38
120.46501 -754.70837 310 1.0418852e-38
108.21758 -761.77942 310 9.6798433e-39
98.558304 -759.19122 310 9.5876449e-39
98.558304 -759.19122 310 8.1118057e-39
86.310867 -766.26233 310 6.3629446e-39
76.651611 -763.67413 310 1.0234814e-38
76.651611 -763.67413 310 1.032953e-38
76.651611 -763.67413 310 1.0050065e-38
66.99234 -761.08594 310 8.1125274e-39
66.99234 -761.08594 310 6.0874465e-39
57.333084 -758.49774 310 7.6522555e-39
-32.374176 -900.10498 350 1.290743e-39
-49.797974 -926.49463 350 1.0145275e-39
-139.50522 -1068.1018 390 1.3829415e-39
-149.16449 -1065.5137 390 1.3836589e-39
-153.64737 -1043.6069 380 1.2911046e-39
-163.30664 -1041.0188 380 1.1985502e-39
-169.68423 -987.54614 370 4.6108703e-39
-176.75531 -975.29871 370 6.9182343e-39
-206.42657 -1008.7593 380 1.1523022e-38
-93.425659 -780.21875 330 1.2353159e-38
-105.6731 -787.28979 330 1.20798e-38
-112.74417 -775.04236 330 1.2263479e-38
-112.74417 -775.04236 330 1.2631901e-38
-122.40344 -772.45416 330 1.235568e-38
-132.06271 -769.86603 330 1.1617388e-38
-132.06271 -769.86603 330 1.1893961e-38
-144.31015 -776.93707 330 1.0970567e-38
-64.262146 -632.74164 300 8.2025622e-39
-73.921417 -630.1535 300 1.935032e-39
-73.921417 -630.1535 300 1.8439112e-39
-83.580688 -627.56531 300 2.3960074e-39
-83.580688 -627.56531 300 2.2123378e-39
-93.239929 -624.97711 300 2.3967262e-39
-90.651764 -615.31787 290 2.6740306e-39
-85.475372 -595.99933 290 3.1321291e-39
-82.887207 -586.34009 290 2.9499e-39
-92.546448 -583.75189 290 2.3960102e-39
-89.958282 -574.09265 290 1.9364698e-39
-89.958282 -574.09265 290 2.3974423e-39
-99.617523 -571.50446 290 3.1342871e-39
-97.029358 -561.84515 290 3.6867336e-39
765.69128 -1476.292 410 1.2721179e-38
748.96094 -1461.4564 410 1.2356353e-38
746.3728 -1471.1157 410 1.2817706e-38
729.64246 -1456.28 410 1.392441e-38
719.98315 -1453.6919 410 1.4659828e-38
710.32391 -1451.1036 410 1.5215167e-38
698.07648 -1458.1748 410 1.5398841e-38
698.07648 -1458.1748 410 1.5676504e-38
678.75793 -1452.9984 410 1.567399e-38
676.1698 -1462.6576 410 1.5857665e-38
666.5105 -1460.0695 410 1.5953085e-38
656.85126 -1457.4813 410 1.5950575e-38
640.12091 -1442.6456 410 1.6506985e-38
630.46167 -1440.0575 410 1.6048529e-38
620.80237 -1437.4692 410 1.705907e-38
604.07208 -1422.6337 410 1.7059085e-38
604.07208 -1422.6337 410 1.8260154e-38
591.82458 -1429.7047 410 1.9458714e-38
582.16541 -1427.1166 410 2.0379587e-38
569.91791 -1434.1876 410 2.0384968e-38
560.25867 -1431.5995 410 2.066155e-38
550.59937 -1429.0112 410 2.102961e-38
538.35193 -1436.0823 410 2.0662268e-38
528.69269 -1433.4941 410 2.1673176e-38
432.1001 -1407.6123 410 2.2132353e-38
315.49551 -1417.7793 420 2.2040518e-38
315.49551 -1417.7793 420 2.0476803e-38
315.49551 -1417.7793 420 2.0937774e-38
263.27347 -917.20679 330 2.1487352e-38
253.61423 -914.61859 330 2.1763218e-38
253.61423 -914.61859 330 2.1397669e-38
243.95496 -912.0304 330 2.0566845e-38
234.2957 -909.44226 330 2.0660115e-38
222.04825 -916.51331 330 1.0051891e-38
226.02339 -824.40363 310 9.0377277e-39
226.02339 -824.40363 310 8.7600562e-39
216.36414 -821.81543 310 9.4983331e-39
216.36414 -821.81543 310 7.5622333e-39
206.70486 -819.22723 310 2.2127007e-39
197.04562 -816.63904 310 5.4402863e-39
194.45743 -826.29828 310 3.9651716e-39
190.66801 -763.16638 300 2.3985409e-39
175.83238 -779.89673 310 2.9527937e-39
175.83238 -779.89673 310 5.4420715e-39
168.76131 -767.64929 300 7.3782008e-39
161.69023 -755.40186 300 8.8511728e-39
161.69023 -755.40186 300 9.31323e-39
152.03098 -752.81366 300 1.0142272e-38
142.37172 -750.22546 300 9.9585826e-39
139.78354 -759.8847 300 1.0326649e-38
130.12427 -757.29651 300 1.0235538e-38
120.46501 -754.70837 300 1.087696e-38
120.46501 -754.70837 310 1.0417418e-38
108.21758 -761.77942 310 9.4965268e-39
98.558304 -759.19122 310 9.3124957e-39
98.558304 -759.19122 310 7.1905557e-39
88.899048 -756.60309 310 8.2068614e-39
79.239792 -754.01489 310 1.0327015e-38
79.239792 -754.01489 310 1.1799631e-38
79.239792 -754.01489 310 1.0508893e-38
66.99234 -761.08594 310 7.1909214e-39
66.99234 -761.08594 310 7.3760147e-39
57.333084 -758.49774 310 1.1073538e-38
-32.374176 -900.10498 340 7.3828671e-40
-47.209778 -916.83533 340 1.1985586e-39
-136.91705 -1058.4426 380 1.1996306e-39
-146.57629 -1055.8544 380 1.2911088e-39
-151.0592 -1033.9476 370 1.2907486e-39
-167.09604 -977.88684 360 2.9506231e-39
-196.7673 -1011.3475 370 5.8104603e-39
-209.01477 -1018.4186 370 1.0696838e-38
-108.26129 -796.9491 320 1.1986168e-38
-115.33237 -784.70166 320 1.1618461e-38
-115.33237 -784.70166 320 1.226204e-38
-124.99164 -782.11346 320 1.2079444e-38
-134.65088 -779.52527 320 1.1432984e-38
-144.31015 -776.93707 320 1.0974878e-38
-144.31015 -776.93707 320 1.1156393e-38
-64.262146 -632.74164 290 1.0047529e-38
-73.921417 -630.1535 290 1.3843708e-39
-73.921417 -630.1535 290 2.213051e-39
-83.580688 -627.56531 290 2.4896379e-39
-83.580688 -627.56531 290 2.4899953e-39
-93.239929 -624.97711 290 2.7665878e-39
-90.651764 -615.31787 290 2.9484595e-39
-85.475372 -595.99933 280 2.2116147e-39
-82.887207 -586.34009 280 2.672953e-39
-92.546448 -583.75189 280 2.0275822e-39
-89.958282 -574.09265 280 2.0283025e-39
-89.958282 -574.09265 280 2.6722327e-39
-97.029358 -561.84515 280 3.6870979e-39
-97.029358 -561.84515 280 3.779295e-39
782.42163 -1491.1277 400 1.2075454e-38
765.69128 -1476.292 400 1.1985418e-38
743.78461 -1480.7749 400 1.3459109e-38
729.64246 -1456.28 400 1.3647096e-38
717.39502 -1463.3511 400 1.438539e-38
710.32391 -1451.1036 400 1.5120819e-38
705.14758 -1470.4222 400 1.5400639e-38
695.48828 -1467.834 400 1.5398483e-38
685.82904 -1465.2458 400 1.6410107e-38
673.5816 -1472.3169 400 1.5953082e-38
663.92236 -1469.7288 400 1.5954163e-38
656.85126 -1457.4813 400 1.6230385e-38
647.19202 -1454.8931 400 1.6045638e-38
637.53271 -1452.3049 400 1.6414069e-38
618.21423 -1447.1285 400 1.6505897e-38
611.14319 -1434.8811 400 1.6508431e-38
601.48389 -1432.293 400 1.7244204e-38
591.82458 -1429.7047 400 1.9088147e-38
582.16541 -1427.1166 400 1.9185725e-38
569.91791 -1434.1876 400 1.9830367e-38
562.84686 -1421.9402 400 2.0478956e-38
550.59937 -1429.0112 400 2.0661909e-38
538.35193 -1436.0823 400 2.0754462e-38
526.10449 -1443.1534 400 2.1122163e-38
516.44525 -1440.5652 400 2.1122163e-38
511.96234 -1418.6586 400 2.0662985e-38
499.7149 -1425.7296 400 2.1030327e-38
439.17117 -1419.8597 400 2.2040518e-38
424.33554 -1436.5901 410 2.1489505e-38
318.08368 -1408.1201 410 2.1305834e-38
318.08368 -1408.1201 410 2.2040518e-38
260.6853 -926.86603 320 2.0937057e-38
253.61423 -914.61859 320 2.1397669e-38
253.61423 -914.61859 320 2.1028892e-38
243.95496 -912.0304 320 2.1212563e-38
234.2957 -909.44226 320 1.881372e-38
222.04825 -916.51331 320 9.2224875e-39
219.46008 -926.17255 320 9.3128684e-39
226.02339 -824.40363 310 8.3920024e-39
216.36414 -821.81543 310 9.4064962e-39
216.36414 -821.81543 310 7.7455385e-39
206.70486 -819.22723 310 2.0293913e-39
194.45743 -826.29828 310 5.0725869e-39
177.03362 -852.68793 310 2.5825735e-39
193.2562 -753.50714 290 2.4896618e-39
178.42058 -770.23743 300 3.5974555e-39
178.42058 -770.23743 300 5.7175836e-39
171.3495 -757.98999 300 7.5629465e-39
161.69023 -755.40186 300 8.484907e-39
161.69023 -755.40186 300 9.6812852e-39
152.03098 -752.81366 300 1.0051143e-38
142.37172 -750.22546 300 9.8649646e-39
139.78354 -759.8847 300 9.8671156e-39
130.12427 -757.29651 300 1.014227e-38
120.46501 -754.70837 300 1.0142628e-38
120.46501 -754.70837 300 9.9578721e-39
108.21758 -761.77942 300 9.6805622e-39
98.558304 -759.19122 300 8.3912639e-39
98.558304 -759.19122 300 5.9019665e-39
88.899048 -756.60309 300 9.406492e-39
79.239792 -754.01489 300 1.051141e-38
79.239792 -754.01489 300 1.0141909e-38
79.239792 -754.01489 300 8.0196045e-39
69.580521 -751.4267 300 6.3633187e-39
69.580521 -751.4267 300 8.1146798e-39
-20.126709 -893.03394 330 1.0145205e-39
-34.962341 -909.76428 330 6.4537782e-40
-47.209778 -916.83533 340 1.1996292e-39
-134.32886 -1048.7833 360 1.1992733e-39
-146.57629 -1055.8544 370 1.1992705e-39
-151.0592 -1033.9476 360 1.1989159e-39
-167.09604 -977.88684 350 1.0148764e-39
-196.7673 -1011.3475 360 5.5356628e-39
-209.01477 -1018.4186 360 1.0418818e-38
-108.26129 -796.9491 320 1.2170559e-38
-115.33237 -784.70166 320 1.1804303e-38
-115.33237 -784.70166 320 1.1159651e-38
-124.99164 -782.11346 320 1.1711741e-38
-134.65088 -779.52527 320 1.1154246e-38
-144.31015 -776.93707 320 1.1615938e-38
-144.31015 -776.93707 310 1.1156387e-38
-64.262146 -632.74164 280 9.9560504e-39
-73.921417 -630.1535 280 2.6729516e-39
-73.921417 -630.1535 290 2.0272249e-39
-83.580688 -627.56531 290 2.3045264e-39
-83.580688 -627.56531 280 2.304532e-39
-93.239929 -624.97711 280 3.2254051e-39
-90.651764 -615.31787 280 2.1201408e-39
-82.887207 -586.34009 280 2.1204981e-39
-82.887207 -586.34009 280 2.5811147e-39
-89.958282 -574.09265 280 1.9364698e-39
-89.958282 -574.09265 280 1.9361068e-39
-89.958282 -574.09265 280 2.8573401e-39
-97.029358 -561.84515 270 4.2381165e-39
-97.029358 -561.84515 270 4.0530022e-39
779.8335 -1500.787 390 1.1892487e-38
763.10315 -1485.9513 390 1.1341479e-38
748.96094 -1461.4564 390 1.244495e-38
746.3728 -1471.1157 390 1.272298e-38
729.64246 -1456.28 390 1.3274732e-38
719.98315 -1453.6919 380 1.4105933e-38
710.32391 -1451.1036 380 1.4753099e-38
707.73572 -1460.7629 390 1.5214811e-38
695.48828 -1467.834 390 1.4661279e-38
685.82904 -1465.2458 390 1.5033292e-38
676.1698 -1462.6576 390 1.5122621e-38
666.5105 -1460.0695 390 1.5860175e-38
656.85126 -1457.4813 390 1.6045277e-38
647.19202 -1454.8931 390 1.5859809e-38
637.53271 -1452.3049 390 1.5306295e-38
627.87347 -1449.7167 390 1.632403e-38
608.55493 -1444.5404 390 1.6322954e-38
598.89569 -1441.9521 390 1.7060167e-38
591.82458 -1429.7047 390 1.7707344e-38
582.16541 -1427.1166 390 1.9089944e-38
569.91791 -1434.1876 390 2.0292415e-38
560.25867 -1431.5995 390 2.075231e-38
550.59937 -1429.0112 390 2.0754103e-38
535.76379 -1445.7416 390 2.0938492e-38
535.76379 -1445.7416 390 2.1213281e-38
523.51636 -1452.8126 390 2.1765011e-38
509.37418 -1428.3177 390 2.0570074e-38
497.12671 -1435.3889 390 2.0754821e-38
436.58301 -1429.519 390 2.2224189e-38
431.40662 -1448.8375 400 2.1489505e-38
327.74295 -1410.7083 400 2.1673176e-38
318.08368 -1408.1201 400 2.1948682e-38
318.08368 -1408.1201 400 2.1397669e-38
275.52094 -910.13568 310 2.1030327e-38
260.6853 -926.86603 310 2.1671382e-38
253.61423 -914.61859 310 2.0937416e-38
253.61423 -914.61859 310 2.1673176e-38
243.95496 -912.0304 310 2.0661909e-38
234.2957 -909.44226 310 1.4202573e-38
222.04825 -916.51331 310 9.1313555e-39
226.02339 -824.40363 300 8.668948e-39
226.02339 -824.40363 300 8.4838379e-39
216.36414 -821.81543 300 9.4068633e-39
216.36414 -821.81543 300 7.6519122e-39
206.70486 -819.22723 300 2.1208624e-39
194.45743 -826.29828 300 4.7048848e-39
177.03362 -852.68793 310 2.5825721e-39
193.2562 -753.50714 290 2.7658843e-39
181.00876 -760.57819 290 3.5985359e-39
181.00876 -760.57819 290 5.9019707e-39
171.3495 -757.98999 290 7.7455441e-39
161.69023 -755.40186 290 8.7596905e-39
161.69023 -755.40186 290 9.4050627e-39
152.03098 -752.81366 290 1.0050064e-38
142.37172 -750.22546 290 9.5898099e-39
139.78354 -759.8847 290 1.0141903e-38
130.12427 -757.29651 290 9.9578749e-39
120.46501 -754.70837 290 9.86748e-39
120.46501 -754.70837 290 1.023337e-38
108.21758 -761.77942 290 9.0366305e-39
98.558304 -759.19122 290 7.5611459e-39
98.558304 -759.19122 290 6.7306467e-39
88.899048 -756.60309 290 9.4039851e-39
79.239792 -754.01489 290 9.4968982e-39
79.239792 -754.01489 290 9.0369906e-39
79.239792 -754.01489 290 7.3781937e-39
79.239792 -754.01489 290 8.0206583e-39
69.580521 -751.4267 290 1.1257191e-38
-22.714905 -902.69318 320 1.1985446e-39
-34.962341 -909.76428 330 8.2977328e-40
-107.24579 -1024.9819 350 1.4754986e-39
-122.08142 -1041.7123 350 1.2911102e-39
-143.98813 -1046.1952 360 1.1070734e-39
-167.09604 -977.88684 340 9.2232624e-40
-196.7673 -1011.3475 350 6.5480113e-39
-206.42657 -1008.7593 350 1.0048228e-38
-108.26129 -796.9491 310 1.171066e-38
-115.33237 -784.70166 310 1.1984373e-38
-124.99164 -782.11346 310 1.1525199e-38
-124.99164 -782.11346 310 1.1896849e-38
-134.65088 -779.52527 310 1.1523036e-38
-144.31015 -776.93707 310 1.1156408e-38
-144.31015 -776.93707 310 1.1152806e-38
-64.262146 -632.74164 280 1.0137926e-38
-73.921417 -630.1535 280 1.7510023e-39
-73.921417 -630.1535 280 1.7513554e-39
-83.580688 -627.56531 280 2.4885631e-39
-83.580688 -627.56531 280 2.3038117e-39
-90.651764 -615.31787 280 1.9357509e-39
-88.063568 -605.65857 280 1.9357467e-39
-85.475372 -595.99933 270 2.3045334e-39
-82.887207 -586.34009 270 2.3041747e-39
-89.958282 -574.09265 270 2.3970864e-39
-89.958282 -574.09265 270 2.0283025e-39
-89.958282 -574.09265 270 2.0268633e-39
-97.029358 -561.84515 270 1.5669656e-39
-97.029358 -561.84515 270 2.2130567e-39
782.42163 -1491.1277 380 1.1615186e-38
779.8335 -1500.787 380 1.106382e-38
763.10315 -1485.9513 380 1.1982894e-38
753.44385 -1483.3632 380 1.2166565e-38
746.3728 -1471.1157 380 1.2078337e-38
727.05426 -1465.9393 380 1.2630794e-38
717.39502 -1463.3511 380 1.3371959e-38
710.32391 -1451.1036 380 1.4201004e-38
707.73572 -1460.7629 380 1.521193e-38
695.48828 -1467.834 380 1.4389717e-38
685.82904 -1465.2458 380 1.5121172e-38
676.1698 -1462.6576 380 1.4941461e-38
666.5105 -1460.0695 380 1.5585379e-38
656.85126 -1457.4813 380 1.5217328e-38
647.19202 -1454.8931 380 1.558288e-38
627.87347 -1449.7167 380 1.6319364e-38
618.21423 -1447.1285 380 1.5860899e-38
611.14319 -1434.8811 380 1.6781418e-38
601.48389 -1432.293 380 1.733639e-38
591.82458 -1429.7047 380 1.7707711e-38
579.57715 -1436.7758 380 1.8999899e-38
567.32971 -1443.8469 380 2.0193763e-38
567.32971 -1443.8469 380 2.0660474e-38
555.08228 -1450.918 380 2.0937774e-38
545.42303 -1448.3298 380 2.0662985e-38
526.10449 -1443.1534 380 2.1211846e-38
516.44525 -1440.5652 380 2.0938492e-38
511.96234 -1418.6586 380 2.1765011e-38
499.7149 -1425.7296 380 2.1213998e-38
482.98456 -1410.8939 380 2.1213998e-38
431.40662 -1448.8375 390 2.1397669e-38
320.67188 -1398.4608 380 2.158134e-38
275.52094 -910.13568 300 2.066155e-38
263.27347 -917.20679 310 2.139731e-38
253.61423 -914.61859 310 2.158134e-38
253.61423 -914.61859 310 2.1030327e-38
243.95496 -912.0304 310 2.1029968e-38
234.2957 -909.44226 310 1.124976e-38
224.63644 -906.85406 310 9.037376e-39
235.68265 -826.99176 290 8.7607793e-39
226.02339 -824.40363 290 8.6682221e-39
216.36414 -821.81543 290 9.5898141e-39
206.70486 -819.22723 290 7.6544191e-39
204.1167 -828.88647 290 1.9364782e-39
177.03362 -852.68793 300 2.7662458e-39
181.00876 -760.57819 280 4.2431906e-39
181.00876 -760.57819 280 5.6246719e-39
171.3495 -757.98999 280 7.5615116e-39
161.69023 -755.40186 280 8.8518833e-39
161.69023 -755.40186 280 9.6816496e-39
152.03098 -752.81366 280 9.4987016e-39
142.37172 -750.22546 280 9.7745627e-39
139.78354 -759.8847 280 9.8653304e-39
130.12427 -757.29651 280 1.0324495e-38
120.46501 -754.70837 290 9.8667653e-39
120.46501 -754.70837 290 1.0049343e-38
108.21758 -761.77942 290 8.9433615e-39
98.558304 -759.19122 290 7.0983629e-39
98.558304 -759.19122 290 7.7444441e-39
91.487228 -746.94379 290 8.8518889e-39
81.827972 -744.35559 290 9.0352096e-39
81.827972 -744.35559 290 8.851526e-39
81.827972 -744.35559 290 8.3887471e-39
81.827972 -744.35559 280 8.6685654e-39
-22.714905 -902.69318 320 9.2232064e-40
-37.550537 -919.42352 320 1.1067133e-39
-94.998352 -1017.9109 340 6.4537782e-40
-104.65759 -1015.3226 340 1.2914703e-39
-143.98813 -1046.1952 350 1.1985502e-39
-153.64737 -1043.6069 350 1.3829443e-39
-160.71844 -1031.3595 340 1.1070748e-39
-167.09604 -977.88684 330 9.2232064e-40
-196.7673 -1011.3475 340 6.916798e-39
-209.01477 -1018.4186 340 8.9422376e-39
-110.84949 -806.60834 300 1.1251844e-38
-117.92056 -794.3609 300 1.1065293e-38
-127.5798 -791.77271 300 1.0973456e-38
-127.5798 -791.77271 300 1.0332399e-38
-137.23907 -789.18451 300 1.0146211e-38
-144.31015 -776.93707 300 1.0878379e-38
-144.31015 -776.93707 300 1.0507426e-38
-64.262146 -632.74164 270 9.0362409e-39
-73.921417 -630.1535 270 1.7517156e-39
-73.921417 -630.1535 270 1.7509967e-39
-83.580688 -627.56531 270 2.2119763e-39
-83.580688 -627.56531 270 2.1204939e-39
-90.651764 -615.31787 270 1.7520785e-39
-88.063568 -605.65857 270 1.8435497e-39
-85.475372 -595.99933 270 2.4889219e-39
-82.887207 -586.34009 270 1.9361124e-39
-89.958282 -574.09265 270 2.3967276e-39
-89.958282 -574.09265 260 1.9350306e-39
-89.958282 -574.09265 260 2.0283053e-39
-99.617523 -571.50446 260 2.9488182e-39
-97.029358 -561.84515 260 3.2239646e-39
792.08093 -1493.7158 370 1.1522638e-38
782.42163 -1491.1277 370 1.1062743e-38
765.69128 -1476.292 370 1.0789383e-38
748.96094 -1461.4564 370 1.1244982e-38
739.3017 -1458.8683 370 1.1711341e-38
732.23059 -1446.6208 360 1.2907739e-38
722.57141 -1444.0326 360 1.2818425e-38
712.91211 -1441.4445 360 1.4289962e-38
698.07648 -1458.1748 370 1.4570152e-38
688.41724 -1455.5865 370 1.5124043e-38
678.75793 -1452.9984 370 1.5395241e-38
676.1698 -1462.6576 370 1.4940019e-38
666.5105 -1460.0695 370 1.484925e-38
654.26306 -1467.1405 370 1.5214102e-38
644.60382 -1464.5524 370 1.5584308e-38
634.94458 -1461.9642 370 1.5950208e-38
625.28528 -1459.376 370 1.5675428e-38
608.55493 -1444.5404 370 1.5861976e-38
598.89569 -1441.9521 370 1.6506272e-38
589.23645 -1439.364 370 1.7065226e-38
579.57715 -1436.7758 370 1.8722596e-38
574.40082 -1456.0944 370 1.8818024e-38
564.74158 -1453.5061 370 1.964849e-38
552.49414 -1460.5773 370 2.029385e-38
542.83484 -1457.989 370 2.0938492e-38
533.1756 -1455.4009 370 2.1121087e-38
520.92816 -1462.4719 370 2.010982e-38
502.3031 -1416.0703 370 2.0662985e-38
497.12671 -1435.3889 370 2.1579905e-38
444.34753 -1400.5413 370 2.1305834e-38
439.17117 -1419.8597 370 2.1765011e-38
433.30133 -1480.4034 380 2.1948682e-38
349.64966 -1406.2253 370 2.1856847e-38
344.47327 -1425.5438 380 2.1673176e-38
318.08368 -1408.1201 370 2.1673176e-38
275.52094 -910.13568 300 2.1397669e-38
263.27347 -917.20679 300 2.1672099e-38
253.61423 -914.61859 300 2.0754821e-38
253.61423 -914.61859 300 2.0844863e-38
243.95496 -912.0304 300 2.0754462e-38
234.2957 -909.44226 300 1.0237723e-38
224.63644 -906.85406 300 9.1288443e-39
226.02339 -824.40363 280 8.6685794e-39
216.36414 -821.81543 280 9.4972625e-39
206.70486 -819.22723 290 1.9368383e-39
177.03362 -852.68793 290 2.950993e-39
181.00876 -760.57819 280 4.0595224e-39
181.00876 -760.57819 280 5.9941747e-39
171.3495 -757.98999 280 7.1934424e-39
161.69023 -755.40186 280 9.0359172e-39
161.69023 -755.40186 280 9.5887351e-39
152.03098 -752.81366 280 9.5898057e-39
142.37172 -750.22546 280 1.0050072e-38
139.78354 -759.8847 280 9.5898071e-39
130.12427 -757.29651 280 1.014191e-38
120.46501 -754.70837 280 1.0142263e-38
120.46501 -754.70837 280 9.7724061e-39
110.80576 -752.12018 280 8.6664088e-39
101.1465 -749.53198 280 6.8203396e-39
101.1465 -749.53198 280 8.1153958e-39
91.487228 -746.94379 280 8.9429971e-39
81.827972 -744.35559 280 9.2188707e-39
81.827972 -744.35559 280 8.206881e-39
81.827972 -744.35559 280 9.1273828e-39
81.827972 -744.35559 280 1.181288e-38
82.521454 -703.13037 270 2.3956557e-39
52.156723 -777.81628 290 1.4758616e-39
37.321075 -794.54663 290 9.2232064e-40
-5.2910767 -876.30359 300 9.2232064e-40
-22.714905 -902.69318 310 8.3012641e-40
-62.738892 -974.79089 320 1.1985516e-39
-92.410156 -1008.2516 330 5.5389825e-40
-104.65759 -1015.3226 330 1.2914661e-39
-146.57629 -1055.8544 340 1.106363e-39
-156.23557 -1053.2662 340 1.1996278e-39
-164.50787 -968.22754 330 1.0141589e-39
-196.7673 -1011.3475 330 6.3621851e-39
-209.01477 -1018.4186 330 9.03372e-39
-218.67401 -1015.8304 330 1.023443e-38
-120.50873 -804.02014 300 1.0885567e-38
-117.92056 -794.3609 300 1.1344385e-38
-127.5798 -791.77271 300 1.0973823e-38
-127.5798 -791.77271 290 1.1617026e-38
-137.23907 -789.18451 290 1.0328447e-38
-146.89832 -786.59637 290 1.0601077e-38
-144.31015 -776.93707 290 1.0599986e-38
-79.097778 -649.47198 270 9.5869008e-39
-76.509613 -639.81274 270 2.1201366e-39
-86.168854 -637.22455 270 1.2907374e-39
-83.580688 -627.56531 270 1.5662467e-39
-83.580688 -627.56531 270 1.8435553e-39
-93.239929 -624.97711 270 2.0275864e-39
-88.063568 -605.65857 260 1.8435511e-39
-85.475372 -595.99933 260 2.7644298e-39
-82.887207 -586.34009 260 2.7647899e-39
-89.958282 -574.09265 260 2.6725943e-39
-89.958282 -574.09265 260 2.1204995e-39
-89.958282 -574.09265 260 2.3041705e-39
-99.617523 -571.50446 260 2.1208596e-39
-97.029358 -561.84515 260 3.0410124e-39
785.00983 -1481.4684 360 1.0693226e-38
775.35059 -1478.8802 360 1.0878699e-38
765.69128 -1476.292 360 1.1521556e-38
751.54919 -1451.7971 350 1.115494e-38
746.3728 -1471.1157 360 1.1524085e-38
729.64246 -1456.28 350 1.2263451e-38
712.91211 -1441.4445 350 1.3093582e-38
710.32391 -1451.1036 350 1.3557431e-38
700.66467 -1448.5155 350 1.4201012e-38
698.07648 -1458.1748 360 1.457122e-38
678.75793 -1452.9984 360 1.5305202e-38
676.1698 -1462.6576 360 1.4846735e-38
666.5105 -1460.0695 360 1.5125124e-38
656.85126 -1457.4813 360 1.5031858e-38
644.60382 -1464.5524 360 1.4663438e-38
637.53271 -1452.3049 360 1.5675779e-38
627.87347 -1449.7167 360 1.5676864e-38
608.55493 -1444.5404 360 1.5769064e-38
596.3075 -1451.6115 360 1.6598471e-38
589.23645 -1439.364 360 1.8070021e-38
571.81262 -1465.7535 360 1.9553426e-38
569.22449 -1475.4128 360 2.0198427e-38
556.97699 -1482.4839 360 2.0199503e-38
542.83484 -1457.989 360 2.1030327e-38
533.1756 -1455.4009 360 2.0754821e-38
525.41101 -1484.3787 370 2.0199862e-38
502.3031 -1416.0703 360 2.1213998e-38
499.7149 -1425.7296 360 2.2224189e-38
492.64386 -1413.4822 360 2.057115e-38
477.80823 -1430.2125 360 2.1397669e-38
463.66608 -1405.7177 360 2.1397669e-38
454.00681 -1403.1294 360 2.2040518e-38
444.34753 -1400.5413 360 2.1673176e-38
432.1001 -1407.6123 360 2.2316024e-38
424.33554 -1436.5901 360 2.1397669e-38
419.85266 -1414.6833 360 2.2040518e-38
405.71051 -1390.1885 360 2.1856847e-38
397.94595 -1419.1663 360 2.2132353e-38
339.29691 -1444.8624 370 2.1856847e-38
328.94418 -1483.4994 370 2.1764652e-38
316.69672 -1490.5706 380 2.1305834e-38
275.52094 -910.13568 290 2.1948682e-38
263.27347 -917.20679 290 2.1765011e-38
253.61423 -914.61859 290 2.1671023e-38
253.61423 -914.61859 290 1.9189313e-38
243.95496 -912.0304 290 2.0842351e-38
234.2957 -909.44226 290 9.5926979e-39
224.63644 -906.85406 290 9.1288387e-39
235.68265 -826.99176 280 9.3125167e-39
226.02339 -824.40363 280 8.5778201e-39
216.36414 -821.81543 280 9.3143132e-39
177.03362 -852.68793 290 2.7684038e-39
181.00876 -760.57819 270 4.2424801e-39
181.00876 -760.57819 270 5.5342797e-39
168.76131 -767.64929 270 7.6533401e-39
161.69023 -755.40186 270 8.9429999e-39
161.69023 -755.40186 270 9.221756e-39
152.03098 -752.81366 270 9.6827244e-39
142.37172 -750.22546 270 1.0234463e-38
139.78354 -759.8847 270 9.9575218e-39
130.12427 -757.29651 270 9.9607462e-39
120.46501 -754.70837 270 1.0233379e-38
120.46501 -754.70837 270 9.4032704e-39
110.80576 -752.12018 270 8.020329e-39
101.1465 -749.53198 270 6.638807e-39
101.1465 -749.53198 270 8.30015e-39
91.487228 -746.94379 270 8.8533322e-39
81.827972 -744.35559 270 8.4816672e-39
81.827972 -744.35559 270 8.4823875e-39
81.827972 -744.35559 270 9.9600343e-39
84.416153 -734.69635 270 1.6316942e-38
79.933258 -712.78967 270 1.3836561e-39
49.568542 -787.47552 280 1.3840219e-39
