# .PCD v0.7 - Point Cloud Data file format
VERSION 0.7
FIELDS x y z rgb
SIZE 4 4 4 4
TYPE F F F F
COUNT 1 1 1 1
WIDTH 1234
HEIGHT 1
VIEWPOINT 0 0 0 1 0 0 0
POINTS 1234
DATA ascii
273.28134 -1305.2006 720 1.3650393e-38
262.29083 -1296.3007 720 1.2730951e-38
262.29083 -1296.3007 720 1.2084145e-38
252.34561 -1297.3459 720 1.060325e-38
241.3551 -1288.446 720 8.8461254e-39
230.36459 -1279.546 710 7.7358023e-39
220.41937 -1280.5913 710 6.7238056e-39
209.42888 -1271.6914 710 6.0806068e-39
199.48366 -1272.7367 710 5.9894817e-39
189.53844 -1273.782 710 5.8954925e-39
179.59323 -1274.8273 710 6.5408535e-39
169.64799 -1275.8726 710 5.7129019e-39
159.70279 -1276.9178 710 5.7146997e-39
149.75757 -1277.9631 710 6.6330547e-39
139.81235 -1279.0084 710 6.8167243e-39
129.86713 -1280.0537 710 5.6192601e-39
120.96719 -1291.0443 710 5.8076114e-39
101.07677 -1293.1349 710 7.2863568e-39
91.131546 -1294.1802 710 8.7636449e-39
82.231613 -1305.1707 720 8.9480432e-39
73.33168 -1316.1611 720 8.5781789e-39
53.441254 -1318.2517 720 9.2210245e-39
43.496033 -1319.297 720 1.0513565e-38
33.550812 -1320.3423 720 1.1896508e-38
23.605591 -1321.3876 720 1.2265299e-38
13.66037 -1322.4329 720 1.1990142e-38
3.7151489 -1323.4781 720 1.1621009e-38
-5.1847839 -1334.4686 720 1.1342974e-38
-15.129974 -1335.514 730 1.0235546e-38
-24.029907 -1346.5045 730 1.0144074e-38
-43.920349 -1348.5951 730 1.0700117e-38
-53.86557 -1349.6404 730 1.1067469e-38
1646.1693 -1643.5475 920 1.1712494e-38
1636.2241 -1644.5928 920 1.1714999e-38
1604.2979 -1627.8383 910 1.1896884e-38
1594.3527 -1628.8835 910 1.2081987e-38
1573.4169 -1621.0289 910 1.2266744e-38
1552.4812 -1613.1743 900 1.2083416e-38
1520.5549 -1596.4197 890 1.2266741e-38
1510.6097 -1597.465 890 1.2452207e-38
1500.6646 -1598.5103 890 1.2176698e-38
1479.7288 -1590.6556 890 1.1530605e-38
1447.8025 -1573.901 880 1.1346213e-38
1426.8668 -1566.0464 880 1.2267086e-38
1403.8405 -1538.3014 860 1.2820276e-38
1395.9858 -1559.2371 870 1.2913194e-38
1375.0502 -1551.3824 870 1.3373082e-38
1364.0597 -1542.4825 860 1.3096489e-38
1355.1597 -1553.473 870 1.2819531e-38
1347.3051 -1574.4087 870 1.2819172e-38
1326.3694 -1566.5541 870 1.3187965e-38
1316.4241 -1567.5994 870 1.3189405e-38
1306.4789 -1568.6447 870 1.3648574e-38
1285.5432 -1560.79 870 1.3189768e-38
1275.5979 -1561.8353 870 1.3557114e-38
1243.6718 -1545.0808 860 1.3650034e-38
1232.6812 -1536.1808 850 1.3098656e-38
1211.7455 -1528.3262 850 1.2635172e-38
1201.8003 -1529.3715 850 1.2359301e-38
1180.8645 -1521.5168 850 1.1252603e-38
1170.9193 -1522.5621 850 1.042393e-38
1162.0194 -1533.5526 850 1.1438075e-38
1140.0383 -1515.7528 840 1.2083795e-38
1107.0669 -1489.053 830 1.2729877e-38
1110.2028 -1518.8887 840 1.2637334e-38
1101.3027 -1529.8792 850 1.3924822e-38
1092.4028 -1540.8696 850 1.337597e-38
1108.6199 -1599.4957 870 1.4665255e-38
1088.7294 -1601.5863 880 1.577016e-38
902.93604 -1460.2327 810 1.429647e-38
894.03613 -1471.2233 810 1.4114249e-38
885.13617 -1482.2137 810 1.3652211e-38
874.14569 -1473.3138 810 1.3559639e-38
853.20996 -1465.4591 810 1.3283774e-38
843.26471 -1466.5044 810 1.3743663e-38
833.31952 -1467.5497 810 1.4294689e-38
812.38379 -1459.6951 800 1.3929145e-38
802.4386 -1460.7404 800 1.4112084e-38
791.44806 -1451.8405 800 1.4019892e-38
771.55762 -1453.931 800 1.3742954e-38
761.61243 -1454.9763 800 1.3835142e-38
750.62189 -1446.0764 800 1.3095428e-38
730.73145 -1448.167 790 1.2264215e-38
719.74097 -1439.2671 790 1.2359284e-38
710.84106 -1450.2576 790 1.3188332e-38
700.89581 -1451.3029 790 1.4297565e-38
678.91479 -1433.5029 790 1.4478371e-38
682.05066 -1463.3386 800 1.3834784e-38
660.06964 -1445.5388 790 1.2913192e-38
650.12439 -1446.5841 790 1.2268179e-38
640.1792 -1447.6294 790 1.2636959e-38
618.19818 -1429.8295 780 1.365219e-38
606.16235 -1410.9844 780 1.3742593e-38
596.21716 -1412.0297 770 1.3741877e-38
586.27197 -1413.075 780 1.4110288e-38
576.32672 -1414.1202 770 1.3281615e-38
555.39099 -1406.2656 770 1.3096503e-38
545.4458 -1407.3109 770 1.4018808e-38
535.50061 -1408.3562 770 1.4296483e-38
525.55536 -1409.4015 770 1.3835868e-38
515.61011 -1410.4468 770 1.3375245e-38
505.66492 -1411.4921 770 1.3281612e-38
486.81976 -1423.5278 770 1.374224e-38
476.87457 -1424.5731 770 1.3374176e-38
466.92932 -1425.6184 770 1.3835143e-38
466.92932 -1425.6184 770 1.3926981e-38
454.89355 -1406.7733 770 1.4202498e-38
443.90302 -1397.8733 760 1.3929867e-38
430.82193 -1369.083 750 1.4386513e-38
418.78613 -1350.2378 740 1.3466372e-38
409.88623 -1361.2284 740 1.3282698e-38
389.99579 -1363.319 740 1.3836229e-38
380.05057 -1364.3643 740 1.5770894e-38
369.06006 -1355.4642 740 1.7057664e-38
360.16013 -1366.4548 740 1.6506646e-38
350.2149 -1367.5001 740 1.6319735e-38
340.26968 -1368.5454 740 1.6414093e-38
332.41504 -1389.4811 750 1.6600279e-38
320.37924 -1370.636 740 1.6415179e-38
307.29816 -1341.8456 730 1.558471e-38
294.21707 -1313.0552 720 1.5124444e-38
293.17178 -1303.11 710 1.4021692e-38
282.18127 -1294.2101 710 1.4295762e-38
272.23605 -1295.2554 710 1.3833369e-38
261.24554 -1286.3555 710 1.3187625e-38
251.30032 -1287.4008 710 1.1063159e-38
241.3551 -1288.446 710 8.2951124e-39
230.36459 -1279.546 700 6.4515473e-39
220.41937 -1280.5913 700 6.6341365e-39
209.42888 -1271.6914 700 7.5553655e-39
200.52895 -1282.682 700 6.6334218e-39
190.58372 -1283.7273 700 5.9905621e-39
179.59323 -1274.8273 700 7.5535564e-39
169.64799 -1275.8726 700 7.9216187e-39
159.70279 -1276.9178 700 7.1837019e-39
149.75757 -1277.9631 700 4.6994632e-39
139.81235 -1279.0084 700 6.5390556e-39
129.86713 -1280.0537 700 7.460656e-39
119.92191 -1281.099 700 8.0174339e-39
101.07677 -1293.1349 700 8.297985e-39
91.131546 -1294.1802 700 9.5923322e-39
82.231613 -1305.1707 700 1.0975641e-38
72.286392 -1306.2159 710 1.2173822e-38
63.386475 -1317.2064 710 1.1807915e-38
53.441254 -1318.2517 710 1.0790529e-38
33.550812 -1320.3423 710 9.4068633e-39
23.605591 -1321.3876 710 1.0051512e-38
13.66037 -1322.4329 710 1.1251493e-38
4.760437 -1333.4233 710 1.153025e-38
-5.1847839 -1334.4686 710 1.1806836e-38
-15.129974 -1335.514 720 1.1437699e-38
-33.975128 -1347.5498 720 1.1344775e-38
-43.920349 -1348.5951 720 1.0883798e-38
-44.965637 -1338.6499 720 1.0421377e-38
1646.1693 -1643.5475 900 1.1439137e-38
1635.1788 -1634.6476 900 1.1899748e-38
1603.2526 -1617.8931 890 1.1805401e-38
1583.3622 -1619.9836 890 1.1989793e-38
1562.4264 -1612.1289 890 1.1990513e-38
1564.517 -1632.0194 900 1.2266741e-38
1530.5001 -1595.3744 880 1.226818e-38
1511.655 -1607.4102 880 1.2635889e-38
1500.6646 -1598.5103 880 1.2912108e-38
1479.7288 -1590.6556 870 1.2451869e-38
1447.8025 -1573.901 870 1.3003231e-38
1426.8668 -1566.0464 860 1.2912825e-38
1405.9312 -1558.1918 860 1.3280894e-38
1395.9858 -1559.2371 860 1.3004312e-38
1384.9954 -1550.3372 860 1.3097568e-38
1378.186 -1581.2181 870 1.3096849e-38
1367.1956 -1572.3181 860 1.263695e-38
1347.3051 -1574.4087 860 1.3371644e-38
1338.4052 -1585.3993 870 1.318869e-38
1327.4146 -1576.4993 860 1.3188682e-38
1307.5242 -1578.5898 860 1.3556737e-38
1286.5885 -1570.7352 860 1.3742212e-38
1276.6433 -1571.7805 860 1.3648946e-38
1254.6622 -1553.9807 850 1.3372006e-38
1232.6812 -1536.1808 840 1.3282692e-38
1212.7908 -1538.2714 840 1.1072152e-38
1201.8003 -1529.3715 840 9.8729058e-39
1180.8645 -1521.5168 830 9.6881586e-39
1160.9741 -1523.6074 830 1.1345507e-38
1151.0288 -1524.6527 830 1.2727724e-38
1140.0383 -1515.7528 830 1.3003227e-38
1108.1121 -1498.9982 820 1.3464211e-38
1110.2028 -1518.8887 830 1.3096865e-38
1101.3027 -1529.8792 830 1.355856e-38
1092.4028 -1540.8696 840 1.3744033e-38
1095.5388 -1570.7053 850 1.4298281e-38
1085.5935 -1571.7506 850 1.5309914e-38
1053.6672 -1554.9961 840 1.6138948e-38
755.40051 -1013.2056 600 1.7615866e-38
745.45532 -1014.2509 600 1.6968706e-38
751.72705 -1073.9221 630 1.5125901e-38
753.81763 -1093.8126 640 1.4572003e-38
743.87244 -1094.8579 640 1.4295412e-38
852.16467 -1455.5139 790 1.3466719e-38
843.26471 -1466.5044 790 1.2819914e-38
821.28369 -1448.7046 790 1.2454001e-38
811.3385 -1449.7499 790 1.3743662e-38
801.39331 -1450.7952 790 1.4666334e-38
780.45752 -1442.9406 780 1.4482676e-38
770.51233 -1443.9858 780 1.448051e-38
761.61243 -1454.9763 790 1.4850025e-38
751.66718 -1456.0216 790 1.45738e-38
730.73145 -1448.167 780 1.4574157e-38
719.74097 -1439.2671 780 1.5307405e-38
710.84106 -1450.2576 780 1.4570201e-38
699.85052 -1441.3577 780 1.3741867e-38
678.91479 -1433.5029 770 1.2452572e-38
670.01489 -1444.4935 780 1.2729866e-38
660.06964 -1445.5388 780 1.3465283e-38
651.16968 -1456.5293 780 1.3835499e-38
640.1792 -1447.6294 780 1.4295401e-38
620.28876 -1449.72 780 1.3282342e-38
607.20764 -1420.9296 770 1.2819209e-38
597.26245 -1421.9749 770 1.2171303e-38
587.31726 -1423.0201 770 1.1156777e-38
576.32672 -1414.1202 760 1.0789435e-38
555.39099 -1406.2656 760 1.1712486e-38
545.4458 -1407.3109 760 1.3649673e-38
535.50061 -1408.3562 760 1.4297206e-38
525.55536 -1409.4015 760 1.4573423e-38
515.61011 -1410.4468 760 1.4665624e-38
505.66492 -1411.4921 760 1.4941852e-38
486.81976 -1423.5278 760 1.4757835e-38
476.87457 -1424.5731 760 1.4851466e-38
466.92932 -1425.6184 760 1.5126973e-38
466.92932 -1425.6184 760 1.4941866e-38
454.89355 -1406.7733 750 1.5217719e-38
442.85773 -1387.9281 750 1.4940065e-38
430.82193 -1369.083 740 1.5034765e-38
419.83142 -1360.1831 730 1.512553e-38
410.93152 -1371.1736 740 1.4941496e-38
389.99579 -1363.319 730 1.5494308e-38
379.00525 -1354.4189 730 1.6046042e-38
369.06006 -1355.4642 730 1.6690329e-38
358.06955 -1346.5643 730 1.6785761e-38
349.16962 -1357.5548 730 1.7244938e-38
337.13382 -1338.7097 720 1.7705919e-38
329.27917 -1359.6454 730 1.7429689e-38
316.19809 -1330.8551 710 1.6505944e-38
313.06223 -1301.0194 700 1.641446e-38
302.07172 -1292.1195 700 1.5770182e-38
292.1265 -1293.1648 700 1.5034418e-38
282.18127 -1294.2101 700 1.4388692e-38
271.19077 -1285.3102 700 1.3927347e-38
261.24554 -1286.3555 690 1.254442e-38
250.25504 -1277.4554 690 9.8714498e-39
240.30981 -1278.5007 690 8.0217639e-39
230.36459 -1279.546 690 6.6395315e-39
219.37408 -1270.6461 690 5.9019693e-39
209.42888 -1271.6914 690 5.9927103e-39
199.48366 -1272.7367 690 5.9927173e-39
189.53844 -1273.782 690 8.5727502e-39
179.59323 -1274.8273 690 9.0286921e-39
169.64799 -1275.8726 690 9.3052804e-39
159.70279 -1276.9178 690 6.8178075e-39
149.75757 -1277.9631 690 8.1982056e-39
139.81235 -1279.0084 690 9.2051562e-39
129.86713 -1280.0537 690 9.4806627e-39
120.96719 -1291.0443 690 8.1964119e-39
101.07677 -1293.1349 690 7.8380747e-39
91.131546 -1294.1802 690 9.7770864e-39
82.231613 -1305.1707 690 1.1344051e-38
72.286392 -1306.2159 700 1.1252942e-38
63.386475 -1317.2064 700 1.1344776e-38
43.496033 -1319.297 700 1.1344052e-38
33.550812 -1320.3423 700 1.1621e-38
23.605591 -1321.3876 700 1.1989072e-38
13.66037 -1322.4329 700 1.0884881e-38
3.7151489 -1323.4781 700 1.0699407e-38
-5.1847839 -1334.4686 700 1.1251491e-38
-15.129974 -1335.514 700 1.2264933e-38
-25.075195 -1336.5593 710 1.1806835e-38
-43.920349 -1348.5951 710 1.1158592e-38
-54.910858 -1339.6952 700 1.0421733e-38
1646.1693 -1643.5475 890 1.1254757e-38
1636.2241 -1644.5928 890 1.1898317e-38
1627.3241 -1655.5834 890 1.1806118e-38
1606.3884 -1647.7286 890 1.2266021e-38
1586.498 -1649.8192 890 1.2452206e-38
1586.498 -1649.8192 890 1.2361812e-38
1542.536 -1614.2196 870 1.2361088e-38
1521.6002 -1606.3649 870 1.2636241e-38
1501.7098 -1608.4554 870 1.2635881e-38
1480.774 -1600.6008 870 1.2820991e-38
1458.7931 -1582.801 860 1.3005019e-38
1437.8573 -1574.9464 850 1.3097584e-38
1416.9216 -1567.0917 850 1.3098294e-38
1406.9764 -1568.137 850 1.2820625e-38
1386.0406 -1560.2823 840 1.2638754e-38
1378.186 -1581.2181 850 1.30965e-38
1368.2408 -1582.2634 850 1.3099006e-38
1347.3051 -1574.4087 850 1.3557114e-38
1337.3599 -1575.454 850 1.3648933e-38
1328.46 -1586.4446 850 1.3370187e-38
1308.5695 -1588.5352 850 1.3741461e-38
1297.579 -1579.6351 850 1.4199935e-38
1276.6433 -1571.7805 850 1.3650001e-38
1255.7075 -1563.9259 840 1.3649648e-38
1233.7266 -1546.1261 830 1.392661e-38
1211.7455 -1528.3262 830 1.2545501e-38
1201.8003 -1529.3715 830 1.1624634e-38
1180.8645 -1521.5168 820 1.1622099e-38
1147.8931 -1494.817 810 1.2083797e-38
1125.912 -1477.0172 800 1.29114e-38
1102.8857 -1449.2721 790 1.2454374e-38
1093.9858 -1460.2627 790 1.3464931e-38
1109.1575 -1508.9435 810 1.3007547e-38
1101.3027 -1529.8792 820 1.3835513e-38
1092.4028 -1540.8696 820 1.3468883e-38
1094.4934 -1560.7601 830 1.4388317e-38
1074.603 -1562.8507 830 1.4664908e-38
1052.6221 -1545.0508 830 1.5032972e-38
755.40051 -1013.2056 600 1.7888504e-38
745.45532 -1014.2509 600 1.641553e-38
736.55542 -1025.2413 600 1.5033686e-38
738.646 -1045.1318 610 1.4851097e-38
729.74603 -1056.1223 610 1.5219521e-38
720.84607 -1067.1128 610 1.4848945e-38
721.89136 -1077.058 620 1.402205e-38
710.90088 -1068.1581 620 1.3652913e-38
700.95569 -1069.2034 610 1.4482317e-38
747.48602 -1416.2407 760 1.5034401e-38
738.58606 -1427.2312 760 1.3554609e-38
729.68616 -1438.2218 770 1.2819551e-38
719.74097 -1439.2671 770 1.2542595e-38
710.84106 -1450.2576 770 1.2820623e-38
699.85052 -1441.3577 770 1.2728065e-38
678.91479 -1433.5029 760 1.3280529e-38
670.01489 -1444.4935 770 1.3188696e-38
659.02435 -1435.5936 760 1.4111004e-38
650.12439 -1446.5841 770 1.4295401e-38
639.13391 -1437.6842 760 1.4571282e-38
618.19818 -1429.8295 760 1.4754584e-38
607.20764 -1420.9296 760 1.4201783e-38
597.26245 -1421.9749 750 1.3556041e-38
587.31726 -1423.0201 750 1.3834067e-38
576.32672 -1414.1202 750 1.392734e-38
555.39099 -1406.2656 750 1.4847515e-38
545.4458 -1407.3109 750 1.4571268e-38
535.50061 -1408.3562 750 1.5033693e-38
524.51007 -1399.4563 740 1.5402114e-38
514.56482 -1400.5016 740 1.6232249e-38
505.66492 -1411.4921 750 1.5680158e-38
486.81976 -1423.5278 750 1.5677998e-38
476.87457 -1424.5731 750 1.5218085e-38
467.97461 -1435.5636 750 1.5125903e-38
469.0199 -1445.5089 760 1.4571639e-38
456.98413 -1426.6637 750 1.4205356e-38
438.13898 -1438.6995 750 1.4112096e-38
427.14847 -1429.7996 750 1.4758544e-38
416.15796 -1420.8997 740 1.494115e-38
405.16745 -1411.9998 740 1.4758192e-38
392.08636 -1383.2094 730 1.5679049e-38
380.05057 -1364.3643 720 1.6325141e-38
369.06006 -1355.4642 720 1.6693921e-38
365.92419 -1325.6287 710 1.7796674e-38
353.88837 -1306.7834 700 1.7797753e-38
340.80728 -1277.9932 690 1.8441681e-38
329.81677 -1269.0931 680 1.788959e-38
319.87158 -1270.1384 680 1.68776e-38
308.88107 -1261.2385 680 1.6415187e-38
299.98114 -1272.229 680 1.5588654e-38
290.03592 -1273.2743 680 1.5400669e-38
280.0907 -1274.3196 680 1.4664558e-38
270.14548 -1275.3649 680 1.3836602e-38
260.20026 -1276.4102 680 1.2730612e-38
250.25504 -1277.4554 680 1.0790176e-38
239.26453 -1268.5555 680 8.4816616e-39
229.31931 -1269.6008 680 6.2667861e-39
219.37408 -1270.6461 670 5.1611644e-39
208.38358 -1261.7462 670 4.7934539e-39
198.43837 -1262.7915 670 5.1629637e-39
189.53844 -1273.782 670 7.9270263e-39
178.54793 -1264.8821 670 8.2032517e-39
169.64799 -1275.8726 670 8.016708e-39
159.70279 -1276.9178 680 7.8297972e-39
149.75757 -1277.9631 680 8.7495899e-39
139.81235 -1279.0084 680 9.7615754e-39
129.86713 -1280.0537 680 9.0247321e-39
119.92191 -1281.099 680 8.2003678e-39
101.07677 -1293.1349 680 7.9299242e-39
91.131546 -1294.1802 680 9.5001366e-39
82.231613 -1305.1707 680 1.1161107e-38
72.286392 -1306.2159 680 1.2357128e-38
62.341171 -1307.2612 690 1.2266384e-38
53.441254 -1318.2517 690 1.1991944e-38
43.496033 -1319.297 690 1.1805755e-38
23.605591 -1321.3876 690 1.1989072e-38
13.66037 -1322.4329 690 1.2173101e-38
3.7151489 -1323.4781 690 1.2174537e-38
-5.1847839 -1334.4686 690 1.2172729e-38
-15.129974 -1335.514 690 1.0791231e-38
-25.075195 -1336.5593 690 1.1066748e-38
-35.020416 -1337.6046 690 1.0792327e-38
-46.010925 -1328.7046 690 1.1253312e-38
1656.1145 -1642.5022 880 1.1714645e-38
1647.2146 -1653.4928 880 1.1806127e-38
1638.3147 -1664.4833 880 1.1624966e-38
1629.4148 -1675.4738 890 1.1899401e-38
1596.4432 -1648.7739 880 1.2082711e-38
1587.5433 -1659.7645 880 1.2912468e-38
1543.5813 -1624.1648 860 1.2544038e-38
1522.6455 -1616.3102 860 1.2635165e-38
1500.6646 -1598.5103 850 1.3004658e-38
1480.774 -1600.6008 850 1.282172e-38
1458.7931 -1582.801 840 1.2726998e-38
1437.8573 -1574.9464 840 1.2821709e-38
1416.9216 -1567.0917 840 1.3005015e-38
1406.9764 -1568.137 830 1.3006822e-38
1386.0406 -1560.2823 830 1.3281611e-38
1388.1312 -1580.1729 840 1.3465635e-38
1379.2313 -1591.1633 840 1.3188319e-38
1359.3408 -1593.2539 840 1.3646772e-38
1349.3956 -1594.2992 840 1.3556358e-38
1339.4504 -1595.3445 840 1.374039e-38
1319.5601 -1597.4351 840 1.3741842e-38
1296.5337 -1569.6899 830 1.3557837e-38
1276.6433 -1571.7805 830 1.3836235e-38
1266.698 -1572.8258 830 1.4203551e-38
1245.7623 -1564.9712 830 1.3742956e-38
1211.7455 -1528.3262 810 1.309615e-38
1201.8003 -1529.3715 810 1.1806134e-38
729.80591 -674.02283 450 1.1530618e-38
730.8512 -683.96808 450 1.2546941e-38
732.94177 -703.85852 460 1.3374169e-38
1109.1575 -1508.9435 800 1.3556405e-38
1101.3027 -1529.8792 810 1.3006829e-38
1090.3123 -1520.9792 810 1.3741868e-38
1069.3766 -1513.1246 800 1.3927697e-38
1048.4409 -1505.27 800 1.3744029e-38
810.35303 -1057.7052 600 1.7337841e-38
789.41736 -1049.8506 600 1.8718263e-38
777.38159 -1031.0054 590 1.8629309e-38
766.39105 -1022.1055 590 1.9179604e-38
755.40051 -1013.2056 590 1.8073247e-38
745.45532 -1014.2509 580 1.7705196e-38
735.51013 -1015.2961 590 1.6508823e-38
725.56488 -1016.3414 590 1.7246023e-38
715.61963 -1017.3867 590 1.6598871e-38
705.67444 -1018.432 590 1.6693216e-38
705.67444 -1018.432 590 1.6047131e-38
695.72925 -1019.4773 590 1.540284e-38
685.784 -1020.5226 590 1.4944016e-38
675.83875 -1021.5679 580 1.5587591e-38
727.59558 -1418.3313 750 1.1527729e-38
717.65039 -1419.3766 750 1.1711753e-38
708.75049 -1430.3671 750 1.1805025e-38
698.80524 -1431.4124 750 1.3280515e-38
689.90527 -1442.403 760 1.3372729e-38
671.06018 -1454.4387 760 1.3925178e-38
660.06964 -1445.5388 750 1.4109565e-38
650.12439 -1446.5841 760 1.4293604e-38
639.13391 -1437.6842 750 1.4202495e-38
618.19818 -1429.8295 750 1.4295045e-38
607.20764 -1420.9296 740 1.4295765e-38
597.26245 -1421.9749 740 1.4294335e-38
587.31726 -1423.0201 740 1.5123734e-38
576.32672 -1414.1202 740 1.494006e-38
555.39099 -1406.2656 740 1.4941149e-38
544.40051 -1397.3657 730 1.4754592e-38
533.40997 -1388.4657 730 1.5216647e-38
522.41949 -1379.5658 720 1.530957e-38
513.51953 -1390.5563 730 1.6231889e-38
504.61963 -1401.5469 730 1.5771616e-38
485.77448 -1413.5826 730 1.5308856e-38
475.82928 -1414.6279 740 1.5032257e-38
466.92932 -1425.6184 740 1.5124446e-38
466.92932 -1425.6184 740 1.4940426e-38
455.93884 -1416.7185 730 1.512588e-38
445.99359 -1417.7638 730 1.5035495e-38
433.95782 -1398.9186 730 1.5126252e-38
421.922 -1380.0735 720 1.4850019e-38
400.98627 -1372.2189 720 1.5308488e-38
389.99579 -1363.319 710 1.5125167e-38
379.00525 -1354.4189 710 1.622934e-38
376.91467 -1334.5286 700 1.6415177e-38
363.83359 -1305.7382 690 1.5954192e-38
351.79779 -1286.8931 680 1.6783591e-38
339.76199 -1268.0479 670 1.7612982e-38
329.81677 -1269.0931 670 1.8628224e-38
318.82626 -1260.1932 670 1.8536764e-38
308.88107 -1261.2385 670 1.7430047e-38
298.93585 -1262.2838 670 1.6228634e-38
288.99063 -1263.3291 670 1.4938268e-38
279.04541 -1264.3744 670 1.4203924e-38
269.10019 -1265.4197 670 1.3650762e-38
259.15497 -1266.465 670 1.3096876e-38
249.20975 -1267.5103 670 1.0421039e-38
239.26453 -1268.5555 670 8.0242904e-39
229.31931 -1269.6008 660 7.6515408e-39
218.3288 -1260.7009 660 8.0196073e-39
208.38358 -1261.7462 660 7.7426589e-39
198.43837 -1262.7915 660 7.2816807e-39
188.49315 -1263.8368 660 7.4646258e-39
179.59323 -1274.8273 660 7.8326881e-39
169.64799 -1275.8726 670 7.7379757e-39
159.70279 -1276.9178 670 8.5691699e-39
149.75757 -1277.9631 670 9.0301439e-39
139.81235 -1279.0084 670 1.08708e-38
129.86713 -1280.0537 670 9.5786359e-39
119.92191 -1281.099 670 8.6606299e-39
111.02199 -1292.0896 670 8.0213939e-39
91.131546 -1294.1802 670 9.3171844e-39
82.231613 -1305.1707 670 1.1344779e-38
72.286392 -1306.2159 680 1.2173462e-38
63.386475 -1317.2064 680 1.2544043e-38
53.441254 -1318.2517 680 1.2452566e-38
42.450745 -1309.3518 680 1.3004303e-38
32.505524 -1310.3971 670 1.2913544e-38
21.515015 -1301.4972 670 1.2635521e-38
11.569794 -1302.5425 670 1.2175259e-38
1.6245728 -1303.5878 670 1.2450409e-38
-8.3206482 -1304.6331 670 1.2634089e-38
-18.265869 -1305.6783 670 1.2819548e-38
-29.256378 -1296.7784 670 1.2634794e-38
-30.301666 -1286.8331 660 1.1991584e-38
-25.582886 -1236.0618 640 1.199087e-38
1646.1693 -1643.5475 860 1.1898677e-38
1635.1788 -1634.6476 860 1.1991595e-38
1626.2788 -1645.6381 860 1.2450768e-38
1618.4242 -1666.5739 870 1.2358579e-38
1597.4885 -1658.7192 870 1.2359658e-38
1587.5433 -1659.7645 870 1.2820991e-38
1566.6075 -1651.9098 860 1.2912831e-38
1534.6813 -1635.1553 850 1.2729519e-38
1501.7098 -1608.4554 840 1.2730593e-38
1479.7288 -1590.6556 830 1.2822429e-38
1447.8025 -1573.901 830 1.282172e-38
1436.812 -1565.0011 820 1.3191223e-38
1416.9216 -1567.0917 820 1.3743295e-38
1406.9764 -1568.137 820 1.3559272e-38
1387.0859 -1570.2275 820 1.3557458e-38
1389.1765 -1590.118 830 1.3741138e-38
1379.2313 -1591.1633 830 1.3281597e-38
1359.3408 -1593.2539 830 1.3559282e-38
1349.3956 -1594.2992 830 1.3650034e-38
1341.541 -1615.2349 840 1.3741494e-38
1319.5601 -1597.4351 830 1.4109188e-38
1297.579 -1579.6351 820 1.4015897e-38
1276.6433 -1571.7805 820 1.4107006e-38
1267.7434 -1582.7711 820 1.3556706e-38
1256.7528 -1573.8711 820 1.1899017e-38
1211.7455 -1528.3262 800 1.0057291e-38
1201.8003 -1529.3715 800 9.8722023e-39
715.6795 -635.28723 430 1.1347309e-38
716.72485 -645.23248 430 1.2452576e-38
717.77014 -655.17767 430 1.2912116e-38
719.86072 -675.06812 440 1.2822083e-38
732.94177 -703.85852 450 1.3098661e-38
1101.3027 -1529.8792 790 1.3097944e-38
897.23187 -1118.9594 630 1.337488e-38
899.32245 -1138.8499 630 1.3650755e-38
890.42249 -1149.8403 640 1.3928074e-38
893.55835 -1179.676 650 1.4483387e-38
880.47729 -1150.8856 640 1.4481966e-38
859.54156 -1143.031 630 1.549395e-38
823.43414 -1086.4956 610 1.6049284e-38
810.35303 -1057.7052 600 1.7244589e-38
788.37207 -1039.9054 590 1.8258731e-38
776.33624 -1021.0602 580 1.8076142e-38
765.3457 -1012.1603 580 1.7984657e-38
755.40051 -1013.2056 580 1.7980711e-38
745.45532 -1014.2509 580 1.8627865e-38
735.51013 -1015.2961 580 1.770952e-38
725.56488 -1016.3414 580 1.7799557e-38
715.61963 -1017.3867 580 1.6971232e-38
705.67444 -1018.432 580 1.7431143e-38
695.72925 -1019.4773 580 1.6415913e-38
684.73871 -1010.5774 570 1.6325508e-38
684.73871 -1010.5774 570 1.5955651e-38
674.79346 -1011.6227 570 1.5497195e-38
663.80298 -1002.7228 570 1.559082e-38
726.55029 -1408.3861 730 1.3007186e-38
716.6051 -1409.4314 730 1.3466362e-38
707.7052 -1420.4219 730 1.2543676e-38
699.85052 -1441.3577 740 1.226709e-38
689.90527 -1442.403 740 1.2544399e-38
666.87903 -1414.6578 730 1.3096507e-38
657.97906 -1425.6483 730 1.3466363e-38
646.98853 -1416.7484 730 1.3833351e-38
627.09814 -1418.839 730 1.4573072e-38
616.1076 -1409.9391 730 1.4940779e-38
606.16235 -1410.9844 730 1.4572711e-38
595.17188 -1402.0845 720 1.4572351e-38
584.1814 -1393.1844 720 1.4938255e-38
563.24561 -1385.3298 720 1.4480518e-38
550.16455 -1356.5396 700 1.4847143e-38
539.17407 -1347.6395 700 1.4849302e-38
529.22882 -1348.6848 700 1.5402121e-38
519.28363 -1349.7301 700 1.6138969e-38
509.33838 -1350.7754 700 1.4940078e-38
500.43848 -1361.766 700 1.3928803e-38
482.63861 -1383.7469 710 1.3470329e-38
473.73868 -1394.7374 720 1.3469246e-38
464.83875 -1405.728 720 1.3930221e-38
464.83875 -1405.728 720 1.4667779e-38
454.89355 -1406.7733 720 1.5217737e-38
444.9483 -1407.8186 720 1.4572722e-38
432.91254 -1388.9734 710 1.4388321e-38
421.922 -1380.0735 710 1.4479093e-38
409.88623 -1361.2284 700 1.4204651e-38
398.89569 -1352.3284 690 1.3835862e-38
385.81461 -1323.5381 680 1.2915695e-38
374.8241 -1314.6381 680 1.3379564e-38
363.83359 -1305.7382 670 1.5867041e-38
351.79779 -1286.8931 670 1.7706649e-38
339.76199 -1268.0479 660 1.8811546e-38
329.81677 -1269.0931 660 1.9363278e-38
319.87158 -1270.1384 660 1.7893546e-38
308.88107 -1261.2385 660 1.678792e-38
299.98114 -1272.229 660 1.622971e-38
290.03592 -1273.2743 660 1.4847493e-38
280.0907 -1274.3196 660 1.411101e-38
270.14548 -1275.3649 660 1.3375257e-38
260.20026 -1276.4102 660 1.2820994e-38
249.20975 -1267.5103 660 1.2541523e-38
239.26453 -1268.5555 660 1.0883074e-38
229.31931 -1269.6008 660 9.1277513e-39
218.3288 -1260.7009 650 6.7335404e-39
208.38358 -1261.7462 650 5.9077216e-39
198.43837 -1262.7915 650 6.2750734e-39
189.53844 -1273.782 650 6.8282472e-39
179.59323 -1274.8273 660 7.3814181e-39
170.6933 -1285.8179 660 7.4761361e-39
160.74808 -1286.8632 660 9.6845152e-39
150.80286 -1287.9084 660 1.0972024e-38
140.85764 -1288.9537 660 1.2260608e-38
130.91241 -1289.999 660 9.9567959e-39
119.92191 -1281.099 660 8.9429915e-39
109.97668 -1282.1443 660 8.0228345e-39
100.03148 -1283.1896 660 9.5926839e-39
80.141037 -1285.2802 660 1.1252578e-38
71.241104 -1296.2708 660 1.1991596e-38
62.341171 -1307.2612 660 1.2451854e-38
53.441254 -1318.2517 670 1.3189059e-38
33.550812 -1320.3423 670 1.2731674e-38
23.605591 -1321.3876 670 1.3372733e-38
13.66037 -1322.4329 670 1.3281256e-38
3.7151489 -1323.4781 670 1.3462768e-38
-6.230072 -1324.5234 670 1.2913191e-38
-16.175293 -1325.5687 670 1.2542955e-38
-18.265869 -1305.6783 660 1.2358212e-38
-29.256378 -1296.7784 660 1.2634787e-38
-30.301666 -1286.8331 650 1.3279451e-38
1646.1693 -1643.5475 850 1.217562e-38
1624.1882 -1625.7477 840 1.1897963e-38
1615.2883 -1636.7382 840 1.2175982e-38
1617.3789 -1656.6287 850 1.2267461e-38
1596.4432 -1648.7739 850 1.2912105e-38
1576.5527 -1650.8645 850 1.28217e-38
1555.6171 -1643.0099 840 1.2545842e-38
1521.6002 -1606.3649 830 1.3187613e-38
1489.674 -1589.6104 820 1.2822059e-38
1467.693 -1571.8104 810 1.3465995e-38
1446.7572 -1563.9558 810 1.3467442e-38
1426.8668 -1566.0464 810 1.3465644e-38
1416.9216 -1567.0917 810 1.3097571e-38
1408.0217 -1578.0823 810 1.3003926e-38
1398.0764 -1579.1276 810 1.2175262e-38
1389.1765 -1590.118 820 1.2359279e-38
1379.2313 -1591.1633 820 1.2726283e-38
1359.3408 -1593.2539 820 1.3836222e-38
1348.3503 -1584.354 810 1.374548e-38
1339.4504 -1595.3445 820 1.4293958e-38
1293.3978 -1539.8544 790 1.4014471e-38
1261.4716 -1523.0997 790 1.4015175e-38
1276.6433 -1571.7805 800 1.4015902e-38
1267.7434 -1582.7711 810 1.3925158e-38
748.651 -661.98706 430 1.2546202e-38
736.61523 -643.14191 420 1.1713943e-38
725.62476 -634.24194 420 1.1255119e-38
715.6795 -635.28723 420 1.1439511e-38
716.72485 -645.23248 430 1.2729873e-38
717.77014 -655.17767 430 1.3006459e-38
719.86072 -675.06812 440 1.3558206e-38
732.94177 -703.85852 450 1.3282345e-38
868.97906 -1041.4883 580 1.3282695e-38
871.06964 -1061.3787 590 1.3467095e-38
872.11499 -1071.3239 600 1.4295778e-38
874.20557 -1091.2144 600 1.5033707e-38
878.38672 -1130.9952 620 1.484931e-38
843.32458 -1084.405 600 1.4759274e-38
830.24353 -1055.6146 590 1.5677985e-38
810.35303 -1057.7052 590 1.6232245e-38
799.36255 -1048.8053 580 1.5956012e-38
787.32678 -1029.9601 580 1.632551e-38
777.38159 -1031.0054 570 1.6600666e-38
766.39105 -1022.1055 570 1.6878321e-38
755.40051 -1013.2056 570 1.7797759e-38
745.45532 -1014.2509 570 1.899881e-38
735.51013 -1015.2961 570 2.010227e-38
724.51959 -1006.3962 570 1.9091379e-38
714.57434 -1007.4415 560 1.8535685e-38
704.62915 -1008.4868 560 1.7798476e-38
693.63867 -999.58691 560 1.7247113e-38
683.69342 -1000.6322 560 1.7336782e-38
673.74817 -1001.6775 560 1.6509541e-38
673.74817 -1001.6775 560 1.6233327e-38
663.80298 -1002.7228 560 1.5680862e-38
654.90308 -1013.7133 560 1.56787e-38
658.03894 -1043.549 580 1.4389053e-38
669.53711 -1152.9463 620 1.3923739e-38
675.80884 -1212.6176 640 1.3648937e-38
697.25226 -1320.9697 690 1.3648604e-38
693.57874 -1381.6863 710 1.4663837e-38
684.67883 -1392.6769 710 1.4295056e-38
674.73364 -1393.7222 710 1.4204651e-38
663.74316 -1384.8221 710 1.4389404e-38
641.76208 -1367.0223 700 1.494187e-38
629.72632 -1348.1771 690 1.5126616e-38
618.73584 -1339.2772 690 1.5403189e-38
607.7453 -1330.3773 690 1.512662e-38
597.80005 -1331.4226 680 1.4663476e-38
577.90967 -1333.5132 680 1.3466729e-38
567.96442 -1334.5585 680 1.2912821e-38
556.97388 -1325.6586 680 1.3835854e-38
547.02869 -1326.7039 680 1.476071e-38
536.03821 -1317.804 680 1.6324445e-38
527.13824 -1328.7944 680 1.5953866e-38
517.19305 -1329.8397 680 1.3835516e-38
508.29309 -1340.8302 680 1.3835872e-38
499.39319 -1351.8207 690 1.4668139e-38
480.54803 -1363.8566 690 1.6143649e-38
471.6481 -1374.847 690 1.5772718e-38
461.70288 -1375.8923 700 1.5586168e-38
462.74817 -1385.8375 700 1.52181e-38
452.80298 -1386.8828 700 1.3742597e-38
441.81244 -1377.9829 700 1.364967e-38
431.86722 -1379.0282 690 1.4018815e-38
420.87671 -1370.1283 690 1.4940426e-38
409.88623 -1361.2284 690 1.5772344e-38
397.8504 -1342.3832 680 1.5677621e-38
385.81461 -1323.5381 670 1.5127324e-38
374.8241 -1314.6381 670 1.5955298e-38
363.83359 -1305.7382 660 1.715204e-38
352.84308 -1296.8383 660 1.8720435e-38
341.8526 -1287.9384 660 2.0012603e-38
330.86206 -1279.0385 650 2.1205747e-38
319.87158 -1270.1384 650 2.0471772e-38
309.92636 -1271.1837 650 1.8997375e-38
299.98114 -1272.229 650 1.6967998e-38
290.03592 -1273.2743 650 1.49397e-38
281.13599 -1284.2649 650 1.3742583e-38
271.19077 -1285.3102 650 1.3097584e-38
261.24554 -1286.3555 650 1.2361815e-38
252.34561 -1297.3459 660 1.4387945e-38
232.45518 -1299.4365 660 1.5769446e-38
222.50996 -1300.4818 660 1.6505582e-38
212.56474 -1301.5271 660 1.5678694e-38
202.61954 -1302.5724 660 1.3838746e-38
192.67432 -1303.6177 660 1.2089899e-38
182.7291 -1304.663 660 1.1997344e-38
171.73859 -1295.7631 660 1.3837665e-38
161.79337 -1296.8083 650 1.5585432e-38
151.84814 -1297.8536 650 1.6506664e-38
141.90292 -1298.8989 650 1.7611214e-38
131.9577 -1299.9442 650 1.687257e-38
122.0125 -1300.9895 650 1.4291441e-38
112.06728 -1302.0348 650 1.0419935e-38
101.07677 -1293.1349 650 8.2997941e-39
91.131546 -1294.1802 650 9.316097e-39
82.231613 -1305.1707 650 1.1528453e-38
73.33168 -1316.1611 660 1.2636601e-38
63.386475 -1317.2064 660 1.3096856e-38
44.541321 -1329.2422 660 1.3189407e-38
35.641388 -1340.2328 660 1.2819929e-38
25.696167 -1341.2781 670 1.3371288e-38
15.750946 -1342.3234 670 1.2912832e-38
-4.1394958 -1344.4139 670 1.3280889e-38
-14.084686 -1345.4592 670 1.3097585e-38
-24.029907 -1346.5045 660 1.3005384e-38
-25.075195 -1336.5593 660 1.346528e-38
-27.165802 -1316.6688 650 1.3465653e-38
-39.201599 -1297.8237 640 1.328089e-38
1656.1145 -1642.5022 830 1.1806846e-38
1624.1882 -1625.7477 820 1.2173479e-38
1604.2979 -1627.8383 820 1.2451135e-38
1605.3431 -1637.7834 830 1.2636248e-38
1585.4528 -1639.874 830 1.3005748e-38
1553.5265 -1623.1195 820 1.2730961e-38
1531.5454 -1605.3196 810 1.3007186e-38
1509.5645 -1587.5198 810 1.2913195e-38
1478.6835 -1580.7104 800 1.3005385e-38
1467.693 -1571.8104 800 1.2820998e-38
1446.7572 -1563.9558 800 1.3004665e-38
1436.812 -1565.0011 800 1.3008258e-38
1417.9669 -1577.037 800 1.4019194e-38
1408.0217 -1578.0823 800 1.3466735e-38
1387.0859 -1570.2275 790 1.3190504e-38
1389.1765 -1590.118 800 1.3557476e-38
1368.2408 -1582.2634 800 1.3284136e-38
1359.3408 -1593.2539 800 1.4202493e-38
1325.324 -1556.6089 790 1.3928077e-38
1047.4553 -1113.2253 610 1.4295414e-38
1048.5007 -1123.1705 610 1.4203564e-38
735.56995 -633.19666 420 1.1714311e-38
725.62476 -634.24194 410 1.1899405e-38
715.6795 -635.28723 420 1.2177784e-38
716.72485 -645.23248 420 1.3189421e-38
716.72485 -645.23248 420 1.245402e-38
718.81543 -665.12292 430 1.2086676e-38
732.94177 -703.85852 440 1.1625714e-38
747.06812 -742.59406 460 1.2271061e-38
870.02435 -1051.4335 580 1.4388692e-38
872.11499 -1071.3239 590 1.4851101e-38
875.25085 -1101.1595 600 1.4849668e-38
878.38672 -1130.9952 610 1.4665638e-38
854.31512 -1093.3049 590 1.4758197e-38
820.29828 -1056.6599 580 1.5312435e-38
810.35303 -1057.7052 580 1.5496822e-38
799.36255 -1048.8053 570 1.5587233e-38
787.32678 -1029.9601 570 1.5675117e-38
777.38159 -1031.0054 570 1.4573444e-38
766.39105 -1022.1055 560 1.5585436e-38
755.40051 -1013.2056 560 1.6509179e-38
745.45532 -1014.2509 560 1.9178171e-38
735.51013 -1015.2961 560 2.0100835e-38
723.4743 -996.45093 550 1.9456917e-38
713.52905 -997.49634 550 1.8446002e-38
703.58386 -998.54163 550 1.7800993e-38
692.59338 -989.6416 550 1.7706997e-38
683.69342 -1000.6322 550 1.7338221e-38
673.74817 -1001.6775 550 1.6693576e-38
673.74817 -1001.6775 550 1.6784694e-38
664.84827 -1012.668 560 1.5955298e-38
655.94836 -1023.6584 560 1.5862025e-38
676.34644 -1122.0653 600 1.5402474e-38
685.75403 -1211.5723 630 1.5585069e-38
688.88995 -1241.408 640 1.402063e-38
681.03528 -1262.3438 650 1.3007908e-38
674.22595 -1293.2246 660 1.3283418e-38
666.37134 -1314.1604 670 1.4206088e-38
656.42609 -1315.2057 670 1.4665628e-38
646.48083 -1316.251 670 1.512445e-38
636.53564 -1317.2963 670 1.4757468e-38
626.59045 -1318.3416 670 1.5401402e-38
616.64526 -1319.3868 670 1.5585801e-38
606.70001 -1320.4321 670 1.5312442e-38
595.70947 -1311.5322 670 1.5495757e-38
575.81909 -1313.6228 670 1.5495397e-38
565.87384 -1314.6681 670 1.5403196e-38
555.92859 -1315.7134 670 1.5402123e-38
545.9834 -1316.7587 670 1.5770542e-38
536.03821 -1317.804 670 1.5955299e-38
527.13824 -1328.7944 670 1.6602094e-38
517.19305 -1329.8397 670 1.6508829e-38
508.29309 -1340.8302 670 1.6785413e-38
499.39319 -1351.8207 680 1.6510279e-38
489.44797 -1352.866 680 1.6599594e-38
470.60281 -1364.9019 680 1.6325528e-38
460.65759 -1365.9471 680 1.6785413e-38
461.70288 -1375.8923 680 1.6325885e-38
451.75766 -1376.9376 680 1.6507749e-38
440.76715 -1368.0377 680 1.5772711e-38
430.82193 -1369.083 680 1.5863461e-38
419.83142 -1360.1831 680 1.558759e-38
408.84091 -1351.2831 670 1.4940054e-38
396.80511 -1332.438 670 1.4386888e-38
385.81461 -1323.5381 660 1.46667e-38
374.8241 -1314.6381 660 1.5958898e-38
364.87891 -1315.6833 660 1.7981797e-38
353.88837 -1306.7834 650 1.8537835e-38
343.94318 -1307.8287 650 1.9825698e-38
332.95267 -1298.9288 650 2.0655449e-38
323.00745 -1299.9741 650 2.1116063e-38
313.06223 -1301.0194 650 1.9640221e-38
294.21707 -1313.0552 650 1.7337476e-38
284.27185 -1314.1005 650 1.5125859e-38
274.32663 -1315.1458 650 1.364896e-38
264.38141 -1316.191 660 1.2725564e-38
254.4362 -1317.2363 650 1.2360725e-38
243.44569 -1308.3364 650 1.3832988e-38
240.30981 -1278.5007 640 1.5584328e-38
229.31931 -1269.6008 640 1.7519728e-38
220.41937 -1280.5913 640 1.844385e-38
201.57423 -1292.6272 640 1.8717938e-38
193.7196 -1313.5629 650 1.4848219e-38
183.77438 -1314.6082 650 1.5126599e-38
173.82916 -1315.6534 650 1.6782521e-38
163.88394 -1316.6987 650 1.8994162e-38
153.93872 -1317.744 650 1.8811564e-38
142.94821 -1308.8441 650 1.6134999e-38
133.00299 -1309.8894 650 1.3273319e-38
123.05779 -1310.9347 650 1.0415976e-38
113.11256 -1311.98 650 8.9437104e-39
94.26741 -1324.0157 650 8.392703e-39
84.322189 -1325.061 650 9.4086514e-39
75.422272 -1336.0516 650 1.1070345e-38
66.522339 -1347.0421 660 1.2452565e-38
47.677185 -1359.0779 660 1.3189422e-38
29.877319 -1381.059 670 1.3466012e-38
20.977417 -1392.0494 670 1.3282336e-38
9.986908 -1383.1495 670 1.337561e-38
7.8963318 -1363.259 660 1.3466362e-38
-3.0941772 -1354.3591 660 1.3742234e-38
-13.039398 -1355.4044 660 1.4111734e-38
-24.029907 -1346.5045 650 1.3653276e-38
-25.075195 -1336.5593 650 1.4294329e-38
-28.21109 -1306.7236 640 1.3652194e-38
-30.301666 -1286.8331 630 1.3650403e-38
1657.1598 -1652.4475 820 1.2084148e-38
1636.2241 -1644.5928 820 1.2635536e-38
1615.2883 -1636.7382 810 1.2267112e-38
1605.3431 -1637.7834 810 1.2177062e-38
1573.4169 -1621.0289 810 1.2728804e-38
1541.4907 -1604.2743 800 1.3099014e-38
1520.5549 -1596.4197 790 1.3097235e-38
1499.6193 -1588.5651 790 1.2636967e-38
1488.6287 -1579.6652 790 1.3004665e-38
1467.693 -1571.8104 780 1.3925891e-38
1446.7572 -1563.9558 780 1.3836228e-38
1426.8668 -1566.0464 780 1.4388318e-38
1416.9216 -1567.0917 780 1.3468881e-38
1408.0217 -1578.0823 780 1.3558563e-38
1398.0764 -1579.1276 780 1.3465282e-38
1401.2123 -1608.9631 800 1.3649311e-38
1380.2766 -1601.1085 790 1.374115e-38
1066.3005 -1101.1895 600 1.3926988e-38
1056.3553 -1102.2347 590 1.429613e-38
1047.4553 -1113.2253 600 1.3743675e-38
1048.5007 -1123.1705 600 1.420465e-38
1038.5554 -1124.2158 600 1.4113891e-38
735.56995 -633.19666 410 1.0701964e-38
725.62476 -634.24194 410 1.0333895e-38
715.6795 -635.28723 410 1.0979975e-38
716.72485 -645.23248 410 1.2454027e-38
716.72485 -645.23248 410 1.337418e-38
718.81543 -665.12292 420 1.4295407e-38
732.94177 -703.85852 440 1.4480168e-38
747.06812 -742.59406 450 1.4664559e-38
870.02435 -1051.4335 570 1.3652204e-38
872.11499 -1071.3239 580 1.3927357e-38
875.25085 -1101.1595 590 1.4023148e-38
878.38672 -1130.9952 600 1.3101555e-38
854.31512 -1093.3049 580 1.1352374e-38
819.25299 -1046.7147 570 1.144491e-38
809.30774 -1047.76 570 1.264166e-38
797.27197 -1028.9148 560 1.3286661e-38
776.33624 -1021.0602 550 1.4481956e-38
776.33624 -1021.0602 550 1.5401393e-38
755.40051 -1013.2056 550 1.5955284e-38
743.36475 -994.36035 540 1.6414823e-38
733.41956 -995.40564 540 1.6691044e-38
734.46484 -1005.351 550 1.7611921e-38
711.43848 -977.60583 540 1.7799192e-38
702.53857 -988.59631 540 1.7984658e-38
702.53857 -988.59631 540 1.7799561e-38
692.59338 -989.6416 540 1.8074339e-38
682.64813 -990.68689 540 1.7891393e-38
672.70288 -991.73218 540 1.7523684e-38
673.74817 -1001.6775 540 1.7800282e-38
664.84827 -1012.668 550 1.7247106e-38
656.99365 -1033.6036 550 1.6138974e-38
677.39172 -1132.0106 590 1.5127695e-38
684.70874 -1201.6271 620 1.4759248e-38
676.85413 -1222.5629 630 1.4759263e-38
679.98999 -1252.3984 640 1.5035854e-38
672.13538 -1273.3342 650 1.5312447e-38
664.28076 -1294.2699 650 1.5589394e-38
654.33551 -1295.3152 650 1.5496471e-38
644.39026 -1296.3605 650 1.5861304e-38
635.49036 -1307.3511 650 1.5769814e-38
626.59045 -1318.3416 660 1.5036227e-38
616.64526 -1319.3868 660 1.5036576e-38
606.70001 -1320.4321 660 1.5037297e-38
596.75476 -1321.4774 660 1.5496476e-38
576.86438 -1323.568 660 1.5495033e-38
566.91913 -1324.6133 660 1.5402843e-38
556.97388 -1325.6586 660 1.6138979e-38
547.02869 -1326.7039 660 1.6047496e-38
537.0835 -1327.7491 660 1.6323726e-38
527.13824 -1328.7944 660 1.6049289e-38
518.23834 -1339.7849 660 1.6327317e-38
508.29309 -1340.8302 660 1.715601e-38
499.39319 -1351.8207 660 1.7063457e-38
489.44797 -1352.866 670 1.6970548e-38
469.55753 -1354.9565 670 1.6326247e-38
460.65759 -1365.9471 670 1.6325162e-38
460.65759 -1365.9471 670 1.5863106e-38
450.71237 -1366.9924 670 1.5402476e-38
439.72186 -1358.0924 660 1.4758548e-38
428.73135 -1349.1925 660 1.4571287e-38
417.74084 -1340.2926 660 1.4573079e-38
406.75034 -1331.3927 660 1.5032966e-38
395.75983 -1322.4928 650 1.5035844e-38
385.81461 -1323.5381 650 1.5769092e-38
375.86938 -1324.5834 650 1.6047488e-38
364.87891 -1315.6833 650 1.6415544e-38
354.93365 -1316.7286 650 1.660209e-38
344.98846 -1317.7739 650 1.7706278e-38
333.99796 -1308.874 650 1.9088129e-38
324.05273 -1309.9193 640 1.9270385e-38
304.16229 -1312.0099 640 1.8444918e-38
295.26236 -1323.0005 650 1.7983581e-38
286.36243 -1333.991 650 1.7060562e-38
276.41721 -1335.0363 650 1.5956011e-38
258.61737 -1357.0172 660 1.4848578e-38
249.71744 -1368.0078 660 1.3191591e-38
239.77222 -1369.0531 660 1.3834793e-38
235.59105 -1329.2722 650 1.4753861e-38
224.60054 -1320.3722 650 1.5949893e-38
214.65533 -1321.4175 640 1.6782522e-38
203.66483 -1312.5176 640 1.8256938e-38
193.7196 -1313.5629 640 1.9270379e-38
183.77438 -1314.6082 640 1.7245316e-38
173.82916 -1315.6534 640 1.7337502e-38
163.88394 -1316.6987 640 1.7428619e-38
153.93872 -1317.744 640 1.8444937e-38
143.9935 -1318.7893 640 1.8907347e-38
134.04829 -1319.8346 640 1.8359206e-38
124.10307 -1320.8799 640 1.8178046e-38
104.21263 -1322.9705 640 1.707602e-38
95.312698 -1333.9611 640 1.7170367e-38
85.367477 -1335.0063 640 1.8183427e-38
76.46756 -1345.9968 650 1.9469124e-38
57.622406 -1358.0326 650 2.1030327e-38
39.82254 -1380.0137 660 2.1489505e-38
30.922638 -1391.0042 660 2.158134e-38
20.977417 -1392.0494 660 2.1673176e-38
9.986908 -1383.1495 660 2.2224189e-38
-1.0036011 -1374.2495 650 2.2683366e-38
-2.0488892 -1364.3043 650 2.2683366e-38
-11.99411 -1365.3496 650 2.2040518e-38
-22.984619 -1356.4497 650 2.1948682e-38
-33.975128 -1347.5498 640 2.1948682e-38
-37.110992 -1317.7141 630 2.1122163e-38
-30.301666 -1286.8331 620 2.0753386e-38
1657.1598 -1652.4475 810 1.2083433e-38
1636.2241 -1644.5928 800 1.2266743e-38
1615.2883 -1636.7382 800 1.2818832e-38
1594.3527 -1628.8835 800 1.2636968e-38
1550.3906 -1593.2838 780 1.3004312e-38
1529.4548 -1585.4292 780 1.2823518e-38
1518.4644 -1576.5293 780 1.3926623e-38
1498.574 -1578.6199 770 1.3651472e-38
1477.6382 -1570.7651 770 1.3469596e-38
1456.7025 -1562.9105 770 1.3836586e-38
1446.7572 -1563.9558 770 1.4020622e-38
1425.8215 -1556.1012 760 1.3189051e-38
1415.8763 -1557.1465 760 1.2911748e-38
1408.0217 -1578.0823 770 1.2543331e-38
1399.1217 -1589.0728 770 1.2546192e-38
1425.2839 -1646.6534 800 1.365004e-38
1041.1836 -1053.554 570 1.319122e-38
1043.2742 -1073.4445 580 1.4111012e-38
1044.3196 -1083.3896 580 1.3744036e-38
1034.3743 -1084.4349 580 1.4204646e-38
1025.4744 -1095.4254 580 1.411174e-38
1026.5198 -1105.3706 590 1.4387969e-38
1016.5745 -1106.4159 580 1.374546e-38
735.56995 -633.19666 400 1.3375254e-38
725.62476 -634.24194 400 1.3284856e-38
715.6795 -635.28723 400 1.3926261e-38
715.6795 -635.28723 400 1.3280184e-38
716.72485 -645.23248 410 1.2913567e-38
717.77014 -655.17767 410 1.2730609e-38
720.90601 -685.01337 420 1.2551251e-38
735.03235 -723.7489 440 1.3377063e-38
859.03387 -1042.5336 550 1.4297213e-38
860.07916 -1052.4788 560 1.448232e-38
863.21503 -1082.3145 570 1.4758541e-38
864.26031 -1092.2596 580 1.4666348e-38
829.19824 -1045.6694 560 1.4852179e-38
806.17188 -1017.9243 550 1.5217368e-38
807.21716 -1027.8695 550 1.4666e-38
797.27197 -1028.9148 550 1.4942216e-38
787.32678 -1029.9601 550 1.5677618e-38
779.47217 -1050.8959 560 1.5217367e-38
780.51746 -1060.8411 560 1.5586856e-38
755.40051 -1013.2056 540 1.6044611e-38
721.38373 -976.56055 530 1.7151312e-38
710.39319 -967.66064 520 1.7704484e-38
701.49329 -978.65112 530 1.8349844e-38
701.49329 -978.65112 530 1.816654e-38
691.5481 -979.69641 530 1.9179241e-38
682.64813 -990.68689 530 1.8721874e-38
672.70288 -991.73218 530 1.8721518e-38
673.74817 -1001.6775 540 1.7989346e-38
665.89355 -1022.6132 540 1.8077945e-38
670.07471 -1062.394 560 1.7156358e-38
680.52759 -1161.8462 590 1.531244e-38
686.79932 -1221.5176 610 1.5310991e-38
690.98053 -1261.2985 630 1.4848936e-38
681.03528 -1262.3438 630 1.5681219e-38
675.27124 -1303.1698 640 1.5496118e-38
666.37134 -1314.1604 650 1.5403919e-38
657.47137 -1325.1509 650 1.5404635e-38
647.52612 -1326.1962 650 1.5495037e-38
637.58093 -1327.2415 650 1.5403915e-38
627.63574 -1328.2867 650 1.549504e-38
617.69055 -1329.332 650 1.5496841e-38
607.7453 -1330.3773 650 1.5496487e-38
597.80005 -1331.4226 650 1.5954582e-38
587.85486 -1332.4679 650 1.577306e-38
569.0097 -1344.5037 650 1.6234403e-38
559.06445 -1345.549 650 1.6417365e-38
549.11926 -1346.5942 650 1.7062364e-38
539.17407 -1347.6395 650 1.70631e-38
529.22882 -1348.6848 650 1.7155643e-38
519.28363 -1349.7301 650 1.7706663e-38
509.33838 -1350.7754 650 1.7340749e-38
499.39319 -1351.8207 650 1.7615534e-38
489.44797 -1352.866 650 1.6876184e-38
469.55753 -1354.9565 650 1.6875465e-38
459.6123 -1356.0018 650 1.6874031e-38
459.6123 -1356.0018 660 1.6874027e-38
449.66708 -1357.0471 660 1.6416629e-38
439.72186 -1358.0924 650 1.6321915e-38
429.77664 -1359.1378 650 1.6139695e-38
418.78613 -1350.2378 650 1.5313527e-38
407.79562 -1341.3379 650 1.5956022e-38
397.8504 -1342.3832 650 1.6142923e-38
387.90521 -1343.4285 650 1.6325176e-38
368.01477 -1345.519 650 1.6603548e-38
358.06955 -1346.5643 650 1.7248551e-38
348.12433 -1347.6096 650 1.8079394e-38
338.17911 -1348.6549 650 1.9005283e-38
327.1886 -1339.755 650 2.1213998e-38
316.19809 -1330.8551 640 2.2958873e-38
306.25287 -1331.9004 640 2.3509886e-38
297.35294 -1342.8909 640 2.3509886e-38
287.40771 -1343.9362 640 2.3509886e-38
277.46249 -1344.9814 640 2.3509886e-38
258.61737 -1357.0172 650 2.3509886e-38
248.67213 -1358.0625 650 2.3509886e-38
238.72693 -1359.1078 650 2.3505222e-38
235.59105 -1329.2722 640 2.1934333e-38
224.60054 -1320.3722 630 1.9715211e-38
214.65533 -1321.4175 630 1.7224085e-38
204.71011 -1322.4628 630 1.5194691e-38
194.76489 -1323.5081 630 1.2800821e-38
183.77438 -1314.6082 630 1.1052698e-38
173.82916 -1315.6534 630 9.7644719e-39
163.88394 -1316.6987 630 9.0283516e-39
153.93872 -1317.744 630 8.0174423e-39
143.9935 -1318.7893 630 7.64938e-39
134.04829 -1319.8346 630 7.3760175e-39
124.10307 -1320.8799 630 7.1927137e-39
104.21263 -1322.9705 630 7.2856254e-39
95.312698 -1333.9611 630 6.9175743e-39
85.367477 -1335.0063 630 7.010486e-39
67.567627 -1356.9873 640 7.0104846e-39
59.712982 -1377.9231 650 7.1023271e-39
41.913116 -1399.9041 650 6.7342691e-39
31.967926 -1400.9493 650 7.1023285e-39
22.022705 -1401.9946 650 7.0101315e-39
11.032196 -1393.0947 650 7.2849205e-39
0.041687012 -1384.1948 650 7.1019712e-39
-8.8582458 -1395.1853 650 7.1016097e-39
-19.848755 -1386.2854 650 6.8268108e-39
-29.793976 -1387.3307 650 6.8250172e-39
-32.92984 -1357.495 640 6.6395525e-39
-43.920349 -1348.5951 630 6.6384777e-39
-47.056213 -1318.7594 620 6.455513e-39
1657.1598 -1652.4475 790 1.2543331e-38
1636.2241 -1644.5928 790 1.2451855e-38
1603.2526 -1617.8931 780 1.2453289e-38
1548.3 -1573.3934 760 1.2636241e-38
1526.319 -1555.5935 760 1.2729873e-38
1516.3738 -1556.6388 750 1.3282339e-38
1496.4834 -1558.7294 750 1.3191217e-38
1486.5381 -1559.7747 760 1.3559637e-38
1476.5929 -1560.8199 750 1.3375261e-38
1456.7025 -1562.9105 750 1.3282699e-38
1434.7214 -1545.1107 750 1.2822436e-38
1413.7858 -1537.2561 740 1.3467086e-38
1393.8953 -1539.3467 740 1.3374175e-38
1395.9858 -1559.2371 750 1.3186553e-38
1398.0764 -1579.1276 760 1.2451846e-38
1062.1194 -1061.4086 560 1.3005012e-38
1052.1742 -1062.4539 560 1.3466362e-38
1043.2742 -1073.4445 560 1.3468157e-38
1043.2742 -1073.4445 570 1.4019184e-38
1034.3743 -1084.4349 570 1.4202859e-38
1024.4291 -1085.4802 570 1.4111385e-38
1015.5292 -1096.4707 570 1.4019903e-38
1005.584 -1097.516 570 1.3835147e-38
725.62476 -634.24194 400 1.2730958e-38
725.62476 -634.24194 400 1.3189073e-38
715.6795 -635.28723 400 1.3466359e-38
715.6795 -635.28723 400 1.3282339e-38
705.73431 -636.33252 400 1.4019184e-38
694.74377 -627.43262 400 1.4205009e-38
683.7533 -618.53271 390 1.4113182e-38
684.79858 -628.47791 400 1.4021701e-38
696.83435 -647.32306 400 1.4664542e-38
699.97021 -677.15869 410 1.439012e-38
846.99805 -1023.6884 540 1.4480531e-38
875.25085 -1101.1595 570 1.4480889e-38
891.46777 -1159.7855 590 1.4759627e-38
775.82861 -920.56274 500 1.4849299e-38
777.91919 -940.45312 510 1.5035854e-38
769.01923 -951.44373 510 1.4940784e-38
772.15509 -981.2793 520 1.5125173e-38
775.29095 -1011.115 530 1.5585429e-38
777.38159 -1031.0054 540 1.503406e-38
780.51746 -1060.8411 550 1.531028e-38
755.40051 -1013.2056 530 1.5678697e-38
746.50061 -1024.196 540 1.5489631e-38
708.30261 -947.77014 510 1.3827584e-38
709.3479 -957.71545 510 1.2070472e-38
700.448 -968.70593 520 8.9383224e-39
691.5481 -979.69641 520 7.9234446e-39
691.5481 -979.69641 520 9.4907605e-39
681.60284 -980.7417 520 1.419453e-38
672.70288 -991.73218 520 1.8071436e-38
674.79346 -1011.6227 530 1.9275757e-38
665.89355 -1022.6132 530 1.9180696e-38
685.2464 -1111.0748 570 1.8260186e-38
693.6087 -1190.6366 590 1.7707008e-38
699.88043 -1250.3079 620 1.7245662e-38
695.16168 -1301.0792 630 1.6511702e-38
685.21643 -1302.1245 630 1.6602461e-38
677.36182 -1323.0603 640 1.6324438e-38
668.46191 -1334.0508 640 1.5864534e-38
659.56195 -1345.0413 650 1.5680128e-38
649.6167 -1346.0865 650 1.6047495e-38
640.7168 -1357.0771 650 1.5681589e-38
631.81689 -1368.0676 660 1.6232256e-38
620.82642 -1359.1677 650 1.6232609e-38
609.83588 -1350.2677 650 1.6326597e-38
599.89062 -1351.3131 650 1.6877969e-38
589.94543 -1352.3584 650 1.7061657e-38
570.05499 -1354.449 650 1.7155284e-38
560.10974 -1355.4943 650 1.678579e-38
550.16455 -1356.5396 650 1.6876897e-38
540.21936 -1357.5848 650 1.7152416e-38
530.27411 -1358.6301 650 1.7336444e-38
520.32892 -1359.6754 650 1.7155289e-38
509.33838 -1350.7754 650 1.7431159e-38
