# .PCD v0.7 - Point Cloud Data file format
VERSION 0.7
FIELDS x y z rgb
SIZE 4 4 4 4
TYPE F F F F
COUNT 1 1 1 1
WIDTH 1205
HEIGHT 1
VIEWPOINT 0 0 0 1 0 0 0
POINTS 1205
DATA ascii
514.98505 -1452.9487 -170 2.1201366e-39
498.25476 -1467.7844 -170 2.8576974e-39
486.00729 -1460.7134 -170 4.0569566e-39
473.75983 -1453.6422 -170 4.8863628e-39
458.92419 -1436.912 -160 5.6250096e-39
456.336 -1427.2527 -160 6.2711049e-39
444.08856 -1420.1816 -160 6.8246388e-39
424.77002 -1425.358 -160 7.1005096e-39
415.11078 -1427.9462 -160 7.7455147e-39
402.86334 -1420.8751 -160 7.653689e-39
393.20407 -1423.4634 -160 8.2986927e-39
383.5448 -1426.0515 -160 8.760024e-39
371.29736 -1418.9805 -150 9.1280988e-39
359.0499 -1411.9094 -150 8.9458712e-39
349.39066 -1414.4976 -150 8.9469586e-39
339.73138 -1417.0858 -150 9.2228294e-39
327.48395 -1410.0148 -150 9.3153964e-39
324.89575 -1400.3555 -150 9.4083053e-39
312.64828 -1393.2844 -150 9.6845446e-39
300.40085 -1386.2134 -140 1.0238076e-38
288.15338 -1379.1423 -140 9.8696646e-39
281.08234 -1391.3898 -140 9.9625777e-39
268.83487 -1384.3187 -140 1.0423553e-38
256.58743 -1377.2477 -140 1.0885614e-38
246.92816 -1379.8358 -140 1.1623911e-38
237.26892 -1382.4241 -140 1.2729528e-38
227.60965 -1385.0122 -140 1.3007212e-38
215.36221 -1377.9412 -140 1.3100493e-38
212.77402 -1368.2819 -130 1.3834459e-38
203.11475 -1370.8701 -130 1.4387985e-38
190.86731 -1363.7991 -130 1.5218812e-38
178.61984 -1356.7279 -130 1.5677645e-38
168.96059 -1359.3162 -130 1.5954238e-38
161.88953 -1371.5636 -130 1.5860248e-38
145.15921 -1386.3993 -130 1.5127715e-38
147.05388 -1354.8333 -130 1.5218456e-38
132.91176 -1379.3282 -130 1.5032278e-38
113.59325 -1384.5046 -130 1.3838051e-38
121.17194 -1258.2407 -110 1.3468545e-38
114.10088 -1270.4882 -110 1.3468901e-38
1428.4534 -959.71887 -130 1.5647978e-39
1416.2059 -952.64783 -120 1.6566333e-39
1291.8367 -913.50317 -110 3.9582688e-39
1282.1775 -916.09137 -110 3.5905695e-39
1272.5182 -918.67957 -110 2.6704223e-39
1262.8589 -921.26776 -110 1.7495492e-39
1253.1997 -923.85596 -110 1.4729637e-39
1255.7878 -933.51526 -110 1.2889339e-39
1246.1287 -936.10339 -110 1.2889339e-39
1236.4694 -938.69165 -110 1.3804079e-39
1253.8932 -965.08118 -120 1.1967383e-39
1246.8221 -977.32861 -120 1.1967383e-39
1237.1628 -979.91687 -120 1.1963782e-39
1230.0918 -992.16431 -120 1.0127072e-39
1252.6921 -1037.8723 -130 1.1045441e-39
1243.0327 -1040.4606 -130 1.2889311e-39
1179.2073 -995.44604 -120 1.3804093e-39
1169.5481 -998.03418 -120 1.3811268e-39
1276.6793 -1166.0309 -160 1.3807694e-39
1299.2795 -1211.739 -170 1.4729623e-39
935.45947 -781.23358 -60 1.2889339e-39
925.80017 -783.82178 -60 1.2885738e-39
923.21198 -774.16248 -60 1.1967411e-39
913.55273 -776.75067 -60 9.2159476e-40
903.89349 -779.33887 -60 8.2976487e-40
894.23425 -781.92706 -60 7.3793078e-40
894.23425 -781.92706 -60 4.6170122e-40
887.16315 -794.17456 -60 3.6914405e-40
848.71204 -959.76892 -90 8.3012501e-40
841.64099 -972.01636 -100 8.3012921e-40
829.39349 -964.94531 -90 8.3085088e-40
819.73425 -967.53357 -90 9.2268638e-40
819.73425 -967.53357 -90 9.2304511e-40
813.35669 -1021.0062 -100 9.2268778e-40
846.30975 -1105.3513 -130 1.0145233e-39
834.06226 -1098.2803 -120 9.2304651e-40
806.97919 -1074.4789 -120 1.0145219e-39
797.31995 -1077.0671 -110 1.0148834e-39
790.2489 -1089.3146 -120 1.0148806e-39
697.63153 -1207.3062 -140 5.5317518e-40
685.38409 -1200.2351 -140 4.6134109e-40
675.72485 -1202.8234 -140 6.4501348e-40
566.3772 -1335.6506 -160 8.2940474e-40
556.7179 -1338.2388 -160 7.3720911e-40
542.57581 -1362.7338 -160 7.3756644e-40
541.37463 -1435.5249 -180 7.3756364e-40
534.30359 -1447.7723 -180 1.1059874e-39
524.64429 -1450.3606 -180 1.2903787e-39
507.914 -1465.1962 -180 2.1201366e-39
498.25476 -1467.7844 -180 2.9506105e-39
486.00729 -1460.7134 -180 4.4243014e-39
471.17163 -1443.983 -180 4.7945245e-39
458.92419 -1436.912 -170 5.7157633e-39
456.336 -1427.2527 -170 6.2696658e-39
444.08856 -1420.1816 -170 6.9157596e-39
424.77002 -1425.358 -170 7.2841862e-39
415.11078 -1427.9462 -170 7.5607633e-39
402.86334 -1420.8751 -170 7.7458875e-39
393.20407 -1423.4634 -170 8.3001318e-39
383.5448 -1426.0515 -170 8.7600324e-39
371.29736 -1418.9805 -160 9.0373451e-39
359.0499 -1411.9094 -160 9.2228252e-39
351.97885 -1424.1569 -160 9.8667611e-39
339.73138 -1417.0858 -160 9.7781682e-39
327.48395 -1410.0148 -160 1.0052966e-38
324.89575 -1400.3555 -160 1.0513941e-38
305.57724 -1405.5319 -160 1.0607586e-38
295.91797 -1408.1201 -160 1.0700137e-38
293.32977 -1398.4608 -160 1.0792698e-38
274.01126 -1403.6372 -160 1.1159324e-38
274.01126 -1403.6372 -160 1.143915e-38
261.76382 -1396.5662 -150 1.1899049e-38
249.51636 -1389.4951 -150 1.2086316e-38
237.26892 -1382.4241 -150 1.291285e-38
227.60965 -1385.0122 -150 1.3097963e-38
217.95041 -1387.6005 -150 1.3373471e-38
205.70294 -1380.5293 -150 1.3373844e-38
196.04369 -1383.1176 -150 1.3375995e-38
193.45551 -1373.4583 -140 1.3835172e-38
183.79623 -1376.0465 -140 1.4112118e-38
171.54878 -1368.9755 -140 1.4387267e-38
161.88953 -1371.5636 -140 1.4296869e-38
154.81847 -1383.811 -140 1.3928081e-38
139.98282 -1367.0807 -140 1.4112124e-38
132.91176 -1379.3282 -140 1.4294717e-38
123.2525 -1381.9164 -140 1.3744766e-38
113.59325 -1384.5046 -140 1.3376357e-38
98.757599 -1367.7743 -140 1.3558581e-38
96.169403 -1358.115 -130 1.2915015e-38
86.510147 -1360.7032 -130 1.2637715e-38
72.368027 -1385.1981 -140 1.2912855e-38
1438.1127 -957.13074 -140 1.564439e-39
1418.7941 -962.30713 -140 1.564795e-39
1403.9585 -945.57678 -130 1.7488261e-39
1291.8367 -913.50317 -120 3.8657144e-39
1282.1775 -916.09137 -120 3.7742405e-39
1272.5182 -918.67957 -120 3.0377614e-39
1262.8589 -921.26776 -120 1.8417448e-39
1250.6116 -914.19672 -120 1.3811282e-39
1253.1997 -923.85596 -120 1.3811282e-39
1246.1287 -936.10339 -120 1.380768e-39
1236.4694 -938.69165 -120 1.1967411e-39
1241.6458 -958.01013 -130 1.1970984e-39
1244.2339 -967.66931 -130 1.1967383e-39
1208.1851 -987.6814 -130 1.0130673e-39
1201.114 -999.92883 -130 1.1049014e-39
1179.2073 -995.44604 -130 1.1967383e-39
1166.96 -988.37488 -130 1.0130687e-39
1281.8557 -1185.3494 -180 1.2892913e-39
935.45947 -781.23358 -70 1.380768e-39
935.45947 -781.23358 -70 1.0130687e-39
925.80017 -783.82178 -70 1.0134275e-39
916.14093 -786.40997 -70 1.0134303e-39
906.48169 -788.99817 -70 9.219605e-40
896.82245 -791.58636 -70 7.3792938e-40
894.23425 -781.92706 -70 5.5353812e-40
887.16315 -794.17456 -70 3.6878532e-40
875.10162 -942.34509 -100 1.2885752e-39
873.20691 -973.91113 -110 1.2892941e-39
840.94745 -930.79114 -100 1.0134345e-39
846.12384 -950.10974 -100 8.3012781e-40
836.4646 -952.69788 -100 7.3829512e-40
826.8053 -955.28613 -100 8.3084948e-40
831.98169 -974.60461 -100 8.3120961e-40
822.32245 -977.19275 -100 8.3085088e-40
820.4278 -1008.7588 -110 8.3084948e-40
813.35669 -1021.0062 -110 9.2304511e-40
783.68542 -987.54553 -100 1.0148792e-39
697.63153 -1207.3062 -150 5.5317658e-40
685.38409 -1200.2351 -150 6.4501348e-40
582.92163 -1165.5734 -130 5.5353952e-40
570.67413 -1158.5023 -130 5.5318079e-40
575.3429 -1291.8372 -160 5.5317798e-40
561.20081 -1316.3322 -170 7.3756924e-40
554.12976 -1328.5796 -170 5.5317658e-40
546.55103 -1454.8434 -190 6.4608968e-40
539.47998 -1467.0908 -200 1.1063476e-39
520.16144 -1472.2672 -200 1.1985446e-39
510.5022 -1474.8555 -200 2.0283025e-39
500.84296 -1477.4436 -200 3.0420928e-39
488.59549 -1470.3726 -200 4.3324673e-39
473.75983 -1453.6422 -190 4.9778423e-39
458.92419 -1436.912 -190 5.8072443e-39
446.67676 -1429.8409 -180 6.2693042e-39
437.01749 -1432.4291 -180 6.8228423e-39
424.77002 -1425.358 -180 7.1001537e-39
415.11078 -1427.9462 -180 7.8366369e-39
402.86334 -1420.8751 -180 7.8377159e-39
393.20407 -1423.4634 -180 8.297978e-39
383.5448 -1426.0515 -180 8.7589646e-39
371.29736 -1418.9805 -180 9.313209e-39
359.0499 -1411.9094 -170 9.3164614e-39
349.39066 -1414.4976 -170 1.023735e-38
339.73138 -1417.0858 -170 1.0514667e-38
327.48395 -1410.0148 -170 1.0793406e-38
324.89575 -1400.3555 -170 1.0976369e-38
305.57724 -1405.5319 -170 1.0794495e-38
295.91797 -1408.1201 -170 1.1254753e-38
293.32977 -1398.4608 -170 1.1346955e-38
283.67053 -1401.049 -170 1.1806857e-38
271.42307 -1393.9779 -160 1.1809015e-38
259.17563 -1386.9069 -160 1.2269638e-38
249.51636 -1389.4951 -160 1.2362909e-38
237.26892 -1382.4241 -160 1.3005775e-38
227.60965 -1385.0122 -160 1.2914304e-38
217.95041 -1387.6005 -160 1.3559297e-38
205.70294 -1380.5293 -160 1.3193396e-38
196.04369 -1383.1176 -160 1.4018834e-38
193.45551 -1373.4583 -160 1.4111758e-38
183.79623 -1376.0465 -160 1.3744785e-38
174.13698 -1378.6346 -160 1.4019921e-38
154.81847 -1383.811 -160 1.3284871e-38
154.81847 -1383.811 -160 1.3010087e-38
142.57101 -1376.74 -150 1.3191962e-38
132.91176 -1379.3282 -150 1.3191967e-38
120.66431 -1372.2571 -150 1.2731347e-38
118.07611 -1362.5979 -150 1.3096896e-38
105.82866 -1355.5269 -150 1.3006139e-38
96.169403 -1358.115 -150 1.3098684e-38
93.581207 -1348.4558 -140 1.2452602e-38
72.368027 -1385.1981 -150 1.3004334e-38
1440.7008 -966.78992 -150 1.5647978e-39
1418.7941 -962.30713 -150 1.5644362e-39
1394.2992 -948.16492 -140 1.5651565e-39
1382.0518 -941.09387 -140 1.8410217e-39
1289.2485 -903.84393 -130 3.6813274e-39
1279.5892 -906.43213 -130 3.4980165e-39
1269.9299 -909.02032 -130 2.9462833e-39
1260.2708 -911.60852 -130 1.933939e-39
1250.6116 -914.19672 -130 1.4729651e-39
1243.5404 -926.44415 -130 1.3811268e-39
1246.1287 -936.10339 -130 1.2889311e-39
1236.4694 -938.69165 -130 1.197097e-39
1253.8932 -965.08118 -140 1.1967369e-39
1244.2339 -967.66931 -140 1.1963796e-39
1193.3495 -970.95105 -140 1.0127086e-39
1188.8666 -992.85779 -140 1.1045441e-39
1176.6191 -985.78674 -140 1.01271e-39
1166.96 -988.37488 -140 1.0127072e-39
965.13074 -814.69421 -90 1.1967397e-39
940.63586 -800.55206 -80 1.01271e-39
925.80017 -783.82178 -80 8.29039e-40
916.14093 -786.40997 -70 6.4537081e-40
906.48169 -788.99817 -70 7.3792938e-40
896.82245 -791.58636 -70 7.3793218e-40
896.82245 -791.58636 -70 5.5353812e-40
887.16315 -794.17456 -70 3.6878672e-40
877.50391 -796.76276 -70 2.7658829e-40
897.0083 -946.828 -110 1.2882137e-39
875.10162 -942.34509 -110 1.3804107e-39
862.85419 -935.27405 -110 1.3807722e-39
865.44238 -944.93335 -110 1.1970999e-39
846.12384 -950.10974 -110 9.219605e-40
833.8764 -943.03857 -110 8.3084808e-40
849.40558 -1000.9941 -120 8.3085088e-40
791.45001 -1016.5233 -120 1.0145205e-39
818.02551 -1154.3412 -150 9.2268778e-40
810.95447 -1166.5886 -160 1.0152463e-39
695.04333 -1197.647 -160 5.5317518e-40
685.38409 -1200.2351 -160 5.5317518e-40
666.75909 -1246.6367 -170 7.3865245e-40
580.33337 -1155.9141 -140 5.5353952e-40
570.67413 -1158.5023 -140 4.6134529e-40
572.7547 -1282.178 -170 6.4501488e-40
565.68365 -1294.4254 -170 5.5317798e-40
546.36511 -1299.6018 -170 4.6133968e-40
539.29407 -1311.8492 -170 5.5317658e-40
549.13922 -1464.5027 -210 6.4537221e-40
542.06818 -1476.7501 -210 1.1063476e-39
522.74963 -1481.9265 -210 1.3822142e-39
510.5022 -1474.8555 -210 2.3956458e-39
503.43115 -1487.1029 -210 3.0428047e-39
493.77188 -1489.691 -210 4.3321058e-39
473.75983 -1453.6422 -200 5.1618679e-39
458.92419 -1436.912 -200 5.4402512e-39
446.67676 -1429.8409 -200 6.0852773e-39
437.01749 -1432.4291 -190 6.7306439e-39
424.77002 -1425.358 -190 7.1005124e-39
415.11078 -1427.9462 -190 7.376742e-39
405.45154 -1430.5344 -190 7.7469552e-39
395.79227 -1433.1226 -190 8.4820106e-39
383.5448 -1426.0515 -190 8.7600366e-39
371.29736 -1418.9805 -190 9.4057801e-39
359.0499 -1411.9094 -190 1.0145507e-38
349.39066 -1414.4976 -190 1.0515024e-38
339.73138 -1417.0858 -180 1.0977806e-38
327.48395 -1410.0148 -180 1.0979612e-38
324.89575 -1400.3555 -180 1.162139e-38
305.57724 -1405.5319 -180 1.171645e-38
302.98904 -1395.8726 -180 1.1718263e-38
293.32977 -1398.4608 -180 1.2544062e-38
283.67053 -1401.049 -180 1.2084532e-38
271.42307 -1393.9779 -180 1.2362193e-38
259.17563 -1386.9069 -170 1.2546586e-38
249.51636 -1389.4951 -170 1.2914651e-38
237.26892 -1382.4241 -170 1.3559658e-38
227.60965 -1385.0122 -170 1.3467832e-38
217.95041 -1387.6005 -170 1.3376348e-38
205.70294 -1380.5293 -170 1.3283429e-38
196.04369 -1383.1176 -170 1.3189073e-38
183.79623 -1376.0465 -170 1.3372024e-38
183.79623 -1376.0465 -170 1.3742248e-38
174.13698 -1378.6346 -170 1.3743692e-38
154.81847 -1383.811 -170 1.4204667e-38
154.81847 -1383.811 -170 1.3745492e-38
142.57101 -1376.74 -160 1.3283792e-38
132.91176 -1379.3282 -160 1.3191241e-38
120.66431 -1372.2571 -160 1.337348e-38
108.41685 -1365.186 -160 1.3005415e-38
108.41685 -1365.186 -160 1.2546239e-38
96.169403 -1358.115 -160 1.3097965e-38
86.510147 -1360.7032 -160 1.2728468e-38
72.368027 -1385.1981 -160 1.2544435e-38
1438.1127 -957.13074 -160 1.564439e-39
1416.2059 -952.64783 -150 1.4726021e-39
1391.7109 -938.50574 -150 1.6566319e-39
1382.0518 -941.09387 -150 1.8403043e-39
1360.145 -936.61108 -150 2.0246899e-39
1350.4857 -939.19922 -150 2.3009181e-39
1338.2383 -932.12817 -140 2.7611731e-39
1289.2485 -903.84393 -130 3.6820462e-39
1279.5892 -906.43213 -130 3.8660746e-39
1269.9299 -909.02032 -130 2.9462861e-39
1260.2708 -911.60852 -130 2.0257731e-39
1250.6116 -914.19672 -130 1.3811268e-39
1253.1997 -923.85596 -140 1.197097e-39
1246.1287 -936.10339 -140 1.197097e-39
1248.7168 -945.7627 -140 1.197097e-39
1256.4814 -974.74048 -150 1.197097e-39
1249.4104 -986.98792 -150 1.1049014e-39
1186.2783 -983.19849 -150 1.0123485e-39
1176.6191 -985.78674 -150 9.2051436e-40
1164.3717 -978.7157 -140 1.0127072e-39
1142.465 -974.23279 -140 1.0127072e-39
1162.4771 -1010.2816 -150 1.1049028e-39
989.62567 -828.8363 -100 1.1052616e-39
974.78998 -812.10602 -90 1.1963782e-39
965.13074 -814.69421 -90 1.1967383e-39
952.8833 -807.62311 -90 1.0134275e-39
930.97656 -803.14026 -90 8.301194e-40
918.72913 -796.06921 -80 7.3865105e-40
918.72913 -796.06921 -80 5.5497865e-40
906.48169 -788.99817 -80 5.5389685e-40
896.82245 -791.58636 -80 4.6098235e-40
887.16315 -794.17456 -80 3.6878392e-40
877.50391 -796.76276 -80 3.6842379e-40
896.31482 -905.60272 -110 1.1049042e-39
889.24371 -917.85022 -110 1.0134261e-39
891.83191 -927.50946 -110 1.1967397e-39
884.76086 -939.75696 -120 1.1967397e-39
875.10162 -942.34509 -120 1.1049056e-39
865.44238 -944.93335 -120 1.288578e-39
865.44238 -944.93335 -120 1.105263e-39
855.78308 -947.52148 -120 9.2159757e-40
846.12384 -950.10974 -120 8.3012501e-40
831.28821 -933.37939 -110 8.3048654e-40
821.62891 -935.96753 -110 8.3085088e-40
890.12317 -1114.317 -160 8.3085088e-40
883.05206 -1126.5645 -160 9.2268778e-40
839.93219 -1158.824 -170 1.0145247e-39
830.27295 -1161.4122 -170 1.0141659e-39
820.61371 -1164.0004 -170 9.2304791e-40
813.5426 -1176.2478 -170 7.3937412e-40
811.64795 -1207.8138 -180 9.2268778e-40
716.25653 -1160.9045 -160 8.2976768e-40
711.77368 -1182.8113 -160 5.5353812e-40
704.70264 -1195.0587 -170 5.5317798e-40
697.63153 -1207.3062 -170 4.6097955e-40
687.97229 -1209.8944 -170 5.5317658e-40
678.31299 -1212.4825 -170 5.5353812e-40
668.65381 -1215.0708 -170 8.2976347e-40
666.75909 -1246.6367 -180 7.3829091e-40
657.09985 -1249.225 -180 8.3049075e-40
599.65192 -1150.7377 -150 9.230423e-40
589.99268 -1153.3259 -150 7.3865385e-40
580.33337 -1155.9141 -150 5.5426119e-40
568.08594 -1148.843 -150 4.6170402e-40
570.1665 -1272.5187 -180 5.5353391e-40
563.09546 -1284.7661 -180 6.4501208e-40
556.02441 -1297.0135 -180 5.5353391e-40
536.70587 -1302.1899 -180 6.4501068e-40
527.04663 -1304.7782 -180 6.4537081e-40
517.38739 -1307.3663 -180 1.0141533e-39
522.74963 -1481.9265 -220 1.1981859e-39
513.09039 -1484.5148 -220 2.0282983e-39
506.01935 -1496.7622 -230 2.9498958e-39
458.92419 -1436.912 -210 5.3491444e-39
456.336 -1427.2527 -210 6.1781946e-39
444.08856 -1420.1816 -200 6.5487708e-39
424.77002 -1425.358 -200 6.9164757e-39
412.52258 -1418.287 -200 7.2845422e-39
405.45154 -1430.5344 -200 7.8369985e-39
395.79227 -1433.1226 -200 8.3898135e-39
386.133 -1435.7108 -200 8.8526008e-39
371.29736 -1418.9805 -200 9.4068577e-39
361.63809 -1421.5687 -200 9.9636469e-39
351.97885 -1424.1569 -200 1.0885613e-38
339.73138 -1417.0858 -200 1.1255117e-38
327.48395 -1410.0148 -190 1.1623545e-38
315.23648 -1402.9437 -190 1.1807579e-38
305.57724 -1405.5319 -190 1.1899054e-38
295.91797 -1408.1201 -190 1.2453662e-38
283.67053 -1401.049 -190 1.2546226e-38
283.67053 -1401.049 -190 1.3097596e-38
271.42307 -1393.9779 -190 1.2639136e-38
261.76382 -1396.5662 -190 1.2729893e-38
249.51636 -1389.4951 -180 1.2545157e-38
239.85712 -1392.0833 -180 1.2916086e-38
230.19785 -1394.6715 -180 1.2732423e-38
217.95041 -1387.6005 -180 1.2916094e-38
208.29114 -1390.1886 -180 1.3836236e-38
196.04369 -1383.1176 -180 1.3743334e-38
186.38443 -1385.7057 -180 1.3652938e-38
183.79623 -1376.0465 -180 1.4112121e-38
164.47772 -1381.2229 -180 1.383517e-38
164.47772 -1381.2229 -180 1.3744401e-38
154.81847 -1383.811 -180 1.3835875e-38
142.57101 -1376.74 -170 1.3191955e-38
132.91176 -1379.3282 -170 1.3189444e-38
120.66431 -1372.2571 -170 1.2637345e-38
108.41685 -1365.186 -170 1.2546225e-38
105.82866 -1355.5269 -170 1.2360045e-38
96.169403 -1358.115 -170 1.2636626e-38
86.510147 -1360.7032 -170 1.226893e-38
72.368027 -1385.1981 -170 1.1990911e-38
1428.4534 -959.71887 -170 1.3811268e-39
1416.2059 -952.64783 -160 1.4722448e-39
1382.0518 -941.09387 -160 1.8403043e-39
1360.145 -936.61108 -160 2.1161695e-39
1350.4857 -939.19922 -160 2.3005579e-39
1338.2383 -932.12817 -150 2.5767847e-39
1313.7434 -917.98602 -150 2.9452057e-39
1291.8367 -913.50317 -150 3.0377558e-39
1282.1775 -916.09137 -150 3.4058181e-39
1269.9299 -909.02032 -140 2.8537317e-39
1260.2708 -911.60852 -140 2.025057e-39
1250.6116 -914.19672 -140 1.4729637e-39
1253.1997 -923.85596 -150 1.3811268e-39
1246.1287 -936.10339 -150 1.3807666e-39
1248.7168 -945.7627 -150 1.1967369e-39
1256.4814 -974.74048 -160 1.1967397e-39
1183.6902 -973.53931 -160 9.2015563e-40
1164.3717 -978.7157 -150 8.290362e-40
1154.7124 -981.30383 -150 9.2051436e-40
1107.6173 -921.45367 -140 1.1045441e-39
974.78998 -812.10602 -100 1.0130673e-39
940.63586 -800.55206 -100 9.2087309e-40
928.38837 -793.48102 -90 9.2159616e-40
918.72913 -796.06921 -90 8.3048374e-40
909.06989 -798.65741 -90 8.3048514e-40
906.48169 -788.99817 -90 7.3792938e-40
896.82245 -791.58636 -90 5.5353952e-40
889.75134 -803.8338 -90 4.6097955e-40
880.0921 -806.422 -90 3.6878532e-40
880.0921 -806.422 -90 3.6842239e-40
870.43286 -809.01019 -90 3.6842379e-40
898.90302 -915.26202 -120 1.1049028e-39
898.90302 -915.26202 -120 1.1049042e-39
889.24371 -917.85022 -120 1.0130659e-39
884.76086 -939.75696 -120 9.2123183e-40
875.10162 -942.34509 -130 1.105263e-39
862.85419 -935.27405 -120 1.105263e-39
862.85419 -935.27405 -120 1.0130687e-39
853.19489 -937.86218 -120 8.2940194e-40
846.12384 -950.10974 -130 7.3828951e-40
819.04077 -926.30829 -120 9.2232904e-40
892.71136 -1123.9763 -170 9.2268638e-40
885.64026 -1136.2238 -170 9.2232764e-40
878.56921 -1148.4712 -180 9.2268638e-40
868.90997 -1151.0594 -180 9.2304931e-40
861.83893 -1163.3069 -180 9.2304791e-40
852.17963 -1165.895 -180 9.2268778e-40
842.52039 -1168.4833 -180 9.2268638e-40
830.27295 -1161.4122 -180 8.3085368e-40
823.2019 -1173.6597 -180 9.2268918e-40
810.95447 -1166.5886 -180 9.2268638e-40
811.64795 -1207.8138 -190 1.0152407e-39
716.25653 -1160.9045 -170 6.4609528e-40
704.70264 -1195.0587 -180 3.6914686e-40
697.63153 -1207.3062 -180 5.5281785e-40
687.97229 -1209.8944 -180 4.6098095e-40
680.90125 -1222.1418 -180 6.4537221e-40
671.24194 -1224.73 -180 7.3756924e-40
664.1709 -1236.9774 -180 7.3793358e-40
657.09985 -1249.225 -190 8.3084668e-40
599.65192 -1150.7377 -160 9.2304511e-40
589.99268 -1153.3259 -160 1.0148792e-39
580.33337 -1155.9141 -160 8.3084808e-40
568.08594 -1148.843 -160 7.3793218e-40
561.01489 -1161.0905 -160 5.5317938e-40
567.57837 -1262.8594 -180 4.6133968e-40
563.09546 -1284.7661 -190 5.5281785e-40
556.02441 -1297.0135 -190 5.5353531e-40
527.04663 -1304.7782 -190 8.2976207e-40
517.38739 -1307.3663 -190 1.0145121e-39
510.31628 -1319.6138 -190 1.1067077e-39
436.32397 -1391.2039 -210 6.7306537e-39
426.6647 -1393.792 -210 6.915761e-39
417.00546 -1396.3802 -210 7.3763777e-39
404.758 -1389.3092 -210 7.7448e-39
393.20407 -1423.4634 -210 8.2068544e-39
386.133 -1435.7108 -220 8.761124e-39
371.29736 -1418.9805 -210 9.6845278e-39
361.63809 -1421.5687 -210 1.0701209e-38
351.97885 -1424.1569 -210 1.1253318e-38
342.31958 -1426.7451 -210 1.1531711e-38
330.07214 -1419.674 -210 1.1531001e-38
320.41287 -1422.2622 -210 1.2084522e-38
308.16544 -1415.1912 -210 1.2175284e-38
298.50616 -1417.7793 -200 1.2177448e-38
286.25873 -1410.7083 -200 1.2360397e-38
276.59946 -1413.2965 -200 1.2821725e-38
264.35202 -1406.2253 -200 1.309724e-38
254.69275 -1408.8136 -200 1.2914288e-38
242.44531 -1401.7426 -200 1.3283068e-38
232.78604 -1404.3307 -200 1.3281992e-38
223.12679 -1406.9189 -200 1.3558584e-38
220.53859 -1397.2596 -190 1.3559299e-38
208.29114 -1390.1886 -190 1.3560016e-38
196.04369 -1383.1176 -190 1.4018836e-38
186.38443 -1385.7057 -190 1.3744773e-38
183.79623 -1376.0465 -190 1.3927728e-38
164.47772 -1381.2229 -190 1.3835528e-38
154.81847 -1383.811 -190 1.3743682e-38
154.81847 -1383.811 -190 1.3928433e-38
142.57101 -1376.74 -180 1.3373834e-38
132.91176 -1379.3282 -180 1.3004699e-38
120.66431 -1372.2571 -180 1.2727742e-38
118.07611 -1362.5979 -180 1.3004322e-38
105.82866 -1355.5269 -180 1.2360749e-38
96.169403 -1358.115 -180 1.2361476e-38
83.921951 -1351.0439 -180 1.2176003e-38
72.368027 -1385.1981 -180 1.162463e-38
1438.1127 -957.13074 -180 1.5647992e-39
1416.2059 -952.64783 -180 1.564439e-39
1382.0518 -941.09387 -170 1.8399441e-39
1360.145 -936.61108 -170 2.1161695e-39
1347.8976 -929.53992 -160 2.3001978e-39
1325.9908 -925.05713 -160 2.4849478e-39
1304.0842 -920.57422 -160 2.8526513e-39
1289.2485 -903.84393 -150 3.2214296e-39
1282.1775 -916.09137 -150 3.4058181e-39
1269.9299 -909.02032 -150 2.7622549e-39
1260.2708 -911.60852 -150 2.2094455e-39
1250.6116 -914.19672 -150 1.4729637e-39
1253.1997 -923.85596 -160 1.2889339e-39
1246.1287 -936.10339 -160 1.105263e-39
1251.3049 -955.42188 -160 1.1049028e-39
1259.0696 -984.39966 -170 1.1967355e-39
1246.8221 -977.32861 -170 1.1045441e-39
1117.2766 -918.86548 -140 9.2051156e-40
1070.875 -900.24048 -140 9.2051156e-40
974.78998 -812.10602 -110 1.0127058e-39
952.8833 -807.62311 -110 1.0130659e-39
940.63586 -800.55206 -100 1.0127128e-39
930.97656 -803.14026 -100 9.2159616e-40
918.72913 -796.06921 -100 8.3048514e-40
918.72913 -796.06921 -100 8.3084527e-40
906.48169 -788.99817 -100 8.2940754e-40
899.41064 -801.24561 -100 6.4573375e-40
889.75134 -803.8338 -100 3.6950559e-40
889.75134 -803.8338 -100 3.6878252e-40
880.0921 -806.422 -100 3.6878252e-40
873.02106 -818.66943 -100 1.8475279e-40
903.38586 -893.35529 -120 7.372021e-40
898.90302 -915.26202 -130 1.1049028e-39
898.90302 -915.26202 -130 1.0130673e-39
876.99628 -910.77911 -130 1.0127086e-39
879.58447 -920.43842 -130 9.2087169e-40
875.10162 -942.34509 -130 1.0134261e-39
857.6778 -915.95551 -130 9.2087029e-40
853.19489 -937.86218 -130 1.1045441e-39
855.78308 -947.52148 -130 8.290418e-40
848.71204 -959.76892 -140 6.4609528e-40
856.47662 -988.7467 -140 6.4609668e-40
892.71136 -1123.9763 -180 8.3085228e-40
888.22845 -1145.8831 -190 8.3085088e-40
878.56921 -1148.4712 -190 1.0145219e-39
868.90997 -1151.0594 -190 8.3120961e-40
861.83893 -1163.3069 -190 1.014882e-39
852.17963 -1165.895 -190 9.2304791e-40
845.10858 -1178.1425 -190 9.2304511e-40
832.86115 -1171.0714 -190 8.3121241e-40
823.2019 -1173.6597 -190 8.3120961e-40
813.5426 -1176.2478 -190 1.0145233e-39
809.05975 -1198.1545 -190 9.2304791e-40
801.98865 -1210.402 -200 8.3121382e-40
718.84473 -1170.5638 -180 6.4609528e-40
711.77368 -1182.8113 -180 4.6170262e-40
702.11438 -1185.3994 -190 5.5281645e-40
697.63153 -1207.3062 -190 3.6914405e-40
685.38409 -1200.2351 -190 5.5281645e-40
680.90125 -1222.1418 -190 5.5353531e-40
671.24194 -1224.73 -190 6.4573375e-40
664.1709 -1236.9774 -190 8.2977048e-40
654.5116 -1239.5657 -190 7.3865525e-40
647.44055 -1251.8131 -200 9.2268778e-40
637.78131 -1254.4014 -200 9.2304651e-40
628.12207 -1256.9895 -200 1.0141645e-39
597.06372 -1141.0784 -170 1.0148792e-39
587.40448 -1143.6666 -170 9.2268638e-40
577.74524 -1146.2548 -170 1.014882e-39
568.08594 -1148.843 -170 9.2304371e-40
558.4267 -1151.4312 -170 8.3012921e-40
546.36511 -1299.6018 -200 6.4537361e-40
510.31628 -1319.6138 -210 1.1059902e-39
490.30426 -1283.5649 -190 3.1342843e-39
478.05682 -1276.4939 -190 4.3328261e-39
424.07651 -1384.1328 -220 6.4569493e-39
419.59363 -1406.0396 -220 7.2838247e-39
404.758 -1389.3092 -220 7.5611277e-39
393.89758 -1464.6886 -230 8.0239121e-39
386.82654 -1476.936 -240 9.2228224e-39
371.29736 -1418.9805 -220 9.9622091e-39
359.0499 -1411.9094 -220 1.0791632e-38
346.80246 -1404.8384 -220 1.1715731e-38
344.21426 -1395.1791 -210 1.1899412e-38
334.55499 -1397.7673 -210 1.1991966e-38
319.71936 -1381.037 -210 1.2176355e-38
315.23648 -1402.9437 -210 1.2083807e-38
295.91797 -1408.1201 -210 1.2545503e-38
291.43512 -1430.0267 -220 1.2544064e-38
281.77585 -1432.615 -220 1.2821019e-38
269.52841 -1425.5439 -220 1.3189447e-38
252.79808 -1440.3795 -220 1.318908e-38
240.55063 -1433.3085 -220 1.3283068e-38
230.89137 -1435.8967 -220 1.2916092e-38
221.23212 -1438.4849 -220 1.3375266e-38
208.98466 -1431.4138 -210 1.3375262e-38
203.80827 -1412.0953 -210 1.3560019e-38
201.22008 -1402.436 -200 1.3742613e-38
188.97263 -1395.365 -200 1.3558218e-38
176.72517 -1388.2939 -200 1.3834808e-38
164.47772 -1381.2229 -200 1.3834801e-38
154.81847 -1383.811 -200 1.3190874e-38
145.15921 -1386.3993 -200 1.3557847e-38
142.57101 -1376.74 -200 1.3464222e-38
125.8407 -1391.5757 -200 1.2820665e-38
123.2525 -1381.9164 -200 1.2635906e-38
111.00505 -1374.8453 -190 1.263411e-38
105.82866 -1355.5269 -190 1.2544427e-38
96.169403 -1358.115 -190 1.2360742e-38
86.510147 -1360.7032 -190 1.1991605e-38
72.368027 -1385.1981 -190 1.1439162e-38
1440.7008 -966.78992 -190 1.380768e-39
1428.4534 -959.71887 -190 1.4726021e-39
1382.0518 -941.09387 -180 1.8403043e-39
1360.145 -936.61108 -180 2.0243326e-39
1347.8976 -929.53992 -170 2.0246941e-39
1325.9908 -925.05713 -170 2.3009195e-39
1301.496 -910.91498 -170 2.4853065e-39
1289.2485 -903.84393 -160 3.0370426e-39
1282.1775 -916.09137 -160 3.4058195e-39
1267.3418 -899.36102 -160 2.7618962e-39
1257.6826 -901.94922 -160 1.9335803e-39
1248.0233 -904.53741 -160 1.4729651e-39
1243.5404 -926.44415 -160 1.2892913e-39
1243.5404 -926.44415 -170 1.2889325e-39
1251.3049 -955.42188 -170 1.2889339e-39
1271.317 -991.4707 -180 1.0130659e-39
1259.0696 -984.39966 -180 1.1049028e-39
1121.7594 -896.95874 -150 9.2051436e-40
1114.6884 -909.20618 -150 8.2867887e-40
1099.8528 -892.47589 -150 8.2867606e-40
1090.1935 -895.06409 -150 8.2867747e-40
1097.958 -924.04187 -150 8.2867747e-40
1068.2867 -890.58124 -140 8.2867606e-40
1061.2157 -902.82867 -150 8.290362e-40
962.54254 -805.03491 -110 9.2123043e-40
952.8833 -807.62311 -110 9.2087309e-40
940.63586 -800.55206 -110 9.2123183e-40
940.63586 -800.55206 -110 9.2123743e-40
918.72913 -796.06921 -110 8.3012641e-40
918.72913 -796.06921 -110 9.2268077e-40
899.41064 -801.24561 -110 6.4572954e-40
889.75134 -803.8338 -110 4.6098095e-40
889.75134 -803.8338 -110 3.6914265e-40
880.0921 -806.422 -110 3.6842379e-40
870.43286 -809.01019 -110 3.6878252e-40
873.02106 -818.66943 -110 4.6097815e-40
883.37384 -857.30646 -120 6.4500647e-40
896.31482 -905.60272 -130 9.2087169e-40
864.0553 -862.48285 -120 9.2051436e-40
866.64349 -872.14209 -120 8.2867887e-40
879.58447 -920.43842 -140 8.29039e-40
875.10162 -942.34509 -140 9.2087169e-40
817.65369 -843.85785 -110 1.0127072e-39
853.19489 -937.86218 -140 9.2123323e-40
855.78308 -947.52148 -140 7.3720631e-40
866.13586 -986.15857 -150 8.2976627e-40
897.19421 -1102.0696 -190 7.3829792e-40
892.71136 -1123.9763 -190 9.2268497e-40
888.22845 -1145.8831 -200 9.2232484e-40
878.56921 -1148.4712 -200 7.3937412e-40
868.90997 -1151.0594 -200 8.3085228e-40
861.83893 -1163.3069 -200 9.2304791e-40
852.17963 -1165.895 -200 8.3121101e-40
845.10858 -1178.1425 -200 9.2268497e-40
832.86115 -1171.0714 -200 1.014882e-39
823.2019 -1173.6597 -200 9.2269058e-40
816.13086 -1185.9071 -200 8.3085088e-40
809.05975 -1198.1545 -200 9.2340664e-40
799.40051 -1200.7428 -210 1.0152463e-39
792.32947 -1212.9902 -210 1.0152449e-39
716.25653 -1160.9045 -190 6.4573655e-40
706.59729 -1163.4928 -190 5.5317798e-40
699.52625 -1175.7402 -190 4.6098375e-40
692.45514 -1187.9877 -200 5.5281785e-40
682.7959 -1190.5758 -200 4.6098235e-40
675.72485 -1202.8234 -200 5.5317658e-40
668.65381 -1215.0708 -200 6.4537501e-40
661.5827 -1227.3182 -200 8.3012921e-40
658.99451 -1217.6589 -200 8.3049215e-40
642.26416 -1232.4946 -200 9.2268778e-40
637.08777 -1213.1761 -200 9.2304371e-40
609.31116 -1148.1495 -180 1.0145205e-39
597.06372 -1141.0784 -170 1.0148834e-39
587.40448 -1143.6666 -180 1.0155995e-39
575.15698 -1136.5956 -170 1.0152421e-39
568.08594 -1148.843 -180 1.1074364e-39
558.4267 -1151.4312 -180 9.2232624e-40
548.76746 -1154.0194 -180 8.3012361e-40
548.95337 -1309.261 -220 7.3720911e-40
519.97559 -1317.0256 -220 7.3792798e-40
510.31628 -1319.6138 -220 1.0141533e-39
492.89246 -1293.2242 -210 1.9361068e-39
483.23322 -1295.8124 -210 3.0417285e-39
480.64502 -1286.1532 -210 4.0566035e-39
465.80939 -1269.4229 -200 4.7952504e-39
456.84363 -1313.2363 -210 5.7164934e-39
447.18439 -1315.8245 -210 6.1789121e-39
430.63995 -1485.9017 -250 6.8235668e-39
413.21613 -1459.5122 -250 7.2838247e-39
406.14505 -1471.7596 -250 7.5611305e-39
396.48578 -1474.3478 -250 8.6667634e-39
382.34366 -1498.8428 -250 9.5001282e-39
377.16727 -1479.5242 -250 1.0332069e-38
364.91983 -1472.4531 -250 1.116221e-38
350.08417 -1455.7228 -240 1.1809022e-38
342.31958 -1426.7451 -230 1.1625337e-38
332.66034 -1429.3333 -230 1.1624993e-38
320.41287 -1422.2622 -230 1.2083087e-38
310.75363 -1424.8503 -230 1.2543708e-38
268.83487 -1384.3187 -220 1.2821388e-38
257.28094 -1418.4729 -230 1.3098675e-38
250.20988 -1430.7203 -230 1.3008282e-38
230.89137 -1435.8967 -230 1.3558939e-38
221.23212 -1438.4849 -230 1.3559646e-38
214.16106 -1450.7323 -230 1.3559292e-38
201.9136 -1443.6613 -230 1.3558942e-38
192.25433 -1446.2495 -230 1.3560731e-38
182.59509 -1448.8376 -230 1.3742257e-38
170.34764 -1441.7666 -220 1.3649342e-38
160.68839 -1444.3549 -220 1.3097606e-38
151.02911 -1446.943 -230 1.355606e-38
138.08815 -1398.6467 -210 1.263591e-38
121.35783 -1413.4823 -210 1.2452591e-38
118.76964 -1403.8231 -210 1.2544065e-38
111.00505 -1374.8453 -200 1.2450432e-38
105.82866 -1355.5269 -200 1.2450072e-38
96.169403 -1358.115 -200 1.1713949e-38
83.921951 -1351.0439 -200 1.1898331e-38
72.368027 -1385.1981 -200 1.1713228e-38
1438.1127 -957.13074 -200 1.4726021e-39
1418.7941 -962.30713 -200 1.3804093e-39
1382.0518 -941.09387 -190 1.6562731e-39
1360.145 -936.61108 -180 1.9324985e-39
1347.8976 -929.53992 -180 2.2083637e-39
1323.4026 -915.39783 -180 2.3009153e-39
1301.496 -910.91498 -170 2.7608144e-39
1289.2485 -903.84393 -170 2.8533702e-39
1279.5892 -906.43213 -170 3.2214324e-39
1269.9299 -909.02032 -170 2.854089e-39
1260.2708 -911.60852 -170 2.025413e-39
1250.6116 -914.19672 -170 1.5647992e-39
1253.1997 -923.85596 -180 1.5647992e-39
1243.5404 -926.44415 -180 1.4729637e-39
1248.7168 -945.7627 -180 1.3804093e-39
1261.6577 -994.05896 -190 1.1049028e-39
1112.1001 -899.54694 -160 9.2051296e-40
1080.5342 -897.65228 -150 8.290376e-40
1073.4631 -909.89972 -160 7.3684337e-40
1073.4631 -909.89972 -160 1.0123499e-39
927.69489 -752.2558 -100 1.0123485e-39
918.03558 -754.84399 -100 9.2087169e-40
938.04767 -790.89282 -120 9.208745e-40
930.97656 -803.14026 -120 1.0130701e-39
916.14093 -786.40997 -110 8.3012501e-40
906.48169 -788.99817 -110 9.2196331e-40
906.48169 -788.99817 -110 8.3012361e-40
896.82245 -791.58636 -110 6.4537221e-40
887.16315 -794.17456 -110 4.6098235e-40
880.0921 -806.422 -120 3.6878532e-40
880.0921 -806.422 -120 3.6842379e-40
870.43286 -809.01019 -120 3.6842098e-40
860.77362 -811.59839 -120 4.6061802e-40
865.94995 -830.91687 -120 9.2051296e-40
858.87891 -843.16437 -120 9.2051296e-40
858.87891 -843.16437 -120 9.2051436e-40
851.80786 -855.4118 -130 1.0123485e-39
867.33704 -913.36731 -140 8.2867747e-40
829.90112 -850.92896 -120 9.2051436e-40
817.65369 -843.85785 -120 8.290376e-40
865.44238 -944.93335 -150 9.208745e-40
855.78308 -947.52148 -150 7.3756364e-40
902.37061 -1121.3882 -200 8.3049075e-40
895.29956 -1133.6356 -200 8.3049075e-40
900.47595 -1152.9541 -210 7.3865385e-40
881.15741 -1158.1305 -210 8.3084808e-40
868.90997 -1151.0594 -210 8.3085228e-40
861.83893 -1163.3069 -210 9.2232624e-40
852.17963 -1165.895 -210 8.3049075e-40
845.10858 -1178.1425 -210 8.3085368e-40
832.86115 -1171.0714 -210 1.0145233e-39
823.2019 -1173.6597 -210 8.3120961e-40
816.13086 -1185.9071 -210 9.2304651e-40
803.88336 -1178.8361 -210 9.2304651e-40
794.22412 -1181.4242 -210 1.014882e-39
784.56482 -1184.0125 -210 1.0148806e-39
720.73938 -1138.9978 -190 7.3829512e-40
713.66833 -1151.2454 -200 6.4609388e-40
704.00903 -1153.8335 -200 4.6169982e-40
696.93799 -1166.0809 -200 3.6914546e-40
692.45514 -1187.9877 -210 4.6097955e-40
682.7959 -1190.5758 -210 5.5281645e-40
675.72485 -1202.8234 -210 5.5389545e-40
668.65381 -1215.0708 -210 6.4573515e-40
658.99451 -1217.6589 -210 7.3793358e-40
656.40631 -1207.9998 -210 7.3865665e-40
646.74707 -1210.5879 -210 9.2268357e-40
634.49963 -1203.5168 -210 9.2304931e-40
609.31116 -1148.1495 -190 1.0148834e-39
597.06372 -1141.0784 -190 1.0156023e-39
587.40448 -1143.6666 -180 1.0148848e-39
577.74524 -1146.2548 -180 1.0152407e-39
568.08594 -1148.843 -190 1.107079e-39
558.4267 -1151.4312 -190 9.2268497e-40
548.95337 -1309.261 -230 6.4501348e-40
507.72809 -1309.9546 -220 8.2940194e-40
502.55173 -1290.636 -220 1.1971013e-39
483.23322 -1295.8124 -220 2.0246983e-39
470.98575 -1288.7413 -220 3.1288879e-39
468.39755 -1279.0822 -210 4.3267024e-39
456.84363 -1313.2363 -220 5.5256155e-39
460.31125 -1519.3624 -280 6.0823976e-39
445.47559 -1502.6321 -270 6.4533494e-39
433.22815 -1495.561 -270 6.9146792e-39
418.39249 -1478.8307 -270 7.0083126e-39
408.73325 -1481.4189 -260 7.4689362e-39
396.48578 -1474.3478 -260 8.2086649e-39
389.41473 -1486.5953 -260 9.1317114e-39
374.57907 -1469.865 -260 1.033136e-38
364.91983 -1472.4531 -260 1.0978179e-38
352.67236 -1465.3821 -250 1.1623195e-38
342.31958 -1426.7451 -240 1.199233e-38
332.66034 -1429.3333 -240 1.2083803e-38
320.41287 -1422.2622 -240 1.2267119e-38
310.75363 -1424.8503 -240 1.1991979e-38
301.09436 -1427.4386 -240 1.2359681e-38
288.84692 -1420.3676 -240 1.2544429e-38
279.18765 -1422.9557 -240 1.291249e-38
264.35202 -1406.2253 -230 1.3190518e-38
259.86914 -1428.1321 -240 1.3372752e-38
250.20988 -1430.7203 -240 1.3098315e-38
230.89137 -1435.8967 -240 1.3465305e-38
221.23212 -1438.4849 -240 1.3556421e-38
214.16106 -1450.7323 -240 1.337455e-38
201.9136 -1443.6613 -240 1.3374906e-38
192.25433 -1446.2495 -240 1.3373829e-38
107.72333 -1323.9608 -200 1.1712508e-38
100.65227 -1336.2083 -200 1.1437353e-38
93.581207 -1348.4558 -200 1.1437352e-38
1440.7008 -966.78992 -210 1.4722448e-39
1428.4534 -959.71887 -210 1.2882151e-39
1406.5466 -955.23596 -200 1.3800478e-39
1382.0518 -941.09387 -200 1.655913e-39
1360.145 -936.61108 -190 1.8403029e-39
1335.6501 -922.46893 -190 1.9328558e-39
1323.4026 -915.39783 -190 2.1168855e-39
1301.496 -910.91498 -180 2.4845891e-39
1289.2485 -903.84393 -180 2.9448455e-39
1282.1775 -916.09137 -180 3.1299515e-39
1269.9299 -909.02032 -180 2.9459259e-39
1260.2708 -911.60852 -180 2.3016411e-39
1250.6116 -914.19672 -180 1.6569934e-39
1253.1997 -923.85596 -180 1.3807708e-39
1243.5404 -926.44415 -180 1.2889325e-39
1248.7168 -945.7627 -190 1.2885752e-39
949.60156 -756.73865 -120 8.2867606e-40
939.94232 -759.32684 -110 9.2087029e-40
930.28308 -761.91504 -110 9.2051156e-40
918.03558 -754.84399 -110 1.01271e-39
920.62378 -764.50323 -120 9.2123183e-40
913.55273 -776.75067 -120 9.2123603e-40
913.55273 -776.75067 -120 8.301222e-40
903.89349 -779.33887 -120 8.3048794e-40
894.23425 -781.92706 -120 7.3793218e-40
896.82245 -791.58636 -120 6.4573235e-40
887.16315 -794.17456 -120 5.5317518e-40
877.50391 -796.76276 -120 3.6914405e-40
880.0921 -806.422 -120 3.6878252e-40
870.43286 -809.01019 -120 2.7694702e-40
860.77362 -811.59839 -120 4.6097675e-40
863.36182 -821.25763 -130 7.3648464e-40
853.70251 -823.84583 -130 8.290376e-40
846.63147 -836.09326 -130 8.2867887e-40
829.20764 -809.70367 -120 8.2867606e-40
819.54834 -812.29187 -120 8.29039e-40
809.8891 -814.88007 -120 9.2087169e-40
812.47729 -824.53937 -120 9.2087309e-40
800.22986 -817.46826 -120 8.2939633e-40
790.57056 -820.05646 -120 7.3720631e-40
780.91138 -822.64465 -120 7.3828951e-40
902.37061 -1121.3882 -210 8.3012921e-40
912.72339 -1160.0251 -220 8.3048794e-40
903.06415 -1162.6134 -220 9.2232624e-40
881.15741 -1158.1305 -220 7.3865665e-40
868.90997 -1151.0594 -220 7.3865665e-40
861.83893 -1163.3069 -220 8.3084948e-40
852.17963 -1165.895 -220 8.3085368e-40
845.10858 -1178.1425 -220 8.3049215e-40
832.86115 -1171.0714 -220 8.3121101e-40
823.2019 -1173.6597 -220 9.2304651e-40
679.14233 -829.20813 -110 9.2268638e-40
727.81042 -1126.7504 -200 8.3084808e-40
720.73938 -1138.9978 -200 7.3793498e-40
711.08014 -1141.5861 -200 5.5389965e-40
701.4209 -1144.1742 -200 4.6134249e-40
696.93799 -1166.0809 -210 4.6098235e-40
687.27875 -1168.6692 -210 4.6097955e-40
672.44312 -1151.9388 -200 5.5317798e-40
667.96021 -1173.8456 -210 5.5281785e-40
663.47742 -1195.7522 -220 6.4573515e-40
653.81812 -1198.3405 -220 6.4609528e-40
651.22992 -1188.6812 -210 8.3048934e-40
641.57068 -1191.2694 -210 9.2232904e-40
629.32324 -1184.1984 -210 9.2340104e-40
609.31116 -1148.1495 -200 1.0152435e-39
597.06372 -1141.0784 -200 1.0152449e-39
587.40448 -1143.6666 -200 9.2340804e-40
577.74524 -1146.2548 -200 1.014882e-39
568.08594 -1148.843 -200 9.2340524e-40
558.4267 -1151.4312 -200 9.2232484e-40
529.63483 -1314.4374 -240 5.5353251e-40
514.79919 -1297.7072 -230 6.4500928e-40
512.211 -1288.0479 -230 6.4537081e-40
499.96353 -1280.9768 -230 6.4501068e-40
490.30426 -1283.5649 -230 8.2976067e-40
480.64502 -1286.1532 -230 9.2160037e-40
465.80939 -1269.4229 -220 1.0145121e-39
456.84363 -1313.2363 -230 1.1992621e-39
440.99274 -1524.5388 -290 1.4747755e-39
435.81635 -1505.2202 -280 1.474777e-39
413.90964 -1500.7374 -280 1.7517184e-39
406.83856 -1512.9849 -280 2.1194219e-39
399.07397 -1484.0071 -280 2.6715195e-39
382.34366 -1498.8428 -280 3.8689809e-39
372.68442 -1501.4309 -280 5.8915296e-39
360.43695 -1494.3599 -270 8.2832196e-39
354.56705 -1433.8162 -260 1.0033489e-38
337.14319 -1407.4265 -250 1.1053046e-38
327.48395 -1410.0148 -250 1.1430841e-38
317.82468 -1412.6029 -250 1.1803618e-38
308.16544 -1415.1912 -250 1.1897987e-38
298.50616 -1417.7793 -250 1.2268203e-38
288.84692 -1420.3676 -250 1.245223e-38
281.77585 -1432.615 -250 1.272917e-38
266.94022 -1415.8846 -250 1.2729541e-38
259.86914 -1428.1321 -250 1.2915007e-38
245.03349 -1411.4017 -250 1.3189797e-38
237.96243 -1423.6493 -250 1.3189793e-38
218.64392 -1428.8257 -250 1.3189437e-38
211.57286 -1441.0731 -250 1.3467449e-38
199.32541 -1434.0021 -250 1.3374894e-38
189.66615 -1436.5902 -250 1.3005398e-38
118.26201 -1517.8395 -260 1.2266752e-38
97.048813 -1554.5819 -270 1.1805777e-38
1440.7008 -966.78992 -220 2.2083651e-39
1431.0415 -969.37817 -220 1.3807666e-39
1406.5466 -955.23596 -210 1.1963768e-39
1384.6399 -950.75317 -210 1.2882109e-39
1345.3093 -919.88074 -200 1.6562731e-39
1333.0619 -912.80963 -200 1.9321369e-39
1313.7434 -917.98602 -190 2.024334e-39
1301.496 -910.91498 -190 2.4842275e-39
1289.2485 -903.84393 -190 2.8526513e-39
1279.5892 -906.43213 -190 3.1295955e-39
1269.9299 -909.02032 -190 3.0377614e-39
1260.2708 -911.60852 -190 2.577505e-39
1250.6116 -914.19672 -190 1.5647992e-39
1253.1997 -923.85596 -190 1.3807694e-39
1243.5404 -926.44415 -190 1.2889353e-39
1248.7168 -945.7627 -200 1.2885738e-39
961.84906 -763.80969 -120 8.290362e-40
949.60156 -756.73865 -120 9.2051296e-40
939.94232 -759.32684 -120 9.2051296e-40
927.69489 -752.2558 -120 9.2087169e-40
920.62378 -764.50323 -120 9.2087309e-40
920.62378 -764.50323 -120 9.2087309e-40
910.96454 -767.09143 -120 9.2123743e-40
901.3053 -769.67963 -120 9.219605e-40
901.3053 -769.67963 -120 8.3048374e-40
891.64606 -772.26782 -120 6.4609668e-40
881.98676 -774.85602 -120 6.4537501e-40
867.15112 -758.12567 -120 4.6134249e-40
880.0921 -806.422 -130 3.6878252e-40
870.43286 -809.01019 -130 3.6842379e-40
863.36182 -821.25763 -130 4.6061942e-40
851.11432 -814.18658 -130 7.3648324e-40
851.11432 -814.18658 -130 8.2867747e-40
841.45508 -816.77478 -130 9.2051296e-40
829.20764 -809.70367 -130 8.290348e-40
819.54834 -812.29187 -130 9.2087169e-40
809.8891 -814.88007 -130 9.2087309e-40
809.8891 -814.88007 -130 9.2051296e-40
800.22986 -817.46826 -130 9.208745e-40
785.39417 -800.73798 -120 8.290432e-40
775.73499 -803.32617 -120 7.3756784e-40
763.48749 -796.25513 -120 7.3829652e-40
748.65186 -779.52478 -110 8.3013201e-40
738.99255 -782.11298 -110 7.3865385e-40
741.58081 -791.77222 -110 8.3084948e-40
861.83893 -1163.3069 -230 9.2196891e-40
852.17963 -1165.895 -230 9.2268638e-40
700.35559 -792.46576 -110 6.4717708e-40
693.28455 -804.7132 -120 8.3013341e-40
695.87268 -814.37244 -120 9.2232764e-40
686.21344 -816.96063 -120 9.2268778e-40
673.966 -809.88959 -120 8.3085088e-40
679.14233 -829.20813 -120 9.2268638e-40
672.07129 -841.45557 -120 8.3085088e-40
667.58844 -863.36224 -130 8.3085228e-40
715.56299 -1119.6793 -210 7.3793498e-40
711.08014 -1141.5861 -210 5.5389965e-40
701.4209 -1144.1742 -210 5.5317658e-40
694.34985 -1156.4218 -220 5.5281645e-40
684.69055 -1159.0099 -220 4.6098095e-40
672.44312 -1151.9388 -210 4.6098095e-40
665.37207 -1164.1863 -220 5.5353672e-40
660.88916 -1186.093 -220 6.4609388e-40
653.81812 -1198.3405 -230 7.3828951e-40
651.22992 -1188.6812 -220 8.3048794e-40
641.57068 -1191.2694 -220 9.2304371e-40
629.32324 -1184.1984 -220 1.0148792e-39
609.31116 -1148.1495 -210 1.0152393e-39
597.06372 -1141.0784 -210 9.2269058e-40
587.40448 -1143.6666 -210 9.2340524e-40
577.74524 -1146.2548 -210 1.1067147e-39
570.67413 -1158.5023 -210 1.0145247e-39
561.01489 -1161.0905 -210 8.3012921e-40
551.5415 -1318.9203 -250 3.6914405e-40
529.63483 -1314.4374 -250 5.5317378e-40
514.79919 -1297.7072 -240 6.4537221e-40
512.211 -1288.0479 -240 5.5317658e-40
499.96353 -1280.9768 -240 6.4537081e-40
490.30426 -1283.5649 -240 8.2975927e-40
478.05682 -1276.4939 -230 9.2159897e-40
460.633 -1250.1044 -230 1.0145107e-39
453.24017 -1531.6099 -300 1.2907416e-39
445.47559 -1502.6321 -300 1.3829387e-39
435.81635 -1505.2202 -300 1.4754902e-39
416.49783 -1510.3966 -300 1.3840163e-39
406.83856 -1512.9849 -300 1.5680474e-39
399.07397 -1484.0071 -290 1.8442769e-39
384.93185 -1508.502 -290 2.0293913e-39
377.16727 -1479.5242 -290 2.2148671e-39
363.02515 -1504.0192 -290 2.5829336e-39
352.67236 -1465.3821 -280 2.766606e-39
339.73138 -1417.0858 -260 2.6754936e-39
327.48395 -1410.0148 -260 2.7673262e-39
317.82468 -1412.6029 -260 2.5836496e-39
308.16544 -1415.1912 -260 2.4910953e-39
298.50616 -1417.7793 -260 2.9517091e-39
288.84692 -1420.3676 -260 3.2275841e-39
266.24667 -1374.6594 -250 3.5952876e-39
263.65848 -1365.0001 -240 4.332131e-39
246.92816 -1379.8358 -250 5.067894e-39
239.85712 -1392.0833 -250 6.6298205e-39
230.19785 -1394.6715 -250 8.3764914e-39
220.53859 -1397.2596 -250 1.0214645e-38
203.80827 -1412.0953 -250 1.1320626e-38
198.63188 -1392.7769 -240 1.1971041e-38
182.59509 -1448.8376 -260 1.2344882e-38
163.27657 -1454.014 -260 1.2353528e-38
153.61731 -1456.6023 -260 1.2171671e-38
157.40666 -1393.4703 -240 1.2079847e-38
134.2988 -1461.7787 -260 1.180505e-38
122.74487 -1495.9329 -270 1.1621382e-38
101.53169 -1532.6752 -280 1.1529536e-38
91.872421 -1535.2633 -280 1.1343721e-38
1440.7008 -966.78992 -230 2.8515695e-39
1428.4534 -959.71887 -230 2.4835115e-39
1406.5466 -955.23596 -220 1.3804079e-39
1384.6399 -950.75317 -220 1.1967355e-39
1345.3093 -919.88074 -210 1.4726021e-39
1333.0619 -912.80963 -200 1.6566333e-39
1313.7434 -917.98602 -200 1.9324985e-39
1301.496 -910.91498 -200 2.1168883e-39
1289.2485 -903.84393 -200 2.5767833e-39
1279.5892 -906.43213 -200 3.1288753e-39
1272.5182 -918.67957 -200 3.0377586e-39
1260.2708 -911.60852 -200 2.4856709e-39
1262.8589 -921.26776 -200 1.4736825e-39
1258.3761 -943.17444 -210 1.4729637e-39
1246.1287 -936.10339 -210 1.1970956e-39
1248.7168 -945.7627 -210 1.1970956e-39
1256.4814 -974.74048 -220 1.1967383e-39
1231.9866 -960.59827 -210 1.1049014e-39
937.35413 -749.6676 -130 8.290362e-40
925.10669 -742.59656 -120 9.2051576e-40
918.03558 -754.84399 -130 9.2051296e-40
918.03558 -754.84399 -130 9.2087309e-40
908.37634 -757.43219 -130 9.2123743e-40
898.7171 -760.02039 -130 1.0134373e-39
889.05786 -762.60858 -130 9.2196471e-40
889.05786 -762.60858 -130 8.3048234e-40
879.39856 -765.19678 -130 7.3792938e-40
852.31549 -741.39539 -120 5.5317658e-40
882.6803 -816.08124 -140 3.6878392e-40
873.02106 -818.66943 -140 3.6842519e-40
863.36182 -821.25763 -140 4.6061802e-40
860.77362 -811.59839 -140 7.3684197e-40
851.11432 -814.18658 -140 9.2051436e-40
841.45508 -816.77478 -140 9.2051296e-40
829.20764 -809.70367 -140 9.2051296e-40
819.54834 -812.29187 -140 7.3648184e-40
809.8891 -814.88007 -140 8.2939773e-40
809.8891 -814.88007 -140 8.2975787e-40
800.22986 -817.46826 -140 1.0145107e-39
785.39417 -800.73798 -130 1.0141533e-39
770.55859 -784.00763 -120 7.3792938e-40
758.3111 -776.93658 -120 8.3013061e-40
740.88727 -750.547 -110 9.2268638e-40
733.81616 -762.79443 -120 8.3013341e-40
736.40442 -772.45374 -120 7.3829652e-40
721.56873 -755.72339 -110 7.3865105e-40
714.49768 -767.97083 -120 8.3013201e-40
710.01483 -789.87756 -120 6.4645962e-40
715.19122 -809.19604 -130 8.3049215e-40
702.94373 -802.125 -120 8.3049075e-40
695.87268 -814.37244 -130 7.3901258e-40
695.87268 -814.37244 -130 8.3012781e-40
686.21344 -816.96063 -130 8.3048934e-40
673.966 -809.88959 -120 8.3013061e-40
679.14233 -829.20813 -130 9.2232344e-40
669.48315 -831.79633 -130 7.3865385e-40
665.00024 -853.703 -140 8.3013201e-40
703.31555 -1112.6083 -220 6.4573235e-40
698.83264 -1134.515 -220 5.5317658e-40
689.17346 -1137.1031 -220 4.6098095e-40
679.51416 -1139.6914 -220 3.6914686e-40
669.85492 -1142.2795 -220 6.4501068e-40
662.78381 -1154.527 -220 6.4537081e-40
658.30103 -1176.4337 -230 6.4573375e-40
643.46533 -1159.7034 -220 6.4537782e-40
643.46533 -1159.7034 -220 8.3012921e-40
633.80609 -1162.2916 -220 9.2268497e-40
621.55859 -1155.2206 -220 9.2268918e-40
606.72302 -1138.4902 -220 9.2340664e-40
599.65192 -1150.7377 -220 9.2268918e-40
589.99268 -1153.3259 -220 1.1070762e-39
582.92163 -1165.5734 -220 1.014882e-39
573.26233 -1168.1615 -220 1.0152393e-39
568.77948 -1190.0682 -230 9.2232344e-40
559.12024 -1192.6564 -230 6.4609248e-40
553.43622 -1287.3544 -250 4.6133968e-40
508.92926 -1237.1633 -240 4.6133968e-40
501.85822 -1249.4108 -240 4.6133968e-40
492.19894 -1251.999 -240 5.5353672e-40
477.36328 -1235.2687 -230 8.2976207e-40
470.29224 -1247.5161 -230 9.2231363e-40
458.0448 -1240.4451 -230 1.1981817e-39
460.31125 -1519.3624 -310 1.1992649e-39
445.47559 -1502.6321 -310 1.199625e-39
433.22815 -1495.561 -310 1.2907416e-39
420.98068 -1488.49 -300 1.475493e-39
411.32144 -1491.0781 -300 1.5673327e-39
396.48578 -1474.3478 -300 1.7524428e-39
382.34366 -1498.8428 -300 1.9379145e-39
370.09622 -1491.7717 -300 2.2148657e-39
358.5423 -1525.9258 -310 2.5829322e-39
346.80246 -1404.8384 -270 2.6751278e-39
327.48395 -1410.0148 -270 2.5822133e-39
315.23648 -1402.9437 -270 2.5829322e-39
308.16544 -1415.1912 -270 2.4907366e-39
301.09436 -1427.4386 -270 2.4910995e-39
291.43512 -1430.0267 -270 2.4918114e-39
279.18765 -1422.9557 -270 2.6751278e-39
268.83487 -1384.3187 -260 2.8591603e-39
263.65848 -1365.0001 -260 2.5840126e-39
244.33997 -1370.1765 -260 2.9509958e-39
237.26892 -1382.4241 -260 2.9517161e-39
227.60965 -1385.0122 -260 2.8602365e-39
217.95041 -1387.6005 -260 2.8595219e-39
205.70294 -1380.5293 -260 2.7676794e-39
196.04369 -1383.1176 -250 2.950993e-39
181.90157 -1407.6124 -260 2.7676878e-39
174.83051 -1419.8599 -260 2.7673248e-39
162.58305 -1412.7888 -260 2.8588002e-39
152.9238 -1415.3771 -260 2.9506329e-39
138.78166 -1439.8719 -270 2.8588016e-39
127.22774 -1474.0261 -270 2.8587988e-39
1440.7008 -966.78992 -240 3.3103855e-39
1428.4534 -959.71887 -240 2.7582977e-39
1406.5466 -955.23596 -230 1.7477485e-39
