# .PCD v0.7 - Point Cloud Data file format
VERSION 0.7
FIELDS x y z rgb
SIZE 4 4 4 4
TYPE F F F F
COUNT 1 1 1 1
WIDTH 1217
HEIGHT 1
VIEWPOINT 0 0 0 1 0 0 0
POINTS 1217
DATA ascii
1927.3221 -1525.6831 1000 2.0379587e-38
1913.3176 -1527.6512 1000 2.0382815e-38
1885.3086 -1531.5878 990 2.0751233e-38
1871.3042 -1533.5559 990 2.0107667e-38
1833.3406 -1517.4697 970 2.0660833e-38
1811.3497 -1513.4198 960 2.0750157e-38
1799.3135 -1529.3925 960 2.0199862e-38
1753.3635 -1507.2881 950 2.0843786e-38
1747.3453 -1515.2744 940 2.038712e-38
1717.3682 -1505.2063 930 2.0844863e-38
1695.3772 -1501.1564 930 2.0566127e-38
1675.3546 -1511.111 920 2.1302605e-38
1653.3638 -1507.061 910 2.1211487e-38
1639.3593 -1509.0293 910 2.0750875e-38
1615.4001 -1490.9749 900 2.1579905e-38
1587.3911 -1494.9113 890 2.0659398e-38
1581.373 -1502.8976 890 2.1489505e-38
1551.3958 -1492.8295 880 1.9551274e-38
1527.4368 -1474.775 870 2.0843786e-38
1507.4141 -1484.7296 860 2.1855412e-38
1491.4414 -1472.6934 860 2.0471063e-38
1469.4504 -1468.6433 850 2.1303681e-38
1455.446 -1470.6116 840 2.2499695e-38
1441.4415 -1472.5798 840 2.0837608e-38
1427.437 -1474.548 840 1.6885513e-38
1413.4325 -1476.5162 830 1.946446e-38
1399.428 -1478.4844 830 1.4928185e-38
1377.4371 -1474.4344 820 1.9647052e-38
1361.4644 -1462.3982 810 2.0015473e-38
1339.4735 -1458.3483 810 2.0934546e-38
1325.469 -1460.3164 800 2.0567921e-38
1311.4646 -1462.2847 800 2.0195557e-38
1289.4736 -1458.2347 790 1.954974e-38
1281.4873 -1452.2166 790 2.001081e-38
1259.4965 -1448.1666 780 1.9455133e-38
1253.4783 -1456.153 780 1.918429e-38
1247.4602 -1464.1393 780 1.8814437e-38
990.49615 -1007.5547 590 1.7615195e-38
976.49164 -1009.5229 590 1.7889984e-38
968.50531 -1003.5048 580 1.3750889e-38
4868.0029 -348.35684 1610 1.4107373e-38
4863.9531 -370.34769 1610 1.4289974e-38
4845.8984 -394.30676 1610 1.3922997e-38
4929.812 -432.49738 1640 1.4016264e-38
5083.6343 -510.84686 1710 1.3467406e-38
5109.5615 -542.90582 1730 1.4382888e-38
5121.4844 -576.93292 1730 1.4108465e-38
5103.4302 -600.89203 1730 7.8381321e-39
5063.3848 -620.80115 1730 6.3607782e-39
5075.3076 -654.82831 1740 6.9099891e-39
5057.2529 -678.78735 1740 7.0046818e-39
5033.1807 -710.73279 1740 8.1092385e-39
5073.1123 -740.82355 1760 8.2028761e-39
4803.9233 -1264.2137 1800 1.2725165e-38
4725.9146 -1268.0366 1770 1.2540415e-38
4745.8237 -1308.0819 1790 8.0207171e-39
4675.8008 -1317.923 1770 5.25659e-39
4665.7329 -1347.9001 1770 1.1988317e-38
4573.7197 -1353.6913 1750 1.2264177e-38
4593.6284 -1393.7366 1760 1.2264536e-38
4613.5376 -1433.7819 1780 1.2263112e-38
4573.4927 -1453.691 1770 1.2079795e-38
4511.4561 -1469.5502 1750 1.216948e-38
4589.2383 -1565.7271 1800 1.189504e-38
4489.2383 -1565.5 1770 1.171174e-38
4449.1929 -1585.4092 1760 1.2169841e-38
4423.1523 -1603.3501 1760 1.1712455e-38
4369.1025 -1625.2274 1750 1.1526994e-38
4049.1941 -1584.501 1640 5.1579372e-39
3969.217 -1574.3193 1610 4.8842202e-39
3921.1853 -1588.2103 1600 4.3328331e-39
3819.2173 -1573.9788 1570 3.5045059e-39
3755.2131 -1575.8334 1550 2.9560153e-39
3705.2131 -1575.7198 1530 7.7440728e-39
3673.1543 -1601.6472 1530 1.0414488e-38
3639.127 -1613.5699 1520 1.0211391e-38
3559.1499 -1603.3883 1500 8.4787385e-39
3587.0454 -1649.4518 1510 8.3858366e-39
3666.7954 -1759.6332 1560 8.3879876e-39
3632.7683 -1771.5559 1550 8.753536e-39
3582.7686 -1771.4424 1540 8.3883534e-39
3534.7368 -1785.3334 1530 8.4801861e-39
3492.7231 -1791.238 1520 7.9280927e-39
3426.7507 -1779.0881 1500 1.2263026e-38
3330.8008 -1756.8702 1460 1.908669e-38
3264.8284 -1744.7205 1440 1.9178904e-38
3222.8147 -1750.6251 1430 9.7705872e-39
3148.856 -1732.4572 1400 1.5944464e-38
3066.9106 -1708.271 1370 1.1155688e-38
3000.938 -1696.1212 1350 1.3465633e-38
2934.9653 -1683.9713 1330 1.4662024e-38
2882.9973 -1669.8533 1310 1.6321904e-38
2825.011 -1663.7217 1290 1.5863447e-38
2789.0156 -1661.6399 1280 1.4849596e-38
2747.0022 -1667.5446 1260 1.7152751e-38
2711.0068 -1665.4628 1250 1.779703e-38
2667.0251 -1657.3629 1240 1.7800645e-38
2615.0571 -1643.2449 1220 1.7706999e-38
2579.0618 -1641.1632 1210 1.743113e-38
2543.0664 -1639.0814 1200 1.7798443e-38
2507.0708 -1636.9998 1180 1.7711684e-38
2447.1165 -1616.8635 1160 1.8995238e-38
2401.1665 -1594.7592 1140 1.8352737e-38
2341.2122 -1574.6229 1120 1.8811567e-38
2305.2168 -1572.5413 1110 1.890699e-38
2293.1804 -1588.5139 1110 1.9092455e-38
2257.1851 -1586.4323 1100 1.9551274e-38
2227.208 -1576.3641 1090 1.9281148e-38
2183.2261 -1568.2643 1070 1.9085991e-38
2155.2173 -1572.2007 1060 1.9549121e-38
2125.2397 -1562.1326 1050 1.9186443e-38
2081.2583 -1554.0327 1040 1.9456568e-38
2067.2537 -1556.0009 1030 1.9464102e-38
2031.2583 -1553.9192 1020 2.0382815e-38
2009.2675 -1549.8693 1010 1.9738891e-38
1963.3175 -1527.7648 1000 2.0471781e-38
1927.3221 -1525.6831 990 1.9701427e-38
1913.3176 -1527.6512 980 2.0827285e-38
1885.3086 -1531.5878 970 2.0095431e-38
1871.3042 -1533.5559 970 2.010695e-38
1841.3269 -1523.4878 960 2.084558e-38
1811.3497 -1513.4198 950 2.0936339e-38
1799.3135 -1529.3925 950 2.0844145e-38
1753.3635 -1507.2881 930 2.1488429e-38
1747.3453 -1515.2744 930 2.0657604e-38
1717.3682 -1505.2063 920 2.0660474e-38
1695.3772 -1501.1564 910 2.0386403e-38
1681.3728 -1503.1246 900 2.0934904e-38
1653.3638 -1507.061 900 2.1303681e-38
1639.3593 -1509.0293 890 2.0934187e-38
1607.4138 -1484.9567 880 2.0661909e-38
1585.423 -1480.9067 870 2.0846297e-38
1573.3866 -1496.8794 870 2.1673176e-38
1551.3958 -1492.8295 860 2.083984e-38
1529.4049 -1488.7795 860 2.0935981e-38
1515.4004 -1490.7478 850 2.1487711e-38
1491.4414 -1472.6934 840 2.1213639e-38
1477.4369 -1474.6615 840 2.0560388e-38
1455.446 -1470.6116 830 1.9742119e-38
1441.4415 -1472.5798 830 2.1213998e-38
1427.437 -1474.548 820 2.0657963e-38
1413.4325 -1476.5162 820 2.121077e-38
1391.4417 -1472.4663 810 1.9643826e-38
1369.4508 -1468.4163 800 2.0841634e-38
1361.4644 -1462.3982 800 2.0748722e-38
1339.4735 -1458.3483 790 2.0753386e-38
1325.469 -1460.3164 790 2.0473575e-38
1311.4646 -1462.2847 780 2.0016191e-38
1295.4918 -1450.2483 770 2.0473575e-38
1281.4873 -1452.2166 770 2.0658322e-38
1259.4965 -1448.1666 760 2.0291338e-38
1022.4416 -1031.6273 600 1.9554143e-38
1006.4689 -1019.5911 590 1.8905555e-38
984.47803 -1015.541 580 1.761376e-38
976.49164 -1009.5229 580 1.7056648e-38
968.50531 -1003.5048 580 1.1809444e-38
4868.0029 -348.35684 1580 1.4566566e-38
4863.9531 -370.34769 1580 1.4476519e-38
4831.894 -396.27496 1580 1.4657673e-38
4893.8164 -430.41565 1600 1.4291413e-38
5061.6436 -506.79688 1670 1.4292483e-38
5131.5527 -546.95575 1700 1.4935343e-38
5149.4937 -572.99652 1710 1.3921897e-38
5147.4116 -608.99188 1710 1.2356724e-38
5129.3574 -632.95099 1720 6.4526151e-39
5141.2803 -666.97815 1730 4.5147048e-39
4803.9233 -1264.2137 1760 8.5702153e-39
4717.9282 -1262.0184 1740 8.850056e-39
4745.8237 -1308.0819 1750 5.4402638e-39
4675.8008 -1317.923 1740 5.9919915e-39
4665.7329 -1347.9001 1740 8.2064788e-39
4573.7197 -1353.6913 1710 1.0780045e-38
4571.6377 -1389.6866 1720 1.2168027e-38
4599.5332 -1435.7501 1740 1.2078e-38
4559.4878 -1455.6592 1730 1.235459e-38
4511.4561 -1469.5502 1720 1.2354582e-38
4607.2925 -1541.7679 1770 1.2262385e-38
4575.2334 -1567.6952 1760 1.198724e-38
4497.2246 -1571.5182 1740 1.1618817e-38
4471.1841 -1589.4591 1730 1.1803211e-38
4431.1387 -1609.3682 1730 1.1894322e-38
4391.0933 -1629.2773 1720 1.1987242e-38
4057.1804 -1590.519 1610 4.4243196e-39
3985.1897 -1586.3556 1590 2.2123406e-39
3929.1716 -1594.2284 1580 2.2112546e-39
3827.2039 -1579.9969 1540 3.3179595e-39
3747.2266 -1569.8153 1520 1.0133589e-38
3683.2222 -1571.6699 1500 1.4015209e-38
3665.1677 -1595.629 1500 7.2783877e-39
3631.1406 -1607.5518 1490 1.0672351e-38
3551.1636 -1597.3702 1470 8.4776665e-39
3555.1001 -1625.3792 1470 8.4783812e-39
3666.7954 -1759.6332 1540 8.4801847e-39
3632.7683 -1771.5559 1530 8.3879862e-39
3582.7686 -1771.4424 1510 8.7546178e-39
3542.7231 -1791.3516 1510 8.9397251e-39
3500.7097 -1797.2561 1490 7.742635e-39
3426.7507 -1779.0881 1470 1.4018335e-38
3322.8145 -1750.8522 1430 1.8811898e-38
3264.8284 -1744.7205 1410 1.0969496e-38
3222.8147 -1750.6251 1400 1.0503112e-38
3148.856 -1732.4572 1380 1.0877648e-38
3066.9106 -1708.271 1350 1.1987588e-38
3000.938 -1696.1212 1320 1.3464184e-38
2942.9517 -1689.9895 1300 1.4574855e-38
2875.011 -1663.8352 1280 1.5583978e-38
2817.0247 -1657.7035 1260 1.3557477e-38
2789.0156 -1661.6399 1250 1.6141458e-38
2747.0022 -1667.5446 1240 1.7703769e-38
2718.9932 -1671.481 1230 1.7243883e-38
2667.0251 -1657.3629 1220 1.5493588e-38
2615.0571 -1643.2449 1200 1.6601354e-38
2571.0752 -1635.145 1180 1.7337509e-38
2551.0527 -1645.0996 1180 1.8443481e-38
2507.0708 -1636.9998 1160 1.8628949e-38
2455.1028 -1622.8817 1150 1.8721167e-38
2393.1802 -1588.741 1120 1.8446366e-38
2341.2122 -1574.6229 1100 1.8630049e-38
2313.2031 -1578.5593 1090 1.936545e-38
2293.1804 -1588.5139 1090 1.9090661e-38
2257.1851 -1586.4323 1080 1.9277202e-38
2227.208 -1576.3641 1070 1.9919692e-38
2175.2397 -1562.2461 1050 1.9267516e-38
2147.231 -1566.1825 1040 1.9644903e-38
2117.2534 -1556.1144 1030 2.0198785e-38
2081.2583 -1554.0327 1020 2.0284164e-38
2075.24 -1562.019 1020 2.0106233e-38
2031.2583 -1553.9192 1010 2.0473216e-38
2009.2675 -1549.8693 1000 2.0199144e-38
1971.3038 -1533.783 980 2.0383533e-38
1935.3085 -1531.7013 970 1.9830367e-38
1913.3176 -1527.6512 960 2.0290621e-38
1885.3086 -1531.5878 960 2.0567562e-38
1871.3042 -1533.5559 950 2.1119293e-38
1841.3269 -1523.4878 940 2.1488429e-38
1811.3497 -1513.4198 930 2.1211487e-38
1791.327 -1523.3743 930 2.1213998e-38
1753.3635 -1507.2881 910 2.1305834e-38
1747.3453 -1515.2744 910 2.075231e-38
1725.3545 -1511.2245 900 2.0936339e-38
1695.3772 -1501.1564 890 2.075231e-38
1681.3728 -1503.1246 890 2.0936698e-38
1653.3638 -1507.061 880 2.0844145e-38
1639.3593 -1509.0293 880 2.1948682e-38
1617.3684 -1504.9792 870 2.1487711e-38
1595.3776 -1500.9293 860 2.130404e-38
1581.373 -1502.8976 860 2.1397669e-38
1559.3822 -1498.8477 850 2.1119293e-38
1529.4049 -1488.7795 840 1.5678314e-38
1513.4323 -1476.7433 830 2.1209335e-38
1491.4414 -1472.6934 830 2.0752668e-38
1477.4369 -1474.6615 820 2.2224189e-38
1455.446 -1470.6116 820 2.2683366e-38
1441.4415 -1472.5798 810 2.1303681e-38
1419.4507 -1468.5298 800 2.0657604e-38
1405.4462 -1470.498 800 2.0841275e-38
1391.4417 -1472.4663 790 2.0193046e-38
1377.4371 -1474.4344 790 2.0290262e-38
1355.4463 -1470.3845 790 2.0750875e-38
1347.4598 -1464.3663 780 1.9831444e-38
1325.469 -1460.3164 770 2.0565769e-38
1309.4963 -1448.2802 770 2.0842351e-38
1287.5054 -1444.2302 760 2.0566127e-38
1281.4873 -1452.2166 760 2.075231e-38
1012.487 -1011.6046 580 2.0106591e-38
1004.5007 -1005.5865 580 1.9276484e-38
990.49615 -1007.5547 570 1.9367244e-38
990.49615 -1007.5547 570 1.8262707e-38
976.49164 -1009.5229 570 1.5779202e-38
968.50531 -1003.5048 570 1.8725113e-38
4868.0029 -348.35684 1550 1.4661636e-38
4863.9531 -370.34769 1550 1.4844222e-38
4831.894 -396.27496 1540 1.4660184e-38
4879.812 -432.38385 1560 1.4478677e-38
4919.7437 -462.47461 1590 1.4753823e-38
5131.5527 -546.95575 1670 1.4567998e-38
5185.4888 -575.07825 1690 1.2911004e-38
4817.9277 -1262.2455 1730 7.3727609e-39
4733.9009 -1274.0547 1710 6.728109e-39
4753.8101 -1314.1001 1720 6.5440877e-39
4683.7871 -1323.941 1700 6.7284691e-39
4665.7329 -1347.9001 1710 6.7277544e-39
4573.7197 -1353.6913 1680 6.7288292e-39
4563.6514 -1383.6685 1680 7.0046973e-39
4591.5469 -1429.7319 1700 1.0970527e-38
4521.5244 -1439.573 1680 1.2537536e-38
4511.4561 -1469.5502 1690 1.1987594e-38
4591.3198 -1529.7317 1720 1.1895408e-38
4589.2383 -1565.7271 1730 1.1803208e-38
4519.2158 -1575.5681 1710 1.2169832e-38
4487.1567 -1601.4954 1710 1.1893959e-38
4439.125 -1615.3864 1700 1.1618101e-38
4407.0659 -1641.3136 1690 1.1526984e-38
4001.1624 -1598.392 1570 2.3066914e-39
3951.1626 -1598.2784 1550 2.1219428e-39
3827.2039 -1579.9969 1510 5.8962267e-39
3739.2402 -1563.7971 1480 1.3549401e-38
3683.2222 -1571.6699 1470 7.4783572e-39
3657.1814 -1589.6108 1470 6.9096107e-39
3623.1543 -1601.5337 1460 1.0673786e-38
3543.1772 -1591.3521 1430 8.20216e-39
3547.1138 -1619.3611 1440 8.6631326e-39
3674.7817 -1765.6512 1510 8.4791043e-39
3632.7683 -1771.5559 1500 8.4780309e-39
3582.7686 -1771.4424 1480 8.2961591e-39
3542.7231 -1791.3516 1480 8.7564128e-39
3500.7097 -1797.2561 1470 7.0976328e-39
3426.7507 -1779.0881 1440 1.5306927e-38
3314.8281 -1744.834 1400 1.3082457e-38
3248.8555 -1732.6842 1380 8.8425142e-39
3214.8284 -1744.6069 1370 1.0127505e-38
3164.8286 -1744.4934 1350 9.9560658e-39
3074.897 -1714.2892 1320 1.3001365e-38
3008.9243 -1702.1393 1300 1.4111366e-38
2934.9653 -1683.9713 1280 1.2633398e-38
2867.0247 -1657.817 1250 1.4386506e-38
2809.0383 -1651.6853 1230 1.6229715e-38
2781.0293 -1655.6217 1230 1.5862375e-38
2747.0022 -1667.5446 1220 1.7521891e-38
2718.9932 -1671.481 1210 1.6600657e-38
2667.0251 -1657.3629 1190 1.5219861e-38
2615.0571 -1643.2449 1170 1.6970878e-38
2571.0752 -1635.145 1160 1.7892125e-38
2543.0664 -1639.0814 1150 1.9273247e-38
2499.0845 -1630.9816 1140 1.8167986e-38
2463.0891 -1628.8998 1130 1.8628951e-38
2401.1665 -1594.7592 1100 1.7330238e-38
2341.2122 -1574.6229 1080 1.8631484e-38
2313.2031 -1578.5593 1070 1.8448171e-38
2293.1804 -1588.5139 1070 1.9368679e-38
2265.1714 -1592.4503 1060 1.936832e-38
2227.208 -1576.3641 1050 1.9551991e-38
2167.2534 -1556.2279 1030 1.9728846e-38
2145.2627 -1552.178 1020 2.0014756e-38
2117.2534 -1556.1144 1010 2.038138e-38
2089.2446 -1560.0508 1000 2.0105156e-38
2069.2219 -1570.0054 1000 2.0014397e-38
2039.2446 -1559.9373 990 2.0568639e-38
2009.2675 -1549.8693 980 2.0200938e-38
1971.3038 -1533.783 960 2.0477521e-38
1935.3085 -1531.7013 950 2.0014756e-38
1913.3176 -1527.6512 950 2.0106591e-38
1885.3086 -1531.5878 940 2.0469987e-38
1871.3042 -1533.5559 930 2.1487352e-38
1841.3269 -1523.4878 930 2.1394082e-38
1811.3497 -1513.4198 910 2.102961e-38
1799.3135 -1529.3925 910 2.0294926e-38
1761.3499 -1513.3063 900 2.0937057e-38
1755.3317 -1521.2926 900 2.0843069e-38
1725.3545 -1511.2245 890 2.2224189e-38
1695.3772 -1501.1564 880 2.1303323e-38
1681.3728 -1503.1246 870 2.075231e-38
1653.3638 -1507.061 870 2.0475727e-38
1631.3729 -1503.0111 860 2.1396952e-38
1609.3821 -1498.9612 850 2.074944e-38
1587.3911 -1494.9113 840 2.1213281e-38
1573.3866 -1496.8794 840 2.158134e-38
1551.3958 -1492.8295 830 2.1673176e-38
1535.4231 -1480.7932 820 1.9005642e-38
1513.4323 -1476.7433 820 2.158134e-38
1491.4414 -1472.6934 810 2.1673176e-38
1477.4369 -1474.6615 810 2.1856847e-38
1455.446 -1470.6116 800 2.1397669e-38
1441.4415 -1472.5798 800 2.1118575e-38
1419.4507 -1468.5298 790 1.9446524e-38
1405.4462 -1470.498 780 1.8727624e-38
1391.4417 -1472.4663 780 2.0746929e-38
1377.4371 -1474.4344 780 1.9737814e-38
1363.4326 -1476.4027 770 2.0109102e-38
1347.4598 -1464.3663 770 2.0657963e-38
1325.469 -1460.3164 760 2.0197709e-38
1301.51 -1442.262 750 2.0382456e-38
1287.5054 -1444.2302 750 2.0843428e-38
1016.537 -989.61377 570 2.0473933e-38
1010.5188 -997.6001 570 2.0843786e-38
996.51428 -999.56836 570 1.8724754e-38
996.51428 -999.56836 560 1.9183932e-38
982.50983 -1001.5366 560 1.9185725e-38
976.49164 -1009.5229 560 1.8629331e-38
968.50531 -1003.5048 560 1.5043078e-38
4882.0073 -346.38864 1520 1.4844937e-38
4863.9531 -370.34769 1520 1.4752392e-38
4831.894 -396.27496 1510 1.4660194e-38
4857.8213 -428.33392 1530 1.4752739e-38
4875.7622 -454.37476 1540 1.4938213e-38
5508.9932 -793.81335 1790 4.8867187e-39
5564.8975 -835.94037 1820 4.055149e-39
5546.8433 -859.89948 1820 4.2395444e-39
5508.7661 -893.81311 1810 4.2399046e-39
4825.9141 -1268.2637 1700 4.885281e-39
4755.8916 -1278.1047 1680 4.7938028e-39
4761.7964 -1320.1182 1690 4.1498739e-39
4683.7871 -1323.941 1670 4.2406262e-39
4665.7329 -1347.9001 1670 4.1473558e-39
4573.7197 -1353.6913 1650 6.6373567e-39
4541.6606 -1379.6185 1640 7.0979691e-39
4575.5742 -1417.6957 1660 9.8667345e-39
4483.561 -1423.4867 1640 1.1895022e-38
4525.4609 -1467.582 1660 1.1802844e-38
4561.3428 -1519.6636 1680 1.1527339e-38
4597.2246 -1571.7452 1700 1.1801764e-38
4527.2021 -1581.5862 1680 1.1526617e-38
4509.1475 -1605.5453 1680 1.1159277e-38
4447.1113 -1621.4045 1670 1.1064566e-38
4421.0703 -1639.3455 1660 5.989144e-39
4351.0479 -1649.1864 1640 4.7952433e-39
3993.176 -1592.3738 1530 4.6087025e-39
3945.1445 -1606.2648 1520 5.5288847e-39
3827.2039 -1579.9969 1480 2.3963661e-39
3739.2402 -1563.7971 1450 1.558495e-38
3683.2222 -1571.6699 1440 8.0333344e-39
3657.1814 -1589.6108 1440 6.2642666e-39
3623.1543 -1601.5337 1430 9.5735464e-39
3551.1636 -1597.3702 1410 8.4776693e-39
3541.0955 -1627.3474 1410 8.3861968e-39
3666.7954 -1759.6332 1480 8.9379258e-39
3616.7957 -1759.5197 1460 8.7553268e-39
3568.7639 -1773.4106 1450 8.6638529e-39
3542.7231 -1791.3516 1450 8.6634913e-39
3508.696 -1803.2743 1440 6.4540626e-39
3426.7507 -1779.0881 1410 1.6138498e-38
3314.8281 -1744.834 1370 1.225842e-38
3240.8691 -1726.666 1350 7.7322234e-39
3214.8284 -1744.6069 1340 1.456475e-38
3172.8149 -1750.5116 1330 1.2629394e-38
3082.8833 -1720.3073 1300 1.3465223e-38
3016.9106 -1708.1575 1280 1.4481584e-38
2950.938 -1696.0077 1260 1.5127321e-38
2875.011 -1663.8352 1230 1.6139308e-38
2801.052 -1645.6672 1210 1.6414821e-38
2781.0293 -1655.6217 1200 1.678217e-38
2747.0022 -1667.5446 1190 1.2907835e-38
2718.9932 -1671.481 1190 1.8074344e-38
2675.0115 -1663.3811 1170 1.5121218e-38
2615.0571 -1643.2449 1150 1.6878332e-38
2571.0752 -1635.145 1140 1.789464e-38
2535.0798 -1633.0632 1130 1.76123e-38
2491.0981 -1624.9634 1110 1.5675093e-38
2463.0891 -1628.8998 1110 1.7432199e-38
2393.1802 -1588.741 1080 1.7340394e-38
2333.2256 -1568.6049 1060 1.8536778e-38
2313.2031 -1578.5593 1050 1.8996673e-38
2293.1804 -1588.5139 1050 1.9276484e-38
2257.1851 -1586.4323 1040 1.9553785e-38
2227.208 -1576.3641 1030 1.9553426e-38
2167.2534 -1556.2279 1010 1.9450793e-38
2137.2764 -1546.1598 1000 1.9276126e-38
2109.2671 -1550.0963 990 1.9187519e-38
2081.2583 -1554.0327 980 1.9828574e-38
2075.24 -1562.019 980 2.0108385e-38
2039.2446 -1559.9373 970 2.0658322e-38
2009.2675 -1549.8693 960 2.1121445e-38
1973.2721 -1547.7875 950 2.0824415e-38
1943.2949 -1537.7194 940 2.0294567e-38
1913.3176 -1527.6512 930 2.0754462e-38
1893.295 -1537.6058 920 2.0477162e-38
1871.3042 -1533.5559 920 2.0938492e-38
1849.3132 -1529.506 910 2.057115e-38
1811.3497 -1513.4198 900 2.0753027e-38
1799.3135 -1529.3925 900 2.0844504e-38
1761.3499 -1513.3063 880 2.1305834e-38
1747.3453 -1515.2744 880 2.0934904e-38
1725.3545 -1511.2245 870 2.0936698e-38
1695.3772 -1501.1564 860 2.1303681e-38
1675.3546 -1511.111 860 2.1026381e-38
1653.3638 -1507.061 850 2.1117858e-38
1639.3593 -1509.0293 850 2.1489505e-38
1617.3684 -1504.9792 840 2.1303681e-38
1587.3911 -1494.9113 830 2.1489505e-38
1573.3866 -1496.8794 830 2.2132353e-38
1551.3958 -1492.8295 820 2.1671382e-38
1535.4231 -1480.7932 810 2.1305834e-38
1513.4323 -1476.7433 800 2.1397669e-38
1491.4414 -1472.6934 790 2.1855412e-38
1469.4504 -1468.6433 790 2.1854336e-38
1455.446 -1470.6116 790 1.771564e-38
1441.4415 -1472.5798 780 2.0844863e-38
1419.4507 -1468.5298 780 2.0565051e-38
1405.4462 -1470.498 770 2.0016549e-38
1391.4417 -1472.4663 770 1.7886755e-38
1377.4371 -1474.4344 760 1.9087791e-38
1363.4326 -1476.4027 760 2.010408e-38
1347.4598 -1464.3663 750 2.0841993e-38
1325.469 -1460.3164 750 2.0381022e-38
1293.5237 -1436.2439 730 2.0476086e-38
1285.5372 -1430.2257 730 2.065868e-38
1016.537 -989.61377 560 2.0932752e-38
1010.5188 -997.6001 560 1.9644185e-38
996.51428 -999.56836 560 1.8999543e-38
996.51428 -999.56836 550 1.8999184e-38
982.50983 -1001.5366 550 1.8813361e-38
976.49164 -1009.5229 550 1.8258038e-38
976.49164 -1009.5229 550 1.8813002e-38
4868.0029 -348.35684 1480 1.5213364e-38
4849.9482 -372.31592 1480 1.5212645e-38
4823.9077 -390.25684 1480 1.5304839e-38
4835.8306 -424.284 1490 1.5396669e-38
4831.7803 -446.27484 1490 1.4750959e-38
4879.6987 -482.38373 1510 1.2171268e-38
5591.0518 -767.99957 1770 1.0220701e-38
5610.9609 -808.04492 1790 1.3196508e-38
5608.8794 -844.04028 1790 4.332096e-39
5576.8203 -869.96753 1790 4.3317359e-39
5522.7705 -891.84485 1780 4.3317345e-39
4855.8911 -1278.3318 1680 4.8834705e-39
4777.8823 -1282.1547 1650 4.3321016e-39
4791.7734 -1330.1863 1670 4.3324547e-39
4705.7783 -1327.9911 1640 4.3317387e-39
4673.7192 -1353.9183 1640 7.563266e-39
4595.7104 -1357.7412 1620 6.9128618e-39
4541.6606 -1379.6185 1610 7.5585801e-39
4575.5742 -1417.6957 1630 1.0880879e-38
4475.5742 -1417.4686 1600 9.9549686e-39
4549.4199 -1485.6365 1630 1.1801031e-38
4599.3062 -1535.7499 1660 1.1894318e-38
4589.2383 -1565.7271 1660 1.1801406e-38
4527.2021 -1581.5862 1650 1.1526987e-38
4509.1475 -1605.5453 1650 1.1432634e-38
4447.1113 -1621.4045 1630 9.3164628e-39
4429.0566 -1645.3635 1630 4.4239721e-39
4359.0342 -1655.2046 1620 2.1219372e-39
3985.1897 -1586.3556 1500 5.6192741e-39
3929.1716 -1594.2284 1480 5.9916327e-39
3819.2173 -1573.9788 1450 1.7152368e-38
3731.2539 -1557.7789 1420 6.4548039e-39
3683.2222 -1571.6699 1410 7.7584655e-39
3649.1951 -1583.5928 1400 8.9375461e-39
3615.168 -1595.5155 1400 1.0037394e-38
3543.1772 -1591.3521 1380 8.4780211e-39
3525.1228 -1615.3112 1380 8.4798245e-39
3658.8091 -1753.615 1440 8.5691461e-39
3608.8093 -1753.5015 1430 8.7542492e-39
3568.7639 -1773.4106 1420 8.570581e-39
3542.7231 -1791.3516 1420 8.4783882e-39
3516.6824 -1809.2925 1410 5.5306714e-39
3426.7507 -1779.0881 1380 1.7244494e-38
3314.8281 -1744.834 1350 9.47926e-39
3248.8555 -1732.6842 1320 8.1978917e-39
3214.8284 -1744.6069 1320 1.6594862e-38
3188.7876 -1762.5479 1310 1.5857326e-38
3106.8423 -1738.3617 1280 1.411094e-38
3024.897 -1714.1757 1260 1.466597e-38
2950.938 -1696.0077 1230 1.5217361e-38
2867.0247 -1657.817 1200 1.5680499e-38
2801.052 -1645.6672 1180 1.5026163e-38
2773.043 -1649.6036 1180 1.5498612e-38
2739.0159 -1661.5264 1170 1.7337853e-38
2711.0068 -1665.4628 1160 1.7705918e-38
2667.0251 -1657.3629 1150 1.7701618e-38
2607.0706 -1637.2267 1130 1.7520452e-38
2571.0752 -1635.145 1120 1.7795243e-38
2543.0664 -1639.0814 1110 1.6232204e-38
2499.0845 -1630.9816 1090 1.7890327e-38
2471.0754 -1634.918 1090 1.7982171e-38
2403.1348 -1608.7637 1060 1.761265e-38
2341.2122 -1574.6229 1040 1.8720795e-38
2313.2031 -1578.5593 1030 1.936796e-38
2285.1941 -1582.4957 1030 1.9458721e-38
2257.1851 -1586.4323 1020 1.9553785e-38
2227.208 -1576.3641 1010 2.0375282e-38
2159.2671 -1550.2098 990 1.8993445e-38
2129.29 -1540.1417 970 2.0470705e-38
2109.2671 -1550.0963 970 1.9833596e-38
2089.2446 -1560.0508 960 2.0195916e-38
2069.2219 -1570.0054 960 1.9829291e-38
2039.2446 -1559.9373 950 2.0005036e-38
2009.2675 -1549.8693 940 2.0936339e-38
1973.2721 -1547.7875 930 2.158134e-38
1943.2949 -1537.7194 920 2.0753386e-38
1913.3176 -1527.6512 910 2.0937057e-38
1893.295 -1537.6058 910 2.0751233e-38
1871.3042 -1533.5559 900 2.1489505e-38
1841.3269 -1523.4878 890 2.1118934e-38
1819.3361 -1519.4379 880 2.1211487e-38
1799.3135 -1529.3925 880 2.1489505e-38
1769.3362 -1519.3243 870 2.1120369e-38
1755.3317 -1521.2926 860 2.0842351e-38
1735.3091 -1531.2472 860 2.1120369e-38
1697.3455 -1515.1609 850 2.0753745e-38
1691.3273 -1523.1472 850 2.1030327e-38
1661.3501 -1513.0792 840 2.1212205e-38
1639.3593 -1509.0293 830 2.130404e-38
1617.3684 -1504.9792 820 2.1489505e-38
1587.3911 -1494.9113 810 2.1856847e-38
1581.373 -1502.8976 810 2.1856129e-38
1551.3958 -1492.8295 800 2.0754821e-38
1527.4368 -1474.775 790 2.0844504e-38
1505.4459 -1470.7251 790 2.1580981e-38
1483.455 -1466.6752 780 2.0477521e-38
1469.4504 -1468.6433 770 2.1948682e-38
1447.4596 -1464.5934 770 2.1208976e-38
1433.4551 -1466.5616 760 2.0201655e-38
1419.4507 -1468.5298 760 1.9459079e-38
1397.4597 -1464.4799 760 1.9920409e-38
1383.4552 -1466.4481 750 1.9091379e-38
1377.4371 -1474.4344 750 2.0195557e-38
1363.4326 -1476.4027 750 2.0475368e-38
1347.4598 -1464.3663 740 2.0290621e-38
1315.5144 -1440.2938 730 1.9457286e-38
1291.5554 -1422.2394 720 1.6595631e-38
1277.5509 -1424.2075 710 1.5598309e-38
1016.537 -989.61377 550 2.029098e-38
1010.5188 -997.6001 550 1.9092096e-38
1004.5007 -1005.5865 550 1.8908425e-38
996.51428 -999.56836 550 1.8997032e-38
982.50983 -1001.5366 540 1.8815155e-38
976.49164 -1009.5229 540 1.8719732e-38
976.49164 -1009.5229 540 1.8812643e-38
4868.0029 -348.35684 1450 1.4937856e-38
4863.9531 -370.34769 1460 1.5121874e-38
4831.894 -396.27496 1450 1.512188e-38
4827.8442 -418.26581 1460 1.4845304e-38
4831.7803 -446.27484 1460 1.2907776e-38
4879.6987 -482.38373 1480 1.4014459e-38
5521.1431 -727.84076 1710 3.5023465e-39
5585.0337 -775.98596 1730 5.9876418e-39
5624.9653 -806.07666 1750 2.2401248e-38
5622.8838 -842.07208 1760 5.9044594e-39
5598.811 -874.01746 1760 4.4242902e-39
5522.7705 -891.84485 1740 4.3335337e-39
4807.8599 -1292.2227 1630 4.5175676e-39
4813.7642 -1334.2362 1640 4.7008799e-39
4721.751 -1340.0273 1610 4.5161327e-39
4681.7056 -1359.9364 1610 1.0140464e-38
4603.6968 -1363.7594 1590 6.8213864e-39
4541.6606 -1379.6185 1580 8.1110308e-39
4569.5562 -1425.682 1590 1.1615569e-38
4571.4106 -1489.6864 1600 1.088053e-38
4591.3198 -1529.7317 1620 1.1067073e-38
4575.2334 -1567.6952 1620 1.1065998e-38
4535.1885 -1587.6044 1620 1.1341869e-38
4509.1475 -1605.5453 1610 1.1157472e-38
4447.1113 -1621.4045 1600 1.0971651e-38
4429.0566 -1645.3635 1600 4.61272e-39
4359.0342 -1655.2046 1580 2.9502686e-39
3985.1897 -1586.3556 1470 2.2105329e-39
3913.199 -1582.1921 1450 4.5219257e-39
3819.2173 -1573.9788 1420 1.9079491e-38
3717.2495 -1559.7472 1390 7.1894907e-39
3683.2222 -1571.6699 1380 7.0208837e-39
3641.2087 -1577.5746 1370 1.3089906e-38
3607.1816 -1589.4973 1360 1.060469e-38
3527.2046 -1579.3158 1340 8.6624165e-39
3479.1729 -1593.2068 1330 8.6620592e-39
3666.7954 -1759.6332 1410 8.3865471e-39
3608.8093 -1753.5015 1400 8.6624207e-39
3568.7639 -1773.4106 1390 8.1103203e-39
3542.7231 -1791.3516 1390 8.2940011e-39
3516.6824 -1809.2925 1380 5.2551705e-39
3426.7507 -1779.0881 1350 1.752076e-38
3314.8281 -1744.834 1320 1.5762241e-38
3248.8555 -1732.6842 1300 1.6320094e-38
3222.8147 -1750.6251 1290 1.7144794e-38
3196.7739 -1768.566 1290 1.7422855e-38
3122.8149 -1750.3981 1270 1.4571925e-38
3040.8696 -1726.2119 1240 1.4663821e-38
2958.9246 -1702.0258 1210 1.5309179e-38
2875.011 -1663.8352 1180 1.5771586e-38
2801.052 -1645.6672 1160 1.66993e-38
2773.043 -1649.6036 1150 1.7244223e-38
2739.0159 -1661.5264 1140 1.8167613e-38
2703.0205 -1659.4447 1130 1.7707005e-38
2659.0388 -1651.3447 1120 1.6040658e-38
2607.0706 -1637.2267 1100 1.7153117e-38
2571.0752 -1635.145 1090 1.7155625e-38
2535.0798 -1633.0632 1080 1.7425756e-38
2491.0981 -1624.9634 1070 1.7981787e-38
2471.0754 -1634.918 1070 1.9090661e-38
2411.1211 -1614.7817 1040 1.9181062e-38
2349.1985 -1580.6411 1020 1.9365091e-38
2321.1895 -1584.5775 1010 1.7893926e-38
2301.167 -1594.5321 1010 1.9182497e-38
2265.1714 -1592.4503 1000 1.9000261e-38
2227.208 -1576.3641 990 2.0196274e-38
2151.2808 -1544.1917 960 1.9634499e-38
2121.3035 -1534.1235 950 1.9370831e-38
2109.2671 -1550.0963 950 1.990606e-38
2089.2446 -1560.0508 950 1.9920409e-38
2075.24 -1562.019 940 2.0753386e-38
2047.2311 -1565.9554 940 2.102961e-38
2017.2538 -1555.8873 930 2.1763218e-38
1981.2584 -1553.8057 920 2.0750516e-38
1943.2949 -1537.7194 900 2.0103004e-38
1913.3176 -1527.6512 890 2.074944e-38
1885.3086 -1531.5878 890 2.0824415e-38
1863.3177 -1527.5378 880 2.1026022e-38
1841.3269 -1523.4878 870 2.0378858e-38
1813.3179 -1527.4243 870 2.0812497e-38
1791.327 -1523.3743 860 2.1122163e-38
1761.3499 -1513.3063 850 2.075231e-38
1747.3453 -1515.2744 850 2.0386761e-38
1727.3226 -1525.229 840 2.1672817e-38
1703.3636 -1507.1746 830 2.1580623e-38
1683.3409 -1517.1292 830 2.158134e-38
1661.3501 -1513.0792 820 2.1671741e-38
1639.3593 -1509.0293 820 2.0753386e-38
1617.3684 -1504.9792 810 2.0654017e-38
1595.3776 -1500.9293 800 2.1121804e-38
1573.3866 -1496.8794 800 2.1213998e-38
1551.3958 -1492.8295 790 2.1580981e-38
1527.4368 -1474.775 780 2.158134e-38
1505.4459 -1470.7251 770 2.1948682e-38
1483.455 -1466.6752 760 2.1579547e-38
1461.4641 -1462.6252 760 2.0937057e-38
1445.4915 -1450.5889 750 2.0839123e-38
1431.4869 -1452.5571 750 1.9739249e-38
1417.4824 -1454.5254 740 1.9462667e-38
1403.4779 -1456.4935 740 1.9278278e-38
1381.4871 -1452.4436 740 1.9278996e-38
1369.4508 -1468.4163 730 1.9828574e-38
1355.4463 -1470.3845 730 1.9454057e-38
1331.4872 -1452.3301 720 1.5594428e-38
1305.5598 -1420.2711 710 2.0194122e-38
1283.5691 -1416.2212 700 1.964562e-38
1269.5645 -1418.1893 700 2.0014397e-38
1016.537 -989.61377 540 1.9368679e-38
1010.5188 -997.6001 540 1.862933e-38
996.51428 -999.56836 540 1.8260543e-38
996.51428 -999.56836 540 1.8353462e-38
982.50983 -1001.5366 530 1.8904838e-38
976.49164 -1009.5229 530 1.8724754e-38
976.49164 -1009.5229 530 1.927505e-38
4853.9985 -350.32504 1420 1.5028619e-38
4841.9619 -366.29776 1420 1.5305556e-38
4817.8896 -398.24319 1420 1.5398461e-38
4813.8394 -420.23407 1420 1.5028604e-38
4817.7759 -448.24304 1430 1.346201e-38
4879.6987 -482.38373 1450 1.4844212e-38
5513.1567 -721.82263 1670 3.5019864e-39
5555.0566 -765.91785 1690 3.595261e-39
5602.9746 -802.02673 1710 2.3509789e-38
5600.8931 -838.02209 1710 1.6783129e-38
5576.8203 -869.96753 1720 4.701233e-39
5500.7798 -887.79492 1700 4.5164872e-39
4837.8369 -1302.2908 1610 4.9767423e-39
4843.7417 -1344.3043 1610 4.7012302e-39
4743.7417 -1344.0773 1590 5.0675086e-39
4695.71 -1357.9683 1580 8.7564198e-39
4619.6694 -1375.7957 1560 7.0046917e-39
4563.6514 -1383.6685 1550 8.4805294e-39
4583.5605 -1423.7137 1560 1.1801755e-38
4483.561 -1423.4867 1530 1.1986155e-38
4609.3745 -1505.7726 1580 1.0513917e-38
4637.2695 -1551.8361 1600 1.1248577e-38
4605.2109 -1577.7633 1600 1.1247872e-38
4557.1792 -1591.6543 1590 1.0323771e-38
4525.1201 -1617.5815 1580 9.8674519e-39
4447.1113 -1621.4045 1570 9.4093394e-39
4429.0566 -1645.3635 1560 4.0580959e-39
4367.0205 -1661.2228 1550 3.8729395e-39
3993.176 -1592.3738 1440 1.0407613e-38
3891.208 -1578.1422 1410 1.0785786e-38
3819.2173 -1573.9788 1390 1.2445397e-38
3709.2632 -1553.729 1360 8.6686327e-39
3683.2222 -1571.6699 1350 8.2151347e-39
3633.2224 -1571.5564 1340 1.5394428e-38
3599.1953 -1583.4792 1330 1.0692919e-38
3527.2046 -1579.3158 1310 8.7538947e-39
3501.1638 -1597.2567 1310 8.3865513e-39
3674.7817 -1765.6512 1390 8.2932795e-39
3594.8047 -1755.4697 1370 8.4776665e-39
3582.7686 -1771.4424 1360 8.3854695e-39
3542.7231 -1791.3516 1360 8.569865e-39
3516.6824 -1809.2925 1360 4.8860307e-39
3418.7644 -1773.0701 1320 1.8441287e-38
3314.8281 -1744.834 1290 1.6777472e-38
3256.842 -1738.7023 1270 1.6687092e-38
3230.801 -1756.6432 1270 1.7418927e-38
3196.7739 -1768.566 1260 1.9084511e-38
3130.8015 -1756.4161 1240 1.4573367e-38
3040.8696 -1726.2119 1210 1.4753139e-38
2926.979 -1677.9532 1170 1.4846391e-38
2882.9973 -1669.8533 1160 1.6693933e-38
2809.0383 -1651.6853 1140 1.6510241e-38
2773.043 -1649.6036 1130 1.7525488e-38
2731.0295 -1655.5082 1120 1.8259117e-38
2695.0342 -1653.4265 1110 1.7334279e-38
2651.0525 -1645.3267 1090 1.3002532e-38
2599.0842 -1631.2086 1080 1.8259084e-38
2563.0889 -1629.1268 1070 1.6513138e-38
2519.1072 -1621.027 1060 1.8075789e-38
2483.1118 -1618.9452 1040 1.8260912e-38
2471.0754 -1634.918 1040 1.8998467e-38
2419.1074 -1620.7999 1030 1.9913235e-38
2357.1848 -1586.6593 1010 1.8721523e-38
2337.1621 -1596.6138 1000 1.8998108e-38
2317.1396 -1606.5684 1000 1.9276126e-38
2273.1577 -1598.4685 980 1.8910577e-38
2227.208 -1576.3641 970 1.9732792e-38
2149.3125 -1530.1871 940 1.9709355e-38
2121.3035 -1534.1235 930 2.0657246e-38
2109.2671 -1550.0963 930 1.9278278e-38
2081.2583 -1554.0327 930 2.0567921e-38
2075.24 -1562.019 930 2.1027457e-38
2039.2446 -1559.9373 920 2.0938492e-38
2009.2675 -1549.8693 910 2.0470598e-38
1981.2584 -1553.8057 900 2.0846656e-38
1943.2949 -1537.7194 880 2.0836612e-38
1913.3176 -1527.6512 880 2.0545321e-38
1885.3086 -1531.5878 870 2.0938492e-38
1863.3177 -1527.5378 860 2.1489505e-38
1833.3406 -1517.4697 850 2.0937774e-38
1821.3043 -1533.4424 850 2.0841634e-38
1783.3407 -1517.3562 840 2.0360799e-38
1761.3499 -1513.3063 830 2.1122163e-38
1747.3453 -1515.2744 830 2.1396234e-38
1733.3408 -1517.2427 830 2.0477162e-38
1703.3636 -1507.1746 820 2.1672817e-38
1683.3409 -1517.1292 810 2.1486635e-38
1661.3501 -1513.0792 810 2.1213998e-38
1647.3456 -1515.0474 800 2.1488787e-38
1609.3821 -1498.9612 790 2.1213281e-38
1587.3911 -1494.9113 780 2.2591531e-38
1573.3866 -1496.8794 780 2.2132353e-38
1551.3958 -1492.8295 770 2.1856847e-38
1527.4368 -1474.775 760 2.1673176e-38
1497.4595 -1464.7069 750 2.1393006e-38
1475.4686 -1460.657 750 2.1765011e-38
1459.496 -1448.6207 740 2.1397669e-38
1437.5051 -1444.5708 730 2.0935981e-38
1423.5006 -1446.5389 730 2.0843428e-38
1409.4961 -1448.5072 730 2.0291338e-38
1395.4916 -1450.4753 720 1.8619645e-38
1381.4871 -1452.4436 720 1.6056134e-38
1367.4825 -1454.4119 720 1.9276484e-38
1353.478 -1456.38 710 1.8908066e-38
1319.5645 -1418.3029 700 1.9180344e-38
1297.5735 -1414.2529 690 1.9642033e-38
1283.5691 -1416.2212 690 1.9461949e-38
1277.5509 -1424.2075 690 2.028811e-38
1016.537 -989.61377 530 1.8901609e-38
1010.5188 -997.6001 530 1.8625734e-38
1004.5007 -1005.5865 530 1.8166922e-38
996.51428 -999.56836 530 1.8353459e-38
982.50983 -1001.5366 520 1.8630766e-38
976.49164 -1009.5229 520 1.8540724e-38
968.50531 -1003.5048 520 1.9641674e-38
4860.0166 -342.33868 1390 1.5489938e-38
4841.9619 -366.29776 1390 1.5857633e-38
4823.9077 -390.25684 1390 1.5122238e-38
4813.8394 -420.23407 1390 1.2450028e-38
4831.7803 -446.27484 1400 1.4566893e-38
4893.7031 -480.41553 1420 1.5303742e-38
5499.1519 -723.79083 1630 3.8704046e-39
5547.0703 -759.89972 1650 3.2264911e-39
5588.9702 -803.99493 1670 2.3509752e-38
5600.8931 -838.02209 1670 2.3509846e-38
5584.8066 -875.98572 1680 6.4572758e-39
5508.7661 -893.81311 1660 4.7919951e-39
5512.7026 -921.82208 1670 5.1607692e-39
4845.8232 -1308.309 1570 5.1604147e-39
4843.7417 -1344.3043 1580 4.8849082e-39
4743.7417 -1344.0773 1560 5.2526103e-39
4695.71 -1357.9683 1540 8.4808951e-39
4619.6694 -1375.7957 1530 6.7295481e-39
4563.6514 -1383.6685 1510 8.9415075e-39
4583.5605 -1423.7137 1530 1.1801754e-38
4483.561 -1423.4867 1500 1.1709928e-38
4549.4199 -1485.6365 1530 1.1801402e-38
4645.2563 -1557.8542 1570 1.1341146e-38
4605.2109 -1577.7633 1560 1.0972366e-38
4549.1929 -1585.6362 1550 1.0972716e-38
4525.1201 -1617.5815 1550 8.1121462e-39
4455.0977 -1627.4226 1530 1.0236237e-38
4407.0659 -1641.3136 1530 9.8656527e-39
4351.0479 -1649.1864 1510 5.8033066e-39
3993.176 -1592.3738 1410 1.4091436e-38
3883.2217 -1572.124 1380 1.1890331e-38
3827.2039 -1579.9969 1360 8.2998446e-39
3701.2766 -1547.7109 1320 1.1248217e-38
3675.2358 -1565.6519 1320 6.921519e-39
3625.2361 -1565.5383 1310 1.7236924e-38
3585.1907 -1585.4474 1300 1.0046454e-38
3519.2183 -1573.2976 1280 8.479463e-39
3501.1638 -1597.2567 1280 8.5702251e-39
3704.759 -1775.7194 1370 8.6616921e-39
3594.8047 -1755.4697 1340 8.4769449e-39
3582.7686 -1771.4424 1340 8.4776679e-39
3542.7231 -1791.3516 1330 8.6627739e-39
3508.696 -1803.2743 1320 4.791684e-39
3418.7644 -1773.0701 1290 1.7611543e-38
3322.8145 -1750.8522 1260 1.7701216e-38
3256.842 -1738.7023 1250 1.7338542e-38
3230.801 -1756.6432 1240 1.8991271e-38
3204.7603 -1774.5841 1240 1.9728099e-38
3130.8015 -1756.4161 1220 1.4941095e-38
3040.8696 -1726.2119 1190 1.5032939e-38
2926.979 -1677.9532 1150 1.5305245e-38
2890.9836 -1675.8715 1140 1.448519e-38
2825.011 -1663.7217 1120 1.6969076e-38
2781.0293 -1655.6217 1110 1.7705564e-38
2739.0159 -1661.5264 1100 1.7706271e-38
2687.0479 -1647.4083 1080 1.6964772e-38
2643.0659 -1639.3085 1070 1.7615901e-38
2599.0842 -1631.2086 1060 1.7525132e-38
2571.0752 -1635.145 1050 1.8258385e-38
2527.0935 -1627.0452 1040 1.9178192e-38
2491.0981 -1624.9634 1020 1.8810121e-38
2463.0891 -1628.8998 1020 1.881156e-38
2427.0938 -1626.8181 1010 1.9177474e-38
2373.1575 -1598.6956 990 1.8536058e-38
2353.1348 -1608.6501 990 1.8721167e-38
2333.1123 -1618.6047 980 1.9553067e-38
2297.1167 -1616.5229 970 1.964562e-38
2237.1626 -1596.3867 950 1.9186801e-38
2141.3262 -1524.1689 920 2.0093677e-38
2113.3171 -1528.1053 910 2.0473575e-38
2101.2808 -1544.0781 910 2.0013321e-38
2081.2583 -1554.0327 910 2.0660115e-38
2067.2537 -1556.0009 900 2.0751951e-38
2039.2446 -1559.9373 900 2.1030327e-38
2009.2675 -1549.8693 890 2.008933e-38
1981.2584 -1553.8057 880 2.0938492e-38
1943.2949 -1537.7194 870 2.0932393e-38
1913.3176 -1527.6512 860 2.1028175e-38
1885.3086 -1531.5878 850 1.8508611e-38
1863.3177 -1527.5378 850 2.1673176e-38
1849.3132 -1529.506 840 2.130404e-38
1829.2906 -1539.4606 840 2.1673176e-38
1791.327 -1523.3743 820 2.147946e-38
1761.3499 -1513.3063 820 2.1948323e-38
1747.3453 -1515.2744 810 2.1396593e-38
1717.3682 -1505.2063 800 2.0753027e-38
1687.3909 -1495.1383 790 2.158134e-38
1681.3728 -1503.1246 790 2.1487352e-38
1653.3638 -1507.061 790 2.1580623e-38
1631.3729 -1503.0111 780 2.1856488e-38
1607.4138 -1484.9567 770 2.2958873e-38
1585.423 -1480.9067 770 2.240786e-38
1563.4321 -1476.8568 760 2.2223471e-38
1541.4413 -1472.8069 750 2.0012245e-38
1519.4503 -1468.7568 750 2.2131277e-38
1497.4595 -1464.7069 740 2.0752668e-38
1481.4868 -1452.6707 730 2.1303681e-38
1451.5095 -1442.6025 720 2.1489505e-38
1429.5187 -1438.5526 720 2.075231e-38
1415.5142 -1440.5209 710 2.1301888e-38
1409.4961 -1448.5072 710 1.9271462e-38
1387.5052 -1444.4573 710 1.78885e-38
1371.5325 -1432.4209 700 1.8074013e-38
1359.4962 -1448.3937 700 1.5874922e-38
1343.5234 -1436.3574 690 1.9181062e-38
1311.5781 -1412.2848 680 1.7708432e-38
1289.5872 -1408.2349 670 1.9644185e-38
1283.5691 -1416.2212 670 1.8904479e-38
1024.5233 -995.63196 530 1.8630766e-38
1024.5233 -995.63196 520 1.7894289e-38
1018.5052 -1003.6183 520 1.7799583e-38
1004.5007 -1005.5865 520 1.7708105e-38
996.51428 -999.56836 520 1.9551632e-38
982.50983 -1001.5366 520 1.9277561e-38
976.49164 -1009.5229 510 1.8905555e-38
968.50531 -1003.5048 510 2.0201297e-38
4853.9985 -350.32504 1360 1.5764734e-38
4835.9438 -374.28412 1360 1.5948401e-38
4817.8896 -398.24319 1360 1.5764375e-38
4813.8394 -420.23407 1360 1.3551649e-38
4839.7666 -452.29297 1370 1.5027875e-38
4901.6895 -486.43365 1400 1.4846726e-38
5485.1475 -725.75903 1590 3.8707661e-39
5533.0659 -761.86792 1610 2.6740334e-39
5580.9839 -797.97681 1630 1.9717163e-38
5586.8887 -839.9903 1640 2.3504387e-38
5576.8203 -869.96753 1640 1.1797404e-38
5500.7798 -887.79492 1620 5.0692995e-39
5498.6978 -923.79028 1630 5.0685736e-39
4845.8232 -1308.309 1540 4.9778157e-39
4843.7417 -1344.3043 1540 4.8849124e-39
4751.728 -1350.0955 1520 5.5284784e-39
4695.71 -1357.9683 1510 8.2028747e-39
4619.6694 -1375.7957 1490 6.8217395e-39
4563.6514 -1383.6685 1480 9.7709025e-39
4583.5605 -1423.7137 1490 1.2168013e-38
4505.5518 -1427.5366 1470 1.2080497e-38
4571.4106 -1489.6864 1500 1.189253e-38
4613.1973 -1583.7815 1530 1.0972359e-38
4557.1792 -1591.6543 1520 1.0970918e-38
4525.1201 -1617.5815 1510 1.0235859e-38
4455.0977 -1627.4226 1500 1.0417753e-38
4399.0796 -1635.2954 1490 9.3060217e-39
4015.167 -1596.4237 1380 1.5197045e-38
3905.2126 -1576.174 1350 1.272225e-38
3857.1809 -1590.0649 1340 7.1894837e-39
3709.2632 -1553.729 1300 1.4386426e-38
3683.2222 -1571.6699 1290 6.6381064e-39
3649.1951 -1583.5928 1290 1.7053268e-38
3585.1907 -1585.4474 1270 9.3092125e-39
3505.2136 -1575.2657 1250 8.6631326e-39
3479.1729 -1593.2068 1250 8.5716558e-39
3608.8093 -1753.5015 1310 8.6624151e-39
3568.7639 -1773.4106 1310 8.7546051e-39
3534.7368 -1785.3334 1300 8.6631424e-39
3500.7097 -1797.2561 1290 4.2399466e-39
3418.7644 -1773.0701 1270 1.8534219e-38
3322.8145 -1750.8522 1240 1.825585e-38
3264.8284 -1744.7205 1220 1.7704455e-38
3238.7876 -1762.6614 1220 1.789098e-38
3196.7739 -1768.566 1210 1.9909593e-38
3122.8149 -1750.3981 1190 1.6044563e-38
3040.8696 -1726.2119 1160 1.4936457e-38
2934.9653 -1683.9713 1130 1.5861645e-38
2890.9836 -1675.8715 1110 1.6693558e-38
2825.011 -1663.7217 1100 1.6596704e-38
2773.043 -1649.6036 1080 1.7426827e-38
2739.0159 -1661.5264 1070 1.6877945e-38
2687.0479 -1647.4083 1060 1.7340002e-38
2643.0659 -1639.3085 1050 1.8164739e-38
2607.0706 -1637.2267 1030 1.8901941e-38
2571.0752 -1635.145 1030 1.8165822e-38
2519.1072 -1621.027 1010 1.8718637e-38
2483.1118 -1618.9452 1000 1.8995206e-38
2463.0891 -1628.8998 1000 1.8260554e-38
2419.1074 -1620.7999 990 1.789177e-38
2375.1257 -1612.7001 970 1.9732433e-38
2363.0894 -1628.6727 970 1.8629331e-38
2335.0806 -1632.6091 970 1.8631479e-38
2305.1033 -1622.5411 960 1.9828574e-38
2237.1626 -1596.3867 930 2.0472498e-38
2149.3125 -1530.1871 900 2.0275913e-38
2121.3035 -1534.1235 900 2.0661909e-38
2109.2671 -1550.0963 890 2.0383533e-38
2081.2583 -1554.0327 890 2.0753027e-38
2067.2537 -1556.0009 880 2.1305475e-38
2039.2446 -1559.9373 880 2.102961e-38
2009.2675 -1549.8693 870 2.0200579e-38
1989.2449 -1559.8237 860 2.1487711e-38
1943.2949 -1537.7194 850 2.1208976e-38
1913.3176 -1527.6512 840 2.1305834e-38
1885.3086 -1531.5878 840 2.222383e-38
1863.3177 -1527.5378 830 2.1948682e-38
1849.3132 -1529.506 820 2.1030327e-38
1829.2906 -1539.4606 820 2.1211487e-38
1791.327 -1523.3743 810 2.158134e-38
1769.3362 -1519.3243 800 2.1121804e-38
1747.3453 -1515.2744 790 2.0659757e-38
1725.3545 -1511.2245 790 2.1029968e-38
1695.3772 -1501.1564 780 2.1947965e-38
1673.3864 -1497.1064 770 2.1580981e-38
1643.4092 -1487.0383 770 2.148807e-38
1621.4183 -1482.9884 760 2.2132353e-38
1599.4275 -1478.9385 750 2.2867037e-38
1577.4366 -1474.8885 750 2.2040159e-38
1555.4457 -1470.8386 740 2.1300811e-38
1533.4548 -1466.7887 730 2.0566845e-38
1511.464 -1462.7388 730 2.0935622e-38
1497.4595 -1464.7069 720 2.0846656e-38
1473.5005 -1446.6525 710 2.148807e-38
1443.5232 -1436.5844 700 2.0567204e-38
1427.5505 -1424.5481 700 2.0474651e-38
1407.5278 -1434.5027 700 1.9728487e-38
1401.5096 -1442.489 700 1.9089944e-38
1387.5052 -1444.4573 690 1.5690595e-38
1371.5325 -1432.4209 680 1.3455287e-38
1357.528 -1434.3892 680 1.4657739e-38
1335.5371 -1430.3392 680 1.7525489e-38
1311.5781 -1412.2848 670 1.604892e-38
1297.5735 -1414.2529 660 1.8907708e-38
1281.6008 -1402.2167 660 1.7336074e-38
1030.5415 -987.64563 510 1.4765413e-38
1024.5233 -995.63196 510 1.7066334e-38
1018.5052 -1003.6183 520 1.8811926e-38
1012.487 -1011.6046 520 1.8537137e-38
998.48248 -1013.5729 510 1.9459438e-38
982.50983 -1001.5366 510 2.010695e-38
976.49164 -1009.5229 500 1.9734586e-38
958.55072 -983.48218 500 2.0195557e-38
4832.0073 -346.27512 1320 1.5674686e-38
4827.9575 -368.26596 1320 1.5765087e-38
4823.9077 -390.25684 1330 1.5123673e-38
4821.8257 -426.2522 1330 1.4198823e-38
4853.7715 -450.32477 1350 1.5121864e-38
5469.1748 -713.72272 1550 4.3306611e-39
5511.0747 -757.81799 1570 3.7767754e-39
5558.9932 -793.92688 1580 1.1241349e-38
5578.9023 -833.97217 1590 1.2900499e-38
5554.8296 -865.9176 1600 1.1889589e-38
5500.7798 -887.79492 1580 6.1774463e-39
5476.707 -919.74036 1590 4.885267e-39
4837.8369 -1302.2908 1500 4.9767395e-39
4843.7417 -1344.3043 1510 5.2529677e-39
4743.7417 -1344.0773 1490 5.6213873e-39
4689.6919 -1365.9546 1470 8.2046698e-39
4619.6694 -1375.7957 1460 7.0043329e-39
4571.6377 -1389.6866 1450 9.6808662e-39
4583.5605 -1423.7137 1460 1.1618798e-38
4513.5381 -1433.5548 1440 1.2076904e-38
4635.188 -1587.8314 1500 1.0879803e-38
4565.1655 -1597.6725 1490 1.078688e-38
4525.1201 -1617.5815 1480 1.0048584e-38
4461.1157 -1619.4363 1470 1.0050404e-38
4399.0796 -1635.2954 1450 9.1180431e-39
4023.1533 -1602.4419 1350 1.5102703e-38
3929.1716 -1594.2284 1330 1.2256585e-38
3873.1536 -1602.1013 1320 1.2440965e-38
3731.2539 -1557.7789 1280 1.5121161e-38
3691.2087 -1577.6881 1270 9.7655425e-39
3673.1543 -1601.6472 1270 8.4812609e-39
3615.168 -1595.5155 1250 9.3084964e-39
3559.1499 -1603.3883 1240 8.5705824e-39
3509.1501 -1603.2748 1230 8.4794658e-39
3616.7957 -1759.5197 1280 8.4791127e-39
3568.7639 -1773.4106 1280 8.5705852e-39
3534.7368 -1785.3334 1270 9.1226702e-39
3500.7097 -1797.2561 1260 3.8711613e-39
3418.7644 -1773.0701 1240 1.9179595e-38
3322.8145 -1750.8522 1210 1.7790951e-38
3256.842 -1738.7023 1190 1.7702674e-38
3230.801 -1756.6432 1190 1.8350145e-38
3188.7876 -1762.5479 1180 4.9771291e-39
3106.8423 -1738.3617 1150 1.6137855e-38
3040.8696 -1726.2119 1140 1.5400298e-38
2934.9653 -1683.9713 1100 1.5402466e-38
2890.9836 -1675.8715 1090 1.5954915e-38
2825.011 -1663.7217 1070 1.6416619e-38
2781.0293 -1655.6217 1060 1.6969426e-38
2739.0159 -1661.5264 1050 1.7523675e-38
2687.0479 -1647.4083 1030 1.6969796e-38
2643.0659 -1639.3085 1020 1.5405353e-38
2599.0842 -1631.2086 1010 1.7798843e-38
2563.0889 -1629.1268 1000 1.5120107e-38
2519.1072 -1621.027 990 1.4379633e-38
2483.1118 -1618.9452 980 1.7985407e-38
2463.0891 -1628.8998 980 1.7798478e-38
2419.1074 -1620.7999 960 1.5215571e-38
2391.0984 -1624.7363 960 1.5502978e-38
2379.0623 -1640.7091 960 1.8075433e-38
2351.0532 -1644.6455 950 1.8350944e-38
2305.1033 -1622.5411 940 1.964275e-38
2227.208 -1576.3641 910 1.9740325e-38
2149.3125 -1530.1871 880 2.028237e-38
2129.29 -1540.1417 880 2.0753027e-38
2109.2671 -1550.0963 880 2.1122163e-38
2081.2583 -1554.0327 870 2.1121445e-38
2067.2537 -1556.0009 870 2.1580623e-38
2031.2583 -1553.9192 860 2.0935981e-38
2009.2675 -1549.8693 850 2.1122163e-38
1989.2449 -1559.8237 850 2.158134e-38
1951.2812 -1543.7375 840 2.158134e-38
1921.3041 -1533.6694 820 2.1030327e-38
1893.295 -1537.6058 820 2.0846656e-38
1863.3177 -1527.5378 810 2.20398e-38
1849.3132 -1529.506 810 2.0754821e-38
1829.2906 -1539.4606 800 2.1028175e-38
1791.327 -1523.3743 790 2.1673176e-38
1769.3362 -1519.3243 790 2.0846297e-38
1739.359 -1509.2563 780 2.0935981e-38
1717.3682 -1505.2063 770 2.0567921e-38
1687.3909 -1495.1383 760 2.1489505e-38
1657.4137 -1485.0702 750 2.1305834e-38
1633.4546 -1467.0157 740 2.1765011e-38
1613.432 -1476.9703 740 2.1765011e-38
1591.441 -1472.9203 730 2.158134e-38
1569.4502 -1468.8704 730 2.1305475e-38
1547.4594 -1464.8204 720 2.2131636e-38
1531.4867 -1452.7842 720 2.1489146e-38
1517.4822 -1454.7523 710 2.1028534e-38
1487.5049 -1444.6843 700 1.8817666e-38
1465.514 -1440.6344 700 2.0565051e-38
1441.5551 -1422.58 690 2.0568997e-38
1427.5505 -1424.5481 680 2.1765011e-38
1407.5278 -1434.5027 680 2.1305834e-38
1401.5096 -1442.489 680 2.1392647e-38
1387.5052 -1444.4573 680 1.9188954e-38
1363.5461 -1426.4028 670 2.12983e-38
1349.5416 -1428.371 670 1.5770901e-38
1333.569 -1416.3347 660 1.724353e-38
1311.5781 -1412.2848 650 1.3461987e-38
1012.6005 -961.60474 500 1.9553426e-38
1022.5551 -981.62744 500 1.8723319e-38
1018.5052 -1003.6183 510 1.8812643e-38
1020.4734 -1017.6228 510 1.807796e-38
1014.4552 -1025.6091 510 1.8723678e-38
1008.4371 -1033.5955 510 1.9644903e-38
980.54156 -987.5321 490 2.0846297e-38
954.61432 -955.47314 480 2.1763576e-38
950.56439 -977.46399 480 2.1120728e-38
4766.0347 -334.12527 1270 1.5858e-38
4805.9668 -364.21603 1290 1.5767238e-38
4817.8896 -398.24319 1300 1.2816288e-38
4827.8442 -418.26581 1300 1.4292113e-38
4861.7578 -456.34296 1320 1.5214431e-38
5463.1567 -721.70911 1510 4.2395416e-39
5511.0747 -757.81799 1530 5.2508041e-39
5552.9746 -801.91321 1550 9.4935897e-39
5578.9023 -833.97217 1560 1.0138236e-38
5554.8296 -865.9176 1560 1.1610484e-38
5500.7798 -887.79492 1550 9.9531259e-39
5476.707 -919.74036 1550 5.2536809e-39
4823.8325 -1304.259 1460 5.2529677e-39
4835.7554 -1338.2861 1470 4.976385e-39
4735.7554 -1338.0591 1450 5.8054184e-39
4681.7056 -1359.9364 1440 7.928443e-39
4619.6694 -1375.7957 1420 7.1876424e-39
4563.6514 -1383.6685 1410 1.0325524e-38
4583.5605 -1423.7137 1420 1.1616638e-38
4513.5381 -1433.5548 1410 1.1892876e-38
4657.1787 -1591.8813 1480 1.060466e-38
4587.1562 -1601.7224 1460 1.0787247e-38
4539.1245 -1615.6134 1450 6.8243179e-39
4477.0884 -1631.4725 1440 1.0051119e-38
4407.0659 -1641.3136 1420 1.2076162e-38
4343.0615 -1643.1683 1410 4.8896082e-39
4023.1533 -1602.4419 1320 1.2803947e-38
3937.158 -1600.2466 1300 1.2999923e-38
3873.1536 -1602.1013 1290 1.4474626e-38
3747.2266 -1569.8153 1250 1.2720469e-38
3713.1995 -1581.738 1250 8.9365105e-39
3687.1587 -1599.679 1240 2.8562569e-39
3631.1406 -1607.5518 1230 9.3085104e-39
3567.1362 -1609.4065 1220 8.6631354e-39
3525.1228 -1615.3112 1210 8.662062e-39
3632.7683 -1771.5559 1260 9.0304788e-39
3568.7639 -1773.4106 1250 8.9386489e-39
3534.7368 -1785.3334 1240 9.0311962e-39
3484.7368 -1785.2198 1230 3.8711515e-39
3410.7781 -1767.0519 1210 1.9730966e-38
3322.8145 -1750.8522 1180 1.8894783e-38
