# .PCD v0.7 - Point Cloud Data file format
VERSION 0.7
FIELDS x y z rgb
SIZE 4 4 4 4
TYPE F F F F
COUNT 1 1 1 1
WIDTH 1220
HEIGHT 1
VIEWPOINT 0 0 0 1 0 0 0
POINTS 1220
DATA ascii
4474.4199 -1557.9116 1570 6.1734904e-39
4441.9287 -1573.5419 1560 5.6221103e-39
4456.167 -1615.936 1570 4.7934357e-39
4413.7725 -1630.1744 1560 5.0689394e-39
4428.0112 -1672.5686 1560 9.0304564e-39
4432.3467 -1713.571 1570 1.0320122e-38
4428.1719 -1743.2792 1570 1.0875095e-38
4423.9966 -1772.9872 1570 8.4801791e-39
4400.0161 -1799.9117 1560 9.4064668e-39
4405.7432 -1831.0115 1560 1.2075118e-38
4344.9355 -1832.5638 1540 1.1710287e-38
4302.5415 -1846.8022 1530 1.1247515e-38
4296.9746 -1886.413 1530 1.0876928e-38
4227.6558 -1876.6709 1510 1.0050047e-38
4205.0669 -1893.6927 1500 1.0417752e-38
4152.7705 -1906.5394 1480 1.0142605e-38
4083.4514 -1896.7974 1460 9.681274e-39
4032.5461 -1899.7415 1440 9.3121258e-39
3925.0085 -1874.5297 1400 7.2849051e-39
3902.4197 -1891.5516 1390 4.9796542e-39
3861.4172 -1895.8873 1380 3.8751045e-39
3792.0984 -1886.1453 1360 7.2812687e-39
3732.6824 -1877.7948 1330 1.1059127e-38
3671.8745 -1879.3472 1310 1.2074731e-38
3585.5339 -1847.0162 1280 1.2263836e-38
3516.2151 -1837.274 1260 9.4072095e-39
3495.0181 -1844.3933 1250 9.7713102e-39
3445.5046 -1837.4347 1230 9.0326564e-39
3395.9912 -1830.476 1210 9.9542414e-39
3363.4998 -1846.1062 1210 8.6638613e-39
3221.9182 -1775.7168 1150 7.7422665e-39
3190.8184 -1781.4443 1140 8.1096043e-39
3437.3147 -1967.5613 1240 8.1099658e-39
3433.1396 -1997.2693 1240 7.8341034e-39
3375.1152 -1979.0162 1220 7.5582312e-39
3334.1128 -1983.3519 1200 7.9245026e-39
3312.9158 -1990.4712 1200 7.9266522e-39
3300.2295 -2008.8849 1190 1.0694689e-38
4734.085 1798.6154 1470 2.3509886e-38
4816.0898 1807.287 1500 2.3509886e-38
4907.9976 1814.5668 1530 2.3509886e-38
4957.5112 1807.608 1550 2.3509886e-38
4984.4355 1783.6276 1550 2.3509886e-38
4959.0635 1746.8003 1550 2.3509886e-38
4880.0024 1687.2236 1530 2.3509886e-38
4799.5498 1617.7443 1500 2.3509886e-38
4741.686 1565.2869 1480 2.3509886e-38
4802.4941 1566.8391 1500 2.3509886e-38
4893.0098 1564.2162 1530 2.3509886e-38
4942.5229 1557.2576 1550 2.3509886e-38
4842.2651 1490.5618 1520 2.3509886e-38
4836.6982 1450.951 1520 2.3509886e-38
4853.7202 1428.3622 1530 2.3326215e-38
4859.4478 1397.2625 1530 2.3050708e-38
4843.978 1359.0435 1530 2.1763935e-38
4851.0972 1337.8463 1530 2.2314231e-38
4866.7275 1305.3549 1540 2.1115706e-38
4841.355 1268.5276 1530 1.4018431e-38
4825.8857 1230.3086 1530 7.8387977e-39
4811.8076 1201.9922 1530 6.2696532e-39
4838.7324 1178.0117 1530 6.4522409e-39
4844.46 1146.9119 1540 6.4522423e-39
4819.0874 1110.0846 1530 6.0856094e-39
4783.8125 1074.6492 1520 6.269649e-39
4779.6372 1044.941 1520 6.4533199e-39
4752.8735 998.21112 1510 6.0866912e-39
4697.793 965.55908 1500 5.6257243e-39
4713.4233 933.06757 1500 1.0051108e-38
4729.0532 900.57605 1510 1.539954e-38
4714.9756 872.25977 1510 2.0105135e-38
4699.5059 834.04077 1500 2.010191e-38
4705.2334 802.94098 1510 2.0097218e-38
4681.2529 776.01642 1500 1.89959e-38
4665.7832 737.79742 1500 1.9362879e-38
4713.9048 720.9361 1520 1.9270697e-38
4780.4399 691.38861 1540 1.9821343e-38
4828.562 674.52728 1560 1.9640547e-38
4813.0923 636.30829 1550 1.9639473e-38
4767.9146 602.26447 1540 1.9181726e-38
4773.6421 571.16467 1540 1.9548343e-38
4738.3672 535.72919 1530 2.009721e-38
4734.1919 506.02112 1530 1.9917849e-38
4769.6274 470.74615 1540 2.0469586e-38
4755.5498 442.42984 1540 2.0653982e-38
4730.1772 405.6026 1530 2.0654685e-38
4704.8052 368.77533 1530 2.0376312e-38
4700.6299 339.06729 1530 2.0835135e-38
4675.2573 302.24002 1520 2.0009315e-38
4651.2769 275.31543 1510 2.0283387e-38
4647.1016 245.60739 1510 2.0096485e-38
4621.7295 208.78014 1510 2.0009305e-38
4607.6519 180.46382 1500 2.0099705e-38
4521.4717 142.08426 1480 2.0374863e-38
4426.7803 114.99911 1450 2.0101519e-38
4493.3154 85.451645 1470 2.0007891e-38
4477.8462 47.232651 1470 2.0558535e-38
3676.0503 18.541832 1200 2.0376668e-38
3722.78 -8.2221832 1210 2.0284836e-38
3739.802 -30.811005 1220 2.0743651e-38
3763.9431 -74.596924 1230 1.8717152e-38
3860.1865 -108.31959 1270 1.9083772e-38
3846.1086 -136.63589 1260 1.9362506e-38
3742.9067 -152.42664 1230 2.0007179e-38
3699.1206 -176.56775 1210 2.0467423e-38
3645.4321 -199.31714 1200 1.945435e-38
3672.3567 -223.2977 1210 1.9618938e-38
3668.1814 -253.00574 1210 1.6106505e-38
3665.3979 -272.8111 1210 1.3432449e-38
3700.8335 -308.08606 1220 1.2063196e-38
3777.2715 -339.02527 1250 1.5578503e-38
3853.7095 -369.96448 1280 1.8992985e-38
4811.6465 -595.47821 1610 1.8991947e-38
4738.1528 -615.44415 1590 1.8900111e-38
4705.6611 -631.07428 1570 1.7518975e-38
4719.8999 -673.46851 1580 1.7242376e-38
4814.7515 -717.09381 1620 1.6963641e-38
4928.0166 -773.40533 1660 1.7793028e-38
4952.1577 -817.19122 1670 1.816182e-38
4966.396 -859.58539 1670 1.5671096e-38
4990.5371 -903.37134 1680 1.2353837e-38
5025.9727 -938.6463 1700 8.2957878e-39
5030.3086 -979.64874 1700 5.2536964e-39
5044.5469 -1022.0429 1710 1.4470311e-38
5068.688 -1065.8289 1720 2.0093509e-38
5082.9263 -1108.223 1720 2.0644899e-38
5116.9702 -1153.4006 1740 8.849665e-39
4579.0137 -1532.2183 1570 8.6634773e-39
4488.498 -1529.5953 1540 6.7280922e-39
4494.2256 -1560.6951 1550 6.1742023e-39
4450.4395 -1584.8363 1540 5.6221131e-39
4466.0693 -1617.3278 1540 5.4373603e-39
4423.6758 -1631.5662 1530 5.3451633e-39
4428.0112 -1672.5686 1530 7.187634e-39
4432.3467 -1713.571 1540 8.3854681e-39
4428.1719 -1743.2792 1540 9.1237492e-39
4423.9966 -1772.9872 1530 8.1128399e-39
4381.6025 -1787.2256 1520 9.590135e-39
4339.208 -1801.4641 1510 1.1985429e-38
4286.9111 -1814.3108 1490 1.2078351e-38
4254.4199 -1829.9409 1480 1.1985072e-38
4260.1475 -1861.0406 1480 1.1432267e-38
4217.7529 -1875.2792 1470 1.0787978e-38
4203.6753 -1903.5955 1470 1.0417404e-38
4152.7705 -1906.5394 1450 9.5908748e-39
4091.9624 -1908.0918 1430 9.5890756e-39
4032.5461 -1899.7415 1410 8.4787609e-39
3925.0085 -1874.5297 1370 6.6330519e-39
3912.3223 -1892.9434 1370 4.3317527e-39
3861.4172 -1895.8873 1350 4.3346407e-39
3782.1958 -1884.7535 1330 7.5567794e-39
3732.6824 -1877.7948 1310 1.0782182e-38
3673.2664 -1869.4445 1290 1.1612311e-38
3603.9475 -1859.7024 1260 1.1891438e-38
3544.5315 -1851.3519 1240 9.5901602e-39
3503.5291 -1855.6877 1230 9.2206378e-39
3462.5266 -1860.0234 1220 8.0192191e-39
3422.9158 -1854.4565 1200 8.5709496e-39
3373.4023 -1847.4979 1190 8.2032432e-39
3240.3318 -1788.403 1140 7.9270109e-39
3210.6238 -1784.2278 1130 7.8344579e-39
3418.9011 -1954.8751 1210 8.1099644e-39
3433.1396 -1997.2693 1210 8.2007251e-39
3375.1152 -1979.0162 1190 8.2014468e-39
3344.0154 -1984.7437 1180 8.1092498e-39
3321.4268 -2001.7656 1180 7.9262864e-39
3300.2295 -2008.8849 1170 1.0325918e-38
4502.3086 1730.2067 1360 2.3509886e-38
4636.6108 1751.7249 1410 2.3509886e-38
4718.6157 1760.3964 1430 2.3509886e-38
4833.1118 1784.6981 1470 2.3509886e-38
4871.3311 1769.2285 1490 2.3509886e-38
4899.6475 1755.1506 1500 2.3509886e-38
4894.0806 1715.5399 1500 2.3509886e-38
4826.314 1664.4742 1480 2.3509886e-38
4747.2529 1604.8976 1450 2.3509886e-38
4720.4888 1558.1676 1440 2.3509886e-38
4779.9053 1549.8173 1470 2.3509886e-38
4860.5181 1548.5861 1490 2.3509886e-38
4931.229 1548.7466 1510 2.3509886e-38
4915.7593 1510.5276 1510 2.3509886e-38
4921.4868 1479.4279 1520 2.3509886e-38
4927.2144 1448.3281 1520 2.3509886e-38
4923.0391 1418.62 1520 2.3509168e-38
4908.9609 1390.3037 1520 2.240786e-38
4924.5913 1357.8123 1520 2.2130918e-38
4909.1216 1319.5933 1520 1.9917876e-38
4852.6494 1277.0385 1500 1.3555655e-38
4815.9829 1231.7003 1490 8.1117861e-39
4811.8076 1201.9922 1490 6.9150128e-39
4827.438 1169.5007 1500 7.0075643e-39
4823.2627 1139.7927 1500 7.1901647e-39
4809.1846 1111.4764 1500 7.2819988e-39
4783.8125 1074.6492 1490 7.0976033e-39
4768.3428 1036.4302 1490 6.8220969e-39
4711.8711 993.87537 1470 7.0057721e-39
4665.3013 949.92889 1450 6.4540416e-39
4692.2261 925.94836 1460 1.1247846e-38
4688.0508 896.2403 1460 1.6319333e-38
4683.8755 866.53229 1460 2.0007547e-38
4679.7007 836.82422 1460 1.8718248e-38
4675.5254 807.11615 1470 1.788921e-38
4638.8584 761.77795 1450 1.7614047e-38
4634.6836 732.06995 1450 1.7795549e-38
4692.708 713.81683 1480 1.8347293e-38
4729.5352 688.44458 1490 1.8903345e-38
4756.4595 664.46399 1500 1.9359298e-38
4731.0874 627.63678 1490 1.9637308e-38
4674.6152 585.08203 1470 1.936216e-38
4701.54 561.10144 1480 1.9545829e-38
4687.4619 532.78516 1480 2.0283741e-38
4691.7979 491.78268 1490 2.0194074e-38
4728.625 466.4104 1500 2.0375593e-38
4734.3525 435.31064 1500 2.0469221e-38
4720.2744 406.99432 1500 2.0469937e-38
4694.9023 370.16705 1490 2.0650008e-38
4690.7271 340.45901 1490 2.010187e-38
4675.2573 302.24002 1490 1.8346227e-38
4651.2769 275.31543 1480 1.2816989e-38
4647.1016 245.60739 1480 1.2265247e-38
4621.7295 208.78014 1480 1.5860497e-38
4617.5542 179.0721 1480 2.0100438e-38
4562.4736 146.42003 1460 2.0466337e-38
4517.2964 112.37622 1440 2.0285899e-38
4573.9287 84.220482 1460 2.0468848e-38
4589.5591 51.728973 1470 2.0194785e-38
4705.6079 15.222847 1510 2.0652173e-38
3729.8994 -29.419275 1190 2.0377032e-38
3696.0161 -54.952126 1180 2.0194432e-38
3713.0381 -77.540947 1190 1.9728056e-38
3759.7681 -104.30496 1210 1.8714251e-38
3796.5952 -129.67725 1220 1.8071046e-38
3713.1985 -148.25145 1190 1.9361071e-38
3679.3154 -173.7843 1180 2.0744003e-38
3625.6267 -196.53369 1170 1.9270322e-38
3642.6487 -219.12251 1170 1.9079437e-38
3638.4734 -248.83055 1170 1.6776342e-38
3635.6899 -268.63593 1170 1.4928816e-38
3661.2229 -302.51913 1180 1.3545877e-38
3737.6609 -333.45834 1210 1.4379602e-38
3764.5854 -357.4389 1220 1.6781024e-38
4811.6465 -595.47821 1580 1.945507e-38
4698.542 -609.8772 1540 1.9175964e-38
4656.1479 -624.11566 1530 1.79785e-38
4690.1914 -669.29327 1540 1.7333143e-38
4755.335 -708.74347 1560 1.7058351e-38
4858.6978 -763.66321 1600 1.8253652e-38
4932.3521 -814.40778 1620 1.7979228e-38
4956.4932 -858.19366 1630 1.6316461e-38
4982.0264 -892.0769 1640 1.2443525e-38
5034.4839 -949.94073 1670 8.2017971e-39
5060.0166 -983.82391 1670 5.0689576e-39
5102.5713 -1040.296 1690 1.4283041e-38
5146.5176 -1086.8654 1710 2.3509762e-38
4646.9409 -1551.863 1560 7.7422385e-39
4536.6196 -1546.4567 1530 6.7262971e-39
4532.4443 -1576.1647 1530 5.8072163e-39
4460.3418 -1586.228 1500 5.8057757e-39
4474.5806 -1628.6222 1510 5.253332e-39
4432.1865 -1642.8606 1500 5.4373589e-39
4428.0112 -1672.5686 1500 6.5437023e-39
4423.8359 -1702.2767 1500 7.833725e-39
4428.1719 -1743.2792 1500 8.2954291e-39
4414.0938 -1771.5955 1500 8.4794588e-39
4391.5049 -1788.6173 1490 9.5890462e-39
4329.3057 -1800.0723 1470 1.1433336e-38
4296.814 -1815.7025 1460 1.1986878e-38
4264.3223 -1831.3326 1450 1.1711356e-38
4260.1475 -1861.0406 1450 1.1524815e-38
4246.0693 -1889.3571 1450 1.0788688e-38
4241.8945 -1919.0651 1450 1.0235521e-38
4190.9893 -1922.009 1430 1.0140443e-38
4120.2783 -1922.1697 1410 9.6809013e-39
4050.96 -1912.4275 1390 9.1212493e-39
3925.0085 -1874.5297 1340 7.0936727e-39
3902.4197 -1891.5516 1340 4.9742382e-39
3861.4172 -1895.8873 1320 4.2428052e-39
3782.1958 -1884.7535 1300 7.5574913e-39
3732.6824 -1877.7948 1280 1.0135016e-38
3663.3635 -1868.0527 1260 1.1335357e-38
3603.9475 -1859.7024 1240 1.198257e-38
3562.9451 -1864.0381 1220 1.0599985e-38
3521.9426 -1868.3739 1210 9.4025207e-39
3490.8428 -1874.1013 1200 7.2794891e-39
3441.3293 -1867.1427 1180 6.911424e-39
3400.3269 -1871.4785 1170 7.2809212e-39
3287.0618 -1815.167 1130 8.2025202e-39
3210.6238 -1784.2278 1100 8.2025146e-39
3427.4121 -1966.1696 1180 8.0192107e-39
3433.1396 -1997.2693 1190 7.926292e-39
3393.5288 -1991.7024 1170 8.0188548e-39
3352.5264 -1996.0381 1160 8.2936452e-39
3331.3293 -2003.1573 1150 7.4653181e-39
3300.2295 -2008.8849 1140 1.0233349e-38
4437.3262 1698.9463 1320 2.3509886e-38
4498.1338 1700.4987 1340 2.3509886e-38
4568.8442 1700.6592 1360 2.3509886e-38
4693.2432 1723.5692 1400 2.3509886e-38
4763.9536 1723.7297 1420 2.3509886e-38
4802.1729 1708.2601 1430 2.3509886e-38
4830.4893 1694.1823 1450 2.3509886e-38
4815.0195 1655.9633 1440 2.3509886e-38
4757.1558 1603.5059 1420 2.3509886e-38
4752.9805 1573.7977 1420 2.3509886e-38
4812.3965 1565.4474 1440 2.3509886e-38
4871.8125 1557.097 1460 2.3509886e-38
4941.1313 1547.3549 1480 2.3509886e-38
4948.2505 1526.1578 1490 2.3509886e-38
4963.8809 1493.6663 1490 2.3509886e-38
4938.5088 1456.839 1490 2.3509886e-38
4923.0391 1418.62 1490 2.2958873e-38
4918.8638 1388.912 1480 2.3050708e-38
4924.5913 1357.8123 1490 2.1856129e-38
4920.416 1328.1042 1490 1.8444892e-38
4862.5522 1275.6467 1470 1.3001045e-38
4848.4746 1247.3304 1470 7.651524e-39
4823.1021 1210.5032 1460 7.0994068e-39
4838.7324 1178.0117 1470 7.466746e-39
4823.2627 1139.7927 1470 7.374556e-39
4787.9878 1104.3572 1460 7.0994026e-39
4772.5181 1066.1382 1450 7.0979719e-39
4737.2432 1030.7026 1440 7.0068454e-39
4680.771 988.14789 1430 7.0061266e-39
4634.2017 944.20142 1420 7.0993984e-39
4702.1289 924.55664 1440 1.0696474e-38
4678.1479 897.63202 1430 1.475166e-38
4662.6787 859.41302 1430 1.7152377e-38
4668.4062 828.31329 1430 1.6876134e-38
4654.3281 799.99695 1430 1.6505193e-38
4597.856 757.4422 1410 1.7240581e-38
4593.6812 727.73413 1410 1.6777098e-38
4671.5107 706.69763 1440 1.7697239e-38
4709.7295 691.22803 1450 1.7422455e-38
4735.2627 657.34479 1460 1.7051152e-38
4721.1846 629.0285 1460 1.6497263e-38
4633.6128 580.74628 1430 1.6678048e-38
4608.2407 543.91901 1420 1.6030521e-38
4584.2598 516.99438 1420 1.5201831e-38
4580.085 487.28638 1420 1.5201111e-38
4646.6201 457.73889 1440 1.6957497e-38
4673.5444 433.75833 1450 1.8986884e-38
4699.0776 399.87509 1460 1.9637295e-38
4694.9023 370.16705 1460 1.9269606e-38
4680.8242 341.85074 1460 1.9729854e-38
4675.2573 302.24002 1460 1.8625316e-38
4641.3745 276.70718 1450 1.4015168e-38
4625.9048 238.48817 1450 1.3829696e-38
4601.9243 211.5636 1440 1.631932e-38
4607.6519 180.46382 1440 2.0189395e-38
4572.377 145.02829 1430 2.0008245e-38
4558.2988 116.71198 1430 1.9916033e-38
4613.5396 78.653557 1450 1.9822058e-38
4640.4644 54.673004 1460 2.0283753e-38
4695.7051 16.614578 1480 1.98242e-38
4787.7734 -46.816132 1510 2.0469578e-38
3656.4053 -49.385204 1150 2.1110629e-38
3683.3301 -73.365753 1150 1.945506e-38
3730.0598 -100.12977 1170 1.9361434e-38
3755.5928 -134.013 1180 1.8805362e-38
3701.9041 -156.76239 1170 1.9174159e-38
3659.51 -171.00084 1150 1.9638011e-38
3625.6267 -196.53369 1140 1.9823844e-38
3622.8433 -216.33905 1140 2.0835479e-38
3598.8628 -243.26363 1140 1.9821319e-38
3596.0793 -263.06897 1140 1.6775968e-38
3641.4175 -299.73569 1150 1.3179261e-38
3674.0696 -354.81601 1170 1.6132764e-38
4752.2305 -587.12781 1520 1.9634071e-38
4688.6392 -608.48547 1500 1.9270319e-38
4646.2451 -622.72394 1490 1.7885951e-38
4670.3862 -666.50983 1500 1.7700482e-38
4705.8218 -701.78479 1510 1.7610077e-38
4739.8657 -746.96246 1520 1.8530244e-38
4785.2036 -783.62915 1540 1.8346211e-38
4848.9556 -832.98199 1560 1.6315731e-38
4882.9995 -878.15961 1580 1.2260207e-38
5006.1675 -935.86285 1620 7.9262934e-39
5069.9194 -985.2157 1640 5.4359394e-39
5171.8901 -1050.0381 1680 1.142572e-38
4540.7949 -1516.7487 1500 7.3716623e-39
4479.9868 -1518.3009 1470 6.6340987e-39
4474.4199 -1557.9116 1480 5.8983371e-39
4441.9287 -1573.5419 1470 5.8969036e-39
4456.167 -1615.936 1470 5.5299147e-39
4432.1865 -1642.8606 1470 5.4373617e-39
4428.0112 -1672.5686 1470 5.8994147e-39
4442.25 -1714.9628 1470 7.1887186e-39
4428.1719 -1743.2792 1470 8.018482e-39
4423.9966 -1772.9872 1470 8.2039579e-39
4400.0161 -1799.9117 1460 9.4954142e-39
4357.6221 -1814.1501 1450 1.1248929e-38
4335.0332 -1831.1721 1440 1.2077619e-38
4282.7363 -1844.0188 1430 1.207943e-38
4270.0498 -1862.4325 1420 1.161772e-38
4255.9722 -1890.7488 1420 1.1247156e-38
4241.8945 -1919.0651 1420 1.060214e-38
4199.5 -1933.3035 1400 1.0048959e-38
4130.1816 -1923.5614 1380 9.6809083e-39
4032.5461 -1899.7415 1350 9.3099579e-39
3933.5195 -1885.8241 1320 7.740477e-39
3920.8333 -1904.2377 1310 4.8838545e-39
3879.8308 -1908.5735 1300 4.425756e-39
3802.0012 -1887.537 1270 7.6468129e-39
3732.6824 -1877.7948 1250 1.0135733e-38
3654.8525 -1856.7583 1230 1.0967651e-38
3613.8501 -1861.0941 1210 1.0879447e-38
3562.9451 -1864.0381 1200 1.0415601e-38
3521.9426 -1868.3739 1180 8.1085491e-39
3472.4292 -1861.4152 1170 5.620695e-39
3432.8184 -1855.8483 1150 5.1607847e-39
3401.7188 -1861.5758 1150 7.0958139e-39
3287.0618 -1815.167 1110 8.2947172e-39
3227.6458 -1806.8167 1090 8.2932795e-39
3427.4121 -1966.1696 1160 8.2018041e-39
3424.6287 -1985.9749 1160 8.3858352e-39
3375.1152 -1979.0162 1140 8.2936424e-39
3352.5264 -1996.0381 1140 8.0195723e-39
3321.4268 -2001.7656 1130 7.1905319e-39
3300.2295 -2008.8849 1120 1.0232636e-38
4362.4404 1669.0778 1270 2.3509886e-38
4423.248 1670.63 1290 2.3509886e-38
4493.9585 1670.7906 1310 2.3509886e-38
4629.6519 1702.2115 1350 2.3509886e-38
4721.5596 1709.4913 1380 2.3509886e-38
4771.0732 1702.5326 1390 2.3509886e-38
4809.292 1687.063 1410 2.3509886e-38
4793.8223 1648.844 1400 2.3509886e-38
4747.2529 1604.8976 1390 2.3509886e-38
4743.0776 1575.1896 1390 2.3509886e-38
4801.1021 1556.9364 1410 2.3509886e-38
4839.3213 1541.4668 1420 2.3509886e-38
4877.54 1525.9972 1430 2.3509886e-38
4915.7593 1510.5276 1450 2.3509886e-38
4942.6836 1486.5471 1460 2.3509886e-38
4927.2144 1448.3281 1450 2.3509886e-38
4913.1362 1420.0118 1450 2.3509886e-38
4887.7642 1383.1846 1440 2.2775202e-38
4882.1973 1343.5739 1440 2.2497901e-38
4868.1191 1315.2574 1440 1.8164358e-38
4831.4526 1269.9193 1430 1.2448579e-38
4806.0801 1233.092 1430 6.9157484e-39
4800.5132 1193.4813 1420 7.3731182e-39
4796.3379 1163.7732 1420 7.2816401e-39
4782.2603 1135.4569 1420 6.9150142e-39
4756.8877 1098.6296 1410 6.9142967e-39
4720.2212 1053.2915 1400 7.0968845e-39
4675.0435 1019.2477 1390 6.6387832e-39
4618.5718 976.69293 1380 7.0046973e-39
4603.1021 938.47394 1370 6.8235332e-39
4671.0288 918.8291 1390 1.0787959e-38
4635.7539 883.39362 1390 1.4847812e-38
4631.5786 853.68555 1380 1.6783219e-38
4637.3062 822.58575 1390 1.3922279e-38
4644.4253 801.38867 1390 1.0418835e-38
4638.8584 761.77795 1390 8.1117819e-39
4645.978 740.58087 1400 7.5625584e-39
4702.6104 712.42511 1410 8.0206569e-39
4729.5352 688.44458 1430 8.296169e-39
4756.4595 664.46399 1430 8.3897995e-39
4740.9902 626.24506 1430 8.2061299e-39
4695.8125 592.20123 1420 8.3887135e-39
4608.2407 543.91901 1390 8.2064887e-39
4572.9658 508.48346 1380 8.6671025e-39
4558.8877 480.16714 1380 9.4039346e-39
4646.6201 457.73889 1410 1.170631e-38
4673.5444 433.75833 1420 1.4566167e-38
4710.3721 408.38605 1430 1.6224965e-38
4726.002 375.89456 1440 1.7331315e-38
4700.6299 339.06729 1430 1.8067429e-38
4676.6494 312.1427 1430 1.6872137e-38
4641.3745 276.70718 1420 1.3182525e-38
4616.002 239.87991 1410 1.3183235e-38
4590.6299 203.05264 1400 1.6779208e-38
4596.3574 171.95288 1400 2.0370907e-38
4592.1821 142.24483 1400 2.0008224e-38
4607.812 109.75333 1410 2.000823e-38
4644.6396 84.381042 1420 2.0650725e-38
4680.0752 49.106079 1440 2.019442e-38
4716.9023 23.733799 1450 2.0469927e-38
4842.8535 -14.164061 1490 2.0742924e-38
4717.063 -46.9767 1450 2.0194066e-38
3636.6001 -46.601746 1120 2.0008229e-38
3652.2302 -79.093246 1120 1.8993725e-38
3698.9602 -105.85726 1140 1.9359619e-38
3715.9819 -128.44608 1140 1.8532738e-38
3692.0015 -155.37067 1140 1.8715695e-38
3639.7046 -168.21738 1120 1.9084476e-38
3615.7241 -195.14195 1110 2.0279779e-38
3611.5488 -224.84999 1110 2.0561044e-38
3569.1548 -239.08844 1100 2.0277973e-38
3586.1765 -261.67725 1110 1.649939e-38
3631.5149 -298.34396 1130 1.39197e-38
3678.2446 -325.10797 1140 1.2910224e-38
3644.3616 -350.64081 1130 1.6321112e-38
4623.4956 -569.03534 1450 1.9637657e-38
4678.7368 -607.09375 1470 1.9084493e-38
4666.0503 -625.50739 1460 1.8161806e-38
4690.1914 -669.29327 1470 1.7151967e-38
4695.9189 -700.39307 1480 1.7794467e-38
4711.5493 -732.88458 1480 1.8440918e-38
4705.9824 -772.4953 1480 1.8624585e-38
4731.5151 -806.37854 1490 1.5764011e-38
4775.4619 -852.94788 1510 1.2258769e-38
4976.4595 -931.68762 1570 7.742614e-39
5078.4302 -996.51007 1610 5.2526258e-39
4484.1621 -1488.5929 1440 6.9114044e-39
4431.8652 -1501.4396 1430 6.0830857e-39
4484.3228 -1559.3033 1450 5.8990546e-39
4441.9287 -1573.5419 1430 5.530635e-39
4456.167 -1615.936 1440 5.6210355e-39
4432.1865 -1642.8606 1430 5.5295546e-39
4446.4248 -1685.2548 1440 5.3484003e-39
4442.25 -1714.9628 1440 6.9110527e-39
4438.0742 -1744.6709 1440 7.6486191e-39
4433.8994 -1774.3789 1440 8.2954319e-39
4409.9189 -1801.3035 1430 9.2199105e-39
4377.4272 -1816.9337 1420 1.1523013e-38
4335.0332 -1831.1721 1410 1.179996e-38
4292.6387 -1845.4105 1400 1.2168387e-38
4278.561 -1873.7268 1400 1.1248947e-38
4264.4834 -1902.0432 1390 1.1521943e-38
4231.9917 -1917.6733 1380 1.1061682e-38
4209.4028 -1934.6952 1380 9.9582112e-39
4158.4976 -1937.6393 1360 9.5876407e-39
4050.96 -1912.4275 1330 9.0330179e-39
3971.7385 -1901.2937 1300 7.7419232e-39
3930.7361 -1905.6295 1290 5.3433921e-39
3889.7336 -1909.9652 1280 4.5168726e-39
3810.512 -1898.8314 1250 7.5560522e-39
3732.6824 -1877.7948 1230 9.8609415e-39
3635.0474 -1853.9749 1190 1.0135384e-38
3603.9475 -1859.7024 1180 8.8461071e-39
3562.9451 -1864.0381 1170 6.1720695e-39
3523.3342 -1858.4712 1160 4.6987387e-39
3462.5266 -1860.0234 1140 2.8566226e-39
3441.3293 -1867.1427 1130 4.7012442e-39
3420.1323 -1874.262 1130 6.7284677e-39
3350.8135 -1864.5198 1110 8.5702237e-39
3339.519 -1873.0308 1100 8.0181289e-39
3445.8257 -1978.8557 1140 8.0188506e-39
3414.7261 -1984.5831 1130 8.3858324e-39
3365.2126 -1977.6245 1120 8.3861954e-39
3352.5264 -1996.0381 1110 8.4769463e-39
3321.4268 -2001.7656 1100 7.7408288e-39
3310.1323 -2010.2766 1100 9.8638576e-39
4362.4404 1669.0778 1240 2.3509886e-38
4423.248 1670.63 1260 2.3509886e-38
4557.5498 1692.1482 1300 2.3509886e-38
4683.3408 1724.9609 1330 2.3509886e-38
4731.4624 1708.0996 1350 2.3509886e-38
4759.7788 1694.0217 1360 2.3509886e-38
4797.9976 1678.5521 1370 2.3509886e-38
4782.5278 1640.3331 1370 2.3509886e-38
4726.0562 1597.7783 1350 2.3509886e-38
4741.686 1565.2869 1360 2.3509886e-38
4791.1997 1558.3281 1370 2.3509886e-38
4839.3213 1541.4668 1390 2.3509886e-38
4898.7373 1533.1165 1410 2.3509886e-38
4969.4478 1533.277 1430 2.3509886e-38
4996.3726 1509.2965 1440 2.3509886e-38
4969.6084 1462.5665 1430 2.3509886e-38
4934.3335 1427.131 1420 2.3509886e-38
4907.5693 1380.401 1420 2.341805e-38
4893.4917 1352.0847 1410 2.240786e-38
4868.1191 1315.2574 1410 1.6692833e-38
4789.0581 1255.6808 1390 1.1341521e-38
4742.4888 1211.7344 1370 6.636642e-39
4738.314 1182.0264 1370 6.5437261e-39
4734.1387 1152.3182 1370 6.3611257e-39
4718.6689 1114.0992 1370 6.5473275e-39
4704.5913 1085.783 1370 6.4576444e-39
4667.9243 1040.4447 1360 5.8115589e-39
4518.1533 980.70752 1310 5.6286054e-39
4450.3867 929.64185 1300 6.2750566e-39
4540.9023 927.01892 1320 8.0253288e-39
4589.0239 910.15759 1340 1.1714234e-38
4552.3574 864.8194 1330 1.3743298e-38
4538.2793 836.50311 1330 1.1711388e-38
4606.2065 816.85828 1350 7.2816709e-39
4623.2285 794.26947 1350 4.7902057e-39
4576.6592 750.323 1340 4.789484e-39
4613.4863 724.95068 1350 4.0526476e-39
4713.9048 720.9361 1390 3.7771384e-39
4729.5352 688.44458 1390 3.5016319e-39
4725.3599 658.73651 1390 3.1335696e-39
4709.8901 620.51752 1390 3.0417341e-39
4632.542 429.42258 1370 1.143333e-38
4689.1748 401.26685 1390 1.4104834e-38
4767.0044 380.23032 1420 1.5859415e-38
4690.7271 340.45901 1400 1.7053652e-38
4655.4521 305.0235 1380 1.5856921e-38
4620.1772 269.58795 1380 1.1894305e-38
4584.9023 234.15242 1370 1.2166569e-38
4570.8242 205.83611 1360 1.5486313e-38
4586.4546 173.3446 1370 1.926814e-38
4592.1821 142.24483 1370 1.9914239e-38
4607.812 109.75333 1380 1.9823125e-38
4634.7368 85.772774 1390 1.982384e-38
4680.0752 49.106079 1400 1.9917835e-38
4705.6079 15.222847 1410 2.0560685e-38
4813.1455 -9.9888687 1450 2.0375939e-38
4707.1602 -45.584969 1420 2.0651094e-38
3615.4028 -53.720963 1080 2.0282652e-38
3632.4248 -76.309784 1090 1.935891e-38
3659.3494 -100.29034 1100 1.9267065e-38
3686.2739 -124.27089 1110 1.9083042e-38
3672.196 -152.5872 1100 1.9913883e-38
3608.6047 -173.94485 1090 1.9359975e-38
3605.8213 -193.75023 1090 1.8901154e-38
3601.6462 -223.45827 1090 1.9913159e-38
3569.1548 -239.08844 1080 1.945287e-38
3605.9819 -264.46072 1090 1.5854738e-38
4554.1768 -559.29321 1390 1.9453991e-38
4619.3203 -598.74335 1420 1.8716779e-38
4616.5371 -618.54871 1410 1.7795536e-38
4651.9727 -653.82367 1430 1.7333496e-38
4666.2109 -696.2179 1430 1.8712822e-38
4681.8413 -728.70935 1440 1.8440204e-38
4696.0796 -771.10358 1440 1.8164684e-38
4741.418 -807.77026 1460 1.5672535e-38
4834.8779 -861.29828 1490 1.1982894e-38
5034.4839 -949.94073 1560 7.6496953e-39
5137.8462 -1004.8605 1590 5.3451801e-39
4564.7754 -1489.8241 1430 6.6359007e-39
4445.9434 -1473.1233 1400 6.4511465e-39
4421.9629 -1500.0479 1390 6.6344574e-39
4474.4199 -1557.9116 1410 6.174561e-39
4441.9287 -1573.5419 1400 5.9901712e-39
4446.2642 -1614.5443 1400 5.897977e-39
4432.1865 -1642.8606 1400 5.6213901e-39
4428.0112 -1672.5686 1400 5.6213943e-39
4413.9336 -1700.885 1400 6.5437107e-39
4389.9531 -1727.8096 1390 7.4649523e-39
4375.875 -1756.1259 1390 8.2035978e-39
4333.4805 -1770.3643 1380 9.4024955e-39
4310.8916 -1787.3862 1370 1.0880156e-38
4381.7627 -1857.9362 1390 1.1985789e-38
4367.6851 -1886.2524 1390 1.1892159e-38
4306.877 -1887.8047 1370 1.1710634e-38
4284.2886 -1904.8267 1370 1.1248228e-38
4241.8945 -1919.0651 1350 1.097164e-38
4219.3057 -1936.0869 1350 1.0326992e-38
4186.814 -1951.7172 1340 9.8656583e-39
4060.8625 -1913.8192 1300 8.6627865e-39
4000.0547 -1915.3716 1280 7.2791416e-39
3940.6387 -1907.0212 1260 5.0660793e-39
3926.5608 -1935.3375 1260 4.2410032e-39
3838.8284 -1912.9093 1230 7.2780345e-39
3751.0959 -1890.481 1210 1.0227918e-38
3616.6335 -1841.2887 1160 1.0229012e-38
3575.6311 -1845.6245 1150 7.649359e-39
3554.4341 -1852.7437 1140 4.6990862e-39
3513.4316 -1857.0795 1130 2.6718698e-39
3454.0156 -1848.7291 1110 2.3960046e-39
3431.4268 -1865.751 1110 4.6072578e-39
3410.2297 -1872.8702 1100 6.4515249e-39
3370.6189 -1867.3032 1090 8.6627767e-39
3366.4438 -1897.0114 1090 8.5702209e-39
3437.3147 -1967.5613 1110 8.3861982e-39
3396.3123 -1971.897 1100 8.4783826e-39
3346.7988 -1964.9384 1090 8.4776679e-39
3352.5264 -1996.0381 1090 8.386903e-39
3331.3293 -2003.1573 1080 8.2010796e-39
3318.6433 -2021.5709 1080 9.6794607e-39
4308.752 1646.3284 1200 2.2398495e-38
4369.5596 1647.8806 1210 2.3509886e-38
4440.27 1648.0413 1240 2.3509886e-38
4533.5693 1665.2236 1260 2.3509886e-38
4646.6738 1679.6227 1290 2.3321551e-38
4738.5815 1686.9025 1320 2.0740435e-38
4830.4893 1694.1823 1350 1.8896129e-38
4847.5112 1671.5934 1350 1.7420648e-38
4822.1387 1634.7661 1350 1.68689e-38
4816.5718 1595.1554 1350 1.9729493e-38
4812.3965 1565.4474 1350 2.3509886e-38
4787.0244 1528.6201 1340 2.3509886e-38
4830.9707 1482.0508 1360 2.3509886e-38
4932.7812 1487.9388 1390 2.3509886e-38
4948.4111 1455.4473 1390 2.3509886e-38
4913.1362 1420.0118 1380 2.3509886e-38
4887.7642 1383.1846 1380 2.3509886e-38
4861 1336.4546 1370 2.341805e-38
4825.7251 1301.019 1360 2.0197694e-38
4767.8613 1248.5616 1350 1.9003114e-38
4763.686 1218.8535 1350 1.8263392e-38
4769.4136 1187.7538 1350 1.8814764e-38
4765.2383 1158.0458 1350 1.881584e-38
4729.9634 1122.6102 1340 1.5311705e-38
4714.4937 1084.3912 1340 9.0402416e-39
4615.6274 1027.598 1310 6.6388112e-39
4454.5615 959.34985 1270 1.1710999e-38
4419.2871 923.91437 1260 1.715271e-38
4509.8027 921.29144 1290 1.7154166e-38
4577.7295 901.64667 1310 1.6416238e-38
4552.3574 864.8194 1300 1.5680121e-38
4517.0825 829.38385 1290 1.4756022e-38
4596.3037 818.25 1310 9.8710743e-39
4613.3257 795.66119 1320 5.263441e-39
4463.5547 735.92395 1280 3.5120701e-39
4593.6812 727.73413 1320 3.7893857e-39
4786.0073 730.99933 1370 3.3244461e-39
4791.7344 699.89954 1380 2.584716e-39
4838.4644 673.13556 1390 2.5836314e-39
4822.9951 634.91656 1390 3.8761751e-39
4705.7148 590.80951 1360 5.2609172e-39
4593.0923 364.27899 1330 1.4103391e-38
4720.4351 336.28381 1370 1.5210111e-38
4635.647 307.80695 1350 1.1707404e-38
4610.2744 270.97968 1340 6.7284873e-39
4565.0967 236.93588 1330 7.1926758e-39
4560.9219 207.22784 1330 1.2814806e-38
4576.5518 174.73634 1330 1.8440171e-38
4582.2793 143.63657 1340 1.9269932e-38
4607.812 109.75333 1350 1.9452537e-38
4634.7368 85.772774 1360 1.9638729e-38
4689.9775 47.714348 1370 1.9915691e-38
4716.9023 23.733799 1380 2.0194052e-38
4823.0483 -11.380599 1420 2.0836902e-38
4707.1602 -45.584969 1380 2.0559956e-38
3595.5977 -50.9375 1060 2.0098262e-38
3592.8142 -70.742859 1060 1.8714973e-38
3639.5439 -97.506874 1070 1.908339e-38
3655.1743 -129.99838 1070 1.9545801e-38
3652.3909 -149.80374 1070 2.0470277e-38
3588.7996 -171.16141 1060 2.0196577e-38
3605.8213 -193.75023 1060 1.9177379e-38
3591.7434 -222.06653 1060 1.7701899e-38
3569.1548 -239.08844 1060 1.7514974e-38
3625.7874 -267.2442 1070 1.410554e-38
3671.1255 -303.91089 1090 1.7512439e-38
3698.05 -327.89142 1100 1.6501527e-38
3683.9722 -356.20773 1090 1.9541106e-38
4515.958 -543.82361 1350 1.9820256e-38
4629.2231 -600.13507 1380 1.797886e-38
4626.4399 -619.94043 1380 1.7700828e-38
4660.4834 -665.1181 1400 1.7794471e-38
4676.1138 -697.60962 1400 1.8898665e-38
4691.7441 -730.10107 1410 1.917452e-38
4686.1768 -769.71185 1410 1.8808257e-38
4711.71 -803.59503 1420 1.5581412e-38
4815.0723 -858.51483 1450 1.1981103e-38
5025.9727 -938.6463 1520 7.3731154e-39
5137.8462 -1004.8605 1550 5.0703799e-39
5399.9727 -1223.4689 1640 1.2074341e-38
5311.0093 -1281.6538 1610 1.0416619e-38
4588.9165 -1533.61 1410 6.2667609e-39
4470.084 -1516.9092 1380 6.0827269e-39
4494.2256 -1560.6951 1380 5.8986944e-39
4450.4395 -1584.8363 1370 5.6217558e-39
4436.3613 -1613.1526 1370 5.8976196e-39
4423.6758 -1631.5662 1370 5.6217502e-39
4409.5977 -1659.8824 1360 5.5295588e-39
4404.0308 -1699.4932 1360 6.6355448e-39
4371.5391 -1715.1234 1350 7.5567808e-39
4367.3643 -1744.8314 1350 7.9270081e-39
4334.8726 -1760.4615 1340 8.9422418e-39
4329.3057 -1800.0723 1350 1.1063104e-38
4316.6191 -1818.486 1340 1.1524807e-38
4329.4658 -1870.7828 1350 1.1710287e-38
4316.7803 -1889.1964 1340 1.1433699e-38
4284.2886 -1904.8267 1340 1.1705602e-38
4231.9917 -1917.6733 1320 1.1154591e-38
4227.8164 -1947.3813 1320 1.0692548e-38
4195.3252 -1963.0116 1310 9.7734584e-39
4087.7871 -1937.7998 1280 8.9393776e-39
4046.7847 -1942.1356 1270 7.0036295e-39
3949.1497 -1918.3156 1240 5.0660849e-39
3936.4634 -1936.7292 1230 4.333196e-39
3885.5583 -1939.6732 1220 7.8315572e-39
3779.4124 -1904.5588 1180 1.013465e-38
3616.6335 -1841.2887 1140 9.3952802e-39
3567.1204 -1834.3301 1120 4.8827755e-39
3526.1177 -1838.6658 1110 2.4889191e-39
3495.0181 -1844.3933 1100 2.2123336e-39
3435.6021 -1836.043 1080 2.4910785e-39
3414.4048 -1843.1621 1070 4.5193893e-39
3383.3052 -1848.8896 1070 6.9153883e-39
3313.9863 -1839.1476 1050 8.4794658e-39
3329.6165 -1871.639 1050 8.7546094e-39
3445.8257 -1978.8557 1090 8.6624277e-39
3387.8015 -1960.6025 1070 8.3861926e-39
3346.7988 -1964.9384 1060 8.3858352e-39
3352.5264 -1996.0381 1060 8.6602697e-39
3321.4268 -2001.7656 1060 7.9252172e-39
3318.6433 -2021.5709 1050 9.4932716e-39
4362.4404 1669.0778 1180 1.2166194e-38
4346.9707 1630.8588 1180 1.3272184e-38
4419.0728 1640.922 1200 1.5022823e-38
4468.5859 1633.9634 1220 1.5484883e-38
4539.2969 1634.1239 1230 1.5298707e-38
4567.6133 1620.046 1240 1.4190926e-38
4744.3091 1655.8027 1290 1.2163348e-38
4772.6255 1641.7249 1300 1.2626475e-38
4682.27 1573.6372 1280 1.4565444e-38
4990.8052 1469.6858 1370 2.3509886e-38
4870.7422 1405.7733 1340 2.3509886e-38
4982.4551 1410.2697 1370 2.3509886e-38
4914.6885 1359.204 1360 2.3509886e-38
4814.4307 1292.5081 1330 2.2314948e-38
4798.9609 1254.2891 1320 2.3142544e-38
4815.9829 1231.7003 1330 2.2683366e-38
4821.7104 1200.6005 1330 2.2132353e-38
4817.5352 1170.8925 1330 2.1209677e-38
4761.063 1128.3378 1320 1.6325114e-38
4735.6909 1091.5105 1310 1.0145495e-38
4636.8247 1034.7173 1290 7.0072364e-39
4518.1533 980.70752 1260 1.1244256e-38
4513.9775 950.99951 1260 1.5482023e-38
4581.9048 931.35468 1280 1.4102331e-38
4608.8296 907.37415 1280 1.3267881e-38
4594.7515 879.05786 1280 1.2070412e-38
4548.1821 835.11133 1270 1.142864e-38
4617.501 825.36926 1290 1.1150973e-38
4611.9341 785.75854 1290 1.1153499e-38
4445.3013 677.8996 1250 4.7001835e-39
4594.6445 303.47119 1300 1.3749713e-38
4549.4668 269.4274 1290 1.540491e-38
4504.2891 235.38359 1280 1.659482e-38
4519.9189 202.89207 1290 1.7048961e-38
4546.8438 178.91153 1300 1.6490038e-38
4562.4736 146.42003 1300 1.57539e-38
4607.812 109.75333 1320 1.7047875e-38
4644.6396 84.381042 1330 1.8343663e-38
4701.272 56.225304 1350 2.0465961e-38
4726.8052 22.342068 1360 2.0191538e-38
4813.1455 -9.9888687 1380 2.0376277e-38
4687.355 -42.801506 1350 1.9913869e-38
3646.5027 -47.993473 1040 1.9635836e-38
3602.7168 -72.134598 1030 1.9450377e-38
3629.6414 -96.115143 1040 1.9450003e-38
3656.5659 -120.0957 1050 1.9728391e-38
3652.3909 -149.80374 1050 2.0836899e-38
3598.7021 -172.55313 1040 2.0653246e-38
3615.7241 -195.14195 1040 2.0468479e-38
3591.7434 -222.06653 1040 2.0285162e-38
3579.0574 -240.48016 1030 2.0926562e-38
3625.7874 -267.2442 1050 1.7512454e-38
3671.1255 -303.91089 1060 1.8066685e-38
3688.1475 -326.49969 1070 1.6964667e-38
3683.9722 -356.20773 1070 1.8346525e-38
4466.4443 -536.86493 1300 1.8532032e-38
4609.418 -597.35162 1340 1.7978124e-38
4616.5371 -618.54871 1350 1.7883428e-38
4660.4834 -665.1181 1360 1.8622424e-38
4666.2109 -696.2179 1370 1.8807177e-38
4681.8413 -728.70935 1370 1.9085545e-38
4676.2744 -768.32007 1370 1.8530592e-38
4701.8071 -802.20331 1380 1.5673237e-38
4795.2671 -855.73138 1410 1.1796355e-38
5006.1675 -935.86285 1470 7.3745476e-39
5108.1382 -1000.6852 1510 5.4362982e-39
5409.8755 -1224.8606 1600 1.1701962e-38
5320.9121 -1283.0455 1580 1.050738e-38
4488.498 -1529.5953 1350 6.1742023e-39
4474.4199 -1557.9116 1350 6.1742079e-39
4450.4395 -1584.8363 1340 5.9898125e-39
4427.8506 -1601.8582 1330 5.6221117e-39
4403.8701 -1628.7827 1330 5.713227e-39
4389.792 -1657.099 1320 5.712871e-39
4385.6172 -1686.8071 1330 6.4522297e-39
4371.5391 -1715.1234 1320 7.555706e-39
4385.7773 -1757.5176 1330 8.0192037e-39
4381.6025 -1787.2256 1330 8.8504049e-39
4395.8408 -1829.6198 1330 1.1061667e-38
4410.0791 -1872.014 1340 1.1708125e-38
4387.4902 -1889.0359 1330 1.1067429e-38
4353.6074 -1914.5687 1330 1.1523379e-38
4302.7021 -1917.5128 1310 1.1431175e-38
4233.3833 -1907.7706 1290 1.1154231e-38
4199.5 -1933.3035 1280 1.0602852e-38
4176.9111 -1950.3254 1280 1.0139008e-38
4079.2761 -1926.5054 1250 9.3077985e-39
4046.7847 -1942.1356 1240 7.4646146e-39
3959.0522 -1919.7073 1210 5.8036457e-39
3944.9744 -1948.0237 1210 4.4261119e-39
3894.0693 -1950.9677 1190 6.7248706e-39
3779.4124 -1904.5588 1160 6.5411968e-39
3598.22 -1828.6025 1100 6.818141e-39
3530.293 -1808.9578 1080 6.1749394e-39
3489.2905 -1813.2936 1070 6.727037e-39
3466.7017 -1830.3154 1060 5.2544264e-39
3398.7747 -1810.6707 1050 8.112491e-39
3395.9912 -1830.476 1040 1.0140798e-38
3354.9888 -1834.8118 1030 1.0323746e-38
3268.6482 -1802.4808 1010 9.0326424e-39
3284.2783 -1834.9723 1010 8.6638613e-39
3445.8257 -1978.8557 1070 8.2947172e-39
3377.8987 -1959.2108 1050 8.2025272e-39
3348.1907 -1955.0356 1030 8.4769547e-39
3352.5264 -1996.0381 1040 8.2911201e-39
3331.3293 -2003.1573 1030 8.1085281e-39
3328.5459 -2022.9626 1030 8.8500546e-39
4373.7344 1677.5886 1160 1.4198475e-38
4325.7734 1623.7395 1140 1.0421691e-38
4344.1875 1611.0533 1150 1.0601027e-38
4351.3066 1589.8563 1150 1.0599602e-38
4389.5254 1574.3867 1160 9.8631275e-39
4354.2505 1538.9512 1160 9.0348074e-39
4477.2578 1551.9584 1190 8.9426202e-39
4388.2939 1493.7736 1170 1.1247495e-38
4310.625 1444.0995 1150 1.5578164e-38
4262.6641 1390.2504 1140 2.0745082e-38
3947.6516 1232.5569 1050 2.3509886e-38
3954.7708 1211.3599 1060 2.3509886e-38
3950.5957 1181.6519 1060 2.3509886e-38
3936.5178 1153.3354 1050 2.3509886e-38
4440.1631 1072.4546 1200 2.1209675e-38
4421.9097 1014.4302 1200 1.1066008e-38
4438.9316 991.84137 1200 5.2551621e-39
4528.0557 979.3158 1230 3.962973e-39
4566.2744 963.84619 1240 4.1466425e-39
4624.2988 945.59314 1250 4.2388382e-39
4618.7319 905.98242 1250 4.422512e-39
4604.6543 877.66608 1250 3.8722137e-39
4559.4766 843.62231 1240 3.4144753e-39
4596.3037 818.25 1250 3.8808372e-39
4582.2261 789.93372 1250 6.0971183e-39
4317.958 705.89478 1180 9.8778468e-39
4449.4766 707.60767 1220 1.282487e-38
4402.9072 663.66119 1200 1.4207083e-38
4838.4644 673.13556 1330 1.6493998e-38
4614.4497 300.68771 1280 1.9451055e-38
4559.3691 268.03564 1260 1.8990809e-38
4514.1914 233.99185 1250 1.8805346e-38
4510.0166 204.28381 1250 1.9631498e-38
4535.5493 170.40057 1260 1.8439437e-38
4541.2769 139.30081 1260 1.5672503e-38
4597.9097 111.14507 1280 1.4383198e-38
4634.7368 85.772774 1290 1.6223518e-38
4711.1748 54.833572 1310 1.9361762e-38
4766.4155 16.775146 1330 1.9823123e-38
4882.4644 -19.730982 1370 1.9822394e-38
4746.771 -51.15189 1330 1.9820232e-38
4702.9849 -75.293015 1320 1.9636555e-38
3662.1328 -80.484978 1020 1.8624574e-38
3639.5439 -97.506874 1020 1.8625274e-38
3656.5659 -120.0957 1030 1.9635476e-38
3662.2935 -151.19547 1030 2.0649635e-38
3608.6047 -173.94485 1020 2.0650729e-38
3615.7241 -195.14195 1020 2.0651073e-38
3601.6462 -223.45827 1010 2.0559583e-38
3588.96 -241.8719 1010 2.138502e-38
3625.7874 -267.2442 1020 1.6500466e-38
3661.2229 -302.51913 1040 1.7053626e-38
3678.2446 -325.10797 1040 1.6407182e-38
3683.9722 -356.20773 1040 1.6498667e-38
4476.3472 -538.25665 1270 1.8438025e-38
4599.5151 -595.9599 1310 1.7888438e-38
4626.4399 -619.94043 1320 1.8071053e-38
4670.3862 -666.50983 1330 1.8900087e-38
4676.1138 -697.60962 1330 1.9082321e-38
4691.7441 -730.10107 1340 1.9266362e-38
4686.1768 -769.71185 1340 1.8347646e-38
4711.71 -803.59503 1350 1.5671074e-38
4815.0723 -858.51483 1380 1.1521564e-38
5025.9727 -938.6463 1440 7.5567892e-39
5098.2354 -999.29352 1470 5.3451745e-39
5370.2646 -1219.2937 1550 1.1795953e-38
5320.9121 -1283.0455 1540 1.0876158e-38
4431.8652 -1501.4396 1300 6.2660364e-39
4456.0063 -1545.2255 1310 6.0823654e-39
4450.4395 -1584.8363 1310 6.1734848e-39
4466.0693 -1617.3278 1310 5.6217516e-39
4432.1865 -1642.8606 1300 5.7128724e-39
4428.0112 -1672.5686 1300 5.5295546e-39
4423.8359 -1702.2767 1300 6.4518808e-39
4428.1719 -1743.2792 1310 7.0979621e-39
4423.9966 -1772.9872 1310 7.7429784e-39
4363.1885 -1774.5394 1290 8.850042e-39
4359.0137 -1804.2476 1290 1.0510292e-38
4371.8604 -1856.5444 1300 1.1615928e-38
4387.4902 -1889.0359 1300 1.1615573e-38
4381.9238 -1928.6466 1300 1.1524085e-38
4377.748 -1958.3546 1300 1.1338618e-38
4278.7217 -1944.4374 1270 1.097055e-38
4247.6221 -1950.1648 1260 1.0786884e-38
4186.814 -1951.7172 1250 9.9560546e-39
4009.9575 -1916.7633 1200 8.0174283e-39
3939.2468 -1916.9238 1180 5.9894831e-39
3926.5608 -1935.3375 1170 5.0696947e-39
3875.6558 -1938.2815 1160 4.6998177e-39
3741.1934 -1889.0892 1120 4.2377592e-39
3579.8064 -1815.9164 1070 3.77786e-39
3530.293 -1808.9578 1060 4.7012541e-39
3479.3879 -1811.9019 1040 5.5288595e-39
3458.1907 -1819.021 1040 3.4105236e-39
3408.6772 -1812.0624 1020 6.0838186e-39
3395.9912 -1830.476 1020 8.3883464e-39
3345.0862 -1833.42 1010 1.0321582e-38
3258.7454 -1801.0891 980 8.8486127e-39
3284.2783 -1834.9723 990 8.7546164e-39
3427.4121 -1966.1696 1030 8.2025272e-39
3369.3877 -1947.9165 1020 8.4773176e-39
3348.1907 -1955.0356 1010 8.3858324e-39
3352.5264 -1996.0381 1020 8.7513766e-39
3331.3293 -2003.1573 1010 7.9241382e-39
3328.5459 -2022.9626 1010 8.8478952e-39
4385.0293 1686.0996 1130 1.6041308e-38
4358.2646 1639.3696 1130 1.5491008e-38
4355.4814 1619.5643 1130 1.2724069e-38
4307.5205 1565.7152 1120 1.0508134e-38
4335.8369 1551.6373 1120 9.8616758e-39
4289.2676 1507.6908 1110 1.4562187e-38
4317.584 1493.6129 1120 2.3509879e-38
4271.0146 1449.6665 1110 2.3509886e-38
4149.5596 1375.8513 1080 2.3509886e-38
4060.5957 1317.6664 1060 2.1391178e-38
3992.8291 1266.6007 1040 2.3509886e-38
3905.2573 1218.3185 1020 2.3509886e-38
3922.2793 1195.7297 1020 2.3509886e-38
3929.3984 1174.5326 1030 2.3504862e-38
3915.3206 1146.2163 1020 2.2579304e-38
3932.3425 1123.6274 1030 2.17445e-38
4567.5059 1044.4594 1210 1.291493e-38
4584.5278 1021.8706 1210 1.0428163e-38
4537.958 977.92407 1200 1.1711702e-38
4566.2744 963.84619 1210 1.336869e-38
4634.2017 944.20142 1230 1.4198082e-38
4608.8296 907.37415 1220 1.4478266e-38
4604.6543 877.66608 1220 1.4660502e-38
4548.1821 835.11133 1210 1.503288e-38
4606.2065 816.85828 1220 1.6594438e-38
4570.9316 781.42273 1220 1.779694e-38
4286.8584 700.1673 1140 1.9175574e-38
4313.7832 676.18677 1150 1.8898609e-38
4604.5469 302.07947 1240 1.9359586e-38
4549.4668 269.4274 1230 1.9543976e-38
4483.0918 228.26436 1210 1.9174118e-38
4478.917 198.55632 1210 1.9356353e-38
4495.9385 175.9675 1220 1.9084072e-38
4501.666 144.86772 1220 1.6500816e-38
4568.2012 115.32025 1240 1.3457293e-38
4613.5396 78.653557 1260 1.0693942e-38
4711.1748 54.833572 1280 1.3458007e-38
4786.2212 13.991684 1300 1.677597e-38
4933.3696 -16.786955 1350 1.8990833e-38
4807.5786 -49.59959 1310 1.9083018e-38
4772.3037 -85.035126 1300 1.8992629e-38
3708.8628 -107.24899 1010 1.8803564e-38
3686.2739 -124.27089 1010 1.8806427e-38
3672.196 -152.5872 1010 1.9912412e-38
3618.5076 -175.33659 990 1.9728406e-38
3605.8213 -193.75023 990 2.0191873e-38
3601.6462 -223.45827 990 2.0186496e-38
3588.96 -241.8719 990 2.1200627e-38
3615.8845 -265.85245 1000 1.6224587e-38
3651.3201 -301.12741 1010 1.6130233e-38
3678.2446 -325.10797 1010 1.3731717e-38
3693.875 -357.59946 1020 1.3179277e-38
4593.627 -494.14963 1270 1.0507389e-38
4554.1768 -559.29321 1260 1.7424583e-38
4629.2231 -600.13507 1290 1.8069958e-38
4646.2451 -622.72394 1290 1.8530579e-38
4670.3862 -666.50983 1300 1.7983885e-38
4676.1138 -697.60962 1300 1.9453974e-38
4681.8413 -728.70935 1310 1.8532036e-38
4686.1768 -769.71185 1310 1.825437e-38
4711.71 -803.59503 1320 1.5396296e-38
4785.3643 -854.3396 1340 1.1429723e-38
4966.5566 -930.2959 1390 7.4656684e-39
5030.3086 -979.64874 1410 5.343741e-39
5419.6177 -1155.5419 1520 6.7262971e-39
5340.5566 -1215.1185 1500 1.0965822e-38
5384.5034 -1261.6879 1520 1.2810085e-38
5311.0093 -1281.6538 1500 1.1243498e-38
4421.9629 -1500.0479 1260 6.1742009e-39
4426.2983 -1541.0503 1270 5.9887363e-39
4432.0259 -1572.1501 1270 5.6224635e-39
4474.5806 -1628.6222 1280 5.7139458e-39
4432.1865 -1642.8606 1270 5.6224733e-39
4399.6948 -1658.4907 1260 5.6203195e-39
4385.6172 -1686.8071 1260 6.359674e-39
4399.8555 -1729.2013 1270 7.0054091e-39
4357.4609 -1743.4397 1260 7.6507813e-39
2209.918 -785.23438 630 1.1432969e-38
2188.7207 -792.35358 630 1.1891437e-38
2215.6455 -816.33411 640 1.1615554e-38
2232.6675 -838.92297 640 1.1428304e-38
2202.9592 -834.74774 630 1.09702e-38
2181.7622 -841.867 630 1.0601421e-38
3889.7336 -1909.9652 1130 3.7771384e-39
3857.2419 -1925.5953 1130 3.3172392e-39
3704.366 -1863.7169 1080 2.2116147e-39
3579.8064 -1815.9164 1050 3.0406565e-39
3530.293 -1808.9578 1030 5.5292211e-39
3479.3879 -1811.9019 1020 6.0831137e-39
3458.1907 -1819.021 1010 4.7945371e-39
3407.2856 -1821.9651 1000 4.4246714e-39
3404.5022 -1841.7704 1000 7.5575053e-39
3354.9888 -1834.8118 980 9.4021424e-39
3240.3318 -1788.403 950 9.6765713e-39
3229.0374 -1796.9139 950 9.030476e-39
3427.4121 -1966.1696 1010 8.5716614e-39
3367.9961 -1957.8191 990 8.6627795e-39
3346.7988 -1964.9384 990 8.9372041e-39
3362.4292 -1997.4298 990 8.3861912e-39
3331.3293 -2003.1573 990 7.9252186e-39
3328.5459 -2022.9626 980 8.9404454e-39
4362.4404 1669.0778 1100 1.6410085e-38
4346.9707 1630.8588 1090 1.5397378e-38
4332.8926 1602.5425 1090 1.2999568e-38
4222.7324 1537.2383 1070 9.5887e-39
4228.4595 1506.1385 1070 9.216312e-39
4204.479 1479.214 1060 9.3999802e-39
4221.501 1456.6251 1070 1.00457e-38
4142.4399 1397.0485 1050 1.207112e-38
4053.4766 1338.8635 1030 1.5296521e-38
3997.0044 1296.3088 1010 1.9634047e-38
3971.6321 1259.4816 1010 2.0463125e-38
3926.4546 1225.4377 1000 1.493357e-38
3922.2793 1195.7297 1000 8.3001528e-39
3919.4958 1175.9243 1000 6.7338851e-39
3915.3206 1146.2163 1000 8.1185992e-39
3932.3425 1123.6274 1000 1.1345429e-38
3919.6565 1105.2139 1000 1.4753059e-38
4584.5278 1021.8706 1180 1.9358509e-38
4485.6616 965.07739 1160 1.9357795e-38
4513.9775 950.99951 1160 1.9265598e-38
4603.1021 938.47394 1190 1.8805707e-38
4608.8296 907.37415 1190 1.9451061e-38
4614.5571 876.27435 1190 1.7517121e-38
4559.4766 843.62231 1180 1.7516752e-38
4658.5034 829.70502 1210 1.8803528e-38
4633.1313 792.87775 1200 1.945179e-38
4329.2529 714.40576 1120 1.944855e-38
4521.5786 717.6709 1180 1.908372e-38
4410.0264 642.46411 1150 1.9360309e-38
4479.9873 349.88 1180 2.0095346e-38
4614.4497 300.68771 1210 1.9545775e-38
4559.3691 268.03564 1200 1.954397e-38
4494.3867 236.77531 1190 1.9174833e-38
4490.2109 207.06728 1190 1.9634017e-38
4486.0361 177.35924 1190 1.8532706e-38
4480.4688 137.7485 1180 1.6868879e-38
4547.0044 108.20103 1200 1.3274342e-38
4593.7344 81.437019 1220 9.8638254e-39
4680.0752 49.106079 1240 8.9407999e-39
4766.4155 16.775146 1270 1.1704128e-38
4868.3867 -48.047295 1300 1.7977021e-38
4823.209 -82.091095 1290 1.8621669e-38
4919.4521 -115.81376 1310 1.8437655e-38
3706.0793 -127.05435 990 1.8251813e-38
3692.0015 -155.37067 990 1.8900777e-38
3628.4102 -176.72832 970 1.8896117e-38
3615.7241 -195.14195 970 1.9450366e-38
3601.6462 -223.45827 970 2.0187191e-38
3588.96 -241.8719 960 2.0190074e-38
3605.9819 -264.46072 970 1.5945134e-38
3641.4175 -299.73569 980 1.5300126e-38
3658.4395 -322.32449 990 1.1244956e-38
4490.4248 -509.94037 1210 1.336654e-38
4583.8853 -563.46838 1240 1.7240546e-38
4629.2231 -600.13507 1250 1.9083035e-38
4636.3423 -621.33215 1260 1.9175221e-38
4651.9727 -653.82367 1260 1.8440187e-38
4666.2109 -696.2179 1270 1.9266696e-38
4671.9385 -727.31763 1270 1.8439827e-38
4676.2744 -768.32007 1270 1.7701187e-38
4711.71 -803.59503 1280 1.5394141e-38
4735.8511 -847.38098 1290 1.0968758e-38
4878.8242 -907.86768 1330 7.3720294e-39
4960.9897 -969.90662 1350 5.069668e-39
5331.8853 -1133.1136 1460 6.2667623e-39
5380.1675 -1220.6854 1470 9.5825413e-39
5404.3086 -1264.4713 1480 1.2624977e-38
5339.3257 -1295.7317 1470 1.1242414e-38
4484.3228 -1559.3033 1250 5.7143088e-39
4460.3418 -1586.228 1240 5.8972609e-39
4512.7998 -1644.0918 1260 5.2544096e-39
4480.3081 -1659.7219 1250 5.8043464e-39
4418.1084 -1671.1769 1240 5.3462423e-39
4385.6172 -1686.8071 1230 6.4518696e-39
4438.0742 -1744.6709 1240 6.8206535e-39
2243.8013 -759.70148 630 7.5575109e-39
2214.0933 -755.52631 620 8.8496706e-39
2182.9932 -761.25378 610 1.0324463e-38
2181.6016 -771.15649 610 1.1889988e-38
2161.7964 -768.37305 600 1.1340411e-38
2159.0127 -788.17841 600 1.0972344e-38
2147.7183 -796.68933 600 1.1246062e-38
2136.4238 -805.20026 600 1.0969112e-38
2135.0322 -815.10297 600 1.0417742e-38
3838.8284 -1912.9093 1090 2.4010535e-39
3610.9062 -1810.189 1030 3.1353787e-39
3541.5874 -1800.4468 1010 2.8595093e-39
3520.3904 -1807.566 1000 5.2558726e-39
3470.877 -1800.6074 990 5.9012406e-39
3439.7771 -1806.3348 980 5.6242865e-39
3398.7747 -1810.6707 970 4.2402829e-39
3394.5994 -1840.3787 970 6.5462232e-39
3373.4023 -1847.4979 960 8.7549681e-39
3241.7236 -1778.5002 930 9.6776418e-39
3219.1348 -1795.5222 920 9.0311962e-39
3445.8257 -1978.8557 990 8.9386377e-39
3377.8987 -1959.2108 970 8.7538989e-39
3356.7017 -1966.3301 970 8.2947102e-39
3370.9402 -2008.7242 970 8.3851164e-39
3341.2319 -2004.5491 960 8.7542562e-39
3327.1541 -2032.8654 960 8.9408027e-39
4362.4404 1669.0778 1070 1.6871429e-38
4327.165 1633.6422 1060 1.5120075e-38
4279.2041 1579.7931 1050 1.0784726e-38
4125.2578 1490.3478 1010 7.8333887e-39
4143.6709 1477.6616 1020 8.8478742e-39
4118.2988 1440.8344 1010 9.2188189e-39
4125.418 1419.6373 1020 9.309567e-39
4057.6516 1368.5715 1000 8.7560471e-39
4022.3767 1333.136 990 9.4925331e-39
3975.8074 1289.1896 980 1.0598152e-38
3950.4351 1252.3623 980 1.0599604e-38
3915.1602 1216.9268 970 1.0604641e-38
3912.3767 1197.1215 970 1.1159249e-38
3898.2988 1168.8051 970 1.4109133e-38
3884.2209 1140.4888 970 1.6503327e-38
3891.3401 1119.2917 970 1.7333092e-38
4667.9243 1040.4447 1170 1.8898249e-38
4549.2529 986.435 1140 1.9264512e-38
4554.9805 955.33527 1140 1.9264159e-38
4624.2988 945.59314 1160 1.9267029e-38
4630.0264 914.49335 1160 1.9632934e-38
4635.7539 883.39362 1170 1.7881589e-38
