# .PCD v0.7 - Point Cloud Data file format
VERSION 0.7
FIELDS x y z rgb
SIZE 4 4 4 4
TYPE F F F F
COUNT 1 1 1 1
WIDTH 1249
HEIGHT 1
VIEWPOINT 0 0 0 1 0 0 0
POINTS 1249
DATA ascii
4574.3672 1148.49 1130 1.8710248e-38
4552.9834 1109.2123 1130 1.8802453e-38
4561.9297 1078.8816 1130 1.815888e-38
4550.8892 1049.2489 1130 1.7975925e-38
4529.5054 1009.9712 1120 1.7792603e-38
4457.8027 962.44464 1100 1.8896081e-38
4355.77 905.97113 1080 1.9354898e-38
4425.3784 893.5343 1100 1.8807491e-38
4015.8501 627.66467 990 2.0002066e-38
3944.1477 580.13806 980 2.0093185e-38
3953.4438 559.80127 980 1.9819119e-38
3932.4089 530.51752 970 1.9542894e-38
3931.7109 510.52972 970 2.0002787e-38
3950.6519 479.85001 980 1.9816964e-38
4010.2661 467.76212 990 1.9819469e-38
4049.5439 446.37833 1000 1.9726929e-38
4700.5439 463.66928 1170 1.9452492e-38
4568.8779 418.23669 1140 1.9450701e-38
4437.5615 382.79797 1110 1.9360292e-38
4426.1714 343.17136 1100 1.9448903e-38
4435.4673 322.83453 1100 1.9264152e-38
4474.396 291.45682 1110 1.8895729e-38
4473.3491 261.4751 1120 1.0418796e-38
4452.3145 232.19138 1110 9.9542315e-39
4731.7949 212.4256 1180 8.7592813e-39
4831.0356 188.94783 1210 9.8630897e-39
4739.6943 152.11316 1190 1.097341e-38
3634.7808 30.60006 900 1.7146898e-38
3623.74 0.96732903 900 1.7606089e-38
3623.042 -19.020489 900 1.7975578e-38
3642.3318 -39.706295 900 1.8251809e-38
3611.303 -68.641037 890 1.8436557e-38
3590.6172 -87.930862 890 1.8710997e-38
3569.9314 -107.22069 890 2.0100374e-38
3569.2334 -127.2085 880 1.9634729e-38
3558.5415 -146.84732 880 1.8713865e-38
3547.8496 -166.48615 880 6.0805914e-39
4522.7158 -330.60846 1130 8.301215e-39
4651.5898 -365.12711 1170 7.5600332e-39
4690.1689 -406.49872 1180 1.0510634e-38
4699.1162 -436.82944 1180 1.2075441e-38
4708.063 -467.16016 1180 1.3274687e-38
4697.0225 -496.79288 1180 1.4285974e-38
4675.9873 -526.07666 1180 1.5759288e-38
4734.5547 -568.14624 1190 1.5116454e-38
4823.104 -611.26282 1210 1.5485236e-38
4782.0815 -639.84857 1200 1.5303003e-38
4860.2876 -692.61005 1230 9.3996172e-39
4988.4634 -747.11652 1260 8.846428e-39
5146.272 -812.66388 1300 5.3451717e-39
5194.8457 -854.38452 1310 4.9763878e-39
5322.6724 -918.88489 1350 2.8566212e-39
5390.8848 -971.29742 1360 8.5720062e-39
5459.0972 -1023.7099 1380 7.2787576e-39
5428.0684 -1052.6447 1380 1.0874365e-38
5407.0337 -1081.9283 1370 9.8616435e-39
5455.2583 -1133.6429 1380 9.0297515e-39
4682.4595 -1486.8878 1180 5.5299147e-39
4632.1406 -1495.1367 1170 5.620674e-39
4591.4673 -1513.7285 1160 5.4370002e-39
2400.3901 -646.73297 580 5.2518957e-39
2380.0535 -656.02887 580 4.9771067e-39
2359.7168 -665.32477 580 7.1883584e-39
2349.7227 -664.97583 570 6.4504431e-39
2319.3921 -673.92273 570 6.1752883e-39
2260.1265 -651.84094 550 1.0140429e-38
2249.7837 -661.48584 550 1.0692888e-38
2229.7959 -660.78784 540 1.0141508e-38
2199.4651 -669.7348 530 1.0049317e-38
2189.4712 -669.3858 530 1.0048955e-38
2189.1221 -679.3797 530 9.4039542e-39
2139.5015 -667.64081 520 9.1241177e-39
2129.1587 -677.28571 520 9.1244793e-39
2109.1709 -676.58777 510 9.0348088e-39
2089.1831 -675.88977 510 8.4823637e-39
2078.8403 -685.53467 500 8.1121378e-39
2078.4912 -695.52856 500 3.689986e-39
2078.1421 -705.52246 500 2.307769e-39
2077.7932 -715.51642 500 1.1889265e-38
4090.5032 1905.8379 970 2.3417672e-38
4130.4785 1904.4419 980 1.2080161e-38
4129.7808 1884.4541 990 1.4378855e-38
4159.4136 1873.4132 990 1.4842046e-38
4148.0234 1833.7866 990 1.4198116e-38
4167.6626 1823.0947 1000 1.3370515e-38
4136.2852 1784.166 990 1.4103395e-38
4043.5476 1707.3557 970 1.0878377e-38
3961.1536 1640.1903 950 6.0838312e-39
3807.406 1535.4923 910 5.4344919e-39
3715.0178 1468.6759 890 7.5513802e-39
3683.6401 1429.7472 880 6.8166878e-39
3774.6323 1456.588 900 7.9255577e-39
3915.9429 1491.6777 940 8.8471581e-39
3935.5818 1480.9858 940 9.0297501e-39
3924.5408 1451.353 940 8.5716488e-39
3903.157 1412.0754 930 8.2021474e-39
3892.1162 1382.4427 930 6.0830927e-39
3881.4243 1362.8038 930 1.2998087e-38
3870.3833 1333.1711 930 1.438067e-38
3828.6628 1284.5975 910 1.5577048e-38
3756.9604 1237.071 900 1.640574e-38
3786.593 1226.0302 910 1.6776666e-38
3765.2092 1186.7524 900 1.7236562e-38
3754.1685 1157.1198 900 1.7604995e-38
3895.4792 1192.2095 930 1.7881575e-38
3854.1074 1153.6298 920 1.7789379e-38
3792.3992 1105.7543 910 1.7974849e-38
4399.3623 1294.6866 1060 1.8066327e-38
4565.0713 1168.8268 1100 1.834292e-38
4574.0176 1138.4961 1100 1.8345064e-38
4552.9834 1109.2123 1100 1.8802812e-38
4561.9297 1078.8816 1100 1.8618066e-38
4540.8955 1049.5979 1100 1.7422391e-38
4529.5054 1009.9712 1090 1.8345776e-38
4447.8091 962.79364 1070 1.8895722e-38
4355.77 905.97113 1050 1.9264503e-38
4405.3906 894.2323 1060 1.9357055e-38
4680.5562 464.36728 1140 1.9082283e-38
4568.8779 418.23669 1110 1.8989727e-38
4437.5615 382.79797 1080 1.9265944e-38
4416.1777 343.52032 1070 1.8804615e-38
4435.4673 322.83453 1070 1.9448899e-38
4464.4023 291.80582 1080 1.9171596e-38
4473.3491 261.4751 1090 1.0507391e-38
4442.3203 232.54037 1080 9.9552923e-39
4711.8066 213.1236 1150 9.3095768e-39
4811.0479 189.64583 1170 1.0510251e-38
4679.7314 154.20712 1140 1.2259464e-38
3635.4788 50.587875 880 1.2627885e-38
3634.7808 30.60006 880 1.6589419e-38
3623.74 0.96732903 870 1.7420606e-38
3623.042 -19.020489 880 1.7514241e-38
3642.3318 -39.706295 880 1.8066333e-38
3601.3091 -68.292038 870 1.7793343e-38
3590.6172 -87.930862 870 1.8344715e-38
3579.9253 -107.56969 860 2.064886e-38
3569.2334 -127.2085 860 1.9541816e-38
3568.5354 -147.19632 860 1.8712423e-38
3557.8435 -166.83514 860 5.6214083e-39
4463.1016 -318.52057 1090 1.0692527e-38
4611.6138 -363.73114 1130 7.3770741e-39
4660.1875 -405.45172 1140 9.9549462e-39
4709.1104 -437.17844 1150 9.8645456e-39
4708.063 -467.16016 1150 1.2164749e-38
4697.0225 -496.79288 1150 7.3745546e-39
4685.6323 -536.41956 1150 1.3363277e-38
4734.5547 -568.14624 1160 1.308889e-38
4822.7549 -621.25671 1180 1.4563996e-38
4782.0815 -639.84857 1170 1.4382134e-38
4860.2876 -692.61005 1190 9.122673e-39
4988.4634 -747.11652 1220 8.5709257e-39
5136.2783 -812.31488 1260 5.7135927e-39
5194.8457 -854.38452 1280 4.7008813e-39
5332.6665 -919.23389 1310 3.1328493e-39
5400.8789 -971.64636 1330 8.57093e-39
5469.0913 -1024.0588 1350 7.0961572e-39
5438.0625 -1052.9937 1340 9.8598541e-39
5407.0337 -1081.9283 1330 6.7255866e-39
5464.9033 -1143.9858 1350 9.3978306e-39
4672.4658 -1486.5388 1150 5.8969036e-39
4592.5142 -1483.7468 1130 5.8061415e-39
4551.8408 -1502.3386 1120 5.5295574e-39
2410.0352 -657.07587 570 5.5291902e-39
2399.6924 -666.72076 570 5.1614965e-39
2379.7046 -666.02277 570 7.0028938e-39
2359.3677 -675.31873 560 6.1731387e-39
2329.3857 -674.27173 550 6.2656861e-39
2269.7715 -662.18384 540 9.7723626e-39
2249.7837 -661.48584 540 1.0416289e-38
2229.7959 -660.78784 530 9.9567567e-39
2199.814 -659.74091 520 1.0139702e-38
2189.4712 -669.3858 520 9.8634877e-39
2070.5913 -635.21613 490 7.739761e-39
2109.52 -666.59381 500 5.0696736e-39
2109.1709 -676.58777 500 4.8860082e-39
2089.1831 -675.88977 490 8.3915876e-39
2078.8403 -685.53467 490 6.547661e-39
2078.4912 -695.52856 490 4.623098e-39
2078.1421 -705.52246 490 4.1559878e-39
2077.7932 -715.51642 490 1.1889992e-38
4090.8523 1915.8318 950 2.2865211e-38
4130.4785 1904.4419 960 1.0695062e-38
4139.7744 1884.1051 960 1.5762129e-38
4169.4072 1873.0642 970 1.6318252e-38
4158.3667 1843.4315 970 1.6320399e-38
4177.6562 1822.7457 970 1.6683794e-38
4125.9419 1774.5211 960 1.5670724e-38
4043.1987 1697.3618 940 1.0508531e-38
3981.4902 1649.4862 920 5.7096424e-39
3827.7427 1544.7882 890 7.6425095e-39
3725.3606 1478.3208 860 1.1603652e-38
3714.3198 1448.688 860 6.8249597e-39
3774.6323 1456.588 880 8.1128287e-39
3844.9385 1464.1389 890 8.3876261e-39
3894.9082 1462.3939 910 8.4787371e-39
3904.2041 1442.0571 910 8.4790931e-39
3893.1631 1412.4244 900 7.9262822e-39
3882.1223 1382.7916 900 7.5546102e-39
3881.4243 1362.8038 900 1.3179247e-38
3870.3833 1333.1711 900 1.4468178e-38
3828.6628 1284.5975 890 1.5023876e-38
3756.9604 1237.071 870 1.5486638e-38
3837.2607 1244.2729 890 1.6406809e-38
3937.8977 1260.7709 920 1.6958895e-38
4332.1973 1377.0808 1010 1.7052538e-38
4349.7422 1306.4255 1020 1.8158883e-38
4551.3652 1349.4152 1070 1.8067042e-38
4478.2666 1261.913 1050 1.8801367e-38
4517.5444 1240.5292 1060 1.8251429e-38
4718.8184 1273.5249 1110 1.8895365e-38
4595.4014 1177.7737 1080 1.8250712e-38
4574.3672 1148.49 1070 1.8712051e-38
4552.9834 1109.2123 1070 1.8528019e-38
4561.9297 1078.8816 1070 1.8985041e-38
4550.8892 1049.2489 1070 1.6225306e-38
4539.8481 1019.6162 1070 1.8803171e-38
4457.8027 962.44464 1050 1.9354893e-38
4376.1064 915.26709 1030 1.9080831e-38
4516.3706 920.37506 1060 1.9171583e-38
4760.8564 471.56921 1120 1.9634729e-38
4599.209 427.18359 1090 1.945141e-38
4437.2124 372.80408 1050 1.9450702e-38
4416.1777 343.52032 1040 1.9174473e-38
4435.4673 322.83453 1050 1.9081198e-38
4474.396 291.45682 1060 1.9171239e-38
4483.3428 261.1261 1060 1.0234402e-38
4462.3081 231.84238 1050 1.0231523e-38
4752.1313 221.72153 1130 9.401048e-39
4821.042 189.29683 1140 1.1614078e-38
3636.1768 70.575691 850 1.4748022e-38
3645.4727 50.238884 860 1.3922227e-38
3634.7808 30.60006 850 1.5948359e-38
3633.7339 0.61833382 850 1.3739996e-38
3623.042 -19.020489 850 1.7143296e-38
3632.3379 -39.3573 850 1.7698275e-38
3601.3091 -68.292038 850 1.7607158e-38
3590.6172 -87.930862 840 1.6780601e-38
3579.9253 -107.56969 840 2.0374791e-38
3579.2273 -127.5575 840 1.935958e-38
3568.5354 -147.19632 840 1.8529473e-38
3557.8435 -166.83514 840 5.5288567e-39
4531.6626 -360.93918 1080 7.0086615e-39
4620.5605 -394.06186 1100 1.0230453e-38
4739.0918 -438.22543 1130 9.7730703e-39
4698.0693 -466.81116 1120 6.359318e-39
4687.0283 -496.44391 1110 6.082371e-39
4695.626 -536.76855 1120 6.4500717e-39
4724.5605 -567.79724 1120 1.2904486e-38
4803.1162 -610.56482 1150 1.3736049e-38
4772.0874 -639.49957 1140 1.4381044e-38
4860.2876 -692.61005 1160 8.6627753e-39
4978.4697 -746.76752 1190 8.2936228e-39
5136.2783 -812.31488 1230 5.4388023e-39
5194.8457 -854.38452 1240 4.7923553e-39
5312.6787 -918.53589 1270 3.1332081e-39
5410.8726 -971.99536 1300 8.2950619e-39
5498.7236 -1035.0999 1320 8.6631214e-39
5448.0562 -1053.3427 1300 8.295778e-39
5416.6787 -1092.2712 1300 9.5847119e-39
5346.0234 -1109.8162 1280 9.6747636e-39
4652.8267 -1475.8469 1120 6.0830843e-39
4533.249 -1461.665 1090 5.9898181e-39
2420.0291 -657.42487 560 5.6221089e-39
2409.686 -667.06976 560 5.5299147e-39
2399.3433 -676.71466 560 6.9114142e-39
2369.3616 -675.66772 550 6.173845e-39
2339.3799 -674.62073 540 5.9898251e-39
2279.7654 -662.53284 530 9.6783719e-39
2259.4287 -671.82874 520 1.0231177e-38
4164.3945 -1708.9429 1000 5.433787e-39
4104.4307 -1706.8489 980 5.262327e-39
2089.1831 -675.88977 480 2.0565741e-38
2078.8403 -685.53467 480 2.1939686e-38
2078.4912 -695.52856 480 2.2772325e-38
2078.1421 -705.52246 480 2.2679766e-38
4090.8523 1915.8318 920 2.277087e-38
4130.4785 1904.4419 930 1.0230126e-38
4149.7686 1883.7561 940 1.6590111e-38
4179.7505 1882.7091 940 1.7884861e-38
4168.3604 1843.0825 940 1.6505516e-38
4177.6562 1822.7457 940 1.6413674e-38
4115.5991 1764.8762 930 1.6502651e-38
4033.2048 1697.7108 910 9.5015869e-39
3981.4902 1649.4862 900 5.4326996e-39
3848.0796 1554.0841 870 6.7201902e-39
3776.0281 1496.5636 850 1.0308602e-38
3775.3301 1476.5758 850 5.8101043e-39
3815.3059 1475.1798 860 9.4024815e-39
3844.9385 1464.1389 870 8.4783728e-39
3874.5713 1453.098 880 6.5397674e-39
3873.5244 1423.1163 880 6.7234258e-39
3872.8264 1403.1285 880 7.46566e-39
3872.1284 1383.1406 880 8.8471259e-39
3881.0752 1352.8099 880 1.2720421e-38
3870.0344 1323.1772 880 1.4010438e-38
3798.332 1275.6506 860 1.4653657e-38
3756.9604 1237.071 850 1.5300817e-38
3867.5913 1253.2198 880 1.61295e-38
3947.8916 1260.4219 890 1.6314612e-38
3936.8508 1230.7891 890 1.7051092e-38
4289.7783 1308.5194 980 1.7237283e-38
4380.0728 1315.3724 1000 1.7790805e-38
4510.6914 1330.8232 1030 1.8250709e-38
4570.3057 1318.7354 1040 1.7883011e-38
4549.2715 1289.4517 1040 1.8161394e-38
4548.2241 1259.47 1040 1.8527294e-38
4698.8311 1274.2229 1070 1.8437974e-38
4585.4077 1178.1227 1050 1.9263061e-38
4564.0239 1138.8451 1040 1.9447803e-38
4552.9834 1109.2123 1040 1.9080111e-38
4571.9238 1078.5326 1040 1.8711701e-38
4550.8892 1049.2489 1040 1.4383938e-38
4539.8481 1019.6162 1040 1.9079388e-38
4467.7969 962.09564 1020 1.9172661e-38
4396.4434 924.56299 1000 1.9264506e-38
4825.7056 609.38995 1110 2.0278655e-38
4794.3281 570.4613 1100 1.9635811e-38
4793.2812 540.47961 1100 1.9542179e-38
4771.8975 501.20197 1100 1.9636886e-38
4720.5317 462.97131 1080 1.9633293e-38
4609.2026 426.83459 1060 1.9449979e-38
4457.5488 382.09998 1020 1.9724411e-38
4436.5146 352.81625 1020 1.8529472e-38
4455.4551 322.13654 1020 1.917411e-38
4504.7266 300.40375 1030 1.8435844e-38
4533.6611 269.37503 1040 1.0142203e-38
4512.627 240.09131 1040 9.9538602e-39
4772.1191 221.02353 1100 9.3102887e-39
4811.0479 189.64583 1110 1.1615881e-38
3817.4631 104.26942 870 1.4654384e-38
3626.1829 70.924683 830 1.4934207e-38
3645.4727 50.238884 830 1.5761818e-38
3634.7808 30.60006 830 1.585508e-38
3623.74 0.96732903 830 1.5854725e-38
3633.0359 -19.369484 830 1.5856506e-38
3632.3379 -39.3573 830 1.4202059e-38
3601.3091 -68.292038 820 1.5202501e-38
3590.6172 -87.930862 820 1.7234057e-38
3579.9253 -107.56969 820 2.0463386e-38
3579.2273 -127.5575 820 1.9080848e-38
3578.5293 -147.54532 820 1.8709187e-38
3567.8374 -167.18414 820 5.5299287e-39
4502.0298 -349.89828 1040 8.8507679e-39
4620.5605 -394.06186 1070 8.3001108e-39
4749.0859 -438.5744 1100 1.0693219e-38
4718.0566 -467.50916 1090 8.2993919e-39
4697.0225 -496.79288 1090 8.0242414e-39
4705.6201 -537.11755 1090 8.5777697e-39
4724.5605 -567.79724 1090 1.2168722e-38
4803.1162 -610.56482 1110 1.3367619e-38
4782.0815 -639.84857 1110 1.4103385e-38
4860.2876 -692.61005 1130 8.6624291e-39
4968.4756 -746.41852 1150 8.1106721e-39
5126.6333 -801.97198 1190 5.5299189e-39
5194.8457 -854.38452 1210 4.7923539e-39
5293.0396 -907.84399 1230 3.2250492e-39
5430.5112 -982.68726 1260 8.5712859e-39
5538.6997 -1036.4958 1290 9.4017584e-39
5457.7012 -1063.6855 1270 1.0503431e-38
5515.9199 -1115.749 1280 7.0072182e-39
4603.2061 -1464.108 1070 5.7153794e-39
2440.3657 -648.12897 550 5.8054198e-39
2430.0229 -657.77386 550 5.8050639e-39
2419.6802 -667.41876 550 5.8036275e-39
2408.9883 -687.05762 550 6.7266586e-39
2389.0005 -686.35962 540 5.9901712e-39
2359.0186 -685.31262 530 5.8061513e-39
4185.0801 -1689.6531 970 8.9447599e-39
4164.3945 -1708.9429 970 1.8543901e-38
4143.7085 -1728.2327 960 2.1485196e-38
4123.0225 -1747.5225 960 1.6496569e-38
2088.834 -685.88367 470 1.114993e-38
2078.4912 -695.52856 470 1.1704525e-38
2078.1421 -705.52246 470 2.0101527e-38
4100.8462 1915.4828 900 2.2770865e-38
4120.4849 1904.7909 900 9.6772943e-39
4160.1113 1893.401 910 1.5847175e-38
4189.7441 1882.3601 920 1.7513545e-38
4178.7031 1852.7274 920 1.7976323e-38
4157.3193 1813.4498 910 1.7518219e-38
4084.9192 1745.9354 900 1.7700811e-38
4012.8679 1688.4149 880 1.1164708e-38
3961.1536 1640.1903 870 4.056242e-39
3807.7549 1545.4862 840 5.1571889e-39
3786.3711 1506.2085 830 5.4319794e-39
3816.0039 1495.1676 840 4.6983716e-39
3855.9795 1493.7716 850 7.7418839e-39
3865.2754 1473.4348 850 4.0544595e-39
3854.2344 1443.8021 850 2.7662374e-39
3843.1936 1414.1694 850 2.6740306e-39
3842.4956 1394.1815 840 2.674032e-39
3851.4426 1363.8508 850 4.4214204e-39
3850.7446 1343.863 850 1.1886712e-38
3839.7036 1314.2303 850 1.3916081e-38
3767.6523 1256.7098 830 1.4563965e-38
3776.9482 1236.373 830 1.4838048e-38
3948.9387 1290.4036 870 1.5484488e-38
4331.499 1357.093 960 1.7235129e-38
4350.4399 1326.4133 960 1.7512425e-38
4400.4092 1324.6683 970 1.7329115e-38
4551.3652 1349.4152 1010 1.7973762e-38
4550.3184 1319.4333 1010 1.8066319e-38
4629.9204 1306.6476 1020 1.7975206e-38
4669.5469 1295.2577 1030 1.8342904e-38
4789.8228 1301.0636 1060 1.8160671e-38
4778.7822 1271.4309 1060 1.8435104e-38
4585.4077 1178.1227 1020 1.8437268e-38
4574.3672 1148.49 1010 1.8987547e-38
4573.3198 1118.5083 1010 1.9353096e-38
4602.2549 1087.4795 1020 1.8618418e-38
4581.2197 1058.1958 1020 1.1988673e-38
4580.1729 1028.2141 1010 1.8620932e-38
4508.4707 980.6875 1000 1.9357049e-38
4467.0986 942.10785 990 1.9543599e-38
4445.7148 902.8302 980 1.9449251e-38
4404.3438 864.25055 980 1.9632203e-38
4775.3872 601.14105 1060 2.037229e-38
4744.0098 562.2124 1060 2.0370488e-38
4732.9688 532.57965 1050 2.0186461e-38
4711.585 493.302 1050 2.0371922e-38
4660.5684 465.06528 1040 2.0001714e-38
4548.8906 418.93466 1010 1.9358861e-38
4457.5488 382.09998 990 1.9450346e-38
4446.5083 352.46725 990 1.9174108e-38
4475.4429 321.43854 1000 1.9632924e-38
4534.7085 299.35675 1010 1.8528022e-38
4563.6436 268.32806 1020 1.050883e-38
4572.5898 237.99734 1020 1.0139326e-38
4752.1313 221.72153 1060 9.4939639e-39
4801.0542 189.99483 1070 1.1890679e-38
4659.7432 154.90512 1040 1.2998819e-38
3827.457 103.92043 850 1.4104084e-38
3626.1829 70.924683 800 1.4933135e-38
3645.4727 50.238884 810 1.5763244e-38
3634.7808 30.60006 810 1.6316777e-38
3613.7458 1.3163242 800 1.5856886e-38
3623.042 -19.020489 810 1.5578462e-38
3632.3379 -39.3573 810 1.6683407e-38
3601.3091 -68.292038 800 1.465513e-38
3590.6172 -87.930862 800 1.7145094e-38
3589.9192 -107.91868 800 2.0099268e-38
3589.2212 -127.90649 800 1.9356714e-38
3588.5232 -147.89432 800 1.797559e-38
3587.8252 -167.88213 800 5.5288469e-39
4502.0298 -349.89828 1010 7.8369845e-39
4620.5605 -394.06186 1040 9.5879714e-39
4739.0918 -438.22543 1060 1.0692155e-38
4718.0566 -467.50916 1060 1.1248207e-38
4697.0225 -496.79288 1050 1.1984325e-38
4695.626 -536.76855 1060 1.2629334e-38
4714.5669 -567.44824 1060 1.2812995e-38
4783.1284 -609.86682 1070 1.3643475e-38
4772.0874 -639.49957 1070 1.3736405e-38
4860.2876 -692.61005 1090 8.387273e-39
4948.8369 -735.72662 1110 8.2007013e-39
5116.6392 -801.62299 1150 5.7132298e-39
5184.8516 -854.03552 1170 4.7919965e-39
5430.5112 -982.68726 1230 8.4794616e-39
5408.0806 -1051.9467 1220 8.9389936e-39
2450.0107 -658.47186 540 5.9894495e-39
2439.668 -668.11676 540 5.5302748e-39
2439.3188 -678.11066 540 3.1324794e-39
2428.9761 -687.75555 540 6.4511521e-39
2418.6331 -697.40051 530 6.0816564e-39
2378.6575 -696.00452 530 5.7135927e-39
4254.6885 -1702.09 960 2.2131259e-38
4224.3574 -1711.0369 960 2.2775202e-38
4184.0332 -1719.6348 950 1.5854439e-38
4163.3472 -1738.9246 940 1.0781872e-38
4152.6553 -1758.5634 940 6.5397618e-39
4151.6084 -1788.5452 940 7.2837995e-39
2078.4912 -695.52856 460 5.5292169e-39
2068.1484 -705.17346 460 7.8333775e-39
2067.7993 -715.16742 460 2.1304399e-38
4090.5032 1905.8379 870 2.1665596e-38
4120.1357 1894.797 880 9.3092279e-39
4160.1113 1893.401 890 1.2256212e-38
4189.7441 1882.3601 890 1.3186844e-38
4189.0464 1862.3723 890 1.032483e-38
4147.3257 1813.7988 880 1.0499859e-38
4064.9314 1746.6334 870 1.4372401e-38
4012.8679 1688.4149 850 1.1523385e-38
3910.137 1611.9536 830 1.0317955e-38
3736.4016 1507.9535 800 4.7959776e-39
3776.0281 1496.5636 800 3.9622429e-39
3826.3467 1504.8125 820 3.9622471e-39
3875.9673 1493.0737 830 3.8725808e-39
3875.2693 1473.0858 830 2.8584289e-39
3854.2344 1443.8021 820 2.6751152e-39
3812.8628 1405.2224 810 2.3052495e-39
3791.479 1365.9448 810 2.0290241e-39
3790.4321 1335.9631 810 2.3048865e-39
3779.7402 1316.3242 810 2.4889177e-39
3748.3625 1277.3956 800 5.1575393e-39
3696.6479 1229.171 790 1.4008638e-38
3716.2869 1218.4791 790 1.5205746e-38
3968.9265 1289.7056 850 1.548449e-38
3945.0996 1180.4706 840 1.6869571e-38
4329.4053 1297.1295 930 1.7420945e-38
4480.3608 1321.8763 960 1.769825e-38
4398.3154 1264.7048 940 1.7514587e-38
4386.9258 1225.0782 940 1.8066672e-38
4477.2197 1231.9312 960 1.852693e-38
4678.4941 1264.9269 1000 1.8525149e-38
4707.7773 1243.8921 1010 1.8892844e-38
4534.7402 1159.8799 970 1.8620926e-38
4584.3608 1148.141 990 1.8804236e-38
4593.3076 1117.8103 990 1.8528379e-38
4622.5918 1096.7755 990 1.889429e-38
4611.5508 1067.1427 990 1.08809e-38
4610.1543 1027.1671 990 1.9265924e-38
4558.7891 988.93646 980 2.0002413e-38
4537.4053 949.65881 980 1.9725836e-38
4486.04 911.42816 960 1.9450687e-38
4735.0625 592.54309 1020 2.0187543e-38
4704.0342 563.6084 1010 2.0187896e-38
4682.6504 524.33075 1010 2.0003153e-38
4671.6094 494.698 1010 1.9910237e-38
4640.2314 455.76935 1000 2.0277934e-38
4538.8965 419.28366 980 2.0185739e-38
4467.543 381.75101 960 1.9175185e-38
4486.4839 351.07129 970 1.9817324e-38
4555.7432 328.6405 990 1.9449616e-38
4615.0088 306.55872 1000 1.8802812e-38
4643.9434 275.53 1010 1.06925e-38
4662.8843 244.85028 1010 9.9556567e-39
4782.1133 220.67453 1040 9.4946827e-39
4801.0542 189.99483 1040 1.2167978e-38
4639.4062 145.60919 1000 1.3549833e-38
3847.4448 103.22243 830 1.4012616e-38
3606.1951 71.622673 780 1.5025679e-38
3635.4788 50.587875 780 1.5670334e-38
3624.7869 30.949055 780 1.6405742e-38
3613.7458 1.3163242 780 1.6868157e-38
3613.0481 -18.671494 780 1.5485161e-38
3622.344 -39.008305 780 1.7790824e-38
3601.3091 -68.292038 780 1.7145819e-38
3590.6172 -87.930862 780 1.7055781e-38
3599.9131 -108.26767 780 2.0375868e-38
3599.2151 -128.25549 780 1.9171244e-38
3588.5232 -147.89432 780 1.769828e-38
3587.8252 -167.88213 780 5.1618707e-39
4363.1621 -315.03064 950 1.0787231e-38
4502.0298 -349.89828 980 8.9426048e-39
4630.5547 -394.41086 1010 1.0600676e-38
4739.0918 -438.22543 1030 1.1060941e-38
4718.0566 -467.50916 1030 1.1615905e-38
4697.0225 -496.79288 1020 1.2077601e-38
4705.6201 -537.11755 1020 1.3089584e-38
4724.5605 -567.79724 1030 1.2813723e-38
4783.1284 -609.86682 1040 1.2998482e-38
4772.0874 -639.49957 1040 1.3735677e-38
4850.2939 -692.26105 1060 8.2018041e-39
4948.8369 -735.72662 1080 8.2939773e-39
5116.6392 -801.62299 1120 5.8057827e-39
5194.8457 -854.38452 1140 5.0675016e-39
2499.9805 -660.2168 540 6.0816507e-39
2460.0046 -658.82086 530 5.7135885e-39
2449.6616 -668.46576 530 5.6203181e-39
2448.9639 -688.45355 530 2.6722229e-39
2448.6147 -698.44745 530 6.6351791e-39
2438.272 -708.09241 530 5.8057855e-39
4275.374 -1682.8 940 2.3326215e-38
4274.3271 -1712.7819 940 1.603411e-38
4234.0029 -1721.3798 930 1.0687865e-38
4193.6777 -1729.9777 920 6.5401248e-39
4163.3472 -1738.9246 910 7.8358957e-39
4142.6611 -1758.2144 910 7.928457e-39
4131.9697 -1777.8533 910 8.0195681e-39
2078.4912 -695.52856 450 6.2646197e-39
2068.1484 -705.17346 450 6.2703608e-39
2067.7993 -715.16742 450 8.2096808e-39
4090.5032 1905.8379 850 2.1113501e-38
4099.7988 1885.5011 850 9.1244667e-39
4149.7686 1883.7561 860 1.428342e-38
4159.0645 1863.4193 860 1.2075109e-38
4138.0298 1834.1356 860 4.7001807e-39
4085.9663 1775.9171 850 2.8580701e-39
4013.915 1718.3966 830 9.2148322e-39
3972.1943 1669.8231 820 7.4663915e-39
3828.7898 1574.7699 790 1.0239809e-38
3715.7158 1488.6637 770 8.6692829e-39
3766.0342 1496.9126 780 1.0223607e-38
3836.3406 1504.4635 790 4.0598531e-39
3886.3101 1502.7186 800 2.8584275e-39
3875.2693 1473.0858 800 2.6740306e-39
3843.8916 1434.1572 800 2.8569841e-39
3802.52 1395.5775 790 2.489282e-39
3761.1484 1356.9979 780 2.2126979e-39
3750.1074 1327.3651 780 2.0293829e-39
3739.0667 1297.7324 770 2.2126909e-39
3707.689 1258.8038 770 2.3970808e-39
3676.6602 1229.869 760 1.1240587e-38
3675.6133 1199.8873 760 1.4471055e-38
3786.593 1226.0302 790 1.5481969e-38
3924.7629 1171.1747 810 1.6959617e-38
4369.7295 1305.7275 910 1.7418438e-38
4642.3574 1376.2559 970 1.7606417e-38
4701.9717 1364.168 980 1.7238712e-38
4498.6035 1271.2089 940 1.7515663e-38
4527.8872 1250.1741 940 1.8524061e-38
4638.1689 1256.329 970 1.8892477e-38
4657.1104 1225.6493 970 1.8618055e-38
4585.4077 1178.1227 960 1.8987191e-38
4594.3545 1147.792 960 1.8896437e-38
4623.6387 1126.7572 960 1.9355244e-38
4642.9282 1106.0714 970 1.8987552e-38
4621.5444 1066.7937 960 1.0415964e-38
4620.4976 1036.812 960 1.9174809e-38
4589.1201 997.88336 960 1.990951e-38
4588.0728 967.90161 960 2.0185004e-38
4486.04 911.42816 940 1.9819824e-38
4686.9648 934.42993 980 2.0187532e-38
4735.0625 592.54309 990 2.0647801e-38
4704.0342 563.6084 980 2.0648145e-38
4692.644 523.98175 980 1.9268103e-38
4681.603 494.349 980 2.0003135e-38
4650.2256 455.42035 970 1.9726919e-38
4568.8779 418.23669 960 1.9451779e-38
4527.8555 389.65094 950 1.9357785e-38
4586.772 357.57523 960 1.9632207e-38
4656.0312 335.14447 980 1.935635e-38
4705.3027 313.41168 990 1.8159254e-38
4714.25 283.08096 990 1.0417348e-38
4733.1904 252.40125 990 9.8623806e-39
4802.1011 219.97655 1010 9.769113e-39
4811.0479 189.64583 1010 1.2079011e-38
4679.7314 154.20712 980 1.3366175e-38
3857.4387 102.87344 810 1.4471072e-38
3646.1707 70.2267 760 1.53019e-38
3645.4727 50.238884 760 1.5579212e-38
3664.7625 29.553074 770 1.6316782e-38
3653.7217 -0.079656601 770 1.7236932e-38
3642.3318 -39.706295 760 1.7514594e-38
3611.303 -68.641037 760 1.769719e-38
3590.6172 -87.930862 750 1.7423836e-38
3589.9192 -107.91868 750 2.1023025e-38
3599.2151 -128.25549 760 1.8987212e-38
3588.5232 -147.89432 750 1.7699361e-38
3587.8252 -167.88213 750 5.3444613e-39
4353.168 -314.68164 920 1.1430799e-38
4502.0298 -349.89828 950 9.1269988e-39
4630.5547 -394.41086 980 9.9578301e-39
4729.0977 -437.87643 1000 1.1154229e-38
4708.063 -467.16016 990 1.2169434e-38
4697.0225 -496.79288 990 1.235347e-38
4705.6201 -537.11755 990 1.2263068e-38
4724.5605 -567.79724 1000 1.2996676e-38
4773.1343 -609.51782 1010 1.3275777e-38
4762.0938 -639.15057 1010 1.3367615e-38
4840.6489 -681.91815 1020 8.2947214e-39
4948.8369 -735.72662 1050 7.9266367e-39
5126.6333 -801.97198 1090 5.7139528e-39
5224.4785 -865.42542 1110 4.8838264e-39
2499.9805 -660.2168 530 7.6529267e-39
2469.9985 -659.16986 520 7.3766972e-39
2459.3066 -678.80865 520 2.7640654e-39
2458.9578 -688.80255 520 2.5789497e-39
2458.6089 -698.79645 520 6.4515025e-39
2448.2659 -708.44141 510 5.9887447e-39
4315.6987 -1674.2021 920 1.7602904e-38
4295.0127 -1693.4919 910 1.1241051e-38
4303.96 -1723.8228 920 6.3571727e-39
4243.9966 -1721.7288 900 8.2957976e-39
4193.6777 -1729.9777 890 8.4812595e-39
4153.3535 -1738.5756 880 8.1124797e-39
4133.0166 -1747.8715 880 7.8355369e-39
4131.9697 -1777.8533 880 7.5600262e-39
2068.4973 -695.17957 440 6.0841759e-39
2068.4973 -695.17957 430 4.3371337e-39
2067.7993 -715.16742 430 5.5245239e-39
4090.5032 1905.8379 820 1.9639111e-38
4089.8052 1885.8501 820 8.7574862e-39
4109.0947 1865.1643 820 1.4746545e-38
4098.0542 1835.5316 820 8.3934107e-39
4087.0132 1805.8988 820 3.4144851e-39
4034.9497 1747.6804 810 2.582558e-39
3962.8984 1690.1599 790 1.050268e-38
3860.1675 1613.6986 770 7.9270081e-39
3767.7793 1546.8822 750 1.2167997e-38
3695.3789 1479.3678 740 9.955347e-39
3755.6914 1487.2677 750 8.2035852e-39
3836.3406 1504.4635 770 3.8747486e-39
3886.3101 1502.7186 780 2.8584261e-39
3885.6121 1482.7307 780 2.3981654e-39
3833.8977 1434.5062 770 2.2134126e-39
3782.1831 1386.2816 760 2.2126965e-39
3750.8054 1347.353 750 2.0279437e-39
3729.7708 1318.0692 750 1.9368257e-39
3718.7297 1288.4365 750 1.9364698e-39
3697.6951 1259.1528 740 2.4885603e-39
3686.6541 1229.52 740 1.2347663e-38
3665.6191 1200.2363 740 1.4928798e-38
3654.5784 1170.6036 740 1.5023509e-38
3795.8892 1205.6932 760 1.5392293e-38
4815.3945 1460.2682 970 1.7142572e-38
4703.0186 1394.1498 950 1.7605695e-38
4752.6392 1382.4109 960 1.7329823e-38
4690.582 1324.5414 940 1.7515305e-38
4679.541 1294.9087 940 1.7697532e-38
4688.4878 1264.5779 950 1.7974837e-38
4677.4473 1234.9452 940 1.8252505e-38
4737.0615 1222.8573 950 1.8525862e-38
4624.6855 1156.7389 930 1.8619483e-38
4674.3057 1145 940 1.8529089e-38
4673.2588 1115.0183 940 1.9079397e-38
4651.875 1075.7406 940 9.4025277e-39
4650.8281 1045.7589 940 1.9542169e-38
4629.4443 1006.4813 940 2.0093531e-38
4638.3916 976.15057 940 2.0001703e-38
4496.0337 911.07916 910 2.0647787e-38
4706.9526 933.73199 950 2.064779e-38
4776.561 921.2951 960 2.0922577e-38
4704.8589 873.76849 950 2.1017288e-38
4653.1445 825.54395 940 2.1107675e-38
4662.4404 805.20715 940 2.1935283e-38
4651.0503 765.58051 940 2.1293152e-38
4680.334 744.54572 950 2.1477908e-38
4658.9502 705.26807 940 2.1661587e-38
4725.0684 592.89209 960 2.1293516e-38
4693.6909 553.96344 950 2.0648157e-38
4682.6504 524.33075 950 2.0372289e-38
4671.6094 494.698 950 1.9726561e-38
4650.2256 455.42035 940 1.9450693e-38
4619.1963 426.48563 940 1.9450337e-38
4698.4502 403.70584 950 1.9081194e-38
4707.3965 373.37512 960 1.926307e-38
4746.3252 341.99741 960 1.9079763e-38
4795.5972 320.26462 970 1.7881589e-38
4784.207 280.638 970 1.0692496e-38
4783.1602 250.65625 970 1.0138969e-38
4812.0947 219.62755 980 9.3099271e-39
4811.0479 189.64583 980 1.244421e-38
4699.7188 153.50914 950 1.3642752e-38
3847.4448 103.22243 780 1.4381746e-38
3716.4771 77.777641 760 1.5487372e-38
3675.4543 49.191895 750 1.5946205e-38
3734.72 27.110111 760 1.6499018e-38
3744.0159 6.7733002 760 1.7421319e-38
3623.042 -19.020489 740 1.1978914e-38
3642.3318 -39.706295 740 1.7881939e-38
3601.3091 -68.292038 730 1.7424173e-38
3590.6172 -87.930862 730 1.8159605e-38
3589.9192 -107.91868 730 2.139323e-38
3599.2151 -128.25549 730 1.8712423e-38
3588.5232 -147.89432 730 1.7605728e-38
3587.8252 -167.88213 730 5.3448214e-39
4353.168 -314.68164 890 1.1246387e-38
4512.0234 -350.24728 920 9.8631401e-39
4640.5488 -394.75983 950 9.7745164e-39
4729.0977 -437.87643 970 1.1340773e-38
4718.0566 -467.50916 960 1.1985049e-38
4697.0225 -496.79288 960 1.2721524e-38
4705.6201 -537.11755 960 1.2630769e-38
4724.5605 -567.79724 970 1.2723328e-38
4763.1406 -609.16882 970 1.2722966e-38
4762.0938 -639.15057 970 1.3366902e-38
4840.6489 -681.91815 990 8.2028775e-39
4958.8306 -736.07562 1010 8.0170345e-39
5126.6333 -801.97198 1050 6.0812864e-39
5224.4785 -865.42542 1070 4.9760235e-39
2499.9805 -660.2168 510 9.3081208e-39
2469.6497 -669.16376 510 8.9407705e-39
2469.3008 -679.15765 510 3.2250352e-39
2468.9517 -689.15155 500 1.9368215e-39
2468.2537 -709.1394 500 6.1752771e-39
2448.2659 -708.44141 500 6.2653287e-39
4315.6987 -1674.2021 890 6.7255936e-39
4315.001 -1694.1899 890 8.9408027e-39
4303.96 -1723.8228 890 8.8493287e-39
4243.9966 -1721.7288 880 8.6660095e-39
4184.0332 -1719.6348 860 8.3883576e-39
4143.7085 -1728.2327 850 7.6493506e-39
4123.0225 -1747.5225 850 2.0272291e-39
4122.3247 -1767.5104 850 1.6584353e-39
2078.4912 -695.52856 420 2.6729362e-39
2068.4973 -695.17957 420 1.0689266e-38
2067.7993 -715.16742 420 8.9386279e-39
4090.5032 1905.8379 790 1.7612267e-38
4089.4563 1875.8562 790 8.6634997e-39
4088.7583 1855.8684 790 1.493382e-38
4067.3745 1816.5907 790 1.1246785e-38
4056.3335 1786.958 790 5.1615259e-39
3994.2761 1729.0885 770 3.7796579e-39
3860.8655 1633.6864 750 1.1332437e-38
3748.1404 1557.5741 730 7.7415504e-39
3716.7627 1518.6454 720 1.262609e-38
3675.0422 1470.0719 710 9.5905175e-39
3725.3606 1478.3208 720 8.4787329e-39
3816.0039 1495.1676 740 3.5967282e-39
3886.3101 1502.7186 760 2.581835e-39
3875.2693 1473.0858 750 1.8446371e-39
3803.218 1415.5654 740 1.9357537e-39
3761.8464 1376.9857 730 1.6606017e-39
3750.8054 1347.353 730 1.7524358e-39
3729.7708 1318.0692 720 1.9357509e-39
3708.7358 1288.7855 720 2.120138e-39
3707.689 1258.8038 720 1.0046734e-38
3696.9971 1239.1649 720 1.3823525e-38
3685.6072 1199.5383 720 1.4377779e-38
3654.5784 1170.6036 710 1.5206106e-38
3734.8787 1177.8055 730 1.575819e-38
4753.6865 1412.3926 930 1.7326957e-38
4803.3066 1400.6537 930 1.7236195e-38
4741.249 1342.7842 920 1.7880842e-38
4679.541 1294.9087 910 1.7422029e-38
4678.4941 1264.9269 910 1.8065948e-38
4667.104 1225.3003 910 1.834326e-38
4615.7383 1187.0696 900 1.8710237e-38
4655.0161 1165.6858 910 1.8528365e-38
4775.292 1171.4918 930 1.9079744e-38
4713.584 1123.6162 920 1.8894996e-38
4682.2061 1084.6876 910 9.8602507e-39
4681.1592 1054.7058 910 1.9541442e-38
4669.769 1015.0792 910 2.0370478e-38
4658.7285 985.44647 910 2.0374434e-38
4476.0459 911.7771 880 2.1293516e-38
4716.9463 933.383 920 2.2122903e-38
4756.2246 911.99921 930 2.239698e-38
4674.5283 864.82159 910 2.2308016e-38
4633.1562 826.24194 910 2.2492052e-38
4632.1094 796.26019 910 2.2951952e-38
4620.7197 756.63361 900 2.350583e-38
4640.0093 735.94775 910 2.3508713e-38
4568.3071 688.4212 900 2.3508713e-38
4698.2275 683.88428 920 2.350729e-38
4684.7441 584.29419 920 2.3502258e-38
4663.709 555.01044 910 2.2489181e-38
4652.668 525.37769 910 2.082967e-38
4641.2783 485.75107 910 1.9905208e-38
4650.2256 455.42035 910 1.9630403e-38
4639.1846 425.78763 910 1.8525865e-38
4748.7686 411.95477 930 1.7693233e-38
4747.3726 371.97913 930 1.8059132e-38
4776.6562 350.94434 940 1.7136814e-38
4815.585 319.56662 940 1.5570578e-38
4804.1948 279.94 940 1.0691061e-38
4803.1479 249.95828 940 1.023116e-38
4812.0947 219.62755 940 9.3088509e-39
4801.0542 189.99483 940 1.2443851e-38
4659.7432 154.90512 920 1.4194129e-38
3867.4326 102.52444 760 1.4933837e-38
3786.4343 75.334679 740 1.5302628e-38
3735.4177 47.097923 740 1.6407168e-38
3824.665 23.969158 750 1.6960701e-38
3903.9182 1.1893806 770 1.723837e-38
3623.042 -19.020489 710 1.1700582e-38
3632.3379 -39.3573 720 1.8066334e-38
3601.3091 -68.292038 710 1.7422361e-38
3580.6233 -87.581863 710 1.8435832e-38
3589.9192 -107.91868 710 2.2402711e-38
3599.2151 -128.25549 710 1.8070645e-38
3588.5232 -147.89432 710 1.7514602e-38
4373.1562 -315.37961 860 6.7299349e-39
4502.0298 -349.89828 890 1.2168355e-38
4640.5488 -394.75983 910 9.7723598e-39
4719.104 -437.52744 930 1.2166208e-38
4708.063 -467.16016 930 1.235239e-38
4687.0283 -496.44391 930 1.2628974e-38
4695.626 -536.76855 930 1.2997042e-38
4724.5605 -567.79724 930 1.2630772e-38
4753.1465 -608.81982 940 1.3182502e-38
4840.6489 -681.91815 960 8.4769547e-39
4968.4756 -746.41852 980 7.9248389e-39
5136.2783 -812.31488 1020 5.8061429e-39
2499.9805 -660.2168 500 8.6656297e-39
2479.6436 -669.51276 490 8.1128217e-39
2479.2944 -679.50665 490 2.1215715e-39
2468.9517 -689.15155 490 2.1186974e-39
2468.2537 -709.1394 490 5.7150164e-39
2448.2659 -708.44141 490 6.2660518e-39
4286.415 -1653.1674 860 9.5872455e-39
4305.0068 -1693.8409 860 9.2188259e-39
4303.96 -1723.8228 860 8.9411572e-39
4253.6416 -1732.0717 850 8.7578464e-39
4184.0332 -1719.6348 840 8.6645689e-39
4153.7021 -1728.5817 830 6.1731682e-39
4123.0225 -1747.5225 820 5.3423341e-39
4112.3311 -1767.1614 820 1.3829302e-39
2078.4912 -695.52856 410 1.7502764e-39
2068.1484 -705.17346 410 1.1610146e-38
2077.7932 -715.51642 410 9.1237366e-39
4070.1665 1896.542 760 1.5124436e-38
4069.1194 1866.5603 760 8.9404369e-39
4068.4214 1846.5725 760 1.5208274e-38
4047.0376 1807.2948 760 1.3180703e-38
4015.6599 1768.3662 750 4.7034555e-39
3933.2656 1701.2008 740 3.6860231e-39
3718.5078 1568.615 700 1.1518626e-38
3666.7932 1520.3904 690 7.2827177e-39
3635.4155 1481.4618 680 1.2812274e-38
3593.6948 1432.8882 680 1.041954e-38
3623.3276 1421.8473 680 7.9284332e-39
3703.9768 1439.0431 700 3.7807565e-39
3754.2954 1447.2921 710 2.3063313e-39
3753.2483 1417.3103 700 2.028664e-39
3721.8706 1378.3817 700 1.8446329e-39
3731.1665 1358.0449 700 2.119782e-39
3740.8115 1347.702 700 4.3313827e-39
3729.7708 1318.0692 700 2.1197764e-39
3718.7297 1288.4365 700 3.7792851e-39
3718.0317 1268.4487 700 1.1611525e-38
3716.9849 1238.467 700 1.3549466e-38
3705.9438 1208.8342 700 1.4377416e-38
3684.9092 1179.5505 690 1.5023509e-38
3714.5417 1168.5096 700 1.5024583e-38
3876.1892 1212.8953 730 1.5393004e-38
3794.144 1155.7238 710 1.6130205e-38
3894.7812 1172.2217 730 1.6038741e-38
4682.6816 1384.8539 880 1.7143275e-38
4782.9697 1391.3578 900 1.7142916e-38
4680.5879 1324.8904 880 1.6959611e-38
4639.2163 1286.3107 870 1.7236909e-38
4627.8262 1246.6841 870 1.7696457e-38
4596.4487 1207.7555 870 1.806487e-38
4595.4014 1177.7737 870 1.8065592e-38
4523.6992 1130.2472 850 1.8066311e-38
4754.9551 1162.1959 900 1.8893203e-38
4713.584 1123.6162 890 1.8985749e-38
4702.1938 1083.9896 890 1.1330314e-38
4721.4834 1063.3038 890 1.9538564e-38
4720.4365 1033.322 890 2.0919689e-38
4719.3896 1003.3403 890 2.230191e-38
4708 963.71368 890 2.350726e-38
4757.2715 941.9809 900 2.3505113e-38
4766.2183 911.65021 900 2.3318918e-38
4664.5342 865.17059 880 2.2954446e-38
4623.1626 826.59094 870 2.2312676e-38
4622.1152 796.60919 870 2.2220505e-38
4600.7314 757.33154 870 2.2866954e-38
4609.6787 727.00085 870 2.3509834e-38
4528.3315 689.8172 860 2.3509877e-38
4486.96 651.23755 850 2.3509886e-38
4816.7588 639.7207 910 2.3509886e-38
4715.0747 593.24109 890 2.3509886e-38
4694.04 563.95734 890 2.3509886e-38
4702.6377 523.63275 890 1.7628342e-38
4731.9219 502.59796 900 1.2438072e-38
4750.8623 471.91821 900 1.142357e-38
4779.7974 440.88953 900 1.0776766e-38
4808.7319 409.86081 910 1.0037052e-38
4838.0156 388.82599 920 8.7477514e-39
4856.6074 348.15237 920 7.7328904e-39
4855.5605 318.17065 920 6.4446739e-39
4844.5195 288.53793 920 9.0300822e-39
4843.4727 258.55621 920 9.9552923e-39
4832.0825 218.92957 920 9.5847189e-39
4801.0542 189.99483 910 1.3180697e-38
4669.7373 154.55612 890 1.4104449e-38
3907.4082 101.12846 740 1.5483418e-38
3816.416 74.287689 730 1.5669611e-38
3795.7302 54.997864 720 1.6133102e-38
3874.6345 22.224182 740 1.6777389e-38
3953.8879 -0.55559349 750 1.7239088e-38
3673.0115 -20.765463 700 1.3086038e-38
3642.3318 -39.706295 690 1.8065963e-38
3601.3091 -68.292038 690 1.7238715e-38
3590.6172 -87.930862 680 1.8251082e-38
3589.9192 -107.91868 680 2.2405938e-38
3599.2151 -128.25549 690 1.8251451e-38
3588.5232 -147.89432 680 1.7608239e-38
4383.1499 -315.72861 840 8.6642228e-39
4521.6689 -360.59018 860 8.2043152e-39
4640.1997 -404.75375 890 1.0049667e-38
4719.104 -437.52744 900 1.161484e-38
4708.063 -467.16016 900 1.1709181e-38
4687.0283 -496.44391 890 1.2355268e-38
4685.6323 -536.41956 890 1.2722606e-38
4714.5669 -567.44824 900 1.2812293e-38
4830.6548 -681.56915 920 8.3843975e-39
4968.4756 -746.41852 950 7.8347956e-39
5136.2783 -812.31488 980 5.7135885e-39
2499.9805 -660.2168 480 9.7690976e-39
2479.6436 -669.51276 480 9.6779824e-39
2479.2944 -679.50665 480 2.6711509e-39
2468.9517 -689.15155 480 3.1328395e-39
2468.2537 -709.1394 480 5.5291916e-39
2457.9106 -718.7843 470 6.4504291e-39
4246.7886 -1641.7775 820 9.4017878e-39
4275.374 -1682.8 820 9.4021368e-39
4284.3213 -1713.1309 830 9.0322738e-39
4263.6353 -1732.4207 820 8.5730992e-39
4193.6777 -1729.9777 810 8.3883492e-39
4153.7021 -1728.5817 800 8.1124811e-39
4113.3779 -1737.1796 790 8.4801735e-39
4092.6919 -1756.4695 790 1.4744084e-39
2078.4912 -695.52856 400 1.4747671e-39
2078.1421 -705.52246 400 1.2991277e-38
2077.7932 -715.51642 400 9.4914359e-39
4029.4927 1877.9502 730 1.374041e-38
4038.7888 1857.6134 730 9.4006934e-39
4017.4048 1818.3357 730 1.557959e-38
3975.6843 1769.7622 720 1.143332e-38
3903.2839 1702.2478 710 9.6862865e-39
3759.8794 1607.1946 680 3.5077724e-39
3667.4912 1540.3782 670 1.1614051e-38
3625.7705 1491.8047 660 8.0177688e-39
3553.7192 1434.2842 650 1.2440965e-38
3573.3582 1423.5923 650 1.1528023e-38
3583.0029 1413.2494 650 8.661685e-39
3632.9724 1411.5044 660 3.7811096e-39
3642.2683 1391.1676 660 2.5822007e-39
3641.5706 1371.1797 660 1.9379061e-39
3650.8665 1350.8429 660 2.2123364e-39
3670.5051 1340.151 670 7.8254364e-39
3710.1318 1328.7611 680 5.7089082e-39
3719.4277 1308.4243 680 2.4885645e-39
3718.7297 1288.4365 680 5.1586253e-39
3728.0256 1268.0997 680 1.2261241e-38
3727.3276 1248.1119 680 1.3548741e-38
3716.2869 1218.4791 680 1.4285576e-38
3695.252 1189.1954 670 1.5021346e-38
3704.5479 1168.8586 670 1.5206109e-38
3744.1746 1157.4688 680 1.5115708e-38
3672.4722 1109.9421 670 1.5848942e-38
4793.313 1401.0027 870 1.4278033e-38
4700.9248 1334.1863 850 1.3355358e-38
4659.5532 1295.6067 850 1.1605449e-38
4648.1631 1255.98 840 1.0682778e-38
4626.7793 1216.7024 840 8.9343035e-39
4595.4014 1177.7737 840 8.2907347e-39
4463.0381 1112.3533 810 7.8311873e-39
4653.9692 1135.7041 850 7.0957943e-39
4612.5977 1097.1245 840 7.4638509e-39
4682.2061 1084.6876 850 8.01631e-39
4701.1465 1054.0078 850 9.2134029e-39
4750.7676 1042.269 860 1.790786e-38
4759.7144 1011.9382 870 2.3509886e-38
4778.6553 981.25854 870 2.3509886e-38
4737.2832 942.67889 860 2.3509886e-38
4756.2246 911.99921 870 2.3509886e-38
4634.2031 856.22369 840 2.3509886e-38
4602.8257 817.29504 840 2.3509886e-38
4601.7788 787.31329 840 2.3509886e-38
4580.7441 758.02954 840 2.3509886e-38
4589.6909 727.69885 840 2.3509886e-38
4498.001 680.87024 820 2.3509886e-38
4747.4995 662.15149 870 2.3509886e-38
4726.1157 622.87384 860 2.3509886e-38
4674.75 584.64319 850 2.3509886e-38
4784.334 570.8103 870 2.3509886e-38
4823.2627 539.43262 880 2.3475953e-38
4832.2095 509.10187 880 7.9244731e-39
4831.1626 479.12018 880 6.4518696e-39
4840.1094 448.78946 880 6.3589537e-39
4839.0625 418.80774 880 6.1752841e-39
4838.0156 388.82599 880 6.2653259e-39
4866.9502 357.7973 890 5.8983385e-39
4855.5605 318.17065 890 5.7135899e-39
4834.5259 288.88693 880 5.5299161e-39
4843.4727 258.55621 890 8.5676705e-39
4822.0889 219.27856 880 9.6787054e-39
4791.0601 190.34381 880 1.3179977e-38
4679.7314 154.20712 860 1.4748015e-38
3907.4082 101.12846 720 1.4567575e-38
3826.4099 73.938698 700 1.5947984e-38
3825.7119 53.950882 700 1.6133106e-38
3884.6284 21.875187 710 1.6778467e-38
3933.9001 0.14239693 720 1.7329136e-38
3732.9749 -22.859432 690 1.483988e-38
3682.3074 -41.102272 680 1.8250716e-38
3611.303 -68.641037 670 1.7975575e-38
3590.6172 -87.930862 660 1.834256e-38
3589.9192 -107.91868 660 2.3050596e-38
3599.2151 -128.25549 660 1.8620223e-38
3588.5232 -147.89432 660 1.7145471e-38
4521.6689 -360.59018 830 8.6670843e-39
4650.1934 -405.10275 860 1.0046427e-38
4729.0977 -437.87643 870 1.1337544e-38
4708.063 -467.16016 870 1.1431159e-38
4677.0342 -496.09491 860 1.2996665e-38
4685.9814 -526.42566 860 1.1890691e-38
4704.5732 -567.09924 870 1.1798863e-38
4733.5078 -598.12793 870 1.2997391e-38
4830.6548 -681.56915 890 7.8333803e-39
4968.4756 -746.41852 920 7.7411637e-39
5106.6455 -801.27399 940 5.8976182e-39
2499.9805 -660.2168 470 6.5404611e-39
2479.6436 -669.51276 460 6.9081576e-39
2479.2944 -679.50665 470 4.237741e-39
2468.9517 -689.15155 460 2.6722285e-39
2468.2537 -709.1394 460 5.4366373e-39
2457.9106 -718.7843 460 5.9908943e-39
4236.0967 -1661.4163 790 9.309588e-39
4274.3271 -1712.7819 800 8.7499416e-39
4273.6289 -1732.7697 800 8.1974853e-39
4203.6719 -1730.3267 780 7.7393812e-39
4163.3472 -1738.9246 780 7.9244928e-39
4142.6611 -1758.2144 770 8.7556827e-39
4131.9697 -1777.8533 770 1.3822128e-39
2088.4851 -695.87756 390 1.3825715e-39
2078.1421 -705.52246 390 1.3178532e-38
2077.7932 -715.51642 390 9.7669438e-39
3988.4702 1849.3644 700 1.2726251e-38
3987.7722 1829.3766 700 9.6779964e-39
3946.0515 1780.8031 690 1.6871405e-38
3812.6409 1685.4009 670 1.5579237e-38
3730.2466 1618.2355 650 1.4749482e-38
3678.1831 1560.017 640 1.4751644e-38
3636.8115 1521.4374 640 1.4750907e-38
3595.4399 1482.8577 630 8.109956e-39
3543.3762 1424.6393 620 1.2902293e-38
3553.0212 1414.2964 620 1.373964e-38
3562.3171 1393.9595 620 8.8485888e-39
3612.6357 1402.2085 630 6.5487582e-39
3621.9316 1381.8717 640 4.1524103e-39
3621.2336 1361.8838 640 2.9509776e-39
3620.1868 1331.9021 640 3.7792921e-39
3639.8254 1321.2102 640 7.0871665e-39
3679.801 1319.8142 650 7.0904035e-39
3689.0969 1299.4774 650 3.6863777e-39
3698.3928 1279.1406 650 7.4602594e-39
3718.0317 1268.4487 650 1.0223958e-38
3727.3276 1248.1119 660 9.395283e-39
3716.2869 1218.4791 650 8.4740484e-39
3705.2458 1188.8464 650 7.7372148e-39
3714.5417 1168.5096 650 7.2769443e-39
3703.501 1138.877 650 6.7255754e-39
3702.803 1118.889 650 6.7234202e-39
4531.0283 1340.1193 790 4.9727893e-39
4701.9717 1364.168 820 4.2359473e-39
4640.2632 1316.2925 810 3.6849343e-39
4618.8794 1277.0148 810 3.1335612e-39
4607.8389 1247.3821 810 3.0417243e-39
4616.7852 1217.0514 810 2.9516895e-39
4565.0713 1168.8268 800 3.3201119e-39
4674.3057 1145 820 3.966912e-39
4693.2471 1114.3203 820 4.7030365e-39
4621.5444 1066.7937 810 5.3469654e-39
4529.5054 1009.9712 800 6.6366126e-39
4676.6221 924.78503 820 2.3496442e-38
4736.2363 912.69714 830 2.3487105e-38
4624.2095 856.57269 810 2.2657357e-38
4592.832 817.64404 810 1.9619948e-38
4591.7852 787.66229 810 1.7780357e-38
4580.7441 758.02954 800 1.6492875e-38
4579.6973 728.04785 800 1.5848583e-38
4498.001 680.87024 790 1.4922668e-38
4767.4873 661.45349 840 1.3545504e-38
4685.791 614.27588 820 1.2991964e-38
4674.75 584.64319 820 1.1887421e-38
4774.3403 571.1593 840 1.0321544e-38
4863.5874 548.03052 860 8.5709159e-39
4842.5527 518.74683 850 7.4663691e-39
4841.1567 478.77118 850 7.0965145e-39
4850.1035 448.44046 850 6.6373343e-39
4849.0566 418.45874 850 6.4522255e-39
4817.6787 379.53009 850 6.2692762e-39
4846.6138 348.50137 850 6.4522283e-39
4835.5728 318.86865 850 5.993411e-39
4824.5317 289.2359 850 6.3603928e-39
4823.1357 249.26028 850 6.268193e-39
4812.0947 219.62755 850 5.7089208e-39
4781.0664 190.69281 840 1.3364353e-38
3927.396 100.43047 700 1.5487368e-38
3866.3857 72.542717 690 1.6499726e-38
3885.6755 51.856911 690 1.6777395e-38
3904.9653 31.171104 690 1.7698987e-38
3943.894 -0.20659828 700 1.825e-38
3852.9019 -27.047369 680 1.6040928e-38
3802.2341 -45.290215 680 1.6039854e-38
3631.2908 -69.33902 650 1.8713132e-38
3600.6111 -88.279861 640 1.8252878e-38
3589.9192 -107.91868 640 2.0561674e-38
3599.2151 -128.25549 640 1.8160682e-38
3588.5232 -147.89432 640 1.7052915e-38
4650.1934 -405.10275 820 1.1063806e-38
4729.0977 -437.87643 840 1.1430453e-38
4708.063 -467.16016 830 1.2445295e-38
4677.0342 -496.09491 830 1.1983239e-38
4685.6323 -536.41956 830 1.2443142e-38
4704.5732 -567.09924 830 1.1244977e-38
4733.5078 -598.12793 840 1.2904482e-38
4742.1055 -638.45258 840 1.3366535e-38
4840.6489 -681.91815 860 7.9259389e-39
2479.6436 -669.51276 450 5.8046939e-39
2479.2944 -679.50665 450 3.4079873e-39
2468.9517 -689.15155 450 2.4881988e-39
2468.2537 -709.1394 450 4.9770983e-39
2457.9106 -718.7843 450 5.9901698e-39
2447.5679 -728.4292 450 7.0983054e-39
4216.458 -1650.7244 760 9.3070741e-39
4293.9658 -1723.4738 770 7.9266578e-39
4322.5518 -1764.4963 780 6.3643585e-39
4272.582 -1762.7513 770 4.3360547e-39
4241.9023 -1781.6921 760 4.240999e-39
4201.5781 -1790.2902 760 2.9491727e-39
4171.2471 -1799.2371 750 1.3822156e-39
2088.4851 -695.87756 380 1.2903787e-39
2078.1421 -705.52246 380 1.2162227e-38
2077.7932 -715.51642 380 4.9735011e-39
3927.1108 1811.4828 660 1.1618105e-38
3916.0698 1781.85 660 9.679081e-39
3720.6016 1628.5784 630 1.2619256e-38
3689.2239 1589.6498 620 1.5763262e-38
3637.5095 1541.4252 610 1.5673232e-38
3596.1379 1502.8456 610 1.5949449e-38
3554.7661 1464.2659 600 8.3869044e-39
3502.7026 1406.0474 590 1.2996628e-38
3532.6843 1405.0004 600 1.6039123e-38
3552.3232 1394.3085 600 9.5887e-39
3602.2927 1392.5636 610 2.3509886e-38
3611.5886 1372.2267 610 2.3509886e-38
3610.8906 1352.2389 610 2.3509886e-38
3610.1926 1332.2511 610 2.3509886e-38
3609.4946 1312.2633 610 1.0901431e-38
3639.1274 1301.2224 620 7.479701e-39
3658.7664 1290.5305 620 6.2786369e-39
3688.05 1269.4957 620 5.1571833e-39
3707.689 1258.8038 630 4.9771081e-39
3727.3276 1248.1119 630 4.4257307e-39
3726.6296 1228.124 630 4.3310226e-39
3725.5828 1198.1423 630 3.5945408e-39
3724.8848 1178.1545 630 2.9495329e-39
3723.8376 1148.1729 630 3.8704074e-39
3713.1458 1128.5339 630 4.0555147e-39
4550.3184 1319.4333 770 4.9760249e-39
4548.9219 1279.4578 770 4.883832e-39
4527.8872 1250.1741 760 4.699438e-39
4526.8403 1220.1923 760 5.34445e-39
4495.4629 1181.2637 760 4.7937944e-39
4545.083 1169.5248 770 5.0703771e-39
4481.2808 1061.6858 760 5.4391582e-39
4661.8691 1075.3916 790 5.7168269e-39
4515.3232 890.39331 760 1.0228987e-38
4705.9058 903.75024 790 1.0323346e-38
4593.8789 847.62573 780 1.0691403e-38
4562.501 808.69708 770 1.0875081e-38
4581.791 788.01129 770 1.0876157e-38
4580.7441 758.02954 770 1.0693922e-38
4559.3604 718.75189 770 1.1705196e-38
4498.001 680.87024 760 1.1154542e-38
4797.8179 670.40039 810 1.1338578e-38
4684.7441 584.29419 790 1.0323712e-38
4834.6528 579.05927 820 1.0047122e-38
4932.8467 525.59979 830 1.0234392e-38
4881.4814 487.36908 830 1.0142556e-38
4860.0977 448.09146 820 1.0232595e-38
4869.0444 417.76074 820 9.5890237e-39
4797.6909 380.22809 810 9.4975484e-39
4836.6196 348.85037 820 9.7723346e-39
4825.5786 319.21765 820 9.7691018e-39
4814.5381 289.5849 820 8.6641934e-39
4813.1421 249.60928 820 8.1095833e-39
4802.1011 219.97655 810 4.7956077e-39
4771.0723 191.04181 810 1.3272169e-38
3956.6797 79.395676 680 1.7607155e-38
3995.6084 48.017967 680 1.8436183e-38
3964.9287 29.077137 680 1.889753e-38
