# .PCD v0.7 - Point Cloud Data file format
VERSION 0.7
FIELDS x y z rgb
SIZE 4 4 4 4
TYPE F F F F
COUNT 1 1 1 1
WIDTH 1256
HEIGHT 1
VIEWPOINT 0 0 0 1 0 0 0
POINTS 1256
DATA ascii
4802.5439 -430.29861 580 1.3179635e-38
4751.5278 -458.53534 580 1.3916113e-38
4740.4868 -488.16809 570 1.3459808e-38
4759.4277 -518.84778 580 1.4011544e-38
4758.3809 -548.82953 580 1.4194858e-38
4747.3398 -578.46222 570 1.4012619e-38
4637.0576 -584.61719 560 1.4473224e-38
5481.9712 -1604.7257 660 6.542975e-39
5441.2979 -1623.3175 660 6.9106715e-39
4805.5264 -1491.0488 590 7.0939908e-39
4695.9424 -1477.2161 570 7.2790967e-39
4615.9912 -1474.4241 560 5.8954588e-39
4615.293 -1494.4119 560 3.0413656e-39
4574.6196 -1513.0037 560 2.6722299e-39
2543.0962 -661.58594 330 1.9350264e-39
2513.1143 -660.53894 320 5.9898139e-39
2512.7654 -670.53284 320 6.6337441e-39
2512.4165 -680.52673 320 6.542273e-39
2502.0735 -690.17163 320 1.0876538e-38
2501.7246 -700.16559 320 1.1059492e-38
2491.3816 -709.81049 320 1.0875466e-38
4088.979 -1666.1484 500 8.4794602e-39
4127.5586 -1707.52 510 7.1905291e-39
4077.2402 -1715.7689 500 1.5673257e-39
4037.2646 -1714.3729 500 3.6860175e-39
4026.5728 -1734.0117 500 2.6718698e-39
4006.2358 -1743.3077 500 2.7640584e-39
3975.905 -1752.2546 490 2.6711495e-39
3731.6416 1568.2928 430 1.6500456e-38
3741.2866 1557.95 430 2.2775202e-38
3699.5659 1509.3763 430 9.9697972e-39
3678.1821 1470.0988 420 9.885219e-39
3677.8333 1460.1049 420 7.1132068e-39
3656.7983 1430.821 420 4.6170416e-39
3625.0718 1381.8986 420 3.4134299e-39
3583.7002 1343.3188 420 2.5829336e-39
3583.0022 1323.3311 410 2.3056194e-39
3592.2981 1302.9943 420 1.8453573e-39
3612.2859 1302.2963 420 2.1205009e-39
3621.5818 1281.9595 420 2.0286654e-39
3610.8899 1262.3207 420 2.2141399e-39
3630.1797 1241.6348 420 3.968012e-39
3649.8186 1230.9429 420 2.0460884e-38
3649.1206 1210.9551 420 2.2117892e-38
3658.4165 1190.6183 420 2.2397004e-38
3678.0552 1179.9264 430 2.2671077e-38
3708.0371 1178.8794 430 2.1011569e-38
3696.9961 1149.2467 430 5.2515243e-39
3736.9717 1147.8507 430 5.8983399e-39
3807.2781 1155.4016 440 6.2667595e-39
4311.8594 1277.8666 490 7.0032357e-39
4321.1553 1257.5298 490 7.1883486e-39
4320.1084 1227.5481 490 7.5574857e-39
4319.0615 1197.5664 490 2.3509876e-38
4267.6958 1159.3357 490 6.6841572e-39
4246.6611 1130.052 490 5.4766065e-39
4296.2817 1118.3131 490 4.9115595e-39
4295.2344 1088.3313 490 5.1802221e-39
4334.8613 1076.9414 500 3.9773657e-39
4424.8066 1073.8005 500 4.0720738e-39
4393.7778 1044.8657 500 4.2510757e-39
4352.4062 1006.2861 500 4.2510645e-39
4361.353 975.95538 500 4.1581584e-39
4380.6426 955.26959 500 2.3509886e-38
4359.6084 925.98584 500 6.2685643e-39
4318.2363 887.40619 490 5.9912572e-39
4276.8647 848.82654 490 6.290845e-39
4336.4795 836.73865 500 5.7377006e-39
4275.1201 798.85699 490 6.5634578e-39
4304.4033 777.8222 490 6.4515193e-39
4354.0244 766.08331 500 1.0597031e-38
4352.9771 736.10162 500 1.9999503e-38
4472.9043 731.91364 510 2.1566102e-38
4421.8877 703.67694 510 2.2211836e-38
4199.2295 631.4035 480 2.2860084e-38
4188.1885 601.77081 480 2.350759e-38
4137.1719 573.53406 480 2.3509394e-38
4075.8127 535.6524 470 2.3508309e-38
4135.0781 513.57062 480 2.3506524e-38
4164.7109 502.52972 480 2.3506891e-38
4143.6758 473.24597 480 2.3507246e-38
4142.6289 443.26425 480 2.3505805e-38
4151.9248 422.92743 480 2.3504739e-38
4160.8721 392.59671 480 2.3134867e-38
4200.4985 381.20682 480 2.2029254e-38
4330.0703 366.67599 500 2.0832865e-38
4680.5552 374.44897 530 1.972436e-38
4809.7783 349.92422 550 1.8526197e-38
4798.7373 320.2915 550 1.8248531e-38
4817.6777 289.61179 550 1.6867054e-38
4816.6309 259.63007 550 1.3733148e-38
4835.5718 228.95035 550 1.1060538e-38
4784.5557 200.71361 550 1.76961e-38
4051.1611 116.25723 470 2.3508019e-38
4070.4509 95.571426 470 2.3509814e-38
4059.4099 65.938698 470 2.3509832e-38
3978.4119 38.748932 460 8.1928372e-39
4017.6895 17.365135 470 2.0828666e-38
3663.0166 -110.33476 430 1.8343647e-38
3662.3186 -130.32257 430 1.8434758e-38
3631.988 -139.2695 430 6.7263153e-39
4556.5352 -311.64075 520 9.7727157e-39
4625.0967 -354.05933 530 9.4943296e-39
4733.9829 -387.88 540 1.2538223e-38
4802.5439 -430.29861 550 1.3088512e-38
4751.5278 -458.53534 550 1.3367254e-38
4740.4868 -488.16809 540 1.3734964e-38
4759.4277 -518.84778 550 1.4195214e-38
4758.3809 -548.82953 550 1.4656183e-38
4747.3398 -578.46222 540 1.4105529e-38
4637.0576 -584.61719 530 1.4472159e-38
5501.6099 -1615.4176 630 6.7255642e-39
5441.2979 -1623.3175 620 6.6340945e-39
4815.5205 -1491.3978 560 7.0954257e-39
4715.9302 -1477.9139 540 7.372007e-39
4606.3462 -1464.0812 530 5.7121452e-39
4605.2993 -1494.0629 530 2.8573288e-39
4574.6196 -1513.0037 530 2.76442e-39
2543.0962 -661.58594 310 1.8424735e-39
2513.1143 -660.53894 310 5.9908886e-39
2512.7654 -670.53284 310 6.5422618e-39
2502.4224 -680.17773 310 6.4493585e-39
2502.0735 -690.17163 310 1.041664e-38
2501.7246 -700.16559 310 1.0691802e-38
2491.3816 -709.81049 310 1.1059492e-38
4088.979 -1666.1484 480 8.3879834e-39
4117.5645 -1707.171 480 7.6493436e-39
4087.2341 -1716.1179 480 1.6588039e-39
4047.2585 -1714.7219 480 4.3303079e-39
4036.5667 -1734.3607 470 2.9477336e-39
4035.5195 -1764.3425 470 3.1321235e-39
4015.1829 -1773.6384 470 3.0392132e-39
3751.9785 1577.5887 410 1.5949792e-38
3781.9602 1576.5417 410 2.1393341e-38
3709.9089 1519.0212 410 7.748833e-39
3688.5251 1479.7437 400 3.697958e-39
3698.1699 1469.4008 410 1.9397292e-39
3666.7922 1430.472 400 2.0297458e-39
3645.7576 1401.1884 400 2.3048935e-39
3594.043 1352.9637 400 2.1212282e-39
3593.345 1332.976 400 2.0283137e-39
3582.3042 1303.3433 390 1.9375502e-39
3601.9429 1292.6514 400 1.9368257e-39
3611.5879 1282.3085 400 1.9361124e-39
3610.8899 1262.3207 400 2.0283067e-39
3620.1858 1241.9838 400 2.6743963e-39
3629.8308 1231.6409 400 7.9338184e-39
3639.1267 1211.3041 400 2.1567243e-38
3638.4287 1191.3163 400 2.0832548e-38
3647.7246 1170.9795 400 2.2397371e-38
3667.3633 1160.2876 400 2.3504416e-38
3646.3286 1131.0038 400 1.5110374e-38
3665.9673 1120.3119 400 6.4507878e-39
3644.9326 1091.0282 400 6.8192088e-39
3867.2415 1153.3076 420 6.9110457e-39
3833.7698 1054.4155 420 1.0498387e-38
3822.729 1024.7828 420 1.3024137e-38
3812.0371 1005.144 420 4.8867327e-39
3831.3269 984.45819 420 5.9894859e-39
3840.6228 964.1214 420 6.3604237e-39
4234.5732 1070.4375 460 6.8196194e-39
4294.5366 1068.3435 470 4.3317737e-39
4435.1494 1083.4454 480 6.6359386e-39
4413.7656 1044.1677 480 6.8228466e-39
4342.0635 996.64124 470 6.9165023e-39
4351.3594 976.30438 470 6.1778751e-39
4360.6553 955.96759 470 2.3509886e-38
4339.2715 916.68994 470 5.8079477e-39
4298.2485 888.10419 470 5.6235579e-39
4256.877 849.52454 460 5.2684464e-39
4255.8301 819.54279 460 4.1588675e-39
4204.4648 781.31213 460 8.2028369e-39
4233.748 760.27734 460 6.0834584e-39
4223.0566 740.63855 460 1.1610094e-38
4191.6787 701.7099 460 1.8337837e-38
4200.9746 681.37305 460 1.9263033e-38
4109.2842 634.54449 450 2.0369727e-38
4078.2556 605.60974 450 2.3509792e-38
4077.5576 585.62195 450 2.1937058e-38
4086.8538 565.2851 450 2.248985e-38
4085.8066 535.30341 450 2.3132352e-38
4125.084 513.91962 450 2.2489135e-38
4144.374 493.23376 450 2.2215792e-38
4113.3457 464.29904 450 2.2581699e-38
4112.6475 444.31122 450 2.1935616e-38
4121.5942 413.9805 450 2.2305821e-38
4130.8906 393.64371 450 2.1937774e-38
4180.1621 371.91092 460 2.1199848e-38
4320.0767 367.02499 470 2.0002039e-38
4789.79 350.62222 520 1.8523319e-38
4798.7373 320.2915 520 1.7603519e-38
4817.6777 289.61179 520 1.6771972e-38
4816.6309 259.63007 520 1.2995943e-38
4825.5781 229.29935 520 1.1150573e-38
4794.5493 200.36461 520 1.7608208e-38
4031.1733 116.95523 440 2.3415811e-38
4060.457 95.920425 450 2.3509831e-38
4079.3977 65.240707 450 2.3509834e-38
4008.3936 37.70195 440 2.3509828e-38
4037.6772 16.667145 440 2.3509886e-38
3623.739 -88.950966 400 1.8443403e-38
3663.0166 -110.33476 410 1.8896102e-38
3662.3186 -130.32257 410 1.7606805e-38
3631.988 -139.2695 410 6.4504501e-39
4546.5415 -311.29175 490 9.5861735e-39
4625.0967 -354.05933 500 9.2181028e-39
4753.6221 -398.5719 510 1.2813361e-38
4822.5322 -430.99658 520 1.3364374e-38
4761.5215 -458.88434 520 1.3457291e-38
4740.4868 -488.16809 510 1.364348e-38
4759.4277 -518.84778 520 1.4195927e-38
4748.3867 -548.48053 520 1.4287051e-38
4737.3457 -578.11328 510 1.4196658e-38
4627.064 -584.26825 500 1.4747667e-38
4785.2217 -639.82166 520 1.0137179e-38
5561.2246 -1627.5055 600 6.7255642e-39
5460.9365 -1634.0094 590 6.818836e-39
4805.5264 -1491.0488 520 7.5549675e-39
4725.5752 -1488.257 520 7.3712909e-39
4596.3525 -1463.7322 500 6.0802032e-39
4595.3057 -1493.7139 500 3.1328367e-39
4574.6196 -1513.0037 500 2.1197736e-39
2533.1021 -661.23694 300 1.7509925e-39
2513.1143 -660.53894 300 5.8057757e-39
2512.7654 -670.53284 300 5.9905313e-39
2502.4224 -680.17773 300 6.4489969e-39
2502.0735 -690.17163 300 1.0232246e-38
2501.7246 -700.16559 300 1.0876535e-38
2491.3816 -709.81049 300 1.1059134e-38
2173.6704 -638.6792 270 7.741542e-39
2242.2319 -681.09778 270 1.7509939e-39
3793.0012 1606.1744 390 1.834076e-38
3802.2971 1585.8376 390 2.1197375e-38
3719.9028 1518.6722 390 9.6951006e-39
3708.8621 1489.0396 390 1.9372012e-39
3718.5068 1478.6967 390 2.3052509e-39
3677.1353 1440.1169 380 2.6754936e-39
3655.7515 1400.8394 380 3.2283086e-39
3604.386 1362.6086 380 2.3974619e-39
3593.345 1332.976 380 2.3056194e-39
3582.3042 1303.3433 370 2.0286724e-39
3601.9429 1292.6514 380 2.0290283e-39
3611.5879 1282.3085 380 1.9361124e-39
3610.8899 1262.3207 380 2.0290269e-39
3620.1858 1241.9838 380 2.0293843e-39
3629.8308 1231.6409 380 3.320486e-39
3639.1267 1211.3041 380 1.4570453e-38
3638.4287 1191.3163 380 2.0829689e-38
3637.7307 1171.3285 380 2.0740354e-38
3647.0266 1150.9917 380 2.1385015e-38
3625.9917 1121.7079 380 2.3507653e-38
3625.2937 1101.7201 380 7.832646e-39
3604.259 1072.4364 380 7.1879927e-39
3613.5549 1052.0996 380 7.0961502e-39
3653.5305 1050.7036 380 7.0039672e-39
3733.8308 1057.9055 390 7.7397231e-39
3743.1267 1037.5687 390 7.6486023e-39
3712.0979 1008.6339 390 2.3487406e-38
3721.394 988.29718 390 6.2765517e-39
3700.3591 959.01343 390 6.5549617e-39
3750.3286 957.26843 390 6.4652772e-39
3759.6245 936.93164 390 6.4649101e-39
4243.8691 1050.1007 430 6.2757782e-39
4455.4863 1092.7413 450 7.0224153e-39
4424.1084 1053.8127 450 7.2979344e-39
4342.0635 996.64124 440 7.6659966e-39
4331.0225 967.00848 440 1.3812099e-38
4319.9814 937.37573 440 1.4496734e-38
4258.6221 899.49408 440 3.7814544e-39
4217.2505 860.91443 430 3.5977778e-39
4165.8848 822.68378 430 4.9104385e-39
4165.1865 802.69592 430 3.7986889e-39
4133.8091 763.76727 430 4.2503484e-39
4193.4238 751.67944 430 4.2402689e-39
4172.3887 722.39569 430 1.2439485e-38
4141.3604 693.46094 430 1.6128745e-38
4110.3311 664.52618 420 1.7237242e-38
3988.6594 618.74463 410 1.9265542e-38
3967.6248 589.46088 410 2.3233216e-38
3966.5776 559.47913 410 1.4655833e-38
3985.8677 538.79333 410 2.0276815e-38
4025.4941 527.40344 420 2.0187498e-38
4085.1086 515.31555 420 2.0648466e-38
4114.3926 494.28076 420 2.0739597e-38
4083.3638 465.34604 420 2.0738156e-38
4092.3105 435.01532 420 2.0645243e-38
4101.6064 414.6785 420 2.1198763e-38
4120.8965 393.99271 430 2.009567e-38
4170.168 372.25992 430 1.9999162e-38
4759.8086 351.66922 480 1.7329093e-38
4788.7432 320.6405 480 1.6684088e-38
4797.6904 290.30978 490 1.677162e-38
4806.6372 259.97906 490 1.2992717e-38
4805.5898 229.99734 490 1.1794498e-38
4804.543 200.01561 490 1.7880844e-38
4703.208 163.52992 480 2.0557395e-38
4021.1794 117.30421 420 2.3508006e-38
4070.4509 95.571426 420 2.3509816e-38
4119.3735 63.844727 430 2.3509832e-38
3684.4004 -71.057114 390 1.7050406e-38
3633.7329 -89.299957 380 1.9998111e-38
3663.0166 -110.33476 390 1.8988641e-38
3662.3186 -130.32257 390 1.7789754e-38
3641.9819 -139.6185 380 6.4500857e-39
4546.5415 -311.29175 470 9.3103027e-39
4635.0908 -354.40833 470 9.5872497e-39
4753.6221 -398.5719 480 1.244098e-38
4822.5322 -430.99658 490 1.3271111e-38
4761.5215 -458.88434 490 1.345766e-38
4750.4805 -488.51709 480 1.373495e-38
4759.4277 -518.84778 490 1.4011901e-38
4748.3867 -548.48053 480 1.4103741e-38
4737.3457 -578.11328 480 1.4655474e-38
4627.064 -584.26825 470 1.4195574e-38
4745.2461 -638.42572 480 1.004391e-38
5560.8755 -1637.4994 560 6.8174039e-39
5450.9424 -1633.6604 550 6.81812e-39
4765.2021 -1499.6467 490 7.7393518e-39
4606.3462 -1464.0812 470 6.7237776e-39
4585.6602 -1483.371 470 6.9110667e-39
4574.6196 -1513.0037 470 1.7513526e-39
2533.4512 -651.24304 290 1.6588011e-39
2513.1143 -660.53894 290 5.8976168e-39
2512.7654 -670.53284 280 6.1752813e-39
2502.4224 -680.17773 280 6.7252195e-39
2502.0735 -690.17163 280 1.0323723e-38
2501.7246 -700.16559 280 1.069215e-38
2481.3877 -709.46149 280 1.0600667e-38
2431.7671 -697.7226 280 1.0783624e-38
2392.1406 -686.3327 270 2.3509886e-38
2489.9856 -749.78613 280 1.3086718e-38
2479.2937 -769.42493 280 9.2180958e-39
2468.9507 -779.06982 280 8.9400824e-39
2429.3242 -767.67999 280 8.2957878e-39
2222.593 -670.40588 260 7.6504212e-39
2261.5215 -701.78363 260 3.8660914e-39
3833.6748 1624.7664 370 1.455824e-38
3812.6399 1595.4825 370 1.3279738e-38
3730.2458 1528.3173 370 1.2078381e-38
3729.5479 1508.3293 370 2.8588226e-39
3718.5068 1478.6967 370 2.7665962e-39
3687.1292 1439.7681 360 3.3212259e-39
3666.0942 1410.4843 360 2.9527965e-39
3604.386 1362.6086 360 2.3077844e-39
3593.345 1332.976 360 2.3052579e-39
3582.3042 1303.3433 350 1.937197e-39
3601.9429 1292.6514 360 2.0286682e-39
3611.5879 1282.3085 360 2.0283081e-39
3610.8899 1262.3207 360 1.9364712e-39
3620.1858 1241.9838 360 2.0286654e-39
3629.8308 1231.6409 360 2.6751152e-39
3628.7837 1201.6592 360 8.2961255e-39
3628.0857 1181.6714 360 1.5488084e-38
3637.7307 1171.3285 360 2.0738564e-38
3637.0327 1151.3407 360 2.018862e-38
3615.9978 1122.0569 360 2.0741085e-38
3625.2937 1101.7201 360 1.7050062e-38
3604.259 1072.4364 360 7.5564095e-39
3613.5549 1052.0996 360 7.3723756e-39
3643.5366 1051.0526 360 7.739363e-39
3693.5061 1049.3076 360 7.7411609e-39
3712.7959 1028.6218 370 7.6504002e-39
3702.104 1008.9829 370 2.3509821e-38
3721.394 988.29718 370 7.2013639e-39
3700.3591 959.01343 360 6.4627591e-39
3740.3347 957.61743 370 6.3716397e-39
3779.9614 946.22754 370 6.2790811e-39
4243.8691 1050.1007 410 7.2950113e-39
4465.48 1092.3923 430 7.662754e-39
4454.4395 1062.7596 430 7.664912e-39
4402.7246 1014.535 420 7.5727192e-39
4331.0225 967.00848 420 2.3509709e-38
4158.6826 902.98401 400 2.4922429e-39
4106.9688 854.75946 400 1.6595185e-39
4075.9397 825.82471 400 9.4010227e-39
4064.8989 796.19202 400 4.5301429e-39
4064.2009 776.20416 400 3.9845095e-39
4022.8291 737.62451 390 8.580959e-39
4082.4436 725.53662 400 1.2442386e-38
4071.7517 705.89783 400 1.3457255e-38
4081.0476 685.56104 400 1.4746906e-38
4080.0007 655.57928 400 1.5394787e-38
3978.3167 609.09967 390 1.871346e-38
3947.2878 580.16498 390 2.3505481e-38
3956.5837 559.82812 390 1.455961e-38
3975.8738 539.14233 390 1.889604e-38
3995.1636 518.45654 390 1.8987884e-38
4095.1025 514.96655 400 1.5400915e-38
4084.0618 485.33386 400 1.9539979e-38
4033.0452 457.09711 390 2.0090623e-38
4041.9922 426.76639 390 2.0826046e-38
4061.282 406.08057 400 2.0551602e-38
4080.5718 385.39478 400 2.1007918e-38
4150.1802 372.95789 400 2.036794e-38
4630.2368 366.20004 440 1.8800619e-38
4739.4717 342.37329 450 1.8153819e-38
4778.749 320.9895 450 1.750917e-38
4787.6963 290.65878 460 1.7049635e-38
4786.6494 260.67706 450 1.2534609e-38
4775.6084 231.04431 450 1.1611909e-38
4794.5493 200.36461 460 1.7604975e-38
4683.2202 164.22792 450 1.991346e-38
4081.1428 115.21025 400 2.3322173e-38
4090.4387 94.873444 400 2.3509807e-38
4179.6855 71.744667 410 2.3509821e-38
4088.6938 44.9039 400 2.3509832e-38
4027.6833 17.01614 390 1.8337829e-38
3685.0984 -51.069298 370 2.3509886e-38
3684.4004 -71.057114 370 1.9086971e-38
3633.7329 -89.299957 360 2.2399551e-38
3663.0166 -110.33476 360 1.8621306e-38
3662.3186 -130.32257 360 1.760787e-38
3641.9819 -139.6185 360 6.3589691e-39
3661.2717 -160.30429 360 7.7415042e-39
4526.5537 -310.59375 440 9.1280638e-39
4625.0967 -354.05933 440 9.7709151e-39
4753.6221 -398.5719 450 1.1893568e-38
4822.5322 -430.99658 460 1.281157e-38
4771.5156 -459.23334 460 1.3550199e-38
4740.4868 -488.16809 450 1.3276496e-38
4759.4277 -518.84778 460 1.4102301e-38
4748.3867 -548.48053 450 1.3643127e-38
4727.7012 -567.77032 450 1.4286339e-38
4627.064 -584.26825 440 1.4379243e-38
4695.625 -626.68683 450 9.5843854e-39
5600.502 -1648.8893 530 6.9103184e-39
5490.5693 -1645.0503 520 7.0017924e-39
4784.8408 -1510.3386 460 7.5564025e-39
4606.3462 -1464.0812 450 6.8166949e-39
4585.6602 -1483.371 440 4.8824111e-39
4574.6196 -1513.0037 440 1.9357411e-39
2533.4512 -651.24304 270 1.4744084e-39
2513.1143 -660.53894 270 5.7128654e-39
2502.7715 -670.18384 270 6.0812836e-39
2502.4224 -680.17773 270 6.4500717e-39
2502.0735 -690.17163 270 1.014113e-38
2491.7305 -699.81659 270 1.0967655e-38
2481.3877 -709.46149 270 1.0783982e-38
2431.7671 -697.7226 270 1.0874745e-38
2352.8628 -664.94891 260 2.3509886e-38
2431.0691 -717.71045 270 1.2901263e-38
2401.0874 -716.66345 260 1.0321216e-38
2361.4607 -705.27356 260 9.4932478e-39
2213.646 -640.0752 250 8.6656493e-39
2291.8525 -692.83667 250 8.5734523e-39
2222.9419 -660.41199 250 9.1241079e-39
2251.8767 -691.44067 250 9.4928961e-39
3864.3545 1643.7072 350 1.0247726e-38
3822.9829 1605.1276 350 1.3459123e-38
3740.2397 1527.9683 340 1.1342233e-38
3739.5417 1507.9803 340 8.0250429e-39
3728.8499 1488.3416 340 2.4899995e-39
3697.4722 1449.413 340 3.3204972e-39
3666.0942 1410.4843 340 2.7673248e-39
3614.3799 1362.2596 340 2.7669605e-39
3603.3389 1332.627 340 2.1212282e-39
3592.647 1312.9882 330 2.1215855e-39
3601.9429 1292.6514 340 2.02975e-39
3611.2388 1272.3146 340 2.0290255e-39
3610.8899 1262.3207 340 2.0283095e-39
3620.1858 1241.9838 340 1.9371872e-39
3629.4817 1221.647 340 2.3059669e-39
3618.7898 1202.0082 340 4.8874306e-39
3628.0857 1181.6714 340 1.1889605e-38
3627.3877 1161.6836 340 1.9265578e-38
3626.6897 1141.6957 340 1.9172668e-38
3615.6489 1112.063 340 1.8619155e-38
3625.2937 1101.7201 340 1.7793712e-38
3604.259 1072.4364 340 1.0870797e-38
3623.8977 1061.7445 340 8.5684062e-39
3643.5366 1051.0526 340 8.6598732e-39
3693.1572 1039.3137 340 8.7531436e-39
3702.802 1028.9708 340 9.3970753e-39
3702.104 1008.9829 340 1.9377288e-38
3711.3999 988.64618 340 6.4649171e-39
3700.3591 959.01343 340 6.7386159e-39
3729.9919 947.97253 350 6.9240834e-39
3739.6367 937.62964 350 6.5578302e-39
4183.208 1032.2068 380 7.4787089e-39
4445.1436 1083.0964 400 7.4798061e-39
4464.4331 1062.4106 400 7.6656295e-39
4433.0557 1023.4819 400 6.836236e-39
4199.7056 931.56976 380 2.3509886e-38
4128.0029 884.04321 370 1.9368299e-39
4076.6377 845.81256 370 2.1208582e-39
4055.6028 816.52881 370 9.1258736e-39
4054.9048 796.54102 370 6.0153189e-39
4033.8701 767.25726 370 4.1606415e-39
3982.5046 729.02661 360 9.4982392e-39
4032.125 717.28772 370 1.2166509e-38
4011.0903 688.00397 370 9.3128096e-39
4050.717 676.61407 370 1.2346608e-38
4080.0007 655.57928 370 1.4195572e-38
3988.6594 618.74463 370 1.309283e-38
3967.6248 589.46088 360 1.2259861e-38
3976.9207 569.12408 360 1.3997841e-38
3986.2166 548.78723 370 5.8068869e-39
3995.1636 518.45654 370 6.7288292e-39
4085.1086 515.31555 370 8.4034412e-39
4064.074 486.03186 370 9.1456711e-39
4002.7144 448.15018 370 1.596092e-38
4002.0164 428.16235 370 1.9639006e-38
4021.3064 407.47656 370 2.2303314e-38
4050.5901 386.44174 370 2.2763567e-38
4140.1865 373.30688 380 2.2486624e-38
4650.2246 365.50208 410 2.0735644e-38
4729.4775 342.72229 420 1.9540695e-38
4758.7617 321.6875 420 1.9354151e-38
4767.7085 291.35675 420 1.8799187e-38
4756.6675 261.72403 420 1.4008297e-38
4745.627 232.09131 420 1.1797365e-38
4774.5615 201.06259 420 1.7420225e-38
4643.2446 165.6239 410 1.9819481e-38
4101.1309 114.51225 370 2.2952676e-38
4100.4326 94.524445 370 2.3509097e-38
4169.6919 72.093666 380 2.3509821e-38
4078.6997 45.252892 370 2.3509814e-38
3987.7078 18.412121 370 1.5853551e-38
3695.0923 -51.418297 350 2.3509886e-38
3664.4126 -70.359131 340 2.1562966e-38
3633.7329 -89.299957 340 2.1108455e-38
3663.0166 -110.33476 340 1.8897883e-38
3662.3186 -130.32257 340 1.7146547e-38
3641.9819 -139.6185 340 6.4490039e-39
3690.9045 -171.3452 350 6.9113932e-39
4615.103 -353.71033 410 9.1251827e-39
4773.6094 -399.2699 430 1.2535338e-38
4832.5259 -431.34558 430 1.2903051e-38
4771.5156 -459.23334 430 1.3089948e-38
4740.4868 -488.16809 420 1.373388e-38
4759.4277 -518.84778 430 1.4378882e-38
4738.3926 -548.13153 420 1.4103377e-38
4717.707 -567.42139 420 1.4104093e-38
4617.0703 -583.91925 410 1.4104446e-38
5640.1289 -1660.2792 490 7.1858193e-39
5539.8408 -1666.7831 490 7.2773031e-39
5588.0654 -1718.4976 490 7.3702105e-39
4794.8345 -1510.6876 430 7.3723728e-39
4615.9912 -1474.4241 420 4.9760235e-39
4585.6602 -1483.371 410 1.935025e-39
4574.6196 -1513.0037 410 1.6588011e-39
2533.4512 -651.24304 260 1.1067077e-39
2513.1143 -660.53894 260 5.4384337e-39
2512.7654 -670.53284 260 5.9898125e-39
2502.4224 -680.17773 260 6.5426317e-39
2502.0735 -690.17163 260 1.0231882e-38
2491.7305 -699.81659 260 1.1060208e-38
2481.3877 -709.46149 260 1.0784705e-38
2441.761 -698.07159 260 1.0692147e-38
2372.5015 -675.64081 250 2.341805e-38
2421.4243 -707.36749 250 1.3360448e-38
2361.8096 -695.27966 250 1.0137552e-38
2164.7236 -608.34845 230 9.3106544e-39
2223.6401 -640.42419 240 8.75641e-39
2301.8462 -693.18567 240 9.0315438e-39
2232.5869 -670.75488 240 8.1124755e-39
2261.8706 -691.78967 240 9.4003445e-39
3832.9768 1604.7786 330 1.3092493e-38
3740.2397 1527.9683 320 7.0050532e-39
3729.5479 1508.3293 320 1.0141892e-38
3728.8499 1488.3416 320 2.1208778e-39
3697.4722 1449.413 320 2.8598834e-39
3655.7515 1400.8394 320 2.6751334e-39
3614.3799 1362.2596 320 2.4910995e-39
3593.345 1332.976 310 2.2130693e-39
3592.647 1312.9882 310 2.1212282e-39
3591.949 1293.0004 310 2.1223002e-39
3601.2449 1272.6636 310 2.0301157e-39
3610.5408 1252.3267 320 2.0290311e-39
3610.1919 1242.3328 320 1.9357509e-39
3609.4939 1222.345 320 2.2134112e-39
3608.7959 1202.3572 320 3.0438963e-39
3618.0918 1182.0204 320 1.1244242e-38
3617.3938 1162.0326 320 1.3918959e-38
3616.6958 1142.0447 320 1.8435844e-38
3615.9978 1122.0569 320 1.6868886e-38
3625.2937 1101.7201 320 1.7787231e-38
3614.2529 1072.0874 320 2.1752701e-38
3623.8977 1061.7445 320 1.4677377e-38
3653.5305 1050.7036 320 1.2102445e-38
3693.5061 1049.3076 320 4.9821527e-39
3702.802 1028.9708 320 4.0601936e-39
3702.104 1008.9829 320 3.3233685e-39
3711.3999 988.64618 320 4.6209611e-39
3700.3591 959.01343 320 3.2398413e-39
3729.9919 947.97253 320 3.3298705e-39
3739.2878 927.63574 320 3.0525549e-39
3890.5923 962.3764 330 3.0482235e-39
4122.5459 1014.313 350 3.9781378e-39
4232.8281 1020.468 360 5.2670633e-39
4221.7871 990.83521 360 7.1037705e-39
4221.0894 970.84741 360 8.7539311e-39
4149.3867 923.32086 350 2.3509886e-38
4118.0093 884.39221 350 2.1201337e-39
4066.6438 846.16156 350 2.6733019e-39
4045.6089 816.87781 340 4.0565825e-39
4044.9109 796.88995 340 6.193246e-39
4023.8762 767.60626 340 4.898931e-39
3982.5046 729.02661 340 7.7468936e-39
3991.8005 708.68976 340 1.0968695e-38
3991.1025 688.70197 340 1.8076689e-38
4040.374 666.96918 340 2.1852339e-38
4080.0007 655.57928 350 2.2958751e-38
4008.6475 618.04663 340 1.9187383e-38
3997.6064 588.41388 340 1.3853012e-38
4006.9023 568.07709 340 8.8694752e-39
4026.1921 547.3913 340 5.06428e-39
4015.5002 527.75244 340 6.3578887e-39
4074.7659 505.67065 350 7.2812673e-39
4043.7371 476.73593 350 7.4667166e-39
3992.7205 448.49918 340 7.8333383e-39
3992.0225 428.51135 340 6.3553622e-39
4011.3123 407.82556 340 7.0021749e-39
4030.2532 377.14584 340 1.9635417e-38
4140.1865 373.30688 350 2.0644885e-38
4660.2188 365.15308 390 1.9448148e-38
4719.4839 343.07129 390 1.8893536e-38
4748.7676 322.03647 390 1.8709511e-38
4767.7085 291.35675 390 1.7694285e-38
4736.6797 262.42203 390 1.2720794e-38
4715.2959 223.14438 390 1.1612272e-38
4774.5615 201.06259 390 1.907793e-38
4111.1245 114.16327 350 2.3505488e-38
4100.4326 94.524445 350 2.350981e-38
4139.71 73.140648 350 2.3509807e-38
4048.718 46.299873 350 2.3509825e-38
3927.7441 20.506088 340 2.3507826e-38
3695.0923 -51.418297 320 2.3509886e-38
3664.4126 -70.359131 320 2.0644572e-38
3633.7329 -89.299957 320 2.0743623e-38
3653.0227 -109.98576 320 1.8067053e-38
3652.3247 -129.97357 320 1.8066334e-38
3651.9758 -139.9675 320 6.5419114e-39
3750.8679 -173.43916 330 6.911396e-39
4536.5479 -310.94275 380 9.309588e-39
4635.0908 -354.40833 390 8.7585624e-39
4793.5977 -399.96786 400 1.2074727e-38
4842.52 -431.69458 400 1.2537853e-38
4771.5156 -459.23334 400 1.3456556e-38
4750.4805 -488.51709 390 1.3733157e-38
4759.4277 -518.84778 390 1.3458368e-38
4748.3867 -548.48053 390 1.3826442e-38
4727.7012 -567.77032 390 1.4103017e-38
4617.0703 -583.91925 390 1.4654388e-38
5689.4004 -1682.012 460 7.0017966e-39
5589.4614 -1678.522 450 7.0017924e-39
5617.6982 -1729.5385 450 7.0032287e-39
5596.6631 -1758.8223 450 7.1872556e-39
4794.8345 -1510.6876 400 7.0043147e-39
4616.3398 -1464.4302 390 3.4126718e-39
4585.6602 -1483.371 390 3.2250338e-39
4574.6196 -1513.0037 380 2.1183359e-39
2533.4512 -651.24304 250 2.3931249e-39
2513.1143 -660.53894 250 5.4373575e-39
2512.7654 -670.53284 250 6.3578747e-39
2502.4224 -680.17773 250 6.2678371e-39
2502.0735 -690.17163 250 1.0323719e-38
2491.7305 -699.81659 250 1.0876185e-38
2481.3877 -709.46149 250 1.0875102e-38
2461.3999 -708.76349 240 1.0508837e-38
2382.1465 -685.9837 240 2.1305776e-38
2391.7915 -696.3266 240 1.3822505e-38
2351.8159 -694.93066 240 9.6787265e-39
2341.8218 -694.58167 240 9.4006934e-39
2302.1953 -683.19177 230 9.1255471e-39
2331.1299 -714.22046 240 8.6638487e-39
2281.8584 -692.48767 230 7.8344453e-39
2271.5156 -702.13257 230 8.8493217e-39
3843.3196 1614.4235 310 1.3184323e-38
3750.5825 1537.6132 300 6.2685643e-39
3729.5479 1508.3293 300 5.5302832e-39
3718.5068 1478.6967 300 5.1673203e-39
3687.1292 1439.7681 300 2.7669549e-39
3635.4146 1391.5435 300 2.6762082e-39
3594.043 1352.9637 290 2.6747649e-39
3583.0022 1323.3311 290 2.490375e-39
3582.3042 1303.3433 290 2.1215869e-39
3591.6001 1283.0065 290 2.213421e-39
3601.2449 1272.6636 290 2.5836468e-39
3600.5469 1252.6757 290 1.9368355e-39
3620.1858 1241.9838 290 1.9371858e-39
3629.4817 1221.647 300 2.0286682e-39
3628.7837 1201.6592 300 3.1343011e-39
3638.4287 1191.3163 300 9.4896479e-39
3647.7246 1170.9795 300 1.0877972e-38
3637.0327 1151.3407 300 1.5949774e-38
3635.9856 1121.3589 300 1.5298337e-38
3635.2876 1101.3711 300 1.0333438e-38
3624.5957 1081.7323 300 6.1814218e-39
3644.2346 1071.0404 300 4.243873e-39
3663.5244 1050.3546 300 2.6743963e-39
3713.4939 1048.6096 300 2.3048879e-39
3723.1389 1038.2667 300 2.1208568e-39
3712.0979 1008.6339 300 2.028664e-39
3711.3999 988.64618 300 2.3059613e-39
3700.3591 959.01343 300 5.6167041e-39
3740.3347 957.61743 300 5.7081851e-39
3779.9614 946.22754 300 5.8000206e-39
3910.5801 961.67847 310 6.2602771e-39
4132.54 1013.964 330 6.4432306e-39
4222.834 1020.817 330 5.9862041e-39
4211.7935 991.1842 330 6.9974764e-39
4190.4097 951.90662 330 6.9059996e-39
4139.0439 913.6759 330 7.089665e-39
4118.0093 884.39221 320 6.7201678e-39
4066.6438 846.16156 320 6.7208867e-39
4045.6089 816.87781 320 6.9963932e-39
4044.9109 796.88995 320 6.9978309e-39
4033.8701 767.25726 320 7.7325163e-39
3992.4985 728.67761 320 7.458079e-39
4012.1372 717.98572 320 7.6421157e-39
3991.1025 688.70197 320 7.2729773e-39
4040.374 666.96918 320 7.8257881e-39
4080.0007 655.57928 320 7.4584461e-39
4018.6414 617.69763 320 7.2744164e-39
4007.9495 598.05878 320 7.2744164e-39
4016.8962 567.72809 320 6.8145186e-39
4026.1921 547.3913 320 6.8141655e-39
4015.5002 527.75244 320 6.4461005e-39
4054.7781 506.36865 320 6.2624323e-39
4043.7371 476.73593 320 6.7219657e-39
4002.7144 448.15018 320 6.5390107e-39
4002.0164 428.16235 320 9.295156e-39
4011.3123 407.82556 320 7.0943467e-39
4000.2715 378.19281 320 7.1872682e-39
4660.2188 365.15308 360 1.8065216e-38
4719.4839 343.07129 360 1.8431476e-38
4748.7676 322.03647 360 2.0452219e-38
4757.7148 291.70575 360 1.8615506e-38
4726.3369 252.7771 360 1.2259813e-38
4695.3081 223.84238 360 1.2257271e-38
4744.5796 202.10957 360 2.0649217e-38
4111.1245 114.16327 330 2.3509804e-38
4100.4326 94.524445 330 2.3509824e-38
4109.3799 64.193726 330 2.3509839e-38
4038.7241 46.648872 320 2.2308045e-38
3927.7441 20.506088 320 2.3509638e-38
3705.0862 -51.767288 300 2.3509886e-38
3664.4126 -70.359131 300 2.1755246e-38
3633.7329 -89.299957 300 2.0464872e-38
3643.0288 -109.63677 300 1.8342208e-38
3642.3308 -129.62459 300 1.7329155e-38
3631.988 -139.2695 300 6.6348301e-39
4566.5293 -311.98975 350 9.4028598e-39
4675.0664 -355.80432 360 9.4010494e-39
4813.585 -400.66586 370 1.1430425e-38
4852.5137 -432.04358 370 1.2628259e-38
4771.5156 -459.23334 360 1.3182495e-38
4740.4868 -488.16809 360 1.3089947e-38
4759.4277 -518.84778 360 1.3735672e-38
4738.3926 -548.13153 360 1.3736745e-38
4727.7012 -567.77032 360 1.3643479e-38
4617.0703 -583.91925 360 1.392043e-38
5679.4062 -1681.663 420 6.8181214e-39
5589.4614 -1678.522 410 7.0947027e-39
5637.3369 -1740.2303 420 7.4616901e-39
5596.6631 -1758.8223 410 6.9113974e-39
4825.5142 -1491.7468 370 3.6903265e-39
4794.8345 -1510.6876 370 2.6729446e-39
4616.3398 -1464.4302 360 2.3959976e-39
4575.6665 -1483.022 360 5.341569e-39
4574.6196 -1513.0037 360 5.0696526e-39
2533.4512 -651.24304 240 5.621753e-39
2513.1143 -660.53894 240 5.6217446e-39
2512.7654 -670.53284 240 6.0816451e-39
2502.4224 -680.17773 230 6.5419114e-39
2502.0735 -690.17163 230 9.8645372e-39
2491.7305 -699.81659 230 1.0601388e-38
2481.3877 -709.46149 230 1.0599953e-38
2461.3999 -708.76349 230 1.0508832e-38
2382.1465 -685.9837 230 2.0295569e-38
2342.52 -674.59381 230 1.4099809e-38
2342.1709 -684.58777 230 1.0046073e-38
2331.8281 -694.23267 220 9.7683997e-39
2321.834 -693.88367 220 9.1248296e-39
2331.1299 -714.22046 220 8.5720132e-39
2301.1484 -713.17346 220 8.4794518e-39
2281.5095 -702.48157 220 8.5727278e-39
3750.5825 1537.6132 280 4.238841e-39
3719.2048 1498.6844 280 4.3281429e-39
3708.1641 1469.0518 280 4.6047298e-39
3676.7861 1430.123 280 2.3967304e-39
3625.0718 1381.8986 270 2.7673192e-39
3594.043 1352.9637 270 2.3981724e-39
3583.0022 1323.3311 270 2.5814931e-39
3582.3042 1303.3433 270 2.3056152e-39
3591.949 1293.0004 270 2.3059796e-39
3601.2449 1272.6636 270 2.9520706e-39
3600.5469 1252.6757 270 2.1212212e-39
3620.1858 1241.9838 270 2.2134154e-39
3629.4817 1221.647 270 2.0283067e-39
3629.1328 1211.6531 270 2.6758411e-39
3638.4287 1191.3163 280 2.3500812e-38
3647.7246 1170.9795 280 1.4179422e-38
3647.0266 1150.9917 280 1.0511693e-38
3636.3347 1131.3528 280 7.0118985e-39
3635.2876 1101.3711 280 4.7974027e-39
3634.5896 1081.3833 280 2.398887e-39
3644.2346 1071.0404 280 1.5684061e-39
3643.1877 1041.0587 280 1.3832946e-39
3683.1633 1039.6627 280 1.5669628e-39
3692.8081 1029.3198 280 1.6587955e-39
3702.104 1008.9829 280 1.4747727e-39
3711.3999 988.64618 280 2.210893e-39
3710.7019 968.65833 280 5.0617409e-39
3760.6716 966.91339 280 5.5219974e-39
3840.6228 964.1214 290 5.6141972e-39
3890.5923 962.3764 290 5.8904212e-39
4081.8726 995.72119 300 6.4425131e-39
4151.8301 993.2782 300 6.9038472e-39
4130.7949 963.99445 300 7.1804299e-39
4130.0972 944.00665 300 7.6406864e-39
4108.7134 904.729 300 7.9172719e-39
4108.0156 884.74121 300 8.3778885e-39
4066.6438 846.16156 300 8.7459605e-39
4055.6028 816.52881 300 9.943761e-39
4054.9048 796.54102 300 1.6582173e-38
4033.8701 767.25726 300 1.6675089e-38
4002.8413 738.32251 290 1.6308468e-38
4022.1311 717.63672 300 1.6584328e-38
4011.0903 688.00397 290 1.6860553e-38
4060.7109 676.26508 300 1.7230059e-38
4099.9883 654.88129 300 1.6954558e-38
4028.6353 617.34863 300 1.713931e-38
4017.9434 597.70978 300 1.7508442e-38
4027.2393 577.37299 300 1.7139311e-38
4046.5291 556.68719 300 1.7784672e-38
4025.4941 527.40344 300 1.695708e-38
4044.7839 506.71765 300 1.7326573e-38
4033.7432 477.08493 300 1.7417338e-38
4002.7144 448.15018 290 1.7693199e-38
3992.0225 428.51135 290 1.7515642e-38
4000.9695 398.18063 290 1.2354228e-38
3970.2898 379.23981 290 5.616351e-39
4560.9775 388.63083 320 5.7168185e-39
4660.2188 365.15308 330 7.2805415e-39
4719.4839 343.07129 330 7.4649299e-39
4738.7734 322.38547 330 6.7255796e-39
4747.7207 292.05475 330 7.6557952e-39
4716.3428 253.1261 330 8.580648e-39
4685.3145 224.19138 330 1.2441302e-38
4704.2549 193.51166 330 2.028223e-38
4122.1655 143.79599 300 2.2489904e-38
4111.1245 114.16327 300 2.3509078e-38
4100.4326 94.524445 300 2.350981e-38
4089.3916 64.891716 300 2.3509818e-38
4018.7363 47.346863 300 2.3506551e-38
3917.7502 20.855083 290 2.3505002e-38
3816.0662 -25.624508 290 1.1706642e-38
3715.0801 -52.116287 280 2.3506255e-38
3664.4126 -70.359131 280 2.2862318e-38
3623.739 -88.950966 280 1.9084806e-38
3633.0349 -109.28777 280 1.8343274e-38
3632.3369 -129.27559 280 1.7146189e-38
3621.9941 -138.9205 280 6.6351917e-39
4567.5762 -282.008 320 9.7720123e-39
4596.1621 -323.03064 330 8.4834189e-39
4675.0664 -355.80432 330 9.9545819e-39
4813.585 -400.66586 340 1.1891413e-38
4852.5137 -432.04358 340 1.2628259e-38
4771.5156 -459.23334 330 1.2998108e-38
4740.4868 -488.16809 330 1.2723315e-38
4759.4277 -518.84778 330 1.3091021e-38
4738.3926 -548.13153 330 1.3274339e-38
4727.7012 -567.77032 330 1.4191624e-38
4617.0703 -583.91925 330 1.3734598e-38
5699.394 -1682.361 380 6.8184801e-39
5628.7388 -1699.9058 380 6.9106729e-39
5686.9575 -1751.9692 380 4.2427786e-39
4795.8818 -1480.7059 340 2.6711425e-39
4794.8345 -1510.6876 340 5.1593329e-39
4615.9912 -1474.4241 330 4.791635e-39
4585.6602 -1483.371 330 5.3440885e-39
4584.6133 -1513.3527 330 5.2533264e-39
2533.4512 -651.24304 220 5.7139486e-39
2513.1143 -660.53894 220 5.5288343e-39
2512.7654 -670.53284 220 5.9901698e-39
2502.4224 -680.17773 220 6.5426261e-39
2502.0735 -690.17163 220 1.0321561e-38
2501.7246 -700.16559 220 1.0600314e-38
2491.3816 -709.81049 220 1.0875822e-38
2471.0449 -719.10638 220 1.0782902e-38
2421.7732 -697.3736 220 1.9744532e-38
2312.8872 -663.55292 210 1.5113605e-38
2322.5322 -673.89587 210 1.0414492e-38
2331.8281 -694.23267 210 9.4017724e-39
2331.479 -704.22656 210 9.2159392e-39
2331.1299 -714.22046 210 8.4794602e-39
2320.7871 -723.86542 210 8.018482e-39
2291.1543 -712.82452 210 1.9386306e-39
3709.9089 1519.0212 260 4.3321114e-39
3678.5312 1480.0927 260 9.4878304e-39
3667.4902 1450.46 260 1.1148422e-38
3646.4556 1421.1761 250 2.9502728e-39
3604.7349 1372.6027 250 2.3063411e-39
3594.043 1352.9637 250 2.3981766e-39
3573.0083 1323.6801 250 2.3067012e-39
3582.3042 1303.3433 250 2.2137839e-39
3581.6062 1283.3555 250 2.4910883e-39
3591.251 1273.0126 250 3.2290275e-39
3610.5408 1252.3267 250 2.2137811e-39
3630.1797 1241.6348 250 2.1212198e-39
3619.4878 1221.996 250 2.1212198e-39
3639.1267 1211.3041 250 2.5825664e-39
3638.4287 1191.3163 250 1.6679067e-38
3647.7246 1170.9795 250 1.7615764e-38
3647.0266 1150.9917 250 5.1665482e-39
3646.3286 1131.0038 250 2.5847202e-39
3645.6306 1111.016 250 1.4754902e-39
3644.9326 1091.0282 250 1.4747727e-39
3654.2285 1070.6914 260 1.4747713e-39
3653.5305 1050.7036 260 2.0257843e-39
3673.1694 1040.0117 260 9.3048965e-39
3682.4653 1019.6748 260 7.5549732e-39
3681.7673 999.68701 260 1.4747741e-39
3681.0693 979.69922 260 4.1433873e-39
3690.3652 959.36243 260 1.0317943e-38
3710.0042 948.67053 260 1.0870032e-38
3810.292 955.1745 260 1.1787676e-38
3870.2556 953.08051 260 1.2341206e-38
3950.5559 960.28247 270 1.2893291e-38
4050.844 966.78644 270 1.2986214e-38
4080.1277 945.75165 270 1.3629418e-38
4099.7666 935.05969 270 1.4365537e-38
4108.7134 904.729 270 1.46432e-38
4108.0156 884.74121 270 1.5287852e-38
4076.6377 845.81256 270 1.6485307e-38
4055.6028 816.52881 270 1.3635195e-38
4054.9048 796.54102 270 1.6956352e-38
4043.864 766.90826 270 1.6405699e-38
4002.8413 738.32251 270 1.7232211e-38
4022.1311 717.63672 270 1.6867386e-38
3980.7595 679.05707 270 1.7508081e-38
4010.3923 668.01617 270 1.7510596e-38
4060.0129 656.27728 270 1.7505933e-38
4038.978 626.99353 270 1.7693913e-38
4047.925 596.66284 270 1.7877582e-38
4067.2148 575.97699 270 1.8243486e-38
4096.8477 564.9361 270 1.7418049e-38
4045.4819 526.70544 270 1.7234374e-38
4034.79 507.06665 270 1.7877938e-38
4023.7493 477.4339 270 1.7785035e-38
4002.7144 448.15018 270 1.8153456e-38
4002.0164 428.16235 270 1.7146155e-38
4000.9695 398.18063 270 1.2168737e-38
3959.9468 369.59488 270 8.5698313e-39
4550.9834 388.97983 290 8.3847184e-39
4650.2246 365.50208 300 6.998205e-39
4719.4839 343.07129 300 4.6040011e-39
4738.4248 312.39157 300 4.243852e-39
4747.7207 292.05475 300 6.3614676e-39
4716.3428 253.1261 300 7.4588175e-39
4685.3145 224.19138 300 1.280865e-38
4674.2734 194.55864 300 2.0554141e-38
4122.1655 143.79599 280 2.2306225e-38
4121.1182 113.81427 280 2.3509071e-38
4110.4268 94.175446 280 2.3509803e-38
4069.4038 65.589706 270 2.2865162e-38
3988.4058 38.39994 270 2.3508374e-38
3917.7502 20.855083 270 1.9620933e-38
3806.0723 -25.275513 260 1.4011149e-38
3695.0923 -51.418297 260 1.8898615e-38
3654.4187 -70.010132 260 2.0465224e-38
3613.7451 -88.601974 260 2.1844218e-38
3613.0471 -108.58978 260 1.8342924e-38
4617.1973 -293.74689 300 9.7727087e-39
4616.1499 -323.72861 300 7.1908752e-39
4645.085 -354.75732 300 1.0138975e-38
4813.585 -400.66586 310 1.1982882e-38
4852.5137 -432.04358 310 1.272189e-38
4771.5156 -459.23334 300 1.2538928e-38
4750.4805 -488.51709 300 1.2905551e-38
4759.4277 -518.84778 300 1.336546e-38
4748.3867 -548.48053 300 1.3642394e-38
4727.3521 -577.76428 300 1.3366529e-38
4627.064 -584.26825 300 1.3732438e-38
5738.6719 -1703.7448 350 6.81812e-39
5628.7388 -1699.9058 340 6.632291e-39
5647.3306 -1740.5793 340 2.6715027e-39
4795.8818 -1480.7059 310 5.3433696e-39
4794.8345 -1510.6876 310 5.8043478e-39
4615.9912 -1474.4241 300 6.0794913e-39
4575.6665 -1483.022 300 5.6206712e-39
4584.6133 -1513.3527 300 5.4370002e-39
2533.4512 -651.24304 210 5.3462465e-39
2513.1143 -660.53894 210 5.3462409e-39
2512.7654 -670.53284 210 6.1727688e-39
2502.4224 -680.17773 210 6.5426289e-39
2502.0735 -690.17163 210 1.0047848e-38
2501.7246 -700.16559 210 1.1060566e-38
2491.3816 -709.81049 210 1.0692151e-38
2471.0449 -719.10638 210 1.0783992e-38
2431.418 -707.71649 210 1.8275143e-38
2332.5259 -674.24481 200 1.4836661e-38
2342.1709 -684.58777 200 9.9545987e-39
2341.8218 -694.58167 200 9.6783635e-39
2331.479 -704.22656 200 9.032627e-39
2321.1362 -713.87146 200 8.4801819e-39
2320.7871 -723.86542 200 7.8333733e-39
2291.1543 -712.82452 200 1.5666068e-39
3689.2231 1499.7314 230 5.16007e-39
3647.8516 1461.1519 230 9.9541881e-39
3636.8105 1431.519 230 1.1428241e-38
3625.7698 1401.8864 230 5.6250166e-39
3594.741 1372.9517 230 2.2141455e-39
3583.7002 1343.3188 230 2.3985367e-39
3573.0083 1323.6801 230 2.306697e-39
3572.3103 1303.6923 230 2.3063495e-39
3571.6123 1283.7045 230 2.8587988e-39
3591.251 1273.0126 230 3.6907343e-39
3610.5408 1252.3267 230 2.4900079e-39
3630.1797 1241.6348 230 2.3970878e-39
3629.4817 1221.647 230 2.3052495e-39
3639.1267 1211.3041 230 2.5814874e-39
3638.4287 1191.3163 230 1.3294839e-38
3637.7307 1171.3285 230 1.4464633e-38
3637.0327 1151.3407 230 1.8945802e-38
3635.9856 1121.3589 230 9.6690014e-39
3635.2876 1101.3711 230 1.9357565e-39
3624.5957 1081.7323 230 1.4754916e-39
3623.8977 1061.7445 230 1.5669698e-39
3643.1877 1041.0587 230 5.3433514e-39
3652.8325 1030.7157 230 6.2660336e-39
3662.1284 1010.3789 230 1.0784669e-38
3661.4304 990.39111 230 1.7517114e-39
3670.7263 970.05432 230 1.0222493e-38
3670.0283 950.06653 230 1.4098657e-38
3679.3242 929.72968 240 1.4284476e-38
3688.9692 919.38678 240 1.4834773e-38
3799.2512 925.54175 240 1.5020605e-38
3869.5576 933.09271 240 1.5481936e-38
3959.8518 939.94568 240 1.5388667e-38
4009.4722 928.20679 250 1.6125874e-38
4038.7561 907.172 250 1.6126588e-38
4088.7256 905.427 250 1.6586129e-38
4098.0215 885.09021 250 1.6771956e-38
4066.6438 846.16156 250 1.6682636e-38
4055.6028 816.52881 250 1.3914995e-38
4054.9048 796.54102 250 1.5668498e-38
4043.864 766.90826 250 1.6771596e-38
4022.8291 737.62451 250 1.6772321e-38
4032.125 717.28772 250 1.6497889e-38
4041.4211 696.95093 250 1.7875424e-38
4101.0352 684.86304 250 1.8336761e-38
4100.3374 664.87518 250 1.7969415e-38
4048.9719 626.64453 250 1.8062694e-38
4037.9312 597.01184 250 1.8247081e-38
4037.2332 577.02399 250 1.8524038e-38
4066.5168 555.9892 250 1.7326566e-38
4025.4941 527.40344 250 1.7235085e-38
4034.79 507.06665 250 1.7141102e-38
4023.7493 477.4339 250 1.7509882e-38
4012.7083 447.80118 250 1.6959939e-38
4002.0164 428.16235 250 1.5301529e-38
4000.9695 398.18063 250 1.1616649e-38
3959.9468 369.59488 250 8.5727068e-39
4530.9956 389.67783 260 8.8460595e-39
4630.2368 366.20004 270 8.8464154e-39
4699.4961 343.76926 270 8.5684006e-39
4718.437 313.08957 270 6.2660392e-39
4717.3896 283.10782 270 4.7898329e-39
4706.3491 253.4751 270 1.3266408e-38
4685.3145 224.19138 270 1.3362187e-38
4654.2852 195.25662 270 2.0277925e-38
4112.1714 144.14499 250 2.1848473e-38
4111.1245 114.16327 250 2.3502254e-38
4100.4326 94.524445 250 2.3509795e-38
4039.4221 66.636688 250 2.2119304e-38
3968.4177 39.097923 250 2.3227102e-38
3927.7441 20.506088 240 1.7420474e-38
3846.7458 -6.6836758 240 1.9077859e-38
3806.0723 -25.275513 240 1.6223457e-38
3685.0984 -51.069298 240 1.7426338e-38
3644.4248 -69.661133 240 2.3506553e-38
3623.739 -88.950966 230 2.1204603e-38
3603.0532 -108.24079 230 1.8065978e-38
4548.2866 -261.3222 270 9.865989e-39
4687.1543 -296.18985 270 9.8623974e-39
4706.0952 -326.86957 270 6.9121429e-39
4655.0786 -355.10632 270 9.676916e-39
4803.5913 -400.31686 270 1.0878692e-38
4852.5137 -432.04358 280 1.2443867e-38
4771.5156 -459.23334 270 1.2260549e-38
4750.4805 -488.51709 270 1.2997392e-38
4769.4219 -519.19678 270 1.308887e-38
4748.3867 -548.48053 270 1.3275052e-38
4737.3457 -578.11328 270 1.3917904e-38
4637.0576 -584.61719 270 1.3181783e-38
5758.6597 -1704.4427 310 6.3578635e-39
5619.0942 -1689.5629 300 6.818836e-39
5666.9697 -1751.2712 310 4.976378e-39
4804.4795 -1521.0306 280 4.9767437e-39
4615.9912 -1474.4241 270 4.5154026e-39
4575.6665 -1483.022 270 4.9771039e-39
4574.6196 -1513.0037 270 5.4366401e-39
2533.4512 -651.24304 200 5.5299189e-39
2523.1084 -660.88794 200 5.6213831e-39
2512.7654 -670.53284 200 5.988732e-39
2502.4224 -680.17773 200 6.2667553e-39
2502.0735 -690.17163 200 1.0138968e-38
2501.7246 -700.16559 200 1.0692138e-38
2491.3816 -709.81049 200 1.0692143e-38
2481.0386 -719.45538 200 1.0691431e-38
2441.4121 -708.06549 200 1.6705668e-38
2431.0691 -717.71045 190 1.5758621e-38
2342.1709 -684.58777 190 1.0047149e-38
2351.4668 -704.92456 190 9.6769272e-39
2331.479 -704.22656 190 9.124831e-39
2331.1299 -714.22046 190 9.2159476e-39
2320.7871 -723.86542 190 7.4674705e-39
2301.1484 -713.17346 190 2.0279423e-39
3658.8923 1490.7845 210 4.5179376e-39
3627.5146 1451.8558 210 1.0136784e-38
3616.4739 1422.2231 210 1.0966551e-38
3605.782 1402.5844 210 8.9404355e-39
3584.7471 1373.3005 210 2.4892778e-39
3583.7002 1343.3188 210 2.3063369e-39
3573.0083 1323.6801 210 2.3974605e-39
3572.3103 1303.6923 210 2.5836496e-39
3571.6123 1283.7045 210 3.2286617e-39
3591.251 1273.0126 210 3.7850963e-39
3610.5408 1252.3267 210 2.6740376e-39
3620.1858 1241.9838 210 2.3974507e-39
3619.4878 1221.996 210 2.5821923e-39
3628.7837 1201.6592 210 3.3168791e-39
3628.0857 1181.6714 210 1.1891758e-38
3617.3938 1162.0326 210 1.925478e-38
3626.6897 1141.6957 210 2.3509832e-38
3615.9978 1122.0569 210 2.3507649e-38
3614.9509 1092.0752 210 1.7136106e-38
3604.259 1072.4364 210 1.7517184e-39
3603.561 1052.4486 210 1.6602388e-39
3612.8569 1032.1117 210 6.7208951e-39
3632.4958 1021.4198 210 4.6954779e-39
3621.804 1001.781 210 4.5168446e-39
3620.7568 971.79932 210 2.5796742e-39
3660.7324 970.40332 210 7.3759601e-39
3680.3713 959.71143 210 6.182107e-39
3679.3242 929.72968 210 3.6985942e-39
3688.9692 919.38678 210 3.2372615e-39
3809.5942 935.18665 220 2.9588753e-39
3899.8882 942.03961 220 3.0492717e-39
3990.1824 948.89258 220 2.8648776e-39
4019.4663 927.85779 220 2.680492e-39
4018.7683 907.86993 220 2.7716058e-39
4068.3887 896.1311 220 2.5879348e-39
4087.6785 875.44525 220 2.4950273e-39
4056.6499 846.5105 220 2.3106361e-39
4045.6089 816.87781 220 7.0042923e-39
4054.9048 796.54102 220 1.594292e-38
4043.864 766.90826 220 1.6310987e-38
4043.166 746.92041 220 1.7140379e-38
4042.1191 716.93872 220 1.6220945e-38
4041.4211 696.95093 220 1.4577987e-38
4091.0415 685.21204 220 1.5598672e-38
4110.3311 664.52618 230 1.5783403e-38
4058.9658 626.29553 220 1.6242589e-38
4047.925 596.66284 220 1.5782697e-38
4057.2209 576.32599 220 1.1245678e-38
4086.8538 565.2851 220 1.7417334e-38
4035.488 527.05444 220 1.7051426e-38
4034.79 507.06665 220 1.6586134e-38
4033.7432 477.08493 220 1.7233299e-38
4012.7083 447.80118 220 1.686667e-38
4012.0103 427.81335 220 1.5494929e-38
4000.9695 398.18063 220 1.143189e-38
3959.9468 369.59488 220 9.2173531e-39
4029.5552 357.15802 220 8.480158e-39
4569.9243 358.30011 240 8.8474972e-39
4649.1777 335.52032 240 8.6631074e-39
4668.4673 314.83453 240 6.5444156e-39
4677.4141 284.50381 240 5.2526033e-39
4686.3613 254.1731 240 1.5300838e-38
4665.3262 224.88934 240 1.3179226e-38
4092.1836 144.84299 230 2.120239e-38
4101.1309 114.51225 230 2.2676067e-38
4090.4387 94.873444 230 2.3507272e-38
4019.4343 67.334679 220 2.0927948e-38
3948.4299 39.795914 220 1.3919758e-38
3917.7502 20.855083 220 8.8511126e-39
3846.7458 -6.6836758 220 1.4472832e-38
3796.0784 -24.926519 220 1.7147583e-38
3675.1045 -50.720306 210 1.4659383e-38
3644.4248 -69.661133 210 2.350981e-38
3623.739 -88.950966 210 1.9546496e-38
3603.0532 -108.24079 210 1.7974866e-38
4558.2803 -261.6712 240 6.2808047e-39
4697.1484 -296.53885 240 9.2220615e-39
4706.0952 -326.86957 240 8.4808979e-39
4655.0786 -355.10632 240 8.7567674e-39
4803.5913 -400.31686 240 1.069322e-38
4862.1587 -442.38647 250 1.1892478e-38
4781.5098 -459.58234 240 1.2995592e-38
4750.4805 -488.51709 240 1.2905548e-38
4769.4219 -519.19678 240 1.2904473e-38
4748.3867 -548.48053 240 1.3366526e-38
4747.3398 -578.46222 240 1.3181066e-38
4647.0518 -584.96619 240 1.3363652e-38
5758.6597 -1704.4427 270 6.4497046e-39
5648.7266 -1700.6038 270 7.0025084e-39
4615.9912 -1474.4241 240 4.2395402e-39
4575.6665 -1483.022 240 5.3430095e-39
4584.6133 -1513.3527 240 5.3448004e-39
2533.4512 -651.24304 190 5.7143032e-39
2523.1084 -660.88794 190 5.3451619e-39
2512.7654 -670.53284 190 6.173482e-39
2502.4224 -680.17773 190 6.2667595e-39
2502.0735 -690.17163 180 9.8630981e-39
2501.7246 -700.16559 180 1.0969451e-38
2491.3816 -709.81049 180 1.0783265e-38
2481.0386 -719.45538 180 1.0599235e-38
2441.4121 -708.06549 180 1.5966299e-38
2411.4302 -707.01855 180 1.5851543e-38
2342.1709 -684.58777 180 1.2529939e-38
2351.4668 -704.92456 180 1.6573223e-38
2331.479 -704.22656 180 2.2006266e-38
2331.1299 -714.22046 180 2.3505881e-38
2311.1421 -713.52246 180 2.2499695e-38
2291.1543 -712.82452 180 2.0478944e-38
3658.8923 1490.7845 190 4.3324701e-39
3627.5146 1451.8558 190 9.7683633e-39
3616.4739 1422.2231 190 1.0966195e-38
3615.7759 1402.2354 190 1.0230423e-38
3594.741 1372.9517 190 2.1212212e-39
3594.043 1352.9637 190 2.5814888e-39
3583.0022 1323.3311 190 2.6744075e-39
3582.3042 1303.3433 190 3.2283002e-39
3581.6062 1283.3555 190 4.2428066e-39
3591.251 1273.0126 190 3.5060109e-39
3610.5408 1252.3267 190 2.8584317e-39
3620.1858 1241.9838 190 2.305974e-39
3619.4878 1221.996 190 2.952058e-39
3618.7898 1202.0082 190 6.9081618e-39
3618.0918 1182.0204 190 1.492736e-38
3607.051 1152.3876 190 2.1849556e-38
3606.353 1132.3998 190 1.5030381e-38
3605.655 1112.412 190 9.3156949e-39
3604.957 1092.4242 190 1.5220122e-38
3604.259 1072.4364 190 1.752803e-39
3603.561 1052.4486 190 1.7517156e-39
3612.8569 1032.1117 190 1.4754874e-39
3622.5017 1021.7688 190 8.7499066e-39
3621.804 1001.781 190 2.7658731e-39
3681.7673 999.68701 190 6.3503189e-39
3802.3921 1015.4869 190 1.0131042e-38
3842.3679 1014.0909 200 1.1139437e-38
3861.6577 993.40515 200 1.0497658e-38
3850.9658 973.7663 200 1.114159e-38
3870.2556 953.08051 200 1.0125285e-38
3920.2251 951.33551 200 8.7470311e-39
4020.5132 957.83948 200 8.2810279e-39
4029.8091 937.50269 200 5.9779421e-39
4028.7622 907.52094 200 2.761899e-39
4068.3887 896.1311 200 1.9343062e-39
4087.6785 875.44525 200 1.7506282e-39
4056.6499 846.5105 200 1.6591542e-39
