# .PCD v0.7 - Point Cloud Data file format
VERSION 0.7
FIELDS x y z rgb
SIZE 4 4 4 4
TYPE F F F F
COUNT 1 1 1 1
WIDTH 1216
HEIGHT 1
VIEWPOINT 0 0 0 1 0 0 0
POINTS 1216
DATA ascii
3222.3555 -1744.7516 1290 1.2168754e-38
3200.4487 -1749.2345 1280 1.2907408e-38
3159.2234 -1748.541 1270 1.2357486e-38
3130.2456 -1740.7765 1250 1.2910646e-38
3081.9495 -1727.8354 1230 1.3185442e-38
3052.9717 -1720.0709 1220 1.263264e-38
3047.7952 -1739.3894 1220 1.2448959e-38
3025.8887 -1743.8723 1210 1.3553884e-38
3030.3713 -1765.7791 1210 1.401269e-38
2975.0039 -1740.5906 1190 1.438508e-38
2893.2471 -1697.9784 1150 1.4570916e-38
2847.5391 -1675.3782 1130 1.3279818e-38
2818.5613 -1667.6136 1110 1.2910666e-38
2796.6545 -1672.0966 1100 1.3649313e-38
2777.3359 -1666.9202 1090 1.4106702e-38
4983.7349 1158.2886 1680 1.6412309e-38
4978.5586 1138.9701 1690 1.6320829e-38
4958.5464 1102.9213 1680 1.6596692e-38
4928.875 1069.4606 1670 1.6414084e-38
4955.2646 1052.0367 1680 1.6230423e-38
4947.5 1023.059 1690 1.6964377e-38
4930.0762 996.66943 1680 1.6872195e-38
4956.4658 979.24561 1690 1.6324043e-38
4958.3604 947.67963 1700 1.6508082e-38
4931.2773 923.87823 1690 1.7150569e-38
4911.2656 887.82941 1690 1.6415523e-38
4903.501 858.85162 1680 1.6966901e-38
4907.9839 836.94489 1690 1.669175e-38
4890.5601 810.5553 1680 1.6873615e-38
4751.3555 754.6803 1630 1.6966176e-38
4777.7446 737.25647 1650 1.7243104e-38
4716.5078 701.90112 1630 1.6323332e-38
4718.4023 670.33514 1630 1.6689944e-38
4679.0713 639.46265 1610 1.6506274e-38
4651.9883 615.66125 1610 1.6597027e-38
4634.5645 589.27167 1600 1.6046735e-38
4595.2344 558.39923 1590 1.6228969e-38
4565.563 524.93854 1580 1.6321523e-38
4506.9141 499.24249 1560 1.6319002e-38
4477.2427 465.78183 1550 1.6137832e-38
4202.1147 404.9162 1440 1.6505896e-38
4291.6362 391.28177 1480 1.6503019e-38
4286.46 371.96323 1480 1.6413707e-38
4130.5244 330.92383 1420 1.6594507e-38
4115.689 314.19351 1420 1.6688498e-38
4054.4517 278.83817 1390 1.6597014e-38
4027.3687 255.03674 1390 1.4846022e-38
3968.7197 229.34067 1370 1.5213013e-38
3941.6365 205.53928 1350 1.6873964e-38
3873.3284 182.43138 1330 1.7148393e-38
3805.02 159.32349 1300 1.6410113e-38
3768.2776 138.11028 1290 1.5673977e-38
3741.1946 114.30888 1280 1.724166e-38
3736.0181 94.990356 1280 1.6413717e-38
3730.8418 75.671844 1280 1.6228608e-38
3744.9839 51.176949 1290 1.5859457e-38
3752.0549 38.929497 1290 1.6321509e-38
3756.5378 17.022793 1300 1.530594e-38
3770.6799 -7.472105 1310 1.1339366e-38
3765.5037 -26.790623 1310 1.3550593e-38
3769.9866 -48.697327 1310 1.6137834e-38
3774.4692 -70.604034 1310 1.650446e-38
3781.5405 -82.851486 1320 1.613569e-38
3907.1108 -116.49795 1380 1.6502307e-38
4877.7051 -241.98198 1800 1.6317189e-38
4911.166 -271.65326 1810 1.5951293e-38
4884.083 -295.45465 1810 1.5857661e-38
4844.7524 -326.32712 1790 1.5398841e-38
4846.647 -357.89307 1800 1.5767618e-38
4848.542 -389.45905 1800 1.5764746e-38
4862.6836 -413.95395 1810 1.5307002e-38
4883.897 -450.69629 1820 1.5028983e-38
4876.1328 -479.67404 1830 1.5210847e-38
4928.9116 -514.52173 1850 1.4843858e-38
4899.2402 -547.98236 1840 1.4753463e-38
4862.498 -569.19556 1830 1.475166e-38
4932.0078 -618.87885 1860 1.5304477e-38
4866.2871 -632.32751 1840 1.4476166e-38
4826.957 -663.19995 1830 1.4567998e-38
4809.5332 -689.58954 1820 1.4844218e-38
4821.0869 -723.74371 1830 1.4293564e-38
4832.6406 -757.89789 1840 1.4016625e-38
4933.7168 -805.68646 1880 1.4382174e-38
4791.5518 -1181.7041 1870 1.3276899e-38
4754.8096 -1202.9172 1850 1.3093947e-38
4727.7266 -1226.7186 1850 1.3459133e-38
4710.3027 -1253.1083 1840 1.2816281e-38
4683.2197 -1276.9097 1830 1.2999239e-38
4685.1143 -1308.4756 1840 1.2630098e-38
4677.3496 -1337.4534 1840 1.2723005e-38
4676.6562 -1378.6786 1840 1.244749e-38
4659.2324 -1405.0682 1840 1.1987607e-38
4670.7861 -1439.2223 1850 1.2262761e-38
4624.3848 -1457.8474 1830 1.263117e-38
4590.2305 -1469.4012 1820 1.1893975e-38
4608.8555 -1515.8029 1830 1.2353868e-38
4574.7012 -1527.3568 1820 1.2078728e-38
4511.5693 -1531.1462 1790 1.1709949e-38
4455.5088 -1547.1831 1770 1.1708869e-38
4411.6953 -1556.1488 1750 1.1894328e-38
4384.6123 -1579.9502 1740 1.1618461e-38
4360.1172 -1594.0924 1730 1.1986889e-38
4316.3037 -1603.0581 1710 1.1711014e-38
4262.8311 -1609.4357 1690 1.1433722e-38
4209.3584 -1615.8132 1670 1.1986533e-38
4129.4961 -1604.767 1640 1.2263119e-38
4085.6826 -1613.7328 1620 1.2075495e-38
3989.0901 -1587.8508 1580 7.1927137e-39
3928.5464 -1581.981 1550 4.426472e-39
3868.0027 -1576.1111 1520 4.3332002e-39
3797.7996 -1567.6531 1490 3.1353745e-39
3746.9153 -1564.3713 1470 3.8747388e-39
3676.7122 -1555.9133 1440 7.470011e-39
3661.8765 -1572.6436 1440 9.499761e-39
3630.3105 -1574.5383 1420 8.2961774e-39
3605.8157 -1588.6804 1410 9.0286963e-39
3581.3208 -1602.8225 1410 1.0406952e-38
3566.4851 -1619.5529 1400 8.6602585e-39
3650.1367 -1693.7311 1450 7.9248599e-39
3783.9795 -1812.4161 1520 8.0170513e-39
3742.7542 -1811.7227 1500 7.9259417e-39
3665.4802 -1791.0172 1470 8.016701e-39
3597.8652 -1772.8998 1430 8.2018055e-39
3583.0298 -1789.6301 1430 8.0192093e-39
3561.123 -1794.113 1420 8.1096169e-39
3546.2874 -1810.8434 1420 6.7288334e-39
3531.4517 -1827.5737 1410 1.0327355e-38
3499.8857 -1829.4684 1400 1.6138934e-38
3398.8103 -1781.6798 1350 1.5581469e-38
3297.7349 -1733.8912 1300 1.1797116e-38
3266.1687 -1735.7859 1290 9.5843952e-39
3253.9214 -1742.8569 1290 9.8591717e-39
3229.4265 -1756.999 1280 1.0507431e-38
3207.5198 -1761.4819 1270 1.2631896e-38
3185.613 -1765.9648 1260 1.2634785e-38
3130.2456 -1740.7765 1230 1.2819544e-38
3098.6797 -1742.6711 1220 1.1714278e-38
3060.0427 -1732.3184 1200 1.1619919e-38
3038.136 -1736.8013 1200 1.3464198e-38
3025.8887 -1743.8723 1190 1.3740788e-38
2987.2515 -1733.5195 1170 1.3099005e-38
2915.1538 -1693.4955 1140 1.4017019e-38
2869.4458 -1670.8954 1120 1.3740073e-38
2847.5391 -1675.3782 1110 1.3647509e-38
2818.5613 -1667.6136 1090 1.4385433e-38
2796.6545 -1672.0966 1090 1.4108859e-38
2784.4072 -1679.1676 1080 1.4294683e-38
4837.459 1114.661 1600 1.6414457e-38
4919.9092 1113.274 1630 1.6418748e-38
4948.8872 1105.5094 1650 1.6689246e-38
4941.1226 1076.5317 1650 1.7150573e-38
4955.2646 1052.0367 1660 1.678396e-38
4950.0884 1032.7183 1660 1.6598473e-38
4908.1699 992.18652 1650 1.6598477e-38
4912.6523 970.27985 1650 1.6783943e-38
4917.1353 948.37311 1660 1.7152721e-38
4919.0303 916.80719 1660 1.7059814e-38
4901.6064 890.4176 1660 1.7243479e-38
4915.748 865.92267 1660 1.7059452e-38
4907.9839 836.94489 1660 1.6967254e-38
4902.8076 817.6264 1660 1.6600631e-38
4773.2617 759.16315 1620 1.7335313e-38
4777.7446 737.25647 1620 1.6691029e-38
4726.167 699.31293 1600 1.724276e-38
4730.6494 677.40619 1600 1.6966524e-38
4691.3193 646.53375 1590 1.714875e-38
4661.6475 613.07306 1590 1.6597031e-38
4644.2236 586.68347 1580 1.6320797e-38
4604.8936 555.81104 1570 1.6413709e-38
4587.4697 529.42145 1560 1.6137842e-38
4526.2324 494.0661 1540 1.6505904e-38
4499.1494 470.26471 1530 1.6505172e-38
4180.208 400.43332 1410 1.6503386e-38
4294.2246 400.94101 1460 1.659738e-38
4585.3892 405.74579 1580 1.6872518e-38
4130.5244 330.92383 1390 1.678176e-38
4103.4414 307.12244 1390 1.6965791e-38
4013.2266 279.53165 1360 1.7057638e-38
4017.7095 257.62494 1360 1.6597734e-38
3959.0603 231.92886 1340 1.5214073e-38
3963.5432 210.02216 1340 1.6594123e-38
3936.4602 186.22075 1330 1.687577e-38
3846.2451 158.62997 1300 1.6134958e-38
3777.9368 135.52208 1270 1.6041695e-38
3741.1946 114.30888 1260 1.7335664e-38
3736.0181 94.990356 1260 1.7059082e-38
3730.8418 75.671844 1260 1.7151264e-38
3744.9839 51.176949 1270 1.5585752e-38
3761.7141 36.341309 1280 1.5950578e-38
3775.8564 11.846413 1290 1.4381445e-38
3792.5867 -2.9892235 1290 1.2258769e-38
3787.4104 -22.307743 1300 1.2535723e-38
3801.5525 -46.802639 1300 1.6316099e-38
3818.2827 -61.638275 1310 1.6688498e-38
3851.7434 -91.309555 1330 1.6138201e-38
4824.9263 -207.13432 1740 1.5949502e-38
4836.48 -241.28847 1750 1.6411554e-38
4891.8477 -266.47687 1780 1.6134607e-38
4871.8354 -302.52573 1770 1.6228948e-38
4825.4336 -321.15073 1760 1.622823e-38
4846.647 -357.89307 1770 1.5768695e-38
4867.8604 -394.63541 1780 1.5675065e-38
4920.6396 -429.48306 1810 1.2262764e-38
4944.4409 -456.56616 1820 7.9288284e-39
4946.3354 -488.13211 1820 7.7393868e-39
4977.208 -527.46265 1840 7.9212502e-39
4959.7842 -553.85223 1840 9.675851e-39
4942.3604 -580.24182 1830 1.1064915e-38
4982.8921 -622.16058 1850 1.161485e-38
4946.1494 -643.37378 1840 1.382502e-38
4977.0225 -682.70428 1860 1.4014815e-38
4937.6914 -713.57678 1840 1.4292842e-38
4900.9492 -734.78998 1830 1.4475798e-38
4960.7998 -781.88507 1860 1.4382881e-38
4839.8481 -1194.645 1860 1.3185425e-38
4725.832 -1195.1527 1810 1.2815567e-38
4737.3857 -1229.3069 1820 1.2725877e-38
4710.3027 -1253.1083 1810 1.2908477e-38
4702.5381 -1282.0861 1810 1.2260243e-38
4694.7734 -1311.0638 1810 8.0195961e-39
4677.3496 -1337.4534 1810 7.1001341e-39
4695.9746 -1383.855 1820 1.1523372e-38
4668.8916 -1407.6564 1810 1.22624e-38
4670.7861 -1439.2223 1820 1.198797e-38
4624.3848 -1457.8474 1800 1.2169113e-38
4599.8896 -1471.9895 1790 1.1986531e-38
4563.1475 -1493.2028 1780 1.2263108e-38
4565.042 -1524.7687 1780 1.1801775e-38
4511.5693 -1531.1462 1760 1.1710664e-38
4465.168 -1549.7712 1740 1.1986168e-38
4431.0137 -1561.3252 1730 1.1526627e-38
4403.9307 -1585.1266 1720 1.1894684e-38
4379.4355 -1599.2687 1710 1.1894338e-38
4325.9629 -1605.6464 1690 1.1709942e-38
4272.4902 -1612.0239 1670 1.2261317e-38
4219.0176 -1618.4015 1650 1.1801422e-38
4129.4961 -1604.767 1610 8.2958256e-39
4095.342 -1616.3209 1600 3.6878266e-39
3998.7495 -1590.4391 1560 3.7832634e-39
3945.2766 -1596.8167 1530 3.5030822e-39
3877.6619 -1578.6993 1500 3.226124e-39
3797.7996 -1567.6531 1470 3.2268512e-39
3737.2559 -1561.7832 1440 4.7012569e-39
3679.3003 -1546.254 1420 1.0971269e-38
3661.8765 -1572.6436 1410 1.2815927e-38
3630.3105 -1574.5383 1400 6.8199711e-39
3605.8157 -1588.6804 1390 8.7539045e-39
3581.3208 -1602.8225 1390 1.1512218e-38
3566.4851 -1619.5529 1380 8.7520912e-39
3666.8672 -1708.5668 1430 8.2014454e-39
3810.3689 -1829.84 1510 7.9259375e-39
3762.0728 -1816.899 1480 8.0181331e-39
3658.4089 -1778.7698 1440 8.0181373e-39
3597.8652 -1772.8998 1410 8.3851206e-39
3585.6179 -1779.9709 1400 8.0181345e-39
3561.123 -1794.113 1400 8.3865597e-39
3546.2874 -1810.8434 1390 7.0032665e-39
3531.4517 -1827.5737 1390 9.6834166e-39
3499.8857 -1829.4684 1380 1.548853e-38
3398.8103 -1781.6798 1330 1.2166967e-38
3307.394 -1736.4794 1280 8.7517591e-39
3275.8281 -1738.374 1270 8.1016926e-39
3260.9924 -1755.1044 1270 1.0691456e-38
3248.7451 -1762.1754 1260 1.235459e-38
3226.8384 -1766.6583 1260 1.216985e-38
3202.3435 -1780.8005 1250 1.2912101e-38
3146.9761 -1755.6121 1220 1.3465275e-38
3108.3391 -1745.2593 1210 1.3738978e-38
3052.9717 -1720.0709 1180 1.4201403e-38
3014.3347 -1709.7181 1160 1.4110295e-38
2999.499 -1726.4485 1160 1.4110651e-38
2960.8618 -1716.0957 1140 1.4844617e-38
2905.4946 -1690.9073 1120 1.3464914e-38
2886.176 -1685.731 1110 1.2912104e-38
2857.1982 -1677.9664 1090 1.3465276e-38
2828.2205 -1670.2018 1080 1.3924465e-38
2806.314 -1674.6847 1070 1.3925538e-38
2784.4072 -1679.1676 1060 1.3835503e-38
4637.7104 1064.6559 1500 1.1520141e-38
4732.4082 1070.34 1540 1.465803e-38
4824.5176 1066.3647 1580 1.6966538e-38
4897.3091 1067.5659 1600 1.7150569e-38
4945.6055 1054.625 1630 1.733497e-38
4947.5 1023.059 1630 1.6691754e-38
4895.9219 985.11548 1610 1.6783586e-38
4888.1572 956.1377 1610 1.6874709e-38
4892.6406 934.23102 1620 1.7059451e-38
4906.7822 909.73608 1620 1.7060174e-38
4889.3584 883.3465 1620 1.7151282e-38
4903.501 858.85162 1630 1.7518991e-38
4898.3242 839.53308 1630 1.7060167e-38
4900.2192 807.9671 1630 1.7521134e-38
4785.5093 766.23419 1590 1.7060527e-38
4787.4043 734.66827 1590 1.7335298e-38
4716.5078 701.90112 1570 1.6967604e-38
4730.6494 677.40619 1580 1.7242746e-38
4691.3193 646.53375 1570 1.6690294e-38
4673.8955 620.14417 1560 1.6782133e-38
4656.4717 593.75458 1560 1.7241663e-38
4626.7998 560.29388 1550 1.6689207e-38
4597.1289 526.83325 1540 1.6872875e-38
4538.4795 501.13715 1520 1.677961e-38
4521.0557 474.74759 1520 1.6598459e-38
4388.9224 406.62509 1470 1.6413342e-38
4269.0361 345.57364 1430 1.6781045e-38
4093.7822 309.71063 1360 1.7332067e-38
3950.0947 275.74228 1310 1.7333141e-38
3973.896 248.65918 1320 1.7518258e-38
3937.1536 227.44598 1310 1.5766542e-38
3953.884 212.61034 1320 1.5306267e-38
3980.2737 195.18651 1330 1.7059082e-38
3940.9431 164.31406 1310 1.6502649e-38
3926.1074 147.58372 1310 1.6777085e-38
3763.1013 118.79176 1250 1.7427496e-38
3736.0181 94.990356 1240 1.7611169e-38
3730.8418 75.671844 1240 1.7426779e-38
3747.572 60.836205 1250 1.659738e-38
3781.0327 31.164932 1260 1.4743756e-38
3807.4224 13.741104 1280 1.3251684e-38
3833.812 -3.682724 1290 9.4748964e-39
3838.2947 -25.589432 1300 8.8417631e-39
3864.6843 -43.01326 1310 1.3276155e-38
3920.0518 -68.201653 1330 1.6871806e-38
3953.5125 -97.872925 1350 1.6873248e-38
4907.377 -208.52132 1750 1.6962205e-38
4836.48 -241.28847 1720 1.5954883e-38
4889.2593 -276.13611 1750 1.6229671e-38
4862.1763 -299.93753 1740 1.6320794e-38
4813.1865 -328.2218 1720 1.6412977e-38
4846.647 -357.89307 1740 1.6228243e-38
4889.7666 -390.15253 1760 1.5952724e-38
4942.5459 -425.00018 1780 1.3554218e-38
4963.7593 -461.74255 1800 8.2072257e-39
4984.9727 -498.48489 1810 7.373491e-39
5008.7739 -525.56799 1820 7.3698826e-39
5008.0806 -566.79321 1820 7.4649425e-39
5009.9751 -598.35913 1830 8.2943515e-39
5033.7764 -625.44226 1840 8.570937e-39
5054.9897 -662.18457 1850 8.1117567e-39
5066.5435 -696.33875 1860 8.1106805e-39
5056.1909 -734.97577 1870 8.1117539e-39
4990.4707 -748.42444 1840 8.2028747e-39
4725.832 -1195.1527 1780 1.3092496e-38
4756.7041 -1234.4833 1800 1.2907017e-38
4710.3027 -1253.1083 1780 1.272443e-38
4712.1973 -1284.6742 1780 1.0602147e-38
4694.7734 -1311.0638 1780 6.1767597e-39
4667.6904 -1334.8652 1770 8.4834301e-39
4695.9746 -1383.855 1790 1.2170186e-38
4659.2324 -1405.0682 1770 1.2079079e-38
4670.7861 -1439.2223 1780 1.2079432e-38
4624.3848 -1457.8474 1770 1.2262027e-38
4599.8896 -1471.9895 1760 1.244713e-38
4553.4883 -1490.6145 1740 1.2352788e-38
4555.3828 -1522.1804 1750 1.189577e-38
4492.251 -1525.9698 1720 1.1893613e-38
4465.168 -1549.7712 1710 1.2077639e-38
4431.0137 -1561.3252 1700 1.1986878e-38
4413.5898 -1587.7148 1700 1.1617749e-38
4379.4355 -1599.2687 1680 1.1341525e-38
4325.9629 -1605.6464 1660 1.1894329e-38
4272.4902 -1612.0239 1640 1.1528066e-38
4228.6768 -1620.9896 1630 9.680202e-39
4148.8145 -1609.9434 1590 4.5165223e-39
4114.6602 -1621.4973 1580 3.6889084e-39
4008.4087 -1593.0272 1530 3.2275743e-39
3945.2766 -1596.8167 1510 2.2127091e-39
3884.7329 -1590.9468 1480 1.8442755e-39
3807.459 -1570.2412 1450 4.4250273e-39
3746.9153 -1564.3713 1430 5.0689604e-39
3676.7122 -1555.9133 1400 9.496503e-39
3661.8765 -1572.6436 1390 1.2543304e-38
3630.3105 -1574.5383 1380 6.4555144e-39
3605.8157 -1588.6804 1370 7.8333901e-39
3581.3208 -1602.8225 1360 1.077572e-38
3566.4851 -1619.5529 1360 8.2925564e-39
3650.1367 -1693.7311 1400 8.2010852e-39
3810.3689 -1829.84 1480 8.0177702e-39
3752.4133 -1814.3109 1450 8.201451e-39
3648.7498 -1776.1815 1410 8.2939969e-39
3597.8652 -1772.8998 1390 8.4776651e-39
3585.6179 -1779.9709 1380 7.8348237e-39
3551.4636 -1791.5249 1370 7.8348223e-39
3546.2874 -1810.8434 1370 7.0958195e-39
3521.7925 -1824.9855 1360 9.3110383e-39
3490.2266 -1826.8802 1350 1.1985809e-38
3382.0798 -1766.8441 1300 1.0783678e-38
3307.394 -1736.4794 1260 9.765202e-39
3285.4873 -1740.9623 1250 8.8443009e-39
3270.6516 -1757.6926 1250 1.309034e-38
3246.1567 -1771.8347 1250 1.3918316e-38
3233.9094 -1778.9058 1240 1.2263123e-38
3221.6619 -1785.9768 1230 1.2818107e-38
3146.9761 -1755.6121 1200 1.3926611e-38
3125.0693 -1760.095 1200 1.4017729e-38
3052.9717 -1720.0709 1160 1.4200337e-38
3014.3347 -1709.7181 1140 1.4017727e-38
2982.7686 -1711.6129 1130 1.3554605e-38
2937.0605 -1689.0127 1110 1.3372716e-38
2898.4233 -1678.6599 1090 1.4384717e-38
2876.5168 -1683.1428 1090 1.4754588e-38
2857.1982 -1677.9664 1080 1.5124447e-38
2825.6323 -1679.8611 1060 1.484858e-38
2806.314 -1674.6847 1060 1.4199256e-38
2777.3359 -1666.9202 1040 1.3463837e-38
4671.8643 1076.2098 1490 5.068952e-39
4698.2539 1058.786 1500 1.3091051e-38
4768.457 1050.3279 1530 1.6874694e-38
4838.6602 1041.8699 1550 1.6876497e-38
4877.2969 1031.5171 1570 1.7060886e-38
4881.7803 1009.6104 1580 1.6967971e-38
4852.1084 976.14972 1570 1.6875057e-38
4856.5918 954.24298 1570 1.6968687e-38
4870.7334 929.74811 1580 1.715021e-38
4887.4639 914.91248 1590 1.7153082e-38
4879.6992 885.93469 1590 1.7058364e-38
4881.5942 854.36871 1590 1.7242753e-38
4876.418 835.05023 1590 1.7060522e-38
4880.9004 813.14349 1600 1.7059448e-38
4795.1685 763.64606 1570 1.6785724e-38
4787.4043 734.66827 1570 1.770265e-38
4726.167 699.31293 1550 1.7610451e-38
4730.6494 677.40619 1550 1.7150912e-38
4691.3193 646.53375 1540 1.7151265e-38
4673.8955 620.14417 1540 1.7057642e-38
4656.4717 593.75458 1530 1.687539e-38
4626.7998 560.29388 1520 1.7241667e-38
4609.376 533.9043 1520 1.72413e-38
4548.1392 498.54895 1500 1.68736e-38
4530.7153 472.15939 1490 1.7331349e-38
4362.5327 424.04892 1430 1.6690631e-38
4335.4497 400.24753 1420 1.669066e-38
4040.3096 303.33304 1320 1.7243824e-38
3801.9241 263.68063 1230 1.742678e-38
3879.1982 242.97513 1260 1.6874684e-38
3874.0217 223.65659 1260 1.6783929e-38
3941.6365 205.53928 1290 1.5214443e-38
3999.592 190.01013 1310 1.6871795e-38
3994.4158 170.69162 1310 1.6136026e-38
4030.4646 150.6796 1330 1.7241649e-38
3813.9856 115.51007 1250 1.7979955e-38
3745.6775 92.402168 1220 1.7705525e-38
3730.8418 75.671844 1220 1.7611528e-38
3735.3247 53.765137 1220 1.539668e-38
3752.0549 38.929497 1230 1.5104972e-38
3778.4446 21.505672 1240 1.4997634e-38
3802.2458 -5.5774136 1260 9.0164378e-39
3806.7288 -27.484121 1260 1.0685669e-38
3842.7776 -47.49614 1280 1.2905575e-38
3898.145 -72.684532 1300 1.5119346e-38
4875.8105 -210.41602 1700 1.604743e-38
4797.8428 -230.93571 1680 1.6689574e-38
4860.2812 -268.37158 1710 1.6965794e-38
4842.8574 -294.76114 1700 1.6137474e-38
4803.5273 -325.63361 1690 1.6321516e-38
4846.647 -357.89307 1710 1.6413336e-38
4918.7446 -397.91711 1740 1.6040956e-38
4971.5239 -432.76477 1760 1.3920814e-38
4992.7373 -469.50711 1780 1.0049326e-38
5006.8789 -494.00201 1790 6.912873e-39
5037.752 -533.33252 1800 5.8054436e-39
5039.6465 -564.8985 1800 6.0784194e-39
5031.8818 -593.87628 1810 6.3546447e-39
5053.0952 -630.61865 1820 6.9078283e-39
5074.3081 -667.36096 1830 6.9096206e-39
5066.5435 -696.33875 1830 7.5531907e-39
5087.7568 -733.08112 1840 7.6464625e-39
5048.4263 -763.95355 1830 7.5567892e-39
4735.4912 -1197.7408 1750 7.374193e-39
4766.3633 -1237.0714 1770 7.3738343e-39
4710.3027 -1253.1083 1750 7.2805667e-39
4702.5381 -1282.0861 1750 6.5430072e-39
4694.7734 -1311.0638 1750 5.0693205e-39
4658.0312 -1332.277 1740 6.3589733e-39
4686.3154 -1381.2668 1750 9.2155931e-39
4642.502 -1390.2325 1740 9.1288135e-39
4661.127 -1436.6342 1750 9.2195602e-39
4624.3848 -1457.8474 1740 1.0880161e-38
4626.2793 -1489.4133 1740 1.2262029e-38
4582.4658 -1498.379 1730 1.2170552e-38
4591.4316 -1542.1925 1730 1.2170909e-38
4518.6406 -1543.3937 1700 1.2262394e-38
4484.4863 -1554.9476 1690 1.1709579e-38
4457.4033 -1578.749 1680 1.1893254e-38
4432.9082 -1592.8911 1680 1.1709579e-38
4396.166 -1614.1044 1660 1.1982575e-38
4342.6934 -1620.4819 1640 1.1432997e-38
4289.2207 -1626.8595 1620 1.1800341e-38
4235.748 -1633.2371 1600 9.0355501e-39
4155.8857 -1622.1908 1570 5.6232286e-39
4121.7314 -1633.7448 1560 3.8729465e-39
3998.7495 -1590.4391 1500 3.1353745e-39
3938.2056 -1584.5692 1480 3.8718521e-39
3884.7329 -1590.9468 1460 5.2540691e-39
3807.459 -1570.2412 1430 4.8849236e-39
3746.9153 -1564.3713 1400 3.0410096e-39
3676.7122 -1555.9133 1370 9.0373227e-39
3661.8765 -1572.6436 1370 1.3373431e-38
3630.3105 -1574.5383 1360 7.8391705e-39
3596.1565 -1586.0923 1340 7.6500891e-39
3574.2498 -1590.5751 1340 1.0317262e-38
3549.7549 -1604.7173 1330 8.5680545e-39
3607.0168 -1661.4716 1350 8.1099658e-39
3810.3689 -1829.84 1450 8.1092512e-39
3742.7542 -1811.7227 1430 8.2014398e-39
3639.0906 -1773.5934 1380 8.1092512e-39
3597.8652 -1772.8998 1360 8.2003706e-39
3585.6179 -1779.9709 1360 8.1096085e-39
3561.123 -1794.113 1350 8.293641e-39
3546.2874 -1810.8434 1350 7.0958139e-39
3531.4517 -1827.5737 1340 9.0351703e-39
3490.2266 -1826.8802 1330 1.3277615e-38
3362.7615 -1761.6677 1270 1.0780425e-38
3317.0532 -1739.0675 1250 8.6573915e-39
3285.4873 -1740.9623 1240 1.0043204e-38
3270.6516 -1757.6926 1230 1.4288909e-38
3255.8162 -1774.4229 1230 1.4656628e-38
3243.5686 -1781.494 1220 1.2815578e-38
3228.7329 -1798.2244 1220 1.3001782e-38
3146.9761 -1755.6121 1180 1.410921e-38
3108.3391 -1745.2593 1170 1.3188707e-38
3036.2412 -1705.2354 1130 1.3833345e-38
2997.6042 -1694.8826 1120 1.337165e-38
2966.0383 -1696.7772 1110 1.3372724e-38
2937.0605 -1689.0127 1090 1.4112802e-38
2898.4233 -1678.6599 1080 1.4847853e-38
2886.176 -1685.731 1070 1.5125167e-38
2857.1982 -1677.9664 1060 1.5766581e-38
2825.6323 -1679.8611 1050 1.502974e-38
2806.314 -1674.6847 1040 1.4107771e-38
2774.7478 -1676.5793 1030 1.4017009e-38
4647.3696 1062.0676 1450 6.4522465e-39
4651.8525 1040.161 1460 1.4106649e-38
4668.583 1025.3253 1460 1.7151648e-38
4694.9727 1007.9015 1480 1.7242046e-38
4755.5161 1002.0316 1500 1.6506988e-38
4803.8125 989.0907 1520 1.6873968e-38
4796.0479 960.11292 1520 1.687432e-38
4812.7783 945.27722 1530 1.659846e-38
4836.5796 918.19415 1540 1.6688859e-38
4853.3096 903.35852 1550 1.6873615e-38
4845.5454 874.38074 1550 1.668743e-38
4850.0283 852.47406 1550 1.6691372e-38
4854.5107 830.56732 1560 1.6689578e-38
4856.4058 799.0014 1560 1.6693168e-38
4817.0752 768.12891 1550 1.6874687e-38
4809.3105 739.15112 1550 1.7428943e-38
4748.0732 703.79578 1530 1.7243831e-38
4752.5566 681.8891 1530 1.7428224e-38
4722.8848 648.42841 1520 1.7335659e-38
4695.8018 624.62701 1520 1.7516095e-38
4678.3779 598.23743 1510 1.7058711e-38
4648.707 564.77679 1500 1.6962574e-38
4619.0356 531.31616 1500 1.7333862e-38
4548.1392 498.54895 1470 1.7058701e-38
4530.7153 472.15939 1470 1.6690287e-38
4396.6865 435.60284 1420 1.7516096e-38
4325.79 402.83569 1400 1.7516444e-38
3860.573 289.37671 1230 1.7518956e-38
3748.4514 257.30307 1190 1.7334578e-38
3784.5002 237.29105 1200 1.7335661e-38
3931.9773 208.12746 1260 1.5585019e-38
4045.3003 167.40993 1310 1.6779596e-38
4112.915 149.2926 1340 1.7149102e-38
3952.4971 130.1599 1280 1.8163614e-38
3777.2434 94.29686 1210 1.7887034e-38
3730.8418 75.671844 1200 1.8071061e-38
3725.6653 56.353325 1200 1.6319721e-38
3730.1482 34.446617 1200 1.6763044e-38
3746.8787 19.610981 1210 1.4719252e-38
3761.0208 -4.8839149 1220 9.1071929e-39
3755.8442 -24.202431 1220 1.0684578e-38
3750.668 -43.52095 1220 1.4567602e-38
3774.4692 -70.604034 1230 1.5860535e-38
3953.5125 -97.872925 1300 1.669137e-38
4699.3555 -173.48785 1600 1.67807e-38
4824.9263 -207.13432 1650 1.7239146e-38
4795.2549 -240.59497 1640 1.696365e-38
4850.6221 -265.78339 1670 1.6964719e-38
4833.1982 -292.17294 1670 1.6597381e-38
4793.8682 -323.04541 1650 1.6873595e-38
4856.3066 -360.48126 1680 1.6964711e-38
4940.6514 -393.43423 1720 1.5212289e-38
4990.8428 -437.94113 1740 1.4109516e-38
5014.6436 -465.02423 1760 1.1432973e-38
5026.1978 -499.17838 1760 7.283089e-39
5047.4111 -535.92072 1780 4.8849194e-39
5058.9648 -570.07489 1780 3.9633205e-39
5060.8594 -601.64087 1790 4.699089e-39
5072.4136 -635.79498 1790 5.1597057e-39
5103.2861 -675.12555 1810 5.2533362e-39
5114.8398 -709.27966 1820 5.5306434e-39
5097.416 -735.66925 1810 5.8061527e-39
5118.6294 -772.41162 1830 5.3480514e-39
4745.1504 -1200.3291 1730 6.1706164e-39
4766.3633 -1237.0714 1740 6.4489969e-39
4719.9619 -1255.6964 1720 6.8181466e-39
4712.1973 -1284.6742 1720 6.6373511e-39
4685.1143 -1308.4756 1720 7.003977e-39
4648.3721 -1329.6888 1700 6.9121359e-39
4676.6562 -1378.6786 1720 6.9121387e-39
4623.1836 -1385.0562 1700 6.8203102e-39
4641.8086 -1431.4578 1710 6.8199445e-39
4597.9951 -1440.4236 1690 8.296871e-39
4599.8896 -1471.9895 1700 1.0879086e-38
4563.1475 -1493.2028 1690 1.1987595e-38
4584.3604 -1529.9451 1700 1.2262393e-38
4537.959 -1548.5701 1680 1.1895043e-38
4494.1455 -1557.5358 1670 1.1434783e-38
4476.7217 -1583.9254 1660 1.1523761e-38
4439.9795 -1605.1387 1650 1.1617378e-38
4405.8252 -1616.6925 1640 1.1432991e-38
4352.3525 -1623.0702 1620 1.1525195e-38
4298.8799 -1629.4478 1600 9.0326718e-39
4245.4072 -1635.8253 1580 4.8845789e-39
4165.5449 -1624.7791 1550 3.22721e-39
4131.3906 -1636.333 1530 2.8584233e-39
3969.7717 -1582.6744 1470 3.4112369e-39
3918.8872 -1579.3928 1440 4.7945273e-39
3858.3435 -1573.5229 1420 4.7920134e-39
3797.7996 -1567.6531 1400 3.2275617e-39
3746.9153 -1564.3713 1380 7.4707229e-39
3676.7122 -1555.9133 1350 9.4021662e-39
3652.2173 -1570.0554 1340 1.0143323e-38
3630.3105 -1574.5383 1330 7.7469791e-39
3596.1565 -1586.0923 1320 8.0163549e-39
3583.9089 -1593.1633 1310 1.1143788e-38
3513.7061 -1584.7052 1290 9.0265201e-39
3498.8704 -1601.4355 1280 8.2018013e-39
3733.095 -1809.1345 1400 8.0174199e-39
3639.0906 -1773.5934 1360 8.2010867e-39
3597.8652 -1772.8998 1340 8.293641e-39
3585.6179 -1779.9709 1330 8.1088938e-39
3561.123 -1794.113 1330 8.2014398e-39
3546.2874 -1810.8434 1320 7.1880081e-39
3531.4517 -1827.5737 1320 8.7582149e-39
3473.4961 -1812.0446 1300 1.235458e-38
3355.6904 -1749.4203 1240 1.290346e-38
3307.394 -1736.4794 1220 1.4010885e-38
3282.8992 -1750.6215 1220 1.4106677e-38
3280.311 -1760.2808 1210 1.548783e-38
3265.4753 -1777.0111 1210 1.5578584e-38
3240.9805 -1791.1532 1200 1.3459519e-38
3228.7329 -1798.2244 1200 1.3644624e-38
3156.6353 -1758.2003 1160 1.3465635e-38
3098.6797 -1742.6711 1140 1.3187618e-38
3026.582 -1702.6471 1110 1.2543317e-38
2987.9451 -1692.2943 1090 1.3650027e-38
2958.9673 -1684.5298 1080 1.4479796e-38
2927.4014 -1686.4244 1070 1.475639e-38
2898.4233 -1678.6599 1060 1.5676547e-38
2876.5168 -1683.1428 1050 1.5769819e-38
2854.6101 -1687.6256 1040 1.4850384e-38
2825.6323 -1679.8611 1030 1.4017378e-38
2813.3848 -1686.9321 1020 1.2079106e-38
2794.0664 -1681.7557 1020 1.2912098e-38
4659.6172 1069.1387 1430 7.9280927e-39
4651.8525 1040.161 1430 1.5858367e-38
4656.3354 1018.2543 1430 1.7241328e-38
4660.8184 996.34753 1440 1.6506284e-38
4711.7026 993.0658 1460 1.6872529e-38
4716.1855 971.15912 1460 1.6229322e-38
4696.1738 935.11029 1460 1.6502669e-38
4634.9365 899.75494 1440 1.659666e-38
4661.3262 882.33112 1450 1.6505904e-38
4731.5288 873.87305 1480 1.6323298e-38
4770.166 863.52032 1490 1.6597378e-38
4806.2148 843.5083 1510 1.650518e-38
4842.2637 823.49628 1530 1.6598097e-38
4878.3125 803.48425 1540 1.6964004e-38
4838.9819 772.61182 1530 1.7151616e-38
4809.3105 739.15112 1520 1.7611889e-38
4760.3208 710.86688 1510 1.7611892e-38
4762.2158 679.3009 1510 1.7795567e-38
4735.1328 655.49951 1500 1.7518603e-38
4705.4609 622.03882 1500 1.7519323e-38
4688.0371 595.64923 1490 1.7426413e-38
4670.6133 569.25964 1490 1.7701198e-38
4640.9424 535.79901 1480 1.7151623e-38
4570.0459 503.03186 1450 1.7243818e-38
4530.7153 472.15939 1440 1.7150902e-38
4437.9121 434.90936 1410 1.7242739e-38
4388.9224 406.62509 1390 1.7610797e-38
4393.4053 384.71838 1400 1.7611165e-38
3714.2971 245.74911 1150 1.7702996e-38
3762.5935 232.80817 1170 1.7336371e-38
4031.158 191.90483 1280 1.5672551e-38
4057.5476 174.481 1290 1.6036268e-38
4134.8218 153.77548 1320 1.7979559e-38
4034.9475 128.77289 1290 1.7980663e-38
4029.771 109.45438 1290 1.8347295e-38
3740.501 73.083656 1180 1.7978878e-38
3725.6653 56.353325 1180 1.7608639e-38
3720.489 37.034805 1180 1.7217901e-38
3715.3125 17.716293 1180 1.5359569e-38
3710.1362 -1.6022263 1180 1.0026981e-38
3704.96 -20.920742 1180 1.0685296e-38
3687.5361 -47.310329 1170 1.5577075e-38
3672.7004 -64.040657 1170 1.7702636e-38
3689.4307 -78.876297 1180 1.7244181e-38
4740.5811 -174.18135 1590 1.6966157e-38
4815.2666 -204.54613 1620 1.7427484e-38
4797.8428 -230.93571 1620 1.6873246e-38
4850.6221 -265.78339 1640 1.7057994e-38
4833.1982 -292.17294 1630 1.7149819e-38
4803.5273 -325.63361 1630 1.6872879e-38
4865.9658 -363.06946 1650 1.5489949e-38
4959.9697 -398.6106 1690 1.484674e-38
5012.749 -433.45825 1720 1.5857654e-38
5043.6216 -472.78879 1730 1.1710281e-38
5045.5161 -504.35477 1740 8.1124741e-39
5066.7295 -541.09711 1750 5.3469738e-39
5100.1899 -570.76837 1760 4.7001624e-39
5089.8374 -609.4054 1770 4.977464e-39
5101.3911 -643.55957 1770 4.9789017e-39
5132.2637 -682.89008 1790 4.7945105e-39
5163.1362 -722.22064 1800 4.7941517e-39
5136.0532 -746.02203 1800 4.9785402e-39
5246.7881 -796.3988 1850 4.8852656e-39
4781.8926 -1179.1158 1710 5.7125193e-39
4764.4688 -1205.5055 1700 5.5295644e-39
4776.0225 -1239.6595 1710 5.4384576e-39
4719.9619 -1255.6964 1690 5.1622322e-39
4712.1973 -1284.6742 1690 5.0696708e-39
4685.1143 -1308.4756 1680 4.4253888e-39
4638.7129 -1327.1006 1670 4.3339079e-39
4676.6562 -1378.6786 1690 3.9654771e-39
4613.5244 -1382.468 1660 5.6221229e-39
4641.8086 -1431.4578 1680 7.3727553e-39
4578.6768 -1435.2472 1660 9.1255597e-39
4599.8896 -1471.9895 1670 1.0511012e-38
4517.4395 -1470.6025 1640 1.1617004e-38
4555.3828 -1522.1804 1650 1.226202e-38
4528.2998 -1545.9818 1650 1.1802131e-38
4474.8271 -1552.3595 1630 1.1524825e-38
4467.0625 -1581.3372 1630 1.1431916e-38
4432.9082 -1592.8911 1620 1.1156407e-38
4396.166 -1614.1044 1600 1.1340793e-38
4352.3525 -1623.0702 1590 8.3901849e-39
4282.1494 -1614.6121 1560 4.5186803e-39
4235.748 -1633.2371 1550 2.858789e-39
4165.5449 -1624.7791 1520 2.6736747e-39
4150.709 -1641.5093 1510 3.2275631e-39
3962.7004 -1570.427 1430 4.3331946e-39
3909.2278 -1576.8046 1410 4.5157894e-39
3858.3435 -1573.5229 1400 3.4115998e-39
3807.459 -1570.2412 1380 6.3658313e-39
3756.5745 -1566.9595 1360 1.1800713e-38
3686.3713 -1558.5015 1330 9.4943688e-39
3652.2173 -1570.0554 1320 8.9458628e-39
3639.9697 -1577.1265 1310 7.8362852e-39
3605.8157 -1588.6804 1300 9.3110383e-39
3590.98 -1605.4108 1290 1.3368009e-38
3559.4141 -1607.3054 1290 1.059818e-38
3810.3689 -1829.84 1400 8.10997e-39
3726.0239 -1796.8871 1370 8.201444e-39
3641.6787 -1763.9341 1330 8.0177688e-39
3600.4534 -1763.2406 1310 8.1092554e-39
3575.9585 -1777.3827 1310 7.9252186e-39
3561.123 -1794.113 1300 7.9252144e-39
3536.6282 -1808.2551 1300 7.55572e-39
3505.062 -1810.1499 1290 8.1135644e-39
3447.1064 -1794.6207 1260 1.3736444e-38
3355.6904 -1749.4203 1220 1.5027558e-38
3314.4651 -1748.7268 1200 1.5209087e-38
3292.5583 -1753.2097 1200 1.4932137e-38
3270.6516 -1757.6926 1190 1.5394912e-38
3255.8162 -1774.4229 1190 1.6040271e-38
3243.5686 -1781.494 1180 1.4658427e-38
3228.7329 -1798.2244 1180 1.2634784e-38
3146.9761 -1755.6121 1140 1.3464561e-38
3081.9495 -1727.8354 1110 1.300142e-38
3026.582 -1702.6471 1090 1.2911394e-38
2987.9451 -1692.2943 1080 1.4108129e-38
2966.0383 -1696.7772 1070 1.4291452e-38
2937.0605 -1689.0127 1050 1.4572709e-38
2908.0828 -1681.248 1040 1.5215935e-38
2886.176 -1685.731 1040 1.5585064e-38
2864.2693 -1690.2139 1030 1.5493944e-38
2825.6323 -1679.8611 1010 1.4849658e-38
2806.314 -1674.6847 1000 1.4754937e-38
2774.7478 -1676.5793 990 1.4755306e-38
4749.832 1096.7295 1440 9.4961345e-39
4707.9131 1056.1978 1420 1.6228237e-38
4702.7373 1036.8793 1430 1.6785016e-38
4694.9727 1007.9015 1420 1.6413361e-38
4743.2686 994.96057 1440 1.6227529e-38
4759.999 980.12488 1450 1.6320077e-38
4652.3604 926.14453 1420 1.5860527e-38
4578.8755 883.71814 1390 1.6043833e-38
4549.2041 850.25745 1380 1.6228957e-38
4553.687 828.35077 1390 1.6046368e-38
4580.0767 810.92694 1400 1.641335e-38
4628.373 797.98602 1420 1.650518e-38
4808.1094 811.94232 1480 1.6320793e-38
4868.6533 806.07245 1510 1.7149465e-38
4838.9819 772.61182 1500 1.7056561e-38
4821.5581 746.22223 1500 1.7704069e-38
4769.9805 708.27869 1480 1.7518617e-38
4774.4629 686.37195 1490 1.7887744e-38
4744.792 652.91132 1480 1.7702637e-38
4727.3682 626.52173 1470 1.797922e-38
4709.9443 600.13214 1470 1.7609725e-38
4680.2725 566.67151 1460 1.7610077e-38
4653.1895 542.87006 1450 1.816145e-38
4570.0459 503.03186 1430 1.7333867e-38
4542.9629 479.23047 1420 1.7059784e-38
4525.5391 452.84088 1420 1.7796263e-38
4495.8677 419.38022 1410 1.7793754e-38
4500.3506 397.47351 1410 1.788953e-38
4567.9653 379.3562 1440 1.7885942e-38
4783.751 373.30051 1520 1.7798777e-38
3694.9788 250.92551 1120 1.7888465e-38
3743.2749 237.98456 1140 1.8164317e-38
3757.4172 213.48965 1150 1.8072139e-38
3774.1475 198.65401 1160 1.8531317e-38
3914.5535 181.73787 1210 1.6964369e-38
4025.9817 172.5863 1260 1.6132084e-38
4103.2559 151.8808 1290 1.8255807e-38
4034.9475 128.77289 1270 1.8257616e-38
4029.771 109.45438 1270 1.8071424e-38
3784.3145 82.049416 1180 1.8163981e-38
3735.3247 53.765137 1160 1.7331335e-38
3698.5823 32.551926 1150 1.8412484e-38
3693.406 13.233414 1150 1.5360653e-38
3688.2295 -6.085104 1150 9.6585632e-39
3673.3938 -22.815434 1140 1.0220722e-38
3646.3108 -46.616829 1140 1.4472518e-38
3612.1567 -58.170776 1130 1.7520401e-38
4759.8994 -179.35773 1570 1.7701561e-38
4774.042 -203.85263 1580 1.7517896e-38
4795.2549 -240.59497 1590 1.7608644e-38
4840.9629 -263.19519 1610 1.7607565e-38
4820.9512 -299.24402 1600 1.7425689e-38
4793.8682 -323.04541 1590 1.5675432e-38
4856.3066 -360.48126 1620 1.5398465e-38
4959.9697 -398.6106 1660 1.622465e-38
5032.0674 -438.63464 1690 1.5674699e-38
5075.1875 -470.8941 1720 1.2352412e-38
5077.082 -502.46008 1720 8.6627739e-39
5107.9546 -541.79065 1730 5.253346e-39
5138.8271 -581.12115 1750 7.4634866e-39
5140.7217 -612.68713 1750 1.1615156e-38
5132.9575 -641.66486 1750 6.5447939e-39
5183.1484 -686.17181 1780 5.6228278e-39
5204.3613 -722.91412 1790 5.8068533e-39
5184.3496 -758.96295 1780 5.7139458e-39
5234.5405 -803.46991 1810 6.1734834e-39
4762.5742 -1173.9395 1670 6.7266572e-39
4774.1279 -1208.0936 1670 5.7157451e-39
4776.0225 -1239.6595 1680 5.4391624e-39
4729.6211 -1258.2847 1660 4.7948706e-39
4721.8564 -1287.2625 1660 4.6079682e-39
4694.7734 -1311.0638 1650 4.3317359e-39
4638.7129 -1327.1006 1640 4.1480621e-39
4676.6562 -1378.6786 1650 5.6221285e-39
4613.5244 -1382.468 1630 7.096537e-39
4632.1494 -1428.8696 1650 7.0050546e-39
4569.0176 -1432.6589 1620 8.8522028e-39
4590.2305 -1469.4012 1630 1.08816e-38
4498.1211 -1465.4261 1600 1.0693977e-38
4574.7012 -1527.3568 1630 1.1156753e-38
4528.2998 -1545.9818 1620 1.1893243e-38
4484.4863 -1554.9476 1600 1.1617379e-38
4457.4033 -1578.749 1600 1.1432994e-38
4423.249 -1590.303 1580 1.1431562e-38
4396.166 -1614.1044 1570 1.0789415e-38
4333.0342 -1617.8938 1550 7.9299312e-39
4282.1494 -1614.6121 1530 3.5952848e-39
4228.6768 -1620.9896 1510 2.5818364e-39
4139.1553 -1607.3552 1480 2.9506245e-39
4121.7314 -1633.7448 1480 3.7803768e-39
3943.3821 -1565.2506 1400 4.4235868e-39
3899.5686 -1574.2164 1390 2.4878387e-39
3868.0027 -1576.1111 1370 3.2264841e-39
3817.1182 -1572.8295 1350 7.7469637e-39
3763.6455 -1579.207 1330 1.2354603e-38
3686.3713 -1558.5015 1300 8.1121645e-39
3645.1462 -1557.808 1290 8.9426328e-39
3620.6514 -1571.9501 1280 8.8475589e-39
3596.1565 -1586.0923 1270 9.5836778e-39
3581.3208 -1602.8225 1270 1.2813393e-38
3559.4141 -1607.3054 1260 1.0506703e-38
3716.3645 -1794.2988 1340 8.1106805e-39
3632.0195 -1761.3459 1300 7.7419078e-39
3590.7942 -1760.6523 1290 7.9248585e-39
3566.2993 -1774.7946 1280 7.740826e-39
3551.4636 -1791.5249 1280 7.8323111e-39
3529.5569 -1796.0077 1270 7.8312251e-39
3495.4028 -1807.5616 1260 8.0202883e-39
3447.1064 -1794.6207 1240 1.2910286e-38
3362.7615 -1761.6677 1200 1.57637e-38
3314.4651 -1748.7268 1180 1.5485308e-38
3282.8992 -1750.6215 1170 1.5303079e-38
3270.6516 -1757.6926 1170 1.6039196e-38
3255.8162 -1774.4229 1160 1.6778933e-38
3233.9094 -1778.9058 1160 1.5581459e-38
3219.0737 -1795.6361 1150 1.3095051e-38
3137.3169 -1753.0239 1120 1.4110636e-38
3081.9495 -1727.8354 1090 1.410562e-38
3026.582 -1702.6471 1070 1.392553e-38
3004.6753 -1707.13 1060 1.457019e-38
2966.0383 -1696.7772 1050 1.4663465e-38
2944.1316 -1701.2601 1040 1.5586123e-38
2915.1538 -1693.4955 1030 1.5586867e-38
2893.2471 -1697.9784 1020 1.549215e-38
2873.9287 -1692.802 1010 1.5492149e-38
2835.2915 -1682.4492 1000 1.5126249e-38
2813.3848 -1686.9321 990 1.5310276e-38
2794.0664 -1681.7557 980 1.5400316e-38
4720.1611 1063.2688 1400 1.6230411e-38
4668.583 1025.3253 1390 1.7057287e-38
4617.0049 987.38177 1370 1.6597032e-38
4621.4878 965.4751 1380 1.5216257e-38
4638.2178 950.63947 1380 1.4941461e-38
4596.2993 910.10773 1370 1.6226428e-38
4535.062 874.75238 1350 1.5859816e-38
4517.6382 848.36279 1350 1.6044915e-38
4522.1211 826.45605 1350 1.5953443e-38
4560.7578 816.10333 1370 1.6963993e-38
4606.4663 793.50311 1390 1.6322219e-38
4808.1094 811.94232 1460 1.6321152e-38
4856.4058 799.0014 1480 1.6781393e-38
4851.2295 779.68286 1480 1.7150182e-38
4821.5581 746.22223 1470 1.770264e-38
4791.8867 712.76154 1460 1.7244902e-38
4784.1221 683.78375 1460 1.7794471e-38
4757.0391 659.98236 1450 1.7703723e-38
4737.0273 623.93353 1450 1.7980307e-38
4719.6035 597.54395 1450 1.7888456e-38
4692.5205 573.74255 1440 1.7701917e-38
4653.1895 542.87006 1430 1.7424971e-38
4579.7051 500.44366 1410 1.7885593e-38
4564.8691 483.71332 1400 1.7335295e-38
4566.7642 452.14737 1400 1.8162178e-38
4539.6807 428.34598 1400 1.834763e-38
4563.4824 401.26291 1410 1.7889185e-38
4599.5312 381.25089 1420 1.8347638e-38
4783.751 373.30051 1490 1.8350152e-38
3731.0276 230.91348 1120 1.8349083e-38
3747.7578 216.07784 1130 1.8717865e-38
3752.2407 194.17113 1130 1.8532392e-38
3800.5371 181.23018 1150 1.7886303e-38
3940.9431 164.31406 1200 1.5395231e-38
4062.0305 152.5743 1250 1.6135292e-38
4034.9475 128.77289 1240 1.8443079e-38
4017.5237 102.38332 1240 1.8624242e-38
3740.501 73.083656 1140 1.8074299e-38
3725.6653 56.353325 1130 1.7516451e-38
3679.2637 37.72831 1120 1.6223169e-38
3674.0874 18.40979 1120 1.493027e-38
3668.9111 -0.90872574 1120 1.3270738e-38
3651.4873 -27.298311 1120 1.0412323e-38
3636.6516 -44.028641 1110 1.3365805e-38
3612.1567 -58.170776 1110 1.7332771e-38
4791.4658 -177.46304 1550 1.7244176e-38
4752.1348 -208.33551 1540 1.7886661e-38
4775.9365 -235.41859 1550 1.7611155e-38
4819.0566 -267.67804 1570 1.7150551e-38
4811.292 -296.65582 1570 1.6136752e-38
4793.8682 -323.04541 1560 1.6040231e-38
4856.3066 -360.48126 1590 1.6136742e-38
4959.9697 -398.6106 1630 1.6595569e-38
5041.7271 -441.22284 1670 1.5675418e-38
5113.8247 -481.24686 1700 1.2536441e-38
5106.0601 -510.22464 1700 8.7556912e-39
5127.2734 -546.96698 1710 5.3462549e-39
5180.0522 -581.81464 1730 9.4924953e-39
5169.6997 -620.45166 1730 2.0831074e-38
5161.9351 -649.42944 1730 1.4010443e-38
5221.7852 -696.52454 1760 6.358232e-39
5242.9985 -733.26691 1770 6.2667525e-39
5235.2339 -762.24469 1770 6.2667567e-39
5275.7656 -804.16339 1790 6.2663965e-39
4752.915 -1171.3513 1630 7.0050378e-39
4793.4463 -1213.27 1650 6.3585964e-39
4783.0938 -1251.9071 1650 6.1738422e-39
4729.6211 -1258.2847 1630 5.8047079e-39
4719.2686 -1296.9216 1630 5.5299147e-39
4694.7734 -1311.0638 1630 5.4370016e-39
4648.3721 -1329.6888 1610 7.3730846e-39
4669.585 -1366.4312 1620 1.1152032e-38
4603.8652 -1379.8798 1600 7.5596787e-39
4625.0781 -1416.6221 1610 7.188727e-39
4503.9907 -1404.8823 1570 9.1259142e-39
4561.2529 -1461.6367 1590 1.1250381e-38
4488.4614 -1462.8379 1560 1.0789057e-38
4565.042 -1524.7687 1600 1.106383e-38
4528.2998 -1545.9818 1590 1.1248227e-38
4474.8271 -1552.3595 1570 1.1523378e-38
4457.4033 -1578.749 1560 1.143334e-38
4423.249 -1590.303 1550 1.1615223e-38
4396.166 -1614.1044 1550 1.0695426e-38
4333.0342 -1617.8938 1520 9.0319529e-39
4272.4902 -1612.0239 1500 5.2537202e-39
4219.0176 -1618.4015 1480 3.1346556e-39
4139.1553 -1607.3552 1450 3.7803726e-39
4105.001 -1618.9092 1440 4.3310338e-39
3943.3821 -1565.2506 1380 2.7637165e-39
3909.2278 -1576.8046 1360 5.9894453e-39
3877.6619 -1578.6993 1350 1.132957e-38
3824.1892 -1585.0769 1330 1.27201e-38
3756.5745 -1566.9595 1310 1.170814e-38
3669.6411 -1543.6658 1270 9.5872917e-39
3628.4158 -1542.9723 1260 1.1431923e-38
3603.9209 -1557.1145 1250 9.0323229e-39
3589.0854 -1573.8448 1240 9.031576e-39
3583.9089 -1593.1633 1240 1.1523013e-38
3549.7549 -1604.7173 1230 9.5854728e-39
3671.3501 -1730.4734 1290 8.2021544e-39
3699.6343 -1779.4633 1310 8.1092512e-39
3632.0195 -1761.3459 1280 8.2018013e-39
3590.7942 -1760.6523 1260 7.7415504e-39
3566.2993 -1774.7946 1260 7.9241424e-39
3544.3926 -1779.2775 1250 7.9252144e-39
3519.8977 -1793.4196 1240 8.1085337e-39
3497.991 -1797.9025 1230 7.5607395e-39
3447.1064 -1794.6207 1210 1.2907387e-38
3365.3496 -1752.0085 1180 1.5948076e-38
3307.394 -1736.4794 1160 1.5396708e-38
3285.4873 -1740.9623 1150 1.6410128e-38
3270.6516 -1757.6926 1150 1.6502698e-38
3248.7451 -1762.1754 1140 1.6873622e-38
3224.25 -1776.3176 1130 1.6040997e-38
3202.3435 -1780.8005 1120 1.4015214e-38
3130.2456 -1740.7765 1090 1.3924818e-38
3074.8784 -1715.588 1070 1.3280887e-38
3026.582 -1702.6471 1050 1.438616e-38
3004.6753 -1707.13 1040 1.4848569e-38
2966.0383 -1696.7772 1030 1.5217006e-38
2937.0605 -1689.0127 1020 1.5401754e-38
2915.1538 -1693.4955 1010 1.5033688e-38
2893.2471 -1697.9784 1000 1.5307398e-38
2880.9995 -1705.0494 1000 1.549431e-38
2852.022 -1697.2849 990 1.5861299e-38
2820.4561 -1699.1796 980 1.576874e-38
2810.7966 -1696.5914 970 1.4477629e-38
4758.7979 1052.9161 1390 1.6319372e-38
4617.0049 987.38177 1350 1.5583962e-38
4599.5811 960.99219 1340 1.5214084e-38
4582.1572 934.6026 1340 1.466127e-38
4518.332 889.58801 1320 1.5304489e-38
4425.5283 852.33795 1290 1.5765107e-38
4439.6709 827.84308 1300 1.5675777e-38
4444.1533 805.9364 1300 1.6228587e-38
4460.8838 791.10071 1310 1.6504823e-38
4509.1802 778.15979 1330 1.6779609e-38
4776.5435 810.04761 1420 1.613891e-38
4815.1807 799.69489 1440 1.6873953e-38
4829.3228 775.19995 1440 1.7149822e-38
4821.5581 746.22223 1440 1.7520405e-38
4835.7002 721.72729 1450 1.8072859e-38
4806.0293 688.26666 1440 1.8255804e-38
4766.6982 657.39417 1430 1.8071771e-38
4758.9336 628.41638 1430 1.7794827e-38
4741.5098 602.02679 1430 1.7704781e-38
4689.9321 564.08331 1410 1.5304847e-38
4640.9424 535.79901 1400 7.0983544e-39
4591.9521 507.51471 1380 1.290268e-38
4596.4355 485.60803 1390 1.8161078e-38
4588.6709 456.63025 1390 1.8439471e-38
4580.9062 427.65247 1390 1.8162535e-38
4629.2026 414.71155 1410 1.8072494e-38
4662.6631 385.04025 1420 1.8346916e-38
4764.4321 378.47687 1460 1.8899726e-38
4851.3652 355.18317 1490 1.899014e-38
3740.6868 228.32529 1100 1.8624225e-38
3735.5105 209.00677 1100 1.8256887e-38
3732.9224 199.34752 1110 1.8992296e-38
3756.7236 172.26443 1120 1.7699749e-38
3783.1133 154.84061 1130 1.723913e-38
4008.5579 146.19672 1210 1.6501207e-38
3976.2983 103.07681 1200 1.8624233e-38
3762.4077 77.566536 1130 1.8072144e-38
3725.6653 56.353325 1110 1.7886657e-38
3679.2637 37.72831 1100 1.9911706e-38
3674.0874 18.40979 1100 1.7884464e-38
3678.5703 -3.4969158 1100 1.3918253e-38
3663.7346 -20.227242 1100 9.9542273e-39
3658.5583 -39.545761 1100 1.2258018e-38
3663.041 -61.452469 1100 1.6963238e-38
4730.9219 -171.59317 1500 1.770479e-38
4723.1572 -200.57094 1500 1.7426765e-38
4766.2773 -232.8304 1510 1.7242026e-38
4819.0566 -267.67804 1540 1.7425683e-38
4811.292 -296.65582 1540 1.5951628e-38
4793.8682 -323.04541 1530 1.6041315e-38
4836.9878 -355.3049 1550 1.677888e-38
4950.3105 -396.02243 1600 1.6871426e-38
5041.7271 -441.22284 1630 1.6226427e-38
5123.4839 -483.83505 1670 1.3182509e-38
5115.7192 -512.81287 1670 9.1248324e-39
5158.8394 -545.07227 1690 5.3459018e-39
5209.0303 -589.57922 1710 4.8834775e-39
5210.9248 -621.1452 1710 1.2997339e-38
5200.5723 -659.78223 1710 1.8712371e-38
5282.3291 -702.39441 1750 7.8373194e-39
5303.5425 -739.13678 1760 5.1604119e-39
5283.5303 -775.18561 1750 4.8845467e-39
5343.3804 -822.2807 1780 4.9770997e-39
4723.937 -1163.5867 1590 7.2801813e-39
4819.8359 -1230.6938 1630 6.6348175e-39
4783.0938 -1251.9071 1620 6.0827241e-39
4748.9395 -1263.4609 1610 5.8972595e-39
4728.9277 -1299.5099 1610 5.5299119e-39
4701.8447 -1323.3113 1600 5.2533278e-39
4667.6904 -1334.8652 1590 8.1113587e-39
4666.9971 -1376.0905 1590 1.3362925e-38
4613.5244 -1382.468 1570 8.0192121e-39
4632.1494 -1428.8696 1580 7.2802023e-39
4532.9688 -1412.647 1550 8.9436711e-39
4599.8896 -1471.9895 1580 1.1248943e-38
4527.0986 -1473.1907 1550 1.1893599e-38
4581.7725 -1539.6042 1580 1.1247514e-38
4557.2773 -1553.7465 1570 1.0694337e-38
4484.4863 -1554.9476 1540 1.1062409e-38
4467.0625 -1581.3372 1540 1.0508504e-38
4432.9082 -1592.8911 1530 1.005076e-38
4405.8252 -1616.6925 1520 9.4972401e-39
4333.0342 -1617.8938 1490 9.4046885e-39
4262.8311 -1609.4357 1470 7.7483944e-39
4199.6992 -1613.2251 1450 4.7052211e-39
4139.1553 -1607.3552 1420 4.2410004e-39
4095.342 -1616.3209 1410 3.041381e-39
3953.0413 -1567.8389 1350 3.1382612e-39
3918.8872 -1579.3928 1340 7.189806e-39
3877.6619 -1578.6993 1330 1.1331728e-38
3814.53 -1582.4886 1310 1.2903051e-38
3746.9153 -1564.3713 1280 1.1154959e-38
3676.7122 -1555.9133 1250 9.3135719e-39
3645.1462 -1557.808 1240 1.2079099e-38
3610.9919 -1569.3619 1230 9.4943786e-39
3596.1565 -1586.0923 1230 8.0181345e-39
3583.9089 -1593.1633 1220 8.8475449e-39
3559.4141 -1607.3054 1210 7.0036253e-39
3563.2034 -1670.4374 1220 8.20216e-39
3680.3157 -1774.2869 1280 8.2025244e-39
3632.0195 -1761.3459 1250 8.0192051e-39
3590.7942 -1760.6523 1240 7.8340978e-39
3566.2993 -1774.7946 1230 8.0177646e-39
3544.3926 -1779.2775 1230 8.293634e-39
3519.8977 -1793.4196 1220 8.293641e-39
3488.3318 -1795.3142 1210 7.650424e-39
3437.4473 -1792.0326 1190 1.244929e-38
3365.3496 -1752.0085 1160 1.7147696e-38
3307.394 -1736.4794 1140 1.6778931e-38
3285.4873 -1740.9623 1130 1.5859502e-38
3270.6516 -1757.6926 1120 1.6596323e-38
3248.7451 -1762.1754 1120 1.5668615e-38
3217.179 -1764.0702 1110 1.1335403e-38
3178.542 -1753.7174 1090 1.2264903e-38
3113.5154 -1725.9408 1070 1.4018811e-38
3074.8784 -1715.588 1050 1.4018817e-38
3026.582 -1702.6471 1030 1.4203923e-38
3004.6753 -1707.13 1020 1.4754227e-38
2966.0383 -1696.7772 1010 1.4665631e-38
2937.0605 -1689.0127 1000 1.5124453e-38
2915.1538 -1693.4955 990 1.5586137e-38
2893.2471 -1697.9784 990 1.5953124e-38
2880.9995 -1705.0494 980 1.5769448e-38
2842.3628 -1694.6968 970 1.5677977e-38
2820.4561 -1699.1796 960 1.5677979e-38
2817.8677 -1708.8389 960 1.5769093e-38
4758.7979 1052.9161 1360 1.4201033e-38
4521.6133 940.47247 1290 1.3555293e-38
4427.4233 820.77203 1270 1.5585383e-38
4456.4009 813.00745 1280 1.6503382e-38
4470.543 788.51257 1290 1.6228948e-38
4531.0869 782.64264 1310 1.5676144e-38
4832.6045 826.08447 1410 1.6409382e-38
4926.6089 790.54333 1450 1.7516084e-38
4931.0918 768.6366 1450 1.7519319e-38
4976.7998 746.03638 1470 1.7885944e-38
4883.9966 708.78638 1440 1.7702634e-38
4820.1709 663.77173 1420 1.7795905e-38
4793.0879 639.97034 1420 1.7979569e-38
4763.417 606.5097 1410 1.834476e-38
4680.2725 566.67151 1380 1.5306274e-38
4619.0356 531.31616 1360 8.0246183e-39
4591.9521 507.51471 1350 1.2722249e-38
4606.0947 483.01984 1360 1.7977419e-38
4620.2368 458.52493 1370 1.8257237e-38
4624.7197 436.61823 1380 1.8164675e-38
4682.6753 421.08911 1400 1.7888462e-38
4728.3833 398.48889 1410 1.9174162e-38
4805.6572 377.78339 1440 1.8806822e-38
4841.7061 357.77136 1460 1.8622787e-38
3721.3684 233.50168 1080 1.8442708e-38
3725.8511 211.59496 1080 1.8532388e-38
3711.0156 194.86464 1080 1.8441992e-38
3727.7458 180.02899 1090 1.7700831e-38
3751.5474 152.94591 1090 1.7514647e-38
3882.2939 138.61797 1140 1.7521843e-38
3725.6653 56.353325 1100 1.8162882e-38
3688.9231 35.140121 1080 1.9913152e-38
3683.7466 15.821602 1080 1.7517838e-38
3688.2295 -6.085104 1090 1.4560396e-38
3673.3938 -22.815434 1080 9.7709109e-39
3677.8767 -44.722137 1090 1.1059123e-38
3704.2664 -62.145966 1100 1.5579952e-38
4658.1309 -172.79436 1440 1.7702277e-38
4713.498 -197.98276 1460 1.7703355e-38
4766.2773 -232.8304 1480 1.8071046e-38
4828.7158 -270.26624 1510 1.6779963e-38
4842.8574 -294.76114 1520 1.5580334e-38
4803.5273 -325.63361 1510 1.604383e-38
4836.9878 -355.3049 1520 1.7239501e-38
4928.4043 -400.50531 1560 1.6691362e-38
5032.0674 -438.63464 1600 1.6411534e-38
5123.4839 -483.83505 1640 1.3183597e-38
5125.3784 -515.401 1640 9.5858078e-39
5178.1577 -550.24866 1660 5.1615091e-39
5247.667 -599.93195 1690 4.3313813e-39
5259.2212 -634.08612 1700 1.5758159e-38
5241.7974 -660.47571 1690 2.3509796e-38
5342.873 -708.26428 1740 1.6685188e-38
