# .PCD v0.7 - Point Cloud Data file format
VERSION 0.7
FIELDS x y z rgb
SIZE 4 4 4 4
TYPE F F F F
COUNT 1 1 1 1
WIDTH 1254
HEIGHT 1
VIEWPOINT 0 0 0 1 0 0 0
POINTS 1254
DATA ascii
3712.5125 1145.4573 390 1.75244e-39
3709.729 1125.652 390 1.8446329e-39
3718.24 1114.3575 390 1.9364698e-39
3715.4565 1094.5521 390 2.1212184e-39
3701.3787 1066.2358 390 4.9799919e-39
3709.8896 1054.9414 390 1.5486646e-38
3717.0088 1033.7444 390 2.0923304e-38
3724.1282 1012.5472 390 2.1383206e-38
3690.2449 987.0144 390 2.2028936e-38
3697.364 965.81732 390 1.9447475e-38
3705.875 954.52289 390 1.0686036e-38
3724.2886 941.83679 400 6.4511465e-39
3752.605 927.75891 400 7.0032399e-39
3782.313 923.58374 400 7.2787464e-39
3821.9238 918.01678 400 7.1887102e-39
3797.9431 891.09222 400 7.556771e-39
3793.7681 861.38416 400 1.5200678e-38
3781.0818 842.97052 400 1.8437268e-38
3788.2012 821.77344 400 6.4623877e-39
3858.9116 821.93402 410 6.925182e-39
4304.2109 900.72711 450 7.0188294e-39
4353.7246 893.76849 460 6.0946842e-39
4475.3398 896.87305 470 7.2928603e-39
4440.0654 861.43756 470 7.5727192e-39
4416.0845 834.51294 460 7.6645533e-39
4402.0068 806.19666 460 1.2908851e-38
4397.8315 776.48859 460 2.1383957e-38
4362.5566 741.0531 460 1.0150539e-38
4338.5762 714.12848 460 5.5320825e-39
4314.5957 687.20392 460 5.3566722e-39
4311.812 667.39856 460 4.3464859e-39
4276.5371 631.96301 450 6.4579821e-39
4293.5586 609.37421 450 6.5462246e-39
4300.6782 588.17712 460 8.7556701e-39
4327.6025 564.19653 460 1.5759595e-38
4283.8169 540.05542 450 1.7881167e-38
4114.2402 483.10168 440 1.9909466e-38
4018.1572 446.11383 430 2.332611e-38
4005.4712 427.7002 430 2.3509841e-38
4001.2959 397.99216 430 2.1017266e-38
4039.5149 382.52255 430 2.202852e-38
4118.7363 371.38873 440 2.1569345e-38
4166.8584 354.52737 450 2.1475353e-38
4234.7852 334.8826 450 2.1843771e-38
4189.6074 300.83881 450 2.184485e-38
4196.7266 279.64169 450 2.1384598e-38
4203.8457 258.44461 450 2.1106942e-38
4220.8682 235.85577 450 2.0554848e-38
4247.7925 211.87523 460 2.0277177e-38
4366.6245 195.17447 470 1.9445628e-38
4646.6831 176.01137 490 1.7973385e-38
4734.4155 153.58311 500 1.741878e-38
4841.9531 128.3714 510 1.6863807e-38
4857.5835 95.879898 520 1.4469973e-38
4853.4082 66.171852 520 1.188815e-38
4849.2329 36.463814 520 1.4840542e-38
4864.8633 3.9723091 520 1.9541449e-38
4709.3643 -24.665136 500 2.2951959e-38
4162.0938 -38.635815 450 2.3509803e-38
4148.0161 -66.952126 450 2.3509821e-38
4184.8433 -92.324409 450 2.3509837e-38
4162.2549 -109.34631 450 2.3509886e-38
4158.0791 -139.05435 450 2.2219166e-38
4264.2256 -174.16875 460 1.3644234e-38
3629.3833 -236.42166 400 1.8249286e-38
3626.5999 -256.22705 400 1.2905562e-38
3633.719 -277.42413 400 6.9142883e-39
3749.7676 -313.93024 410 1.0232244e-38
4733.2378 -573.32721 510 1.2814072e-38
4767.2812 -618.50482 520 1.3271821e-38
4792.8145 -652.38806 520 1.3640958e-38
4740.5176 -665.2348 510 1.401046e-38
4706.6343 -690.76764 510 1.39197e-38
4682.6533 -717.6922 510 1.4287049e-38
4658.6729 -744.61682 510 1.4472871e-38
4614.8872 -768.75793 500 1.3271097e-38
4689.9336 -809.59979 510 9.3084908e-39
5532.3569 -1857.036 610 6.6344476e-39
5451.7437 -1855.8048 600 6.8177584e-39
5351.3252 -1851.7903 590 6.9099555e-39
4595.6172 -1624.4031 510 7.5553207e-39
4573.0283 -1641.425 510 7.1858249e-39
4520.7314 -1654.2717 510 5.3426438e-39
4508.0449 -1672.6853 510 3.1328381e-39
4485.4561 -1689.7073 500 2.0279423e-39
2528.8472 -738.1394 300 2.7647787e-39
2507.6504 -745.25861 300 5.0682191e-39
2504.8667 -765.06396 300 6.4500703e-39
2485.0615 -762.28052 300 7.4638607e-39
2483.6697 -772.18323 300 9.5850819e-39
2482.2778 -782.08588 300 1.0508483e-38
2470.9834 -790.59686 300 1.0785064e-38
2468.2002 -810.40222 300 1.0876537e-38
2476.7109 -821.69659 300 1.5213343e-38
2224.8081 -745.90088 270 6.4522423e-39
2213.5137 -754.41187 270 3.9622471e-39
2212.1221 -764.31451 270 4.054793e-39
2202.2192 -762.92279 270 3.6831407e-39
2190.925 -771.43372 270 3.1332039e-39
2179.6306 -779.9447 270 2.9484539e-39
2151.3142 -765.86682 270 2.8566184e-39
2131.5088 -763.08337 260 2.8562554e-39
2166.9443 -798.35834 270 2.8555436e-39
3643.1938 1155.1995 370 2.1208722e-39
3704.0017 1156.7517 370 2.0283109e-39
3712.5125 1145.4573 370 1.7524414e-39
3709.729 1125.652 370 2.0279479e-39
3718.24 1114.3575 370 1.6606059e-39
3715.4565 1094.5521 370 1.8435581e-39
3701.3787 1066.2358 370 2.6740334e-39
3709.8896 1054.9414 370 7.4703375e-39
3695.8118 1026.6251 370 1.6502603e-38
3693.0283 1006.8198 370 2.0555608e-38
3647.8506 972.776 370 2.0922954e-38
3623.8701 945.85138 370 2.0374095e-38
3630.9893 924.6543 370 1.6037321e-38
3618.3032 906.24066 370 7.0965145e-39
3648.0112 902.06549 370 7.3716581e-39
3708.8191 903.6178 370 7.0957971e-39
3758.3325 896.65912 380 7.7393644e-39
3765.4517 875.46204 380 7.7411609e-39
3773.9626 864.1676 380 1.7234033e-38
3771.1792 844.36224 380 1.8441955e-38
3778.2983 823.16516 380 6.6496461e-39
3806.6147 809.08728 380 6.7422242e-39
3960.7219 827.82208 400 6.4660003e-39
4261.8169 886.48871 420 6.0954297e-39
4363.627 892.37677 430 5.724464e-39
4570.0312 923.95819 450 6.7414844e-39
4565.856 894.25018 450 7.0188153e-39
4406.1816 835.90466 440 7.294333e-39
4380.8096 799.07745 430 1.8435862e-38
4335.6318 765.03363 430 2.2305512e-38
4249.4521 726.65405 420 3.1382836e-39
4235.374 698.33777 420 3.1382373e-39
4168.999 657.17474 420 3.706129e-39
4197.3154 643.09686 420 4.6370606e-39
4193.1406 613.38879 420 4.8070843e-39
4221.457 599.31097 420 5.1604189e-39
4269.5781 582.44958 430 8.7534967e-39
4286.6006 559.86078 430 1.492985e-38
4241.4229 525.81702 430 1.59458e-38
4042.1379 473.03842 410 1.8250682e-38
3967.2522 443.1698 400 2.2033577e-38
3953.1743 414.85352 400 1.9450705e-38
3960.2935 393.6564 400 1.8063401e-38
3988.6099 379.57855 400 1.9447782e-38
4025.437 354.20627 410 1.9818354e-38
4053.7534 340.12839 410 1.9817999e-38
4203.6855 329.15509 420 2.0277173e-38
4148.605 296.50302 420 2.000095e-38
4155.7241 275.30594 420 2.0369021e-38
4182.6489 251.32538 420 2.0460488e-38
4199.6709 228.73657 430 1.9630382e-38
4237.8896 213.26697 430 1.9447786e-38
4366.6245 195.17447 440 1.8066292e-38
4616.9751 180.18657 460 1.7510616e-38
4703.3154 147.85562 470 1.6958511e-38
4810.8535 122.64391 480 1.640463e-38
4827.875 100.05508 480 1.4283424e-38
4833.6025 68.955315 480 1.1706269e-38
4839.3301 37.855545 480 1.5115687e-38
4864.8633 3.9723091 490 1.935597e-38
4699.4619 -23.273405 470 2.2215101e-38
4201.7046 -44.202736 430 2.3509091e-38
4179.1162 -61.224636 430 2.3509827e-38
4215.9434 -86.596924 430 2.3509835e-38
4211.7681 -116.30496 430 2.2677905e-38
4167.9819 -140.44608 430 1.4656881e-38
4274.1279 -175.56049 440 1.2261575e-38
3639.2859 -237.8134 380 1.7792989e-38
3636.5024 -257.61877 380 1.3180703e-38
3643.6216 -278.81586 380 6.7284579e-39
3759.6704 -315.32199 390 9.6787096e-39
4753.043 -576.11066 480 1.2998112e-38
4767.2812 -618.50482 490 1.2998824e-38
4792.8145 -652.38806 490 1.3366173e-38
4740.5176 -665.2348 480 1.4008671e-38
4706.6343 -690.76764 480 1.3921139e-38
4682.6533 -717.6922 480 1.4102661e-38
4658.6729 -744.61682 480 1.4471802e-38
4614.8872 -768.75793 470 1.2719726e-38
4660.2256 -805.42462 480 9.2155805e-39
5532.3569 -1857.036 570 7.0010763e-39
5441.8413 -1854.4131 560 7.0010721e-39
5341.4224 -1850.3986 550 6.9110303e-39
4614.0303 -1637.0892 490 7.3705735e-39
4581.5391 -1652.7194 480 7.1872654e-39
4520.7314 -1654.2717 480 6.3571502e-39
4508.0449 -1672.6853 480 4.3313785e-39
4475.5537 -1688.3156 470 1.8431895e-39
2528.8472 -738.1394 290 2.6733047e-39
2507.6504 -745.25861 290 4.9760207e-39
2504.8667 -765.06396 290 6.5415443e-39
2485.0615 -762.28052 290 7.2812617e-39
2483.6697 -772.18323 290 9.5868657e-39
2482.2778 -782.08588 290 1.1059496e-38
2470.9834 -790.59686 290 1.1059126e-38
2468.2002 -810.40222 290 1.0600316e-38
2458.2974 -809.01044 280 1.5674682e-38
2502.2439 -855.57983 290 1.8256531e-38
2313.9324 -758.42645 270 1.2625758e-38
2275.7134 -742.95685 270 9.7694773e-39
2301.2461 -776.84009 270 9.1244639e-39
2216.2974 -734.60651 260 8.4812539e-39
2233.3193 -757.19531 260 7.2791233e-39
2223.4165 -755.80359 260 6.1695388e-39
2222.0249 -765.70624 260 7.9180047e-39
2202.2192 -762.92279 260 7.8250916e-39
2190.925 -771.43372 260 6.1709723e-39
2189.5332 -781.33643 260 5.0657122e-39
2151.3142 -765.86682 260 4.5136146e-39
2131.5088 -763.08337 250 4.1451922e-39
2166.9443 -798.35834 260 3.5931016e-39
3654.4883 1163.7103 350 2.1212282e-39
3694.0989 1158.1434 350 1.9371956e-39
3712.5125 1145.4573 350 1.8446357e-39
3709.729 1125.652 350 1.9364698e-39
3718.24 1114.3575 350 1.8442769e-39
3714.0649 1084.6495 350 1.7524386e-39
3691.4761 1067.6276 350 2.2130553e-39
3698.5952 1046.4305 350 5.2540649e-39
3684.5173 1018.1141 350 1.2717916e-38
3681.7339 998.30884 350 1.7516042e-38
3647.8506 972.776 350 1.9357063e-38
3645.0671 952.97064 350 1.9541107e-38
3642.2837 933.16528 350 1.80631e-38
3639.5002 913.35992 350 1.0044987e-38
3689.0137 906.40125 350 7.6475289e-39
3718.7217 902.22607 350 7.8322775e-39
3747.0381 888.14819 360 7.924113e-39
3755.5491 876.85376 360 9.3038076e-39
3762.6682 855.65668 360 1.705217e-38
3759.8848 835.85132 360 1.1631797e-38
3778.2983 823.16516 360 6.0050039e-39
3806.6147 809.08728 360 6.0957646e-39
3940.9165 830.60553 370 6.2794356e-39
4251.9141 887.88043 400 5.634062e-39
4384.8242 899.49597 410 6.0928836e-39
4541.8755 867.32562 420 7.3868888e-39
4411.9092 804.80493 410 1.8997677e-38
4221.1357 740.73193 400 2.0469515e-38
4123.6611 693.84143 390 2.3038075e-39
4109.583 665.52509 390 5.5327832e-39
4096.897 647.11151 390 6.9236153e-39
4092.7219 617.40344 390 4.0680886e-39
4099.8408 596.20636 390 6.3657724e-39
4097.0576 576.401 390 1.1612978e-38
4155.082 558.14795 390 1.3179223e-38
4203.2036 541.28662 400 1.4284488e-38
4179.2231 514.362 400 1.6949882e-38
4053.4324 481.54938 390 1.9626422e-38
3998.3521 448.89731 380 2.1383195e-38
3974.3713 421.97272 380 1.8434746e-38
3981.4905 400.77563 380 1.6684077e-38
3988.6099 379.57855 380 1.7513483e-38
4005.6318 356.98972 380 1.7325866e-38
4002.8481 337.18436 380 1.769319e-38
4152.7803 326.21109 400 1.9723992e-38
4077.8945 296.34247 390 2.0459421e-38
4104.8193 272.36191 390 2.1104777e-38
4143.0381 256.8923 400 2.1011509e-38
4179.8652 231.52002 400 2.1195895e-38
4247.7925 211.87523 400 2.0918595e-38
4616.9751 180.18657 430 1.8985723e-38
4683.5103 150.63908 440 1.8982125e-38
4781.1455 126.81911 450 1.7880109e-38
4796.7754 94.327599 450 1.5297206e-38
4792.6006 64.61956 450 1.2072538e-38
4809.6221 42.030739 450 1.5024583e-38
4845.0576 6.7557716 460 1.8804963e-38
4201.7046 -44.202736 400 2.3508013e-38
4179.1162 -61.224636 400 2.3509802e-38
4184.8433 -92.324409 400 2.350982e-38
4191.9629 -113.5215 400 2.1942835e-38
4167.9819 -140.44608 400 1.7785709e-38
4214.7119 -167.2101 410 1.686412e-38
3694.3662 -205.16133 360 1.9730193e-38
3642.0693 -218.00804 360 1.9820568e-38
3639.2859 -237.8134 360 1.7973784e-38
3646.405 -259.0105 360 1.2628259e-38
3653.5244 -280.20758 360 6.6359007e-39
3779.4758 -318.10544 370 9.2170112e-39
4537.9678 -525.68726 440 1.0968014e-38
4762.9458 -577.50238 460 1.262969e-38
4777.1841 -619.89661 460 1.3181062e-38
4792.8145 -652.38806 460 1.3274698e-38
4730.6147 -663.84308 450 1.4009383e-38
4706.6343 -690.76764 450 1.4195209e-38
4682.6533 -717.6922 450 1.39197e-38
4658.6729 -744.61682 450 1.4289556e-38
4614.8872 -768.75793 450 1.2810131e-38
4650.3228 -804.0329 450 8.8485874e-39
5580.4785 -1873.8973 540 7.000712e-39
5451.7437 -1855.8048 530 7.1861794e-39
5359.8364 -1863.0846 520 7.2780149e-39
4690.4688 -1668.0284 460 7.9230228e-39
4619.7578 -1668.189 460 7.370219e-39
4540.5366 -1657.0552 450 6.4497116e-39
4517.9478 -1674.077 450 4.3313785e-39
4484.0645 -1699.6099 450 1.5673215e-39
2528.8472 -738.1394 280 2.212328e-39
2497.7476 -743.86688 270 4.7916308e-39
2506.2583 -755.16132 280 6.449713e-39
2485.0615 -762.28052 270 7.4652929e-39
2483.6697 -772.18323 270 9.5857965e-39
2482.2778 -782.08588 270 1.0784704e-38
2470.9834 -790.59686 270 1.0969455e-38
2459.689 -799.10779 270 1.0967293e-38
2448.3945 -807.61871 270 1.5952362e-38
2315.3242 -748.5238 260 1.8166873e-38
2305.4214 -747.13208 260 1.2626473e-38
2294.127 -755.64301 260 9.8627562e-39
2301.2461 -776.84009 260 9.3088579e-39
2226.2 -735.99823 250 8.8489658e-39
2233.3193 -757.19531 250 8.9400782e-39
2223.4165 -755.80359 250 9.216298e-39
2212.1221 -764.31451 250 9.1259016e-39
2202.2192 -762.92279 250 1.013933e-38
2190.925 -771.43372 250 1.0322291e-38
2179.6306 -779.9447 250 1.0414848e-38
2169.728 -778.55298 250 1.0138979e-38
2141.4116 -764.4751 250 9.9510029e-39
2176.8472 -799.75006 250 8.9382888e-39
3664.3909 1162.3186 330 2.2141427e-39
3684.1963 1159.5352 330 2.120868e-39
3712.5125 1145.4573 330 2.119789e-39
3721.0234 1134.1628 330 2.0290325e-39
3718.24 1114.3575 330 1.9361152e-39
3704.1621 1086.0413 330 1.8449902e-39
3680.1816 1059.1167 330 2.1212198e-39
3687.3008 1037.9196 330 4.056958e-39
3674.6147 1019.506 330 9.1255359e-39
3661.9285 1001.0923 330 1.4840932e-38
3647.8506 972.776 330 1.7883749e-38
3645.0671 952.97064 330 1.8342201e-38
3642.2837 933.16528 330 1.7418811e-38
3639.5002 913.35992 330 1.9617823e-38
3679.1111 907.79297 330 1.6202265e-38
3718.7217 902.22607 330 1.1145908e-38
3747.0381 888.14819 340 9.7654977e-39
3755.5491 876.85376 340 1.3453286e-38
3762.6682 855.65668 340 1.631894e-38
3759.8848 835.85132 340 6.5535156e-39
3767.0039 814.65424 340 6.3712641e-39
3785.4177 801.96808 340 6.4613228e-39
3877.3252 809.24786 350 6.2787266e-39
4104.9263 847.94855 360 5.5411391e-39
4311.3301 879.53003 380 6.0943003e-39
4506.4399 902.60059 390 7.2024933e-39
4555.9531 895.64191 390 7.4808767e-39
4530.5811 858.81464 390 8.762608e-39
4297.4131 780.50323 380 2.0098266e-38
4199.9385 733.61273 370 1.4391168e-38
4123.6611 693.84143 360 2.488196e-39
4099.6807 666.91687 360 4.4275216e-39
4085.6025 638.60052 360 7.0168886e-39
4072.9165 620.18689 360 6.0963798e-39
4068.7412 590.47888 360 6.5523203e-39
4044.7607 563.55426 360 1.1244567e-38
4051.8799 542.35718 360 1.5656628e-38
4100.002 525.49585 360 2.043926e-38
4128.3179 511.41797 370 2.2190267e-38
4083.1404 477.37418 360 1.8688652e-38
4080.3569 457.56882 360 1.6936579e-38
4046.4736 432.03598 360 1.666504e-38
4042.2983 402.32794 360 1.0597793e-38
4039.5149 382.52255 360 8.4754889e-39
4036.7314 362.71719 360 1.1146245e-38
4012.751 335.79263 360 9.2130329e-39
4142.8774 327.60281 370 8.7545911e-39
4056.6975 289.22324 360 7.852061e-39
4063.8167 268.02615 370 1.1543478e-38
4102.0356 252.55655 370 1.9729405e-38
4138.8628 227.18427 370 2.1842336e-38
4216.6924 206.14775 380 2.0736013e-38
4636.7803 177.40311 410 1.9632182e-38
4703.3154 147.85562 410 1.9352719e-38
4771.2427 128.21083 420 1.8524032e-38
4776.9702 97.111061 420 1.5667425e-38
4762.8926 68.794746 420 1.1981063e-38
4798.3281 33.519787 420 1.5022425e-38
4845.0576 6.7557716 430 1.8896794e-38
4191.8018 -42.811005 380 2.3413649e-38
4179.1162 -61.224636 380 2.3508728e-38
4184.8433 -92.324409 380 2.3509823e-38
4191.9629 -113.5215 380 2.0833246e-38
4148.1768 -137.66263 380 1.9253248e-38
4165.1982 -160.25145 380 1.7231095e-38
3684.4636 -203.76959 340 2.0745073e-38
3642.0693 -218.00804 340 2.0186848e-38
3629.3833 -236.42166 340 1.7699714e-38
3646.405 -259.0105 340 1.2443151e-38
3653.5244 -280.20758 340 6.3582432e-39
3809.1838 -322.28064 350 8.4783686e-39
4518.1621 -522.90381 410 1.0784341e-38
4820.9697 -595.75543 430 1.2722243e-38
4796.9893 -622.68005 430 1.3088506e-38
4792.8145 -652.38806 430 1.3274694e-38
4740.5176 -665.2348 420 1.3642397e-38
4706.6343 -690.76764 420 1.3919348e-38
4682.6533 -717.6922 420 1.4471083e-38
4658.6729 -744.61682 420 1.4286686e-38
4604.9844 -767.36621 420 1.2535701e-38
4650.3228 -804.0329 420 9.307416e-39
5489.9629 -1871.2744 490 6.7273551e-39
5369.7388 -1864.4764 480 7.3695001e-39
5269.3203 -1860.4618 480 7.3705707e-39
4672.0547 -1655.3423 430 7.4631278e-39
4639.5635 -1670.9724 430 6.9099583e-39
4549.0479 -1668.3496 420 4.1459069e-39
4516.5562 -1683.9797 420 2.3949214e-39
4484.0645 -1699.6099 420 1.9346635e-39
2528.8472 -738.1394 260 2.304518e-39
2497.7476 -743.86688 260 4.7919909e-39
2504.8667 -765.06396 260 6.5415485e-39
2485.0615 -762.28052 260 7.0050378e-39
2483.6697 -772.18323 260 9.2184532e-39
2482.2778 -782.08588 260 1.1152769e-38
2470.9834 -790.59686 260 1.0876185e-38
2459.689 -799.10779 260 1.0692507e-38
2448.3945 -807.61871 260 1.4939285e-38
2316.7158 -738.62109 250 1.7887756e-38
2295.5186 -745.7403 250 1.2811584e-38
2275.7134 -742.95685 250 9.6780062e-39
2302.6379 -766.93744 250 9.2170182e-39
2234.7109 -747.2926 240 8.8486e-39
2243.2217 -758.58704 240 8.7571219e-39
2223.4165 -755.80359 240 9.3999718e-39
2212.1221 -764.31451 240 9.4014095e-39
2202.2192 -762.92279 240 1.0045344e-38
2190.925 -771.43372 240 1.0415919e-38
2179.6306 -779.9447 240 1.0507397e-38
2169.728 -778.55298 240 1.188422e-38
2159.8252 -777.16125 240 1.1694787e-38
2175.4556 -809.65271 240 1.105195e-38
3696.8823 1177.9489 310 2.3974619e-39
3684.1963 1159.5352 310 2.0290311e-39
3712.5125 1145.4573 310 2.1215897e-39
3709.729 1125.652 310 2.1215841e-39
3718.24 1114.3575 310 1.9368313e-39
3715.4565 1094.5521 310 1.8446329e-39
3701.3787 1066.2358 310 2.0286696e-39
3709.8896 1054.9414 310 3.5034283e-39
3695.8118 1026.6251 310 8.1103091e-39
3693.0283 1006.8198 310 1.2811907e-38
3669.0479 979.8952 310 1.6222429e-38
3656.3616 961.48157 310 1.6775242e-38
3663.481 940.28448 310 1.6040191e-38
3660.6973 920.47913 310 1.5585342e-38
3690.4055 916.30389 310 1.0978808e-38
3728.6245 900.83435 310 5.3523702e-39
3758.3325 896.65912 320 4.0584014e-39
3765.4517 875.46204 320 2.9527741e-39
3762.6682 855.65668 320 2.6751082e-39
3759.8848 835.85132 320 3.3197559e-39
3778.2983 823.16516 320 5.1575491e-39
3806.6147 809.08728 320 5.0653506e-39
3908.425 814.97534 330 5.1607847e-39
4083.7292 840.82935 340 4.97855e-39
4301.4277 880.92175 350 5.255497e-39
4413.1406 885.41809 360 9.4049926e-39
4451.3594 869.94849 360 1.78776e-38
4447.1846 840.24042 360 1.9365677e-38
4276.2158 773.38403 350 1.6792876e-38
4199.9385 733.61273 350 7.7444637e-39
4123.6611 693.84143 340 6.2581247e-39
4109.583 665.52509 340 6.9974778e-39
4085.6025 638.60052 340 7.1908471e-39
4072.9165 620.18689 340 7.0093342e-39
4068.7412 590.47888 340 7.097218e-39
4054.6633 562.16254 340 7.651112e-39
4061.7827 540.96545 340 7.5628723e-39
4121.1987 532.61505 340 8.3933322e-39
4128.3179 511.41797 340 8.4887662e-39
4094.4348 485.88513 340 8.760677e-39
4070.4541 458.96054 340 8.1102853e-39
4025.2766 424.91675 340 7.4609684e-39
4012.5903 406.50311 340 6.7226887e-39
4029.6123 383.91431 340 7.0911027e-39
4046.6343 361.32547 340 7.7343141e-39
4032.5564 333.00916 340 7.8261468e-39
4101.875 323.26706 340 7.6431933e-39
4036.8921 292.00671 340 7.4580874e-39
4034.1086 272.20135 340 7.9190655e-39
4080.8386 245.43735 340 9.3178052e-39
4109.1548 231.35947 340 1.6966061e-38
4237.8896 213.26697 350 1.9631817e-38
4558.9507 198.43964 370 1.8986451e-38
4616.9751 180.18657 380 1.8986797e-38
4673.6074 152.03082 380 1.8522594e-38
4740.1431 122.48335 390 1.751384e-38
4745.8701 91.383575 390 1.4930584e-38
4741.6953 61.675529 390 1.2164376e-38
4778.5225 36.303246 390 1.6222036e-38
4876.1577 12.483261 400 2.1199873e-38
4201.7046 -44.202736 350 2.3508728e-38
4179.1162 -61.224636 350 2.3509823e-38
4174.9404 -90.932678 350 2.3509817e-38
4172.1572 -110.73804 350 2.3500406e-38
4067.5635 -136.43146 350 2.3129006e-38
3954.4587 -150.83047 340 1.8155945e-38
3841.3542 -165.22948 330 1.9909543e-38
3677.3442 -182.57251 320 2.3509511e-38
3674.5608 -202.37787 320 2.156618e-38
3651.9719 -219.39977 320 1.9174134e-38
3629.3833 -236.42166 320 1.7607872e-38
3626.5999 -256.22705 320 1.2626819e-38
3653.5244 -280.20758 320 6.9106954e-39
3828.989 -325.06409 330 8.387259e-39
4557.7729 -528.4707 380 1.0322653e-38
4782.751 -580.28583 400 1.2626094e-38
4777.1841 -619.89661 400 1.2721165e-38
4792.8145 -652.38806 400 1.3365816e-38
4730.6147 -663.84308 390 1.3733518e-38
4696.7314 -689.37592 390 1.3458726e-38
4682.6533 -717.6922 390 1.3827863e-38
4668.5762 -746.00854 390 1.4470719e-38
4604.9844 -767.36621 390 1.2627173e-38
4630.5176 -801.24945 390 8.9386307e-39
5528.1816 -1886.744 460 6.7262873e-39
5436.2744 -1894.0238 450 7.0936321e-39
4672.0547 -1655.3423 400 7.7386371e-39
4638.1719 -1680.8751 400 5.5299133e-39
4549.0479 -1668.3496 390 3.3197475e-39
4526.459 -1685.3715 390 2.5807476e-39
4493.9673 -1701.0016 390 2.6697104e-39
2518.9446 -736.74768 250 3.4069069e-39
2497.7476 -743.86688 250 5.1593273e-39
2506.2583 -755.16132 250 6.4500717e-39
2494.9641 -763.67224 250 7.1883528e-39
2483.6697 -772.18323 250 9.1266191e-39
2482.2778 -782.08588 250 1.106236e-38
2470.9834 -790.59686 250 1.0967302e-38
2459.689 -799.10779 250 1.078578e-38
2448.3945 -807.61871 250 1.4477575e-38
2315.3242 -748.5238 240 1.7333866e-38
2305.4214 -747.13208 240 1.2903781e-38
2294.127 -755.64301 240 1.032085e-38
2301.2461 -776.84009 240 9.1244653e-39
2263.0273 -761.37048 230 8.3883464e-39
2243.2217 -758.58704 230 8.7556856e-39
2231.9275 -767.09796 230 9.1241037e-39
2222.0249 -765.70624 230 9.4939681e-39
2210.7305 -774.21722 230 1.0691067e-38
2190.925 -771.43372 230 1.0599602e-38
2179.6306 -779.9447 230 1.0878346e-38
2179.6306 -779.9447 230 1.2354202e-38
2168.3362 -788.45563 230 1.2538959e-38
2175.4556 -809.65271 230 1.189071e-38
3729.3738 1193.579 290 2.3974619e-39
3682.8044 1149.6324 290 2.1208652e-39
3701.218 1136.9464 290 2.1212268e-39
3709.729 1125.652 290 2.2141399e-39
3718.24 1114.3575 290 1.8450028e-39
3725.3594 1093.1604 290 2.1197862e-39
3712.6731 1074.7468 290 2.0286654e-39
3719.7922 1053.5497 290 4.2388284e-39
3707.1062 1035.1361 290 1.0684585e-38
3702.9309 1005.4281 290 9.3077789e-39
3678.9504 978.50348 290 1.2445634e-38
3656.3616 961.48157 290 1.4198449e-38
3663.481 940.28448 290 8.6685402e-39
3650.7947 921.87085 290 5.2583753e-39
3679.1111 907.79297 290 3.0453327e-39
3697.5247 895.10681 290 2.3052509e-39
3737.1353 889.53992 290 1.8449916e-39
3755.5491 876.85376 300 1.5691208e-39
3762.6682 855.65668 300 1.6602458e-39
3759.8848 835.85132 300 2.4874757e-39
3778.2983 823.16516 300 4.8805852e-39
3839.1062 824.71747 300 6.0762431e-39
3972.0164 836.33301 310 6.3513951e-39
4083.7292 840.82935 310 6.3521112e-39
4300.0361 871.0191 330 6.1677185e-39
4380.6494 869.7879 330 5.984409e-39
4418.8682 854.3183 330 6.3531874e-39
4373.6904 820.27454 330 5.8943658e-39
4255.0186 766.26477 320 6.170594e-39
4199.9385 733.61273 320 5.8936525e-39
4123.6611 693.84143 320 5.5266693e-39
4109.583 665.52509 320 5.802889e-39
4096.897 647.11151 320 6.2627854e-39
4082.8191 618.79517 320 6.171673e-39
4078.644 589.08716 320 6.8148802e-39
4054.6633 562.16254 310 6.8152361e-39
4063.1743 550.86816 320 6.9074317e-39
4131.1016 531.22333 320 6.9070744e-39
4148.123 508.63452 320 7.1825851e-39
4094.4348 485.88513 320 7.5502844e-39
4080.3569 457.56882 320 7.8254336e-39
4035.1792 423.52502 310 8.1005799e-39
4022.4932 405.11139 310 8.0083857e-39
4029.6123 383.91431 310 8.3764409e-39
4046.6343 361.32547 320 8.6498006e-39
4032.5564 333.00916 320 9.1104144e-39
4080.678 316.14783 320 9.4784711e-39
4026.9893 293.39844 320 1.2245053e-38
4032.7168 262.29868 320 1.3352121e-38
4061.0332 248.22079 320 6.910694e-39
4068.1523 227.02371 320 6.9131925e-39
4558.9507 198.43964 350 9.2245432e-39
4607.0723 181.57829 350 1.6131643e-38
4663.7051 153.42255 350 2.3035114e-38
4720.3379 125.2668 360 2.2757107e-38
4726.0654 94.16703 360 1.4747645e-38
4711.9873 65.850723 360 1.1614437e-38
4727.6172 33.359219 360 1.7327655e-38
4845.0576 6.7557716 360 2.1752678e-38
4201.7046 -44.202736 330 2.3509807e-38
4167.8213 -69.735588 330 2.350982e-38
4155.1353 -88.149216 330 2.3509814e-38
4131.1548 -115.0738 320 2.3509034e-38
4018.05 -129.47281 320 2.3503552e-38
3924.7507 -146.65527 310 1.7784996e-38
3841.3542 -165.22948 310 1.7150136e-38
3687.2471 -183.96423 300 2.3509867e-38
3674.5608 -202.37787 300 2.0376998e-38
3642.0693 -218.00804 300 1.8804271e-38
3619.4805 -235.02994 300 1.7696837e-38
3606.7944 -253.44357 300 1.2627179e-38
3623.8164 -276.03241 300 7.1890689e-39
3838.8918 -326.45581 310 9.493238e-39
4472.8242 -486.23706 350 1.0045706e-38
4567.6758 -529.86243 350 1.0783626e-38
4762.9458 -577.50238 360 1.2994157e-38
4777.1841 -619.89661 370 1.2903762e-38
4782.9116 -650.99634 370 1.3181775e-38
4739.126 -675.13745 360 1.3275057e-38
4716.5371 -692.15936 360 1.3549853e-38
4692.5566 -719.08392 360 1.3919343e-38
4678.4785 -747.40027 360 1.4010831e-38
4614.8872 -768.75793 360 1.1891769e-38
4630.5176 -801.24945 360 8.7549541e-39
5546.5952 -1899.4302 420 7.0939838e-39
5502.8096 -1923.5713 420 7.0025084e-39
4672.0547 -1655.3423 370 3.2275519e-39
4657.9771 -1683.6586 370 2.580386e-39
4568.853 -1671.1331 360 3.5934547e-39
4536.3613 -1686.7632 360 5.2511698e-39
4503.8701 -1702.3934 360 5.2529733e-39
2518.9446 -736.74768 240 5.6213929e-39
2497.7476 -743.86688 240 5.7135857e-39
2506.2583 -755.16132 240 6.5415457e-39
2494.9641 -763.67224 240 7.187634e-39
2483.6697 -772.18323 240 9.1262603e-39
2482.2778 -782.08588 240 1.1059143e-38
2470.9834 -790.59686 240 1.0967651e-38
2459.689 -799.10779 230 1.115168e-38
2448.3945 -807.61871 230 1.4571221e-38
2315.3242 -748.5238 230 1.7613321e-38
2305.4214 -747.13208 230 1.3181087e-38
2304.0298 -757.03473 230 9.7705591e-39
2311.1489 -778.23181 230 9.0337046e-39
2291.3435 -775.44836 230 8.6638543e-39
2271.5381 -772.66492 220 8.4801763e-39
2251.7329 -769.88147 220 8.6660095e-39
2230.5356 -777.00067 220 9.2152246e-39
2220.6331 -775.60895 220 9.7719913e-39
2200.8276 -772.8255 220 9.8645484e-39
2189.5332 -781.33643 220 7.3788832e-39
2169.728 -778.55298 220 5.441703e-39
2159.8252 -777.16125 220 6.4515263e-39
2166.9443 -798.35834 220 7.191964e-39
3739.2766 1192.1873 270 2.2134294e-39
3684.1963 1159.5352 270 2.2137811e-39
3702.6099 1146.849 270 2.3974507e-39
3709.729 1125.652 270 2.6740432e-39
3718.24 1114.3575 270 2.2137909e-39
3715.4565 1094.5521 270 1.9361152e-39
3701.3787 1066.2358 270 2.2130567e-39
3708.4978 1045.0388 270 3.8722052e-39
3695.8118 1026.6251 270 1.5023509e-38
3702.9309 1005.4281 270 1.95375e-38
3680.3423 988.40613 270 8.0199436e-39
3676.167 958.69812 270 5.6278739e-39
3684.678 947.40369 270 3.414834e-39
3671.9917 928.99005 270 1.9379075e-39
3700.3081 914.91217 270 1.4751315e-39
3708.8191 903.6178 270 1.2911004e-39
3737.1353 889.53992 270 3.405109e-39
3744.2546 868.34283 270 3.8646494e-39
3773.9626 864.1676 280 1.6591556e-39
3790.9846 841.5788 280 3.0395649e-39
3809.3982 828.89264 280 6.9049234e-39
3912.6001 844.68341 280 8.3793346e-39
4003.116 842.06049 290 8.3814884e-39
4083.7292 840.82935 290 9.3012769e-39
4218.0312 862.3476 300 9.0275725e-39
4266.1523 845.48621 300 9.3959893e-39
4261.9775 815.7782 300 9.947368e-39
4259.1943 795.97284 300 9.7647704e-39
4204.1138 763.32074 300 1.0226107e-38
4180.1328 736.39618 300 1.0594168e-38
4123.6611 693.84143 290 1.0778924e-38
4110.9746 675.4278 290 1.2069288e-38
4096.897 647.11151 290 1.5477627e-38
4082.8191 618.79517 290 1.658686e-38
4068.7412 590.47888 290 1.7046747e-38
4044.7607 563.55426 290 1.7049617e-38
4051.8799 542.35718 290 1.6771956e-38
4121.1987 532.61505 290 1.6681556e-38
4148.123 508.63452 300 1.7785021e-38
4094.4348 485.88513 290 1.7416971e-38
4090.2595 456.17709 290 1.7694266e-38
4035.1792 423.52502 290 1.7048192e-38
4042.2983 402.32794 290 1.7509875e-38
4049.4177 381.13083 290 1.7234016e-38
4077.7339 367.05295 290 1.7784665e-38
4043.8508 341.52011 290 1.7600644e-38
4070.7754 317.53955 290 1.7234018e-38
4026.9893 293.39844 290 1.6683382e-38
4022.8142 263.6904 290 1.4381771e-38
4051.1306 249.61252 290 9.0326312e-39
4056.8579 218.51276 290 6.53795e-39
4539.1455 201.22308 320 4.7026652e-39
4607.0723 181.57829 320 6.820285e-39
4673.6074 152.03082 320 7.3705805e-39
4720.3379 125.2668 330 7.2783821e-39
4726.0654 94.16703 330 6.8217255e-39
4711.9873 65.850723 330 9.5872175e-39
4717.7148 34.75095 330 1.6868845e-38
4815.3496 10.930962 330 2.1387499e-38
4191.8018 -42.811005 300 2.3509807e-38
4157.9189 -68.343857 300 2.3509813e-38
4125.4272 -83.97403 300 2.3509799e-38
4091.5439 -109.50687 300 2.3506848e-38
3977.0476 -133.80856 290 2.1748629e-38
3913.4563 -155.16623 290 1.6222371e-38
3841.3542 -165.22948 290 1.5398779e-38
3697.1497 -185.35597 280 2.093376e-38
3664.6582 -200.98613 280 1.9823823e-38
3632.1667 -216.6163 280 1.8251457e-38
3619.4805 -235.02994 280 1.7329504e-38
3596.8916 -252.05183 270 1.2443139e-38
4532.2402 -494.58746 320 8.9411544e-39
4577.5781 -531.25415 320 1.1061287e-38
4772.8486 -578.8941 330 1.2077244e-38
4787.0869 -621.28833 340 1.2720445e-38
4792.8145 -652.38806 340 1.3272543e-38
4739.126 -675.13745 330 1.3458723e-38
4716.5371 -692.15936 330 1.4100496e-38
4692.5566 -719.08392 330 1.3735668e-38
4668.5762 -746.00854 330 1.4011173e-38
4604.9844 -767.36621 330 1.2074007e-38
4610.7119 -798.46594 330 8.3868946e-39
5597.6611 -1967.1967 380 5.5299077e-39
4680.5659 -1666.6367 340 3.8700346e-39
4667.8799 -1685.0503 340 5.2515271e-39
4577.3638 -1682.4275 330 5.3440815e-39
4554.7754 -1699.4493 330 5.1614881e-39
4512.3809 -1713.6877 330 5.5288357e-39
2518.9446 -736.74768 220 5.7128654e-39
2497.7476 -743.86688 220 5.7132298e-39
2506.2583 -755.16132 220 6.540824e-39
2494.9641 -763.67224 220 7.2801911e-39
2483.6697 -772.18323 220 9.2184532e-39
2482.2778 -782.08588 220 1.1061648e-38
2470.9834 -790.59686 220 1.0601748e-38
2459.689 -799.10779 220 1.0966944e-38
2448.3945 -807.61871 220 1.5672165e-38
2371.9565 -776.6795 220 1.8809705e-38
2305.4214 -747.13208 210 1.3825031e-38
2312.5405 -768.32916 210 9.861673e-39
2321.0515 -779.62354 220 9.3081419e-39
2309.7573 -788.13452 210 8.3879806e-39
2289.9517 -785.35107 210 6.3604097e-39
2270.1465 -782.56757 210 3.5941848e-39
2240.4385 -778.3924 210 3.5927415e-39
2229.144 -786.90332 210 3.9615198e-39
2219.2412 -785.5116 210 3.5959855e-39
2198.0442 -792.63086 210 3.2290036e-39
2178.2388 -789.84735 210 3.0413768e-39
2168.3362 -788.45563 210 2.7633508e-39
2175.4556 -809.65271 210 2.119059e-39
3675.6853 1170.8296 250 2.3974549e-39
3661.6074 1142.5133 250 2.2137853e-39
3681.4128 1139.7299 250 2.4896491e-39
3709.729 1125.652 250 2.6754922e-39
3728.1428 1112.9658 250 2.2148699e-39
3725.3594 1093.1604 250 2.1212198e-39
3711.2815 1064.8441 250 2.2137755e-39
3709.8896 1054.9414 250 4.8823999e-39
3695.8118 1026.6251 250 1.6120494e-38
3693.0283 1006.8198 250 1.7786516e-38
3690.2449 987.0144 250 5.8162504e-39
3677.5588 968.60077 250 2.3070487e-39
3663.481 940.28448 250 1.6595199e-39
3650.7947 921.87085 250 1.475486e-39
3636.7168 893.5545 250 1.4751329e-39
3665.0332 879.47668 250 4.2398933e-39
3706.0356 883.81244 250 1.0131758e-38
3724.4492 871.12628 250 9.3949159e-39
3772.5708 854.26495 250 3.9618897e-39
3790.9846 841.5788 260 5.2504425e-39
3778.2983 823.16516 250 1.2341912e-38
3827.8118 816.20654 260 1.3909953e-38
3919.7195 823.48633 260 1.4278734e-38
3990.4299 823.64685 260 1.4741146e-38
4007.4517 801.05804 260 1.492625e-38
4056.9651 794.09943 270 1.5570542e-38
4052.79 764.39136 270 1.5847489e-38
4144.6973 771.67114 270 1.5939689e-38
4151.8169 750.47406 270 1.6124796e-38
4158.936 729.27698 270 1.6309545e-38
4113.7583 695.23315 270 1.6863435e-38
4109.583 665.52509 270 1.6312064e-38
4096.897 647.11151 270 1.5666692e-38
4082.8191 618.79517 270 1.6403893e-38
4068.7412 590.47888 270 1.6863074e-38
4034.8582 564.94598 270 1.6863433e-38
4041.9773 543.7489 270 1.6773756e-38
4080.1963 528.2793 270 1.7048905e-38
4107.1211 504.29877 270 1.7693543e-38
4104.3374 484.49341 270 1.6592236e-38
4101.5537 464.68805 270 1.7601e-38
4056.3762 430.64423 270 1.7876509e-38
4084.6926 416.56638 270 1.7692467e-38
4101.7148 393.97754 270 1.7508082e-38
4128.6392 369.99698 270 1.7235088e-38
4053.7534 340.12839 270 1.7509164e-38
4070.7754 317.53955 270 1.7141103e-38
4036.8921 292.00671 270 1.6776644e-38
4022.8142 263.6904 270 1.4659059e-38
4039.8362 241.10156 270 9.7694717e-39
4046.9553 219.90448 270 8.3861589e-39
4498.1426 196.88733 290 8.2921682e-39
4605.6807 171.67561 290 7.3684197e-39
4663.7051 153.42255 300 4.7891099e-39
4710.4346 126.65854 300 4.0569412e-39
4716.1621 95.558762 300 7.3705777e-39
4711.9873 65.850723 300 1.1149863e-38
4697.9092 37.534409 300 1.7510612e-38
4794.1523 3.8117447 300 2.1203102e-38
4266.6875 -12.942396 280 2.2861181e-38
4181.8994 -41.419273 280 2.3509802e-38
4148.0161 -66.952126 280 2.3506909e-38
4125.4272 -83.97403 270 2.2492422e-38
4061.8359 -105.33169 270 2.0923948e-38
3967.145 -132.41684 270 2.0088747e-38
3873.8457 -149.5993 260 1.6775914e-38
3810.2544 -170.95695 260 1.6313922e-38
3677.3442 -182.57251 260 1.9543607e-38
3644.8528 -198.20268 260 2.2121139e-38
4559.0039 -447.85751 290 1.0232978e-38
4536.415 -464.87943 290 9.1237562e-39
4581.7534 -501.54611 300 8.7535304e-39
4587.481 -532.64587 300 1.0600676e-38
4762.9458 -577.50238 300 1.2444584e-38
4787.0869 -621.28833 300 1.2721168e-38
4782.9116 -650.99634 310 1.2813355e-38
4749.0283 -676.52917 300 1.3089584e-38
4716.5371 -692.15936 300 1.3551632e-38
4702.459 -720.47571 300 1.3366535e-38
4688.3809 -748.79199 300 1.4376374e-38
4614.8872 -768.75793 300 1.2167627e-38
4610.7119 -798.46594 300 8.6627598e-39
4643.7383 -1641.2644 310 5.6206656e-39
4648.0742 -1682.2668 310 5.6213887e-39
4568.853 -1671.1331 300 5.5284756e-39
4536.3613 -1686.7632 300 5.6213859e-39
4493.9673 -1701.0016 300 5.7121508e-39
2518.9446 -736.74768 210 5.7128682e-39
2497.7476 -743.86688 210 5.8961847e-39
2506.2583 -755.16132 210 6.3575146e-39
2494.9641 -763.67224 210 6.8202962e-39
2483.6697 -772.18323 210 9.5861525e-39
2472.3752 -780.69415 210 1.1061288e-38
2470.9834 -790.59686 210 1.0785426e-38
2459.689 -799.10779 210 1.0324811e-38
2448.3945 -807.61871 210 1.4845992e-38
2390.3704 -789.36566 210 1.8165427e-38
2305.4214 -747.13208 200 1.354916e-38
2304.0298 -757.03473 200 9.7709207e-39
2301.2461 -776.84009 200 9.3088579e-39
2299.8545 -786.7428 200 8.9400768e-39
2280.0491 -783.95929 200 6.5440764e-39
2268.7549 -792.47028 200 3.5019892e-39
2268.7549 -792.47028 200 2.764064e-39
2239.0466 -788.2951 200 1.9353824e-39
2227.7522 -796.80603 200 2.0268619e-39
2217.8496 -795.41431 200 2.120138e-39
2178.2388 -789.84735 200 5.2547754e-39
2168.3362 -788.45563 200 7.0054203e-39
2175.4556 -809.65271 200 5.8972777e-39
3631.8994 1146.6885 230 2.3052621e-39
3661.6074 1142.5133 230 2.3985311e-39
3680.021 1129.8271 230 2.5822091e-39
3698.4346 1117.141 230 3.1368262e-39
3697.043 1107.2383 230 2.3067152e-39
3715.4565 1094.5521 230 2.12194e-39
3701.3787 1066.2358 230 2.2137755e-39
3709.8896 1054.9414 230 3.8714836e-39
3695.8118 1026.6251 230 8.8464308e-39
3683.1257 1008.2115 230 1.5204671e-38
3669.0479 979.8952 230 2.2573815e-38
3654.97 951.57892 230 2.0449391e-38
3632.3811 934.55701 230 7.5517474e-39
3587.2034 900.51318 230 1.8428364e-39
3626.8142 894.94629 230 1.7509967e-39
3739.9189 909.34528 230 2.6722285e-39
3758.3325 896.65912 230 5.069647e-39
3786.6487 882.58124 230 6.6362553e-39
3795.1597 871.28687 230 3.8725668e-39
3823.4761 857.20898 240 7.0939866e-39
3778.2983 823.16516 230 1.3270697e-38
3806.6147 809.08728 230 1.4099012e-38
3877.3252 809.24786 240 1.3732393e-38
3926.8386 802.28918 240 1.4835494e-38
3976.3521 795.33057 240 1.4559272e-38
4024.4736 778.46924 240 1.4654346e-38
4001.8848 761.44733 240 1.5206077e-38
4050.0066 744.586 240 1.5481938e-38
4109.4229 736.2356 250 1.5759239e-38
4126.4443 713.64679 250 1.6126238e-38
4102.4639 686.72223 250 1.5945791e-38
4099.6807 666.91687 250 1.5114597e-38
4095.5054 637.2088 250 1.5111011e-38
4082.8191 618.79517 240 1.6585053e-38
4080.0356 598.98981 250 1.6678686e-38
4056.0552 572.06525 240 1.6590436e-38
4082.9797 548.08466 250 1.7413378e-38
4162.2012 536.95081 250 1.8798804e-38
4190.5176 522.87299 250 1.8889208e-38
4094.4348 485.88513 250 1.9257623e-38
4029.4517 454.62479 240 1.925871e-38
4015.3738 426.30847 240 1.8523308e-38
4022.4932 405.11139 240 1.7878658e-38
4070.6147 388.25006 250 1.7233653e-38
4118.7363 371.38873 250 1.7326202e-38
4063.656 338.73666 250 1.7140739e-38
4070.7754 317.53955 250 1.658901e-38
4036.8921 292.00671 250 1.6681581e-38
4022.8142 263.6904 240 1.4654034e-38
4039.8362 241.10156 250 9.5854392e-39
4037.0527 221.29622 250 8.9393355e-39
4124.7852 198.86795 250 8.5719907e-39
4591.6025 143.3593 260 7.096153e-39
4649.627 125.10623 270 5.9905215e-39
4665.2573 92.614738 270 1.1149134e-38
4682.2793 70.025909 270 1.4099034e-38
4668.2012 41.709602 270 1.7605328e-38
4825.2524 9.5392342 270 2.1293862e-38
4215.7822 -15.886425 250 2.2581373e-38
4171.9966 -40.027546 250 2.2864065e-38
4128.2109 -64.168671 250 2.3228534e-38
4114.1328 -92.484978 250 2.1570089e-38
4001.0283 -106.88398 250 1.7976583e-38
3927.5342 -126.84991 240 1.6773704e-38
3844.1377 -145.4241 240 1.6959238e-38
3790.449 -168.17349 240 1.7239444e-38
3667.4417 -181.18077 230 2.0736385e-38
3634.9502 -196.81094 230 2.3508365e-38
3592.5559 -211.04938 230 1.9634026e-38
4585.9287 -471.83807 270 8.6649319e-39
4670.8779 -514.07166 270 8.1117609e-39
4656.7998 -542.388 270 1.004857e-38
4772.8486 -578.8941 270 1.1982165e-38
4787.0869 -621.28833 270 1.2718649e-38
4773.0088 -649.60461 270 1.3087784e-38
4740.5176 -665.2348 270 1.3365447e-38
4706.6343 -690.76764 270 1.3824631e-38
4692.5566 -719.08392 270 1.3734582e-38
4678.4785 -747.40027 270 1.3183577e-38
4604.9844 -767.36621 270 1.1889963e-38
4590.9067 -795.6825 270 8.2014286e-39
5570.7363 -1943.2162 310 5.9890866e-39
4623.9336 -1638.481 270 5.6203111e-39
4639.5635 -1670.9724 270 5.159693e-39
4568.853 -1671.1331 270 4.9756633e-39
4536.3613 -1686.7632 270 5.3444416e-39
4503.8701 -1702.3934 270 5.4373603e-39
2518.9446 -736.74768 200 5.620674e-39
2497.7476 -743.86688 200 5.7135857e-39
2504.8667 -765.06396 200 6.2667553e-39
2494.9641 -763.67224 200 7.0043189e-39
2483.6697 -772.18323 200 9.218086e-39
2472.3752 -780.69415 200 1.0784705e-38
2470.9834 -790.59686 200 1.0968011e-38
2469.5918 -800.49951 200 1.0691428e-38
2458.2974 -809.01044 200 1.5032907e-38
2447.0029 -817.52142 200 1.8261221e-38
2425.8059 -824.64062 200 1.4193095e-38
2458.458 -879.72095 200 8.7582023e-39
2428.75 -875.54578 200 6.7277488e-39
2268.7549 -792.47028 190 4.2377578e-39
2277.2656 -803.76471 190 4.3285059e-39
2257.4604 -800.9812 190 5.4298087e-39
2227.7522 -796.80603 190 1.0484002e-38
2217.8496 -795.41431 190 1.6744282e-38
2178.2388 -789.84735 190 2.1365208e-38
2168.3362 -788.45563 190 2.3509128e-38
2176.8472 -799.75006 190 2.3509886e-38
3621.9966 1148.0802 210 2.5814888e-39
3640.4104 1135.394 210 2.5822119e-39
3658.824 1122.7079 210 3.3204902e-39
3678.6294 1119.9244 210 3.5970897e-39
3697.043 1107.2383 210 2.4907366e-39
3704.1621 1086.0413 210 2.3052537e-39
3691.4761 1067.6276 210 2.2141385e-39
3687.3008 1037.9196 210 4.792714e-39
3653.4175 1012.3867 210 1.059634e-38
3650.634 992.58136 210 1.8153834e-38
3626.6536 965.65674 210 2.2953029e-38
3612.5757 937.34045 210 2.1668072e-38
3589.9868 920.31854 210 1.7609682e-38
3575.9089 892.00226 210 7.7419036e-39
3573.1255 872.1969 210 1.6598787e-39
3591.5393 859.51074 210 4.9735011e-39
3737.1353 889.53992 210 9.5706779e-39
3840.3374 905.33063 210 5.4294458e-39
3847.4565 884.13354 210 4.1437545e-39
3844.6731 864.32819 210 9.1125738e-39
3757.1013 816.04596 210 1.1231985e-38
3764.2205 794.84888 210 9.2912142e-39
3825.0283 796.40118 210 4.3263395e-39
3948.0356 809.40845 220 2.4885519e-39
4059.7485 813.90479 220 2.1201337e-39
4119.165 805.55438 220 1.9364586e-39
4032.9846 767.1748 220 1.8446245e-39
4059.9092 743.19427 220 1.7520687e-39
4099.52 737.62732 220 1.752789e-39
4106.6392 716.43024 220 1.7524302e-39
4102.4639 686.72223 220 2.0279381e-39
4099.6807 666.91687 220 6.0812738e-39
4085.6025 638.60052 220 1.4280522e-38
4082.8191 618.79517 220 1.640317e-38
4089.9385 597.59808 220 1.6403534e-38
4056.0552 572.06525 220 1.6311344e-38
4082.9797 548.08466 220 1.5390109e-38
4152.2988 538.34259 220 1.2721128e-38
4190.5176 522.87299 220 1.4285575e-38
4083.1404 477.37418 220 1.5111385e-38
4008.2546 447.50558 220 1.4929511e-38
4005.4712 427.7002 220 1.3730609e-38
4022.4932 405.11139 220 1.4008624e-38
4080.5173 386.85834 220 1.6496101e-38
4118.7363 371.38873 220 1.6402819e-38
4063.656 338.73666 220 1.7050338e-38
4070.7754 317.53955 220 1.6771956e-38
4046.7947 290.61499 220 1.520862e-38
4032.7168 262.29868 220 1.2449606e-38
4051.1306 249.61252 220 9.7716185e-39
4037.0527 221.29622 220 8.7560261e-39
4104.9795 201.65141 220 8.664185e-39
4253.5195 180.77547 230 8.8467784e-39
4270.542 158.18663 230 8.9389712e-39
4287.5635 135.59781 230 7.1887032e-39
4594.5469 92.45417 240 1.0413737e-38
4621.4717 68.473618 240 1.290625e-38
4586.1963 33.038086 240 1.6777004e-38
4683.8315 9.2180977 240 2.0187875e-38
4195.9775 -13.102963 230 2.2305136e-38
4171.9966 -40.027546 230 2.3045581e-38
4128.2109 -64.168671 220 2.3043421e-38
4074.5222 -86.91806 220 1.7885528e-38
3960.0256 -111.21974 220 1.0602118e-38
3907.7288 -124.06645 220 1.0231518e-38
3804.5269 -139.85718 220 1.4659402e-38
3750.8384 -162.60658 220 1.714474e-38
3667.4417 -181.18077 210 1.9264503e-38
3625.0474 -195.41922 210 2.3044862e-38
3592.5559 -211.04938 210 1.834328e-38
3589.7725 -230.85475 210 1.6315716e-38
4556.2207 -467.66287 240 8.0249546e-39
4631.2666 -508.50476 240 8.5741684e-39
4617.189 -536.82104 240 9.4943226e-39
4772.8486 -578.8941 240 1.124747e-38
4816.7949 -625.4635 240 1.244134e-38
4782.9116 -650.99634 240 1.2536773e-38
4749.0283 -676.52917 240 1.2811923e-38
4716.5371 -692.15936 240 1.3089588e-38
4692.5566 -719.08392 240 1.2906993e-38
4688.3809 -748.79199 240 1.3548402e-38
4614.8872 -768.75793 240 1.1980006e-38
4610.7119 -798.46594 240 8.1095833e-39
4662.1523 -1653.9506 240 5.6203097e-39
4657.9771 -1683.6586 240 4.9760207e-39
4587.2666 -1683.8192 240 4.6990834e-39
4554.7754 -1699.4493 240 5.2522488e-39
4512.3809 -1713.6877 240 5.1611308e-39
2518.9446 -736.74768 190 5.4377233e-39
2507.6504 -745.25861 190 5.7139458e-39
2504.8667 -765.06396 190 6.1738492e-39
2494.9641 -763.67224 190 6.8199361e-39
2483.6697 -772.18323 190 9.3102816e-39
2482.2778 -782.08588 190 1.0875825e-38
2470.9834 -790.59686 190 1.0599953e-38
2469.5918 -800.49951 190 1.0876535e-38
2458.2974 -809.01044 180 1.4479012e-38
2447.0029 -817.52142 180 1.7983906e-38
2275.7134 -742.95685 180 1.8787346e-38
2282.8325 -764.15393 180 2.2938299e-38
2291.3435 -775.44836 180 2.3414428e-38
2298.4629 -796.64545 180 2.2224189e-38
2278.6572 -793.862 180 2.1761051e-38
2287.1685 -805.15643 180 2.1207877e-38
2275.874 -813.66736 180 2.1483024e-38
2237.6548 -798.19775 180 2.2126965e-38
2217.8496 -795.41431 180 2.2222035e-38
2178.2388 -789.84735 180 2.222096e-38
2168.3362 -788.45563 180 2.240499e-38
2176.8472 -799.75006 180 2.2774836e-38
3621.9966 1148.0802 190 2.7662458e-39
3661.6074 1142.5133 190 3.0439103e-39
3670.1184 1131.2189 190 4.059514e-39
3677.2375 1110.0217 190 4.060593e-39
3675.8459 1100.1191 190 2.8584345e-39
3682.9651 1078.922 190 2.3967361e-39
3668.8872 1050.6057 190 2.3978122e-39
3656.2012 1032.192 190 5.3458976e-39
3622.3179 1006.6592 190 1.4102268e-38
3618.1426 976.95117 190 1.8526582e-38
3595.5537 959.92926 190 1.3557762e-38
3592.7703 940.1239 190 1.0971249e-38
3589.9868 920.31854 190 1.1705566e-38
3597.1062 899.12146 190 3.7861417e-39
3615.5198 886.4353 190 1.751717e-39
3739.9189 909.34528 190 1.7513554e-39
3768.2351 895.2674 190 2.6733047e-39
3871.4373 911.05811 190 3.7792936e-39
3963.3447 918.33795 190 5.7085522e-39
3887.0674 878.56665 190 8.8381506e-39
3809.3982 828.89264 190 9.2098029e-39
3806.6147 809.08728 190 9.9437807e-39
3846.2253 803.52039 190 1.0496584e-38
3948.0356 809.40845 190 9.5760799e-39
4007.4517 801.05804 200 8.6551998e-39
4076.7705 791.31592 200 8.8385121e-39
4064.0845 772.90228 200 8.6537579e-39
4071.2036 751.7052 200 8.0058732e-39
4088.2256 729.11639 200 5.2425378e-39
4095.3447 707.91931 200 2.3027229e-39
4102.4639 686.72223 200 1.9346663e-39
4099.6807 666.91687 200 5.8961679e-39
4085.6025 638.60052 200 1.4187609e-38
4082.8191 618.79517 200 1.5667055e-38
4089.9385 597.59808 200 1.6037627e-38
4065.9578 570.67352 200 1.5943998e-38
4094.2742 556.59564 200 1.5941477e-38
4162.2012 536.95081 200 1.5205005e-38
4190.5176 522.87299 200 1.6124432e-38
4083.1404 477.37418 200 1.6583612e-38
4039.3545 453.23306 200 1.6123004e-38
4025.2766 424.91675 200 1.5755295e-38
4042.2983 402.32794 200 1.566597e-38
4101.7148 393.97754 200 1.6864155e-38
4128.6392 369.99698 200 1.7048185e-38
4063.656 338.73666 200 1.6680122e-38
4080.678 316.14783 200 1.6681917e-38
4046.7947 290.61499 200 1.5853275e-38
4034.1086 272.20135 200 1.2816244e-38
4051.1306 249.61252 200 9.8616548e-39
4037.0527 221.29622 200 9.3992319e-39
4104.9795 201.65141 200 8.8482147e-39
4233.7148 183.55891 200 8.7560219e-39
4230.9312 163.75356 200 8.847493e-39
4236.6582 132.65379 200 7.3730972e-39
4243.7778 111.4567 200 6.3592998e-39
4287.7241 64.887321 200 1.290408e-38
4364.1621 33.948112 200 1.6037289e-38
4188.8579 8.0941277 200 1.8804589e-38
4176.1719 -10.319502 200 2.0832524e-38
4162.0938 -38.635815 200 2.2579566e-38
4138.1133 -65.560394 200 2.2211145e-38
4084.4248 -88.309784 200 1.7972341e-38
3950.123 -109.82801 200 9.5883343e-39
3897.8262 -122.67472 200 9.5890363e-39
3773.427 -145.58469 190 1.5212221e-38
3721.1301 -158.43138 190 1.7605715e-38
3667.4417 -181.18077 190 1.9633282e-38
3625.0474 -195.41922 190 2.1936016e-38
3592.5559 -211.04938 190 1.8433305e-38
3579.8699 -229.46301 190 1.7052188e-38
4566.123 -469.0546 210 3.5019808e-39
4641.1694 -509.89648 210 5.6242725e-39
4636.9941 -539.60449 210 8.5752403e-39
4820.9697 -595.75543 210 1.0141851e-38
4846.5029 -629.63867 210 1.1799205e-38
4782.9116 -650.99634 210 1.2442067e-38
4749.0283 -676.52917 210 1.2906626e-38
4716.5371 -692.15936 210 1.2721528e-38
4692.5566 -719.08392 210 1.2997747e-38
4688.3809 -748.79199 210 1.3180699e-38
4614.8872 -768.75793 210 1.1520829e-38
4610.7119 -798.46594 210 8.2021446e-39
4710.2739 -1670.8119 210 5.620667e-39
4657.9771 -1683.6586 210 4.8845453e-39
4577.3638 -1682.4275 210 4.8849096e-39
4544.8721 -1698.0576 210 5.3448032e-39
4512.3809 -1713.6877 210 5.1614951e-39
2518.9446 -736.74768 170 5.5295546e-39
2507.6504 -745.25861 170 5.8054198e-39
2504.8667 -765.06396 170 6.3567971e-39
2503.4751 -774.96667 170 6.912489e-39
2483.6697 -772.18323 170 9.1244597e-39
2482.2778 -782.08588 170 1.0508479e-38
2470.9834 -790.59686 170 1.0507403e-38
2469.5918 -800.49951 170 1.0692864e-38
2458.2974 -809.01044 170 1.4567967e-38
2447.0029 -817.52142 170 1.7888468e-38
2445.6113 -827.42407 170 1.9358198e-38
2282.8325 -764.15393 170 2.2865602e-38
2291.3435 -775.44836 170 2.194653e-38
2289.9517 -785.35107 170 2.2221319e-38
2278.6572 -793.862 170 2.176249e-38
2295.6792 -816.45081 170 2.0475007e-38
2294.2876 -826.35352 170 2.0014391e-38
2274.4822 -823.57007 170 1.8450303e-38
2226.3604 -806.70868 170 1.9274291e-38
2188.1416 -791.23907 170 2.0280177e-38
2168.3362 -788.45563 170 2.1479061e-38
2175.4556 -809.65271 170 2.2858045e-38
3631.8994 1146.6885 170 3.4126957e-39
3661.6074 1142.5133 170 4.2431864e-39
3670.1184 1131.2189 170 5.2580712e-39
3656.0405 1102.9026 170 3.9694876e-39
3643.3542 1084.4889 170 3.0431873e-39
3640.5708 1064.6836 170 2.5818392e-39
3616.5903 1037.759 170 2.6736733e-39
3613.8069 1017.9536 170 4.1477201e-39
3578.532 982.51807 170 6.7291824e-39
3575.7485 962.71271 170 9.5865112e-39
3563.0623 944.29907 170 1.0874377e-38
3591.3787 930.22125 170 1.1521175e-38
3609.7922 917.5351 170 7.0115272e-39
3639.5002 913.35992 170 2.8566212e-39
3700.3081 914.91217 170 1.5680474e-39
3761.116 916.46448 170 2.7626235e-39
3758.3325 896.65912 170 3.1324836e-39
3840.3374 905.33063 170 3.7767698e-39
3857.3594 882.74182 170 7.3648296e-39
3887.0674 878.56665 170 7.5524522e-39
3830.5952 836.0119 170 6.9985652e-39
3816.5173 807.69556 170 7.366982e-39
3856.1282 802.12866 170 7.0911167e-39
3948.0356 809.40845 170 6.0776893e-39
3997.5491 802.44977 170 5.9851307e-39
4066.8679 792.70764 170 7.2711948e-39
4073.9871 771.51056 170 7.2733528e-39
4081.1062 750.31348 170 7.3662617e-39
4099.52 737.62732 170 7.2740703e-39
4106.6392 716.43024 170 7.0896776e-39
4102.4639 686.72223 170 6.4439537e-39
4099.6807 666.91687 170 7.2762143e-39
4085.6025 638.60052 170 1.4005017e-38
4072.9165 620.18689 170 1.5758888e-38
4089.9385 597.59808 170 1.557558e-38
4065.9578 570.67352 170 1.5484104e-38
4104.1768 555.20392 170 1.4746187e-38
4193.3008 542.67834 180 1.3178511e-38
4231.52 527.20874 180 1.1980693e-38
4094.4348 485.88513 170 1.1520798e-38
4018.1572 446.11383 170 1.1979981e-38
