# .PCD v0.7 - Point Cloud Data file format
VERSION 0.7
FIELDS x y z rgb
SIZE 4 4 4 4
TYPE F F F F
COUNT 1 1 1 1
WIDTH 1242
HEIGHT 1
VIEWPOINT 0 0 0 1 0 0 0
POINTS 1242
DATA ascii
4414.6299 1607.1423 1150 1.7604309e-38
4425.3223 1587.5034 1150 1.6596959e-38
3925.0554 1299.8693 990 1.5946704e-38
4093.207 1355.7716 1040 9.7677047e-39
4163.1641 1358.2146 1070 9.6762448e-39
4587.3184 1533.1239 1200 1.0603956e-38
4696.5537 1556.9507 1240 1.4196628e-38
4687.6064 1526.62 1230 1.0705805e-38
4501.2119 1420.05 1180 1.4396889e-38
4591.1572 1423.1909 1200 1.7149793e-38
4503.3062 1360.0865 1180 1.9719757e-38
4622.5352 1384.2623 1210 1.5944792e-38
4583.9556 1342.8907 1200 1.678601e-38
4680.5312 1156.1473 1230 2.1018387e-38
4760.4829 1158.9393 1250 2.1200968e-38
4662.6377 1095.486 1220 2.1293528e-38
4604.0703 1053.4164 1200 2.0833988e-38
4595.123 1023.0856 1200 2.1385007e-38
4586.1763 992.75488 1200 1.4656944e-38
4586.874 972.76709 1200 2.1845255e-38
4548.2949 931.39545 1180 2.1845615e-38
4578.9746 912.45465 1190 2.212076e-38
4698.3301 646.45807 1230 2.2123648e-38
4768.9854 628.91321 1250 2.2215841e-38
4690.4307 586.14563 1220 2.2676095e-38
4820.7002 580.68866 1270 2.2123295e-38
4435.126 447.15094 1140 2.1846348e-38
4505.7812 429.60608 1170 2.203146e-38
4606.418 413.10822 1200 2.1754864e-38
4507.5259 379.63657 1170 2.1936761e-38
4488.585 348.95685 1160 2.1386094e-38
4489.6318 318.9751 1160 2.111237e-38
4490.3301 298.9873 1160 2.1476136e-38
4511.3652 269.70355 1170 2.1293181e-38
4542.0449 250.76273 1170 2.1291011e-38
4513.1099 219.73402 1170 1.2168345e-38
4763.6553 208.47107 1240 1.1520474e-38
4864.6416 181.97929 1280 1.0692147e-38
4885.3271 162.68947 1280 1.0049652e-38
4846.3989 131.31177 1270 1.0339935e-38
4867.4336 102.02803 1280 1.8251453e-38
4928.0947 84.134186 1300 1.8806776e-38
3648.5259 49.456749 890 1.9999933e-38
3649.2239 29.468933 890 1.9819851e-38
3669.9097 10.179108 900 2.0096089e-38
3670.6077 -9.8087082 900 2.0097528e-38
3661.3118 -30.145519 890 1.2905523e-38
3672.0037 -49.78434 900 2.0281193e-38
3672.7017 -69.772156 900 2.1016955e-38
3633.075 -81.162048 880 2.0280481e-38
3643.7668 -100.80087 890 2.0922248e-38
3624.4771 -121.48667 880 2.1107366e-38
3625.175 -141.47449 880 2.2213354e-38
3615.8792 -161.81131 880 2.1479003e-38
3606.2341 -172.15421 870 1.9173053e-38
3586.9443 -192.84001 870 5.8972721e-39
4594.3623 -387.80042 1180 9.7698305e-39
4716.0342 -433.58203 1220 1.7604644e-38
4727.0747 -463.21475 1220 1.7974524e-38
4768.4463 -501.7944 1240 1.8986868e-38
4749.1562 -522.48022 1230 1.8347247e-38
4699.8848 -544.21301 1220 1.8068516e-38
4720.9199 -573.49677 1220 1.8435508e-38
4741.9546 -602.78046 1230 1.8436585e-38
4772.9834 -631.71521 1240 1.8252193e-38
4784.0244 -661.34796 1240 1.8344024e-38
4845.3838 -699.22961 1260 1.2716522e-38
4907.0918 -747.10516 1280 1.0321562e-38
5018.77 -793.23578 1310 6.6348399e-39
5272.1074 -884.45001 1390 5.2529747e-39
5333.8159 -932.32556 1410 4.9763948e-39
5445.8433 -988.45007 1450 7.9269787e-39
5507.5518 -1036.3257 1470 9.5854476e-39
5538.9292 -1075.2543 1480 7.0032399e-39
5509.9946 -1106.283 1460 1.4193361e-38
5581.6968 -1153.8096 1490 1.4928807e-38
4785.4521 -1561.8467 1230 5.3444529e-39
4654.1353 -1526.408 1190 5.8065058e-39
4583.8291 -1518.8571 1170 7.5578584e-39
4564.1904 -1529.549 1160 7.4653181e-39
4554.8945 -1549.8857 1160 6.6359147e-39
4555.9414 -1579.8674 1160 8.1124713e-39
4546.6455 -1600.2042 1150 1.0418824e-38
4527.3555 -1620.8901 1150 1.106311e-38
4528.0537 -1640.8779 1150 1.0876929e-38
4124.6797 1887.1937 1040 2.3509855e-38
4193.9395 1909.6245 1060 2.350988e-38
4194.9863 1879.6428 1060 1.0785074e-38
4176.0454 1848.9631 1050 2.1390783e-38
4176.7432 1828.9753 1050 1.8349797e-38
4158.1514 1788.3016 1050 1.8070338e-38
4129.5654 1747.2791 1040 1.8992642e-38
3837.0774 1526.9371 950 1.8162881e-38
3759.5691 1454.1879 920 6.2718476e-39
3789.5508 1455.2349 930 6.0805844e-39
3809.8877 1445.9388 940 1.1247491e-38
3849.8633 1447.3348 950 9.7712836e-39
3889.8389 1448.7308 960 9.6790754e-39
4086.925 1535.662 1020 9.8620289e-39
4254.7275 1601.5583 1080 9.4035717e-39
4491.4404 1699.8794 1150 1.0782896e-38
4109.0068 1476.3966 1030 1.1246042e-38
4109.7051 1456.4087 1030 1.1338235e-38
4130.3906 1437.1189 1040 1.1435512e-38
4052.1843 1384.3574 1010 1.0609364e-38
3925.0554 1299.8693 970 9.4086192e-39
4043.9353 1334.0388 1010 1.4386803e-38
4123.5376 1346.8247 1030 1.7328436e-38
4508.4141 1500.3502 1150 1.4748058e-38
4491.5674 1409.7072 1150 1.9728744e-38
4521.8979 1400.7601 1160 2.046522e-38
4534.6836 1321.158 1160 2.1291737e-38
4690.1768 1166.4902 1200 2.1291015e-38
4760.4829 1158.9393 1230 2.1016232e-38
4652.6436 1095.137 1190 2.0833986e-38
4604.0703 1053.4164 1180 2.1385357e-38
4595.123 1023.0856 1170 2.1016582e-38
4586.1763 992.75488 1170 1.3089993e-38
4586.874 972.76709 1170 2.1108415e-38
4548.2949 931.39545 1160 2.1018371e-38
4588.9683 912.80365 1170 2.184741e-38
4688.6855 636.11517 1200 2.2492787e-38
4679.3896 615.77832 1200 2.249064e-38
4650.8037 574.75574 1190 2.2766864e-38
4651.502 554.76794 1180 2.2307328e-38
4682.5303 525.83319 1200 2.2122567e-38
4583.6382 492.36151 1160 2.2398795e-38
4505.083 449.5939 1140 2.194033e-38
4495.7871 429.25711 1140 2.157048e-38
4566.4424 411.71225 1160 2.2306595e-38
4497.8809 369.29364 1140 2.2030375e-38
4488.585 348.95685 1130 2.2030367e-38
4489.6318 318.9751 1130 2.1387511e-38
4490.3301 298.9873 1130 2.1661597e-38
4511.3652 269.70355 1140 2.1571547e-38
4532.0508 250.41373 1150 2.0923673e-38
4513.1099 219.73402 1140 1.2076508e-38
4753.6616 208.12209 1210 1.2073998e-38
4864.6416 181.97929 1250 1.1061654e-38
4885.3271 162.68947 1250 9.496482e-39
4836.4053 130.96277 1240 1.2354184e-38
4897.415 103.07501 1260 1.6499014e-38
4958.0767 85.181168 1270 1.825145e-38
4949.1299 54.850449 1270 1.8989742e-38
3649.2239 29.468933 870 1.9450712e-38
3669.9097 10.179108 880 1.9820572e-38
3670.6077 -9.8087082 880 1.9636545e-38
3651.3179 -30.494514 870 1.2072204e-38
3662.0098 -50.133335 880 2.0281911e-38
3662.7078 -70.121155 880 2.0832924e-38
3633.075 -81.162048 870 2.0279761e-38
3643.7668 -100.80087 870 2.0648175e-38
3624.4771 -121.48667 860 2.1017682e-38
3625.175 -141.47449 860 2.2489568e-38
3615.8792 -161.81131 860 2.1936739e-38
3606.2341 -172.15421 860 1.9633313e-38
3586.9443 -192.84001 850 5.9898251e-39
4594.7109 -397.79431 1160 8.7564184e-39
4716.0342 -433.58203 1200 1.2814437e-38
4727.0747 -463.21475 1200 1.5578503e-38
4768.4463 -501.7944 1210 1.659159e-38
4749.1562 -522.48022 1200 1.7144045e-38
4699.8848 -544.21301 1190 1.7332385e-38
4720.9199 -573.49677 1200 1.8250015e-38
4741.9546 -602.78046 1200 1.7514612e-38
4772.9834 -631.71521 1210 1.7699369e-38
4784.0244 -661.34796 1210 1.7237674e-38
4835.3896 -699.57861 1230 1.2899465e-38
4907.0918 -747.10516 1250 1.0045693e-38
5019.1191 -803.22968 1290 6.4522437e-39
5262.1138 -884.79901 1360 4.977464e-39
5333.8159 -932.32556 1380 5.1600588e-39
5455.8369 -988.10107 1420 7.1901381e-39
5507.5518 -1036.3257 1430 9.4010452e-39
5538.9292 -1075.2543 1440 6.3575328e-39
5509.9946 -1106.283 1430 1.2438048e-38
5602.0337 -1163.1055 1460 1.5297575e-38
4814.7358 -1540.8119 1210 5.0696554e-39
4734.4355 -1533.6099 1190 5.3458794e-39
4644.1416 -1526.757 1160 5.8072177e-39
4594.1719 -1528.502 1150 7.1894374e-39
4564.5391 -1539.5428 1140 7.9248543e-39
4565.2373 -1559.5306 1140 6.6351917e-39
4566.2842 -1589.5123 1140 7.7426154e-39
4546.6455 -1600.2042 1130 1.0969468e-38
4527.0063 -1610.8961 1120 1.1153861e-38
4538.3965 -1650.5228 1130 1.0877648e-38
4124.6797 1887.1937 1020 2.3509821e-38
4193.9395 1909.6245 1040 2.028952e-38
4184.9922 1879.2938 1030 1.0507767e-38
4176.0454 1848.9631 1030 1.6037704e-38
4177.0923 1818.9814 1030 1.8614491e-38
4148.5068 1777.9587 1020 1.9267071e-38
4109.9268 1736.5872 1010 2.1112062e-38
3904.9407 1589.3435 950 2.0836197e-38
3807.7937 1505.9023 920 1.9733445e-38
3710.2976 1432.4551 890 5.2573201e-39
3740.6282 1423.5081 890 4.9742452e-39
3750.9712 1413.8632 900 5.3430221e-39
3820.2305 1436.2939 920 8.1114092e-39
3889.8389 1448.7308 940 1.1068502e-38
4086.925 1535.662 1000 9.9545903e-39
4146.8887 1537.756 1020 9.5868797e-39
4442.1689 1678.1466 1110 9.677632e-39
4089.3679 1465.7047 1000 9.4032074e-39
4090.0659 1445.7168 1000 1.0686027e-38
4100.7578 1426.078 1000 1.0599951e-38
4052.1843 1384.3574 990 1.1521192e-38
3925.0554 1299.8693 950 1.4283794e-38
4034.2905 1323.6959 980 1.7879421e-38
4054.6272 1314.4 990 1.8986853e-38
4498.7695 1490.0073 1120 1.9172678e-38
4756.5166 1559.0447 1200 1.9726209e-38
4544.3291 1331.5009 1140 2.0003523e-38
4680.5312 1156.1473 1170 2.0831477e-38
4760.4829 1158.9393 1200 2.0372649e-38
4652.6436 1095.137 1170 2.0830035e-38
4604.0703 1053.4164 1150 2.0740345e-38
4595.123 1023.0856 1150 2.1660493e-38
4586.1763 992.75488 1140 1.1522671e-38
4596.8682 973.11609 1150 2.1476118e-38
4548.2949 931.39545 1130 2.1569396e-38
4618.6011 923.84454 1150 2.2030002e-38
4658.7036 635.06818 1160 2.2493501e-38
4699.377 616.47632 1170 2.2400588e-38
4680.4365 585.79663 1170 2.1941772e-38
4711.1162 566.85577 1180 2.2033605e-38
4732.1509 537.57208 1180 2.2582468e-38
4534.7158 460.6348 1120 2.2491695e-38
4515.7749 429.95508 1120 2.2032522e-38
4606.418 413.10822 1140 2.1480082e-38
4507.5259 379.63657 1110 2.1389326e-38
4498.5791 349.30585 1110 2.2305158e-38
4489.6318 318.9751 1110 2.193854e-38
4490.3301 298.9873 1110 2.1387151e-38
4521.3589 270.05255 1120 2.1202049e-38
4542.0449 250.76273 1120 2.0741793e-38
4513.1099 219.73402 1120 1.2258389e-38
4753.6616 208.12209 1190 1.1062731e-38
4864.6416 181.97929 1220 1.0416286e-38
4885.3271 162.68947 1220 9.2166637e-39
4826.4111 130.61377 1210 1.0410158e-38
4897.415 103.07501 1230 1.3641678e-38
4958.0767 85.181168 1250 1.6315346e-38
4959.124 55.199448 1250 1.8342921e-38
3659.2178 29.817932 860 1.8897536e-38
3669.9097 10.179108 860 1.9632951e-38
3670.6077 -9.8087082 860 1.9637247e-38
3641.324 -30.84351 850 1.0601078e-38
3662.0098 -50.133335 860 2.0646732e-38
3662.7078 -70.121155 860 2.0555618e-38
3633.075 -81.162048 850 1.9731258e-38
3643.7668 -100.80087 850 1.8158531e-38
3634.4709 -121.13768 850 2.0741808e-38
3625.175 -141.47449 840 2.1293906e-38
3615.8792 -161.81131 840 2.1658734e-38
3606.2341 -172.15421 840 1.9629715e-38
3586.9443 -192.84001 830 5.9894663e-39
4594.3623 -387.80042 1130 8.575253e-39
4716.0342 -433.58203 1170 1.1708814e-38
4717.0811 -463.56375 1170 1.3918624e-38
4768.4463 -501.7944 1180 1.5393027e-38
4749.1562 -522.48022 1180 1.5856526e-38
4699.8848 -544.21301 1160 1.6960718e-38
4720.9199 -573.49677 1170 1.7053998e-38
4741.9546 -602.78046 1170 1.7512461e-38
4772.9834 -631.71521 1180 1.7421696e-38
4784.0244 -661.34796 1190 1.6959303e-38
4835.3896 -699.57861 1200 1.2716519e-38
4907.0918 -747.10516 1220 9.8616618e-39
5039.1069 -802.53168 1260 7.0032595e-39
5262.1138 -884.79901 1330 5.0685848e-39
5333.8159 -932.32556 1350 4.5172145e-39
5455.8369 -988.10107 1380 5.9941102e-39
5507.5518 -1036.3257 1400 9.4925233e-39
5538.9292 -1075.2543 1410 8.2021558e-39
5509.9946 -1106.283 1400 9.677981e-39
5602.0337 -1163.1055 1430 1.52965e-38
4774.4111 -1532.214 1170 5.1604189e-39
4704.1045 -1524.663 1150 5.5295574e-39
4644.1416 -1526.757 1140 6.3582334e-39
4614.1597 -1527.804 1130 6.8195801e-39
4574.5332 -1539.1938 1110 7.464595e-39
4565.2373 -1559.5306 1110 6.6344728e-39
4565.9351 -1579.5184 1110 6.8228185e-39
4536.6514 -1600.5532 1100 1.0417733e-38
4527.3555 -1620.8901 1100 1.0785448e-38
4548.3901 -1650.1738 1110 1.0601414e-38
4539.0942 -1670.5106 1100 1.0693966e-38
4115.0352 1876.8508 990 2.3509876e-38
4174.3003 1898.9326 1010 1.7244558e-38
4185.3413 1869.2999 1010 1.0140068e-38
4176.0454 1848.9631 1010 1.5948757e-38
4177.0923 1818.9814 1010 1.5488857e-38
4138.5127 1777.6097 990 1.4567258e-38
3895.2959 1579.0006 920 1.6314278e-38
3807.7937 1505.9023 900 2.2301212e-38
3729.9363 1443.147 870 5.3488039e-39
3740.6282 1423.5081 870 5.3423131e-39
3750.9712 1413.8632 880 6.6280072e-39
3820.5796 1426.3 900 9.1111655e-39
3919.1226 1469.7656 930 6.2671196e-39
4096.9189 1536.011 980 7.7415476e-39
4186.166 1559.1398 1010 9.8685365e-39
4099.0127 1476.0476 980 9.8623876e-39
4090.0659 1445.7168 980 9.4024843e-39
4100.7578 1426.078 980 9.4017696e-39
4062.1782 1384.7064 970 7.8326573e-39
3935.0493 1300.2183 930 1.3546938e-38
4014.6516 1313.004 960 1.6866353e-38
4469.1367 1478.9664 1090 1.8896077e-38
4666.9209 1545.9098 1150 1.8805697e-38
4589.0635 1483.1544 1120 1.926631e-38
4680.5312 1156.1473 1150 2.165979e-38
4760.4829 1158.9393 1170 2.1198095e-38
4652.6436 1095.137 1140 2.1019092e-38
4604.0703 1053.4164 1120 2.1291002e-38
4595.123 1023.0856 1120 2.0832542e-38
4586.1763 992.75488 1120 1.0691464e-38
4586.874 972.76709 1120 2.1293878e-38
4548.2949 931.39545 1110 2.1570823e-38
4628.5947 924.19354 1130 2.1019443e-38
4718.3184 647.15607 1150 2.3044157e-38
4788.9736 629.61121 1170 2.2860489e-38
4644.2998 474.46765 1130 2.249099e-38
4545.7568 431.00208 1100 2.2491349e-38
4507.5259 379.63657 1090 2.175415e-38
4498.5791 349.30585 1080 2.2215471e-38
4489.6318 318.9751 1080 2.1941041e-38
4490.3301 298.9873 1080 2.2215482e-38
4521.3589 270.05255 1090 2.1843111e-38
4542.0449 250.76273 1100 2.1016216e-38
4523.1035 220.08301 1090 1.2074714e-38
4753.6616 208.12209 1160 1.1244959e-38
4864.6416 181.97929 1190 1.0142205e-38
4875.3335 162.34047 1190 9.1269848e-39
4776.4414 128.8688 1160 1.1156012e-38
4897.415 103.07501 1200 1.3268585e-38
4988.0586 86.228149 1230 1.4565791e-38
4989.1055 56.246429 1230 1.2440616e-38
3669.9097 10.179108 840 1.8986849e-38
3670.6077 -9.8087082 840 1.90812e-38
3641.324 -30.84351 830 1.2627235e-38
3652.0159 -50.48233 840 2.082861e-38
3662.7078 -70.121155 840 2.0739654e-38
3633.075 -81.162048 830 2.0096442e-38
3643.7668 -100.80087 830 2.0095353e-38
3634.4709 -121.13768 830 2.0189715e-38
3625.175 -141.47449 830 2.1664129e-38
3615.8792 -161.81131 820 2.1566168e-38
3606.2341 -172.15421 820 1.8989742e-38
3586.9443 -192.84001 810 6.0827424e-39
4554.3867 -389.19638 1100 8.5716698e-39
4736.0215 -432.88403 1150 1.1705581e-38
4747.0625 -462.51675 1150 1.1707379e-38
4788.4346 -501.09641 1160 1.575716e-38
4749.1562 -522.48022 1150 1.4187289e-38
4719.873 -543.51501 1140 1.4554629e-38
4730.9141 -573.14777 1140 1.41934e-38
4741.9546 -602.78046 1150 1.5486304e-38
4772.9834 -631.71521 1160 1.6130603e-38
4794.0181 -660.99896 1160 1.6038071e-38
4835.3896 -699.57861 1170 1.2347379e-38
4917.0859 -746.75616 1200 9.7676697e-39
5019.1191 -803.22968 1230 6.8206675e-39
5221.7891 -876.20105 1280 5.0685862e-39
5313.4795 -923.02966 1310 5.0685848e-39
5455.8369 -988.10107 1350 5.4391456e-39
5507.5518 -1036.3257 1370 9.6776362e-39
5538.9292 -1075.2543 1370 7.7426098e-39
5509.9946 -1106.283 1370 9.7694591e-39
5632.3643 -1172.0524 1400 1.4745132e-38
4753.7256 -1512.9241 1140 5.1611364e-39
4683.7681 -1515.3671 1120 5.6210341e-39
4644.1416 -1526.757 1110 6.1752813e-39
4614.1597 -1527.804 1100 7.0036042e-39
4584.5269 -1538.8448 1090 7.0961642e-39
4565.2373 -1559.5306 1090 6.3578845e-39
4566.2842 -1589.5123 1090 6.6366238e-39
4546.6455 -1600.2042 1080 1.0323377e-38
4527.3555 -1620.8901 1080 1.0418449e-38
4568.7271 -1659.4697 1080 1.0692527e-38
4105.3896 1866.5079 960 2.3509886e-38
4164.6553 1888.5897 980 1.484604e-38
4175.3477 1868.9509 980 1.0968028e-38
4176.0454 1848.9631 980 1.7150897e-38
4167.0986 1818.6324 980 1.6319338e-38
4128.8677 1767.2668 970 1.5950546e-38
3914.9346 1589.6925 910 1.5397011e-38
3837.0774 1526.9371 880 1.4936754e-38
3788.8528 1475.2227 870 8.9433166e-39
3760.2671 1434.2 860 5.8058037e-39
3780.2549 1434.8979 870 6.1706248e-39
3800.5916 1425.6021 870 7.7361358e-39
3850.5613 1427.347 890 7.9205173e-39
3988.731 1482.2025 930 4.4282587e-39
4087.9722 1505.6803 950 9.679081e-39
4196.5088 1549.4949 990 9.5861665e-39
4099.0127 1476.0476 960 9.6765614e-39
4100.0596 1446.0658 960 9.4950414e-39
4110.752 1426.427 960 8.9411516e-39
4081.8171 1395.3983 950 7.2830806e-39
3935.0493 1300.2183 910 1.3639146e-38
4053.9294 1334.3878 940 1.5577766e-38
4469.1367 1478.9664 1060 1.8068476e-38
4680.5312 1156.1473 1120 2.1476118e-38
4750.4893 1158.5903 1140 2.1291016e-38
4652.6436 1095.137 1110 2.1567956e-38
4604.0703 1053.4164 1100 2.1659067e-38
4595.123 1023.0856 1090 2.1290282e-38
4586.1763 992.75488 1090 1.0874383e-38
4586.874 972.76709 1090 2.1477546e-38
4538.3008 931.04651 1080 2.2304079e-38
4588.9683 912.80365 1090 2.1661937e-38
4748.998 628.21521 1130 2.2954481e-38
4819.6533 610.67035 1150 2.2953401e-38
4515.7749 429.95508 1070 2.2309109e-38
4626.4062 413.80621 1100 2.2029293e-38
4497.5322 379.28757 1060 2.2583179e-38
4498.5791 349.30585 1060 2.2031446e-38
4489.6318 318.9751 1060 2.1755222e-38
4490.3301 298.9873 1060 2.22126e-38
4531.3525 270.40155 1070 2.1477926e-38
4552.0386 251.11172 1070 2.0006031e-38
4523.1035 220.08301 1070 1.2075077e-38
4753.6616 208.12209 1130 1.1061645e-38
4854.6475 181.63031 1160 1.0875818e-38
4875.3335 162.34047 1160 9.6790754e-39
4696.4902 126.07684 1120 1.2814434e-38
4927.397 104.12199 1180 1.4012253e-38
3678.5076 50.503738 820 1.475019e-38
3658.5198 49.805748 820 1.4842377e-38
3679.9036 10.528103 820 1.4206021e-38
3670.6077 -9.8087082 820 1.7787567e-38
3641.324 -30.84351 810 1.5667855e-38
3652.0159 -50.48233 810 1.9543981e-38
3662.7078 -70.121155 820 2.0002087e-38
3633.075 -81.162048 810 1.9818425e-38
3643.7668 -100.80087 810 1.9543983e-38
3634.4709 -121.13768 810 2.0461621e-38
3635.1689 -141.12549 810 2.1754165e-38
3625.873 -161.46231 810 2.1200268e-38
3606.2341 -172.15421 800 1.9815903e-38
3596.9382 -192.49101 800 6.6337609e-39
3567.3054 -203.53191 790 1.4934176e-38
4504.0679 -380.94745 1050 9.0326536e-39
4766.3525 -441.83096 1130 1.0970176e-38
4807.375 -470.41669 1140 1.1247473e-38
4808.4219 -500.39844 1140 1.4928115e-38
4759.1504 -522.13123 1130 1.2062837e-38
4729.8667 -543.16602 1120 1.2060321e-38
4730.9141 -573.14777 1120 1.2615641e-38
4741.9546 -602.78046 1120 1.4011903e-38
4782.9775 -631.36621 1130 1.5393767e-38
4794.3672 -670.99286 1130 1.5672136e-38
4835.3896 -699.57861 1150 1.20733e-38
4917.0859 -746.75616 1170 9.676902e-39
4998.7822 -793.93378 1190 7.2794793e-39
5293.4912 -923.7276 1270 4.8849152e-39
5466.1797 -997.74597 1320 4.5197088e-39
5537.8823 -1045.2726 1340 9.4014109e-39
5549.272 -1084.8992 1340 8.1103105e-39
5509.9946 -1106.283 1330 7.4656698e-39
5642.3584 -1171.7034 1370 1.4376701e-38
4814.0381 -1520.8241 1130 4.7909161e-39
4723.3945 -1503.9772 1100 5.3444472e-39
4663.4312 -1506.0712 1090 5.8050611e-39
4633.7983 -1517.1121 1080 6.4507878e-39
4614.5088 -1537.7979 1070 6.7270258e-39
4584.5269 -1538.8448 1060 6.9121345e-39
4565.2373 -1559.5306 1060 6.5426289e-39
4566.2842 -1589.5123 1060 6.1756499e-39
4546.6455 -1600.2042 1050 1.0231542e-38
4527.3555 -1620.8901 1050 1.0416297e-38
4558.7334 -1659.8187 1060 1.0508121e-38
4115.0352 1876.8508 940 2.3509886e-38
4174.6494 1888.9387 960 1.2266359e-38
4185.3413 1869.2999 960 1.2714331e-38
4186.0391 1849.3121 960 1.7887027e-38
4177.0923 1818.9814 960 1.8622421e-38
4128.8677 1767.2668 950 1.8347272e-38
3924.5796 1600.0354 890 1.7239846e-38
3846.7222 1537.28 870 1.6595188e-38
3828.1304 1496.6064 860 6.1731541e-39
3779.5569 1454.8859 850 7.4573951e-39
3799.8938 1445.5898 850 9.769113e-39
3810.5857 1425.951 850 1.261348e-38
3830.9224 1416.6552 860 6.6348301e-39
3870.8979 1418.0511 870 4.9774808e-39
4009.0679 1472.9066 910 8.1967524e-39
4138.6396 1487.4375 950 9.6765572e-39
4149.3315 1467.7986 950 9.4003305e-39
4159.6743 1458.1537 950 9.2170168e-39
4150.7275 1427.823 950 7.0990523e-39
4033.5925 1343.6838 920 1.3823891e-38
4122.8398 1366.8125 940 1.5117149e-38
4498.7695 1490.0073 1050 1.7329117e-38
4690.1768 1166.4902 1090 2.1476112e-38
4760.4829 1158.9393 1110 2.1662306e-38
4652.6436 1095.137 1080 2.1203829e-38
4604.0703 1053.4164 1070 2.1750174e-38
4595.123 1023.0856 1070 2.1111291e-38
4586.1763 992.75488 1060 1.2255145e-38
4586.874 972.76709 1060 2.1387152e-38
4538.3008 931.04651 1050 2.2490252e-38
4578.9746 912.45465 1060 2.2583536e-38
4744.9365 457.96979 1100 2.2398789e-38
4775.9658 429.03503 1110 2.2491709e-38
4517.5195 379.98553 1040 2.249062e-38
4498.5791 349.30585 1030 2.1850277e-38
4489.6318 318.9751 1030 2.2028211e-38
4500.3242 299.3363 1030 2.1388585e-38
4531.3525 270.40155 1040 2.1388597e-38
4562.0322 251.46072 1050 2.0829695e-38
4533.0977 220.43201 1040 1.1708091e-38
4773.6494 208.82007 1110 1.1797404e-38
4864.6416 181.97929 1130 1.0783625e-38
4875.3335 162.34047 1140 9.310653e-39
4666.5088 125.02986 1080 1.3736382e-38
4927.397 104.12199 1150 1.493277e-38
3688.5015 50.85273 810 1.6040187e-38
3658.5198 49.805748 800 1.6501171e-38
3669.2117 30.166924 800 1.7144385e-38
3679.9036 10.528103 810 1.705363e-38
3670.6077 -9.8087082 800 1.8527315e-38
3641.324 -30.84351 790 1.5580324e-38
3642.0217 -50.831326 800 1.7967285e-38
3662.7078 -70.121155 800 1.9725496e-38
3633.075 -81.162048 790 1.5762911e-38
3643.7668 -100.80087 800 1.9910608e-38
3634.4709 -121.13768 790 2.0000635e-38
3635.1689 -141.12549 790 2.1204591e-38
3635.8669 -161.11331 790 2.0466291e-38
3616.228 -171.80521 790 1.954184e-38
3606.9321 -192.14201 780 6.541924e-39
3577.6484 -213.17682 780 1.4930942e-38
3598.3342 -232.46664 780 1.2163031e-38
3719.3081 -258.26044 810 1.0604978e-38
4494.0742 -381.29645 1030 1.0692162e-38
4826.665 -449.7309 1120 1.0231886e-38
4837.7061 -479.36362 1120 1.1706655e-38
4828.7588 -509.69434 1120 9.1215842e-39
4769.1445 -521.78223 1100 7.1901647e-39
4739.8604 -542.81702 1090 7.0068511e-39
4730.9141 -573.14777 1090 7.6511401e-39
4741.9546 -602.78046 1090 1.3273612e-38
4783.3262 -641.36011 1100 1.4748757e-38
4814.355 -670.29486 1110 1.511682e-38
4855.7266 -708.87451 1120 1.2993808e-38
4927.0801 -746.40717 1140 9.4006808e-39
4998.7822 -793.93378 1160 7.9241242e-39
5455.8369 -988.10107 1280 3.9658204e-39
5537.8823 -1045.2726 1310 9.6769146e-39
5549.272 -1084.8992 1310 9.1259044e-39
5489.6577 -1096.9871 1290 7.1865466e-39
5531.3784 -1145.5607 1310 1.3455468e-38
4793.7012 -1511.5281 1100 5.3462451e-39
4703.0576 -1494.6813 1070 5.3451661e-39
4653.4375 -1506.4202 1060 5.5309923e-39
4633.7983 -1517.1121 1050 6.6362595e-39
4614.1597 -1527.804 1050 7.2798296e-39
4574.5332 -1539.1938 1040 6.6337511e-39
4565.2373 -1559.5306 1030 6.0820193e-39
4565.9351 -1579.5184 1030 6.0838087e-39
4546.6455 -1600.2042 1030 1.0231187e-38
4538.3965 -1650.5228 1030 1.0138271e-38
4124.6797 1887.1937 920 2.3509886e-38
4193.9395 1909.6245 940 1.0603958e-38
4194.9863 1879.6428 940 1.5017403e-38
4195.6841 1859.655 940 1.9819168e-38
4177.0923 1818.9814 940 2.0004277e-38
4138.5127 1777.6097 930 1.806891e-38
4100.2822 1726.2443 910 1.816073e-38
3983.4961 1632.1112 880 1.880465e-38
3886 1558.6638 860 1.7429625e-38
3867.408 1517.9902 850 5.8032814e-39
3809.1897 1465.9268 840 7.3630499e-39
3809.8877 1445.9388 830 8.1917274e-39
3810.5857 1425.951 830 5.7132648e-39
3830.9224 1416.6552 840 3.319414e-39
3851.2593 1407.3593 840 3.6871063e-39
3920.8677 1419.7961 860 3.5034353e-39
4187.5625 1519.1642 940 3.4094432e-39
4198.2539 1499.5253 940 4.0544427e-39
4208.9463 1479.8865 940 5.8029129e-39
4209.644 1459.8987 940 6.5451596e-39
4151.4258 1407.8352 930 1.345619e-38
4162.1172 1388.1964 930 1.5114267e-38
4498.7695 1490.0073 1020 1.695961e-38
4844.3682 1622.149 1110 1.797089e-38
4845.415 1592.1674 1110 1.8525499e-38
4767.5576 1529.412 1090 1.8253574e-38
4916.4194 1564.6285 1130 1.9721887e-38
4783.1357 1369.8584 1090 2.1197e-38
4774.5376 1329.5338 1090 2.1016925e-38
4795.2236 1310.2439 1100 2.0740348e-38
4786.2764 1279.9132 1100 2.083326e-38
4836.5952 1271.6643 1110 2.1016932e-38
4847.6357 1242.0316 1110 2.1843099e-38
4690.1768 1166.4902 1070 2.1294223e-38
4760.4829 1158.9393 1090 2.1752342e-38
4652.6436 1095.137 1060 2.1109124e-38
4604.0703 1053.4164 1040 2.0927251e-38
4595.123 1023.0856 1040 2.1479693e-38
4586.1763 992.75488 1040 1.4098286e-38
4586.874 972.76709 1040 2.2673584e-38
4538.3008 931.04651 1030 2.2490618e-38
4618.6011 923.84454 1050 2.2400207e-38
4639.2871 904.55469 1050 2.2581384e-38
4635.3525 444.13693 1050 2.3042719e-38
4656.3877 414.85321 1050 2.2126164e-38
4497.8809 369.29364 1010 2.239808e-38
4488.585 348.95685 1010 2.2305158e-38
4489.6318 318.9751 1010 2.2488462e-38
4500.3242 299.3363 1010 2.1664099e-38
4541.3467 270.75055 1020 2.1569403e-38
4572.0264 251.80972 1030 2.0555253e-38
4563.0791 221.479 1020 1.1616263e-38
4773.6494 208.82007 1080 1.1154916e-38
4854.6475 181.63031 1100 1.0693578e-38
4875.3335 162.34047 1110 9.3102957e-39
4696.4902 126.07684 1060 1.3918261e-38
3688.5015 50.85273 790 1.6038756e-38
3658.5198 49.805748 780 1.659409e-38
3669.2117 30.166924 780 1.7605718e-38
3679.9036 10.528103 790 1.7330573e-38
3680.6016 -9.459713 790 1.8433674e-38
3672.7017 -69.772156 780 1.9079396e-38
3633.075 -81.162048 770 1.5586791e-38
3643.7668 -100.80087 780 1.3732414e-38
3644.4648 -120.78868 770 1.5476923e-38
3645.1628 -140.77649 780 2.1844922e-38
3645.8608 -160.76431 780 2.0741445e-38
3636.5649 -181.10114 770 1.9633303e-38
3616.926 -191.79303 770 6.7259496e-39
3558.7075 -243.85654 750 1.1706296e-38
4524.0557 -380.24948 1010 9.8667176e-39
4826.665 -449.7309 1090 9.4990057e-39
4827.7119 -479.71262 1090 1.0973771e-38
4828.7588 -509.69434 1090 1.2627896e-38
4769.1445 -521.78223 1070 1.1893928e-38
4739.8604 -542.81702 1060 1.2999554e-38
4730.9141 -573.14777 1060 1.3643486e-38
4741.9546 -602.78046 1060 1.4563639e-38
4783.3262 -641.36011 1080 1.5026406e-38
4814.355 -670.29486 1080 1.4659079e-38
4865.7207 -708.52551 1100 1.3087448e-38
4927.0801 -746.40717 1110 9.2152204e-39
4988.7881 -794.28278 1130 7.9255633e-39
5466.1797 -997.74597 1260 3.7810704e-39
5598.5435 -1063.1664 1290 9.3095712e-39
5609.9336 -1102.7931 1290 1.0047494e-38
5540.3252 -1115.2299 1270 1.1614445e-38
4753.0273 -1492.9363 1060 6.080213e-39
4693.064 -1495.0303 1040 5.7132256e-39
4653.0884 -1496.4263 1030 5.9894551e-39
4633.7983 -1517.1121 1030 6.6362553e-39
4604.166 -1528.153 1020 7.0968817e-39
4574.5332 -1539.1938 1010 6.5433506e-39
4554.8945 -1549.8857 1010 6.1734947e-39
4545.9473 -1580.2164 1000 6.2664049e-39
4536.6514 -1600.5532 1000 1.0047862e-38
4538.0474 -1640.5289 1000 1.0047868e-38
4631.1338 -1727.3331 1030 9.7705676e-39
4115.0352 1876.8508 900 2.3509886e-38
4184.2939 1899.2816 920 1.0692188e-38
4194.9863 1879.6428 920 1.6218076e-38
4205.6777 1860.004 920 2.0463083e-38
4196.7314 1829.6733 920 2.0466693e-38
4158.1514 1788.3016 910 1.9453973e-38
4119.9209 1736.9362 900 1.9913511e-38
4042.4126 1664.1869 880 1.9726251e-38
3935.2715 1580.3966 850 2.2398817e-38
3877.053 1528.3331 830 4.7019771e-39
3828.8284 1476.6187 820 5.9855105e-39
3829.5264 1456.6307 820 5.2504706e-39
3830.2244 1436.6429 820 4.1502579e-39
3830.9224 1416.6552 820 2.8591533e-39
3841.6143 1397.0164 820 2.3981696e-39
3881.241 1408.4062 830 2.6743935e-39
4127.9478 1507.0763 900 2.6733215e-39
4167.9233 1508.4723 910 2.8584247e-39
4188.6094 1489.1824 910 2.7658703e-39
4199.3008 1469.5436 920 3.0424544e-39
4219.6377 1460.2477 920 4.2395542e-39
4181.0581 1418.8761 910 1.3548748e-38
4221.3828 1410.2782 920 1.4931313e-38
4813.6885 1641.09 1080 1.6497201e-38
4893.6396 1643.8818 1100 1.6867062e-38
4786.1494 1570.0856 1070 1.7514593e-38
4659.0205 1485.5974 1030 1.8432583e-38
4719.333 1477.6974 1050 1.9261621e-38
4495.0576 1309.7681 990 2.0185735e-38
4466.4717 1268.7454 980 2.0277211e-38
4516.79 1260.4965 1000 2.0737831e-38
4586.7471 1262.9395 1010 2.0830742e-38
4597.4395 1243.3007 1020 2.0648148e-38
4588.4922 1212.9698 1010 2.0739978e-38
4539.9189 1171.2493 1000 2.1473942e-38
4550.96 1141.6166 1010 2.1568311e-38
4660.5439 1155.4493 1030 2.1110567e-38
4750.4893 1158.5903 1060 2.1293882e-38
4642.6499 1094.788 1030 2.211967e-38
4604.0703 1053.4164 1020 2.1384637e-38
4595.123 1023.0856 1010 2.2029991e-38
4586.1763 992.75488 1010 1.6127285e-38
4586.874 972.76709 1010 2.2122555e-38
4538.3008 931.04651 1000 2.2490969e-38
4578.9746 912.45465 1010 2.2398792e-38
4821.7471 550.70691 1070 2.3504778e-38
4802.8066 520.02722 1070 2.3414014e-38
4783.8652 489.34747 1060 2.304452e-38
4724.9492 457.27179 1040 2.2950888e-38
4626.4062 413.80621 1020 2.2584268e-38
4517.5195 379.98553 990 2.2673221e-38
4498.5791 349.30585 980 2.2305882e-38
4509.6201 319.6731 990 2.2489904e-38
4530.3057 300.38327 990 2.1939251e-38
4580.9736 282.14044 1000 2.2030725e-38
4621.9961 253.55469 1010 2.0097863e-38
4613.0488 223.22397 1010 1.2074713e-38
4773.6494 208.82007 1050 1.1888887e-38
4854.6475 181.63031 1070 1.115168e-38
4875.3335 162.34047 1080 9.4950457e-39
4726.4717 127.12383 1040 1.4009743e-38
3717.7852 71.887535 780 1.4749461e-38
3698.4954 51.201729 770 1.5855084e-38
3658.5198 49.805748 760 1.6591933e-38
3669.2117 30.166924 770 1.788158e-38
3679.9036 10.528103 770 1.8434394e-38
3680.6016 -9.459713 770 1.8252166e-38
3633.075 -81.162048 750 1.8068134e-38
3653.7607 -100.45187 760 1.8620224e-38
3644.4648 -120.78868 760 1.8712411e-38
3655.1567 -140.42751 760 2.1752741e-38
3645.8608 -160.76431 760 2.0739652e-38
3636.5649 -181.10114 760 1.9445686e-38
3636.9138 -191.09503 750 6.725595e-39
3528.377 -234.90961 730 1.0693582e-38
4544.3926 -389.54538 990 1.0603201e-38
4796.334 -440.78397 1050 1.0693957e-38
4817.7178 -480.06161 1060 1.2630053e-38
4828.7588 -509.69434 1060 1.2722966e-38
4779.1387 -521.43323 1050 1.3182508e-38
4750.2036 -552.46191 1040 1.3551289e-38
4740.9077 -572.79877 1040 1.373784e-38
4751.9482 -602.43146 1040 1.4195938e-38
4793.3203 -641.01111 1050 1.5024976e-38
4834.3428 -669.59686 1060 1.4842028e-38
4875.7144 -708.17651 1070 1.3178209e-38
4927.0801 -746.40717 1080 9.1237422e-39
4968.4512 -784.98682 1100 8.0152478e-39
5506.5044 -1006.3439 1230 3.2271918e-39
5681.6357 -1150.3196 1280 1.0137163e-38
4732.6904 -1483.6404 1030 5.8054268e-39
4682.7207 -1485.3854 1010 5.5295588e-39
4653.0884 -1496.4263 1010 5.9894551e-39
4623.4556 -1507.4672 1000 6.727016e-39
4594.1719 -1528.502 990 7.2787422e-39
4564.5391 -1539.5428 980 6.6355462e-39
4535.6045 -1570.5715 980 6.1738464e-39
4536.6514 -1600.5532 980 1.0045343e-38
4528.0537 -1640.8779 970 1.032337e-38
4590.1108 -1698.7473 990 9.9553119e-39
4621.4883 -1737.676 1000 9.9527994e-39
4115.0352 1876.8508 870 2.3509886e-38
4174.6494 1888.9387 890 1.0599618e-38
4194.9863 1879.6428 890 9.5876084e-39
4215.3232 1870.3469 900 1.4476868e-38
4186.7373 1829.3243 890 1.327615e-38
4158.1514 1788.3016 880 1.4005439e-38
4129.5654 1747.2791 880 1.7965162e-38
4071.6963 1685.2217 860 1.9264177e-38
4003.8328 1622.8152 850 2.2858722e-38
3886.698 1538.676 810 9.3225402e-39
3858.1121 1497.6534 810 5.8133385e-39
3849.1653 1467.3226 800 2.949914e-39
3849.8633 1447.3348 800 3.413053e-39
3850.5613 1427.347 800 2.582935e-39
3841.2654 1407.0103 800 2.766229e-39
3871.5959 1398.0634 810 2.7655102e-39
3921.5657 1399.8083 820 2.6733173e-39
4020.4578 1433.28 850 2.6740348e-39
4060.7822 1424.682 860 2.4903624e-39
4090.7639 1425.729 860 2.5818406e-39
4150.7275 1427.823 880 3.1353675e-39
4151.7744 1397.8413 880 1.3272525e-38
4201.7441 1399.5863 890 1.4563612e-38
4460.1895 1448.6357 960 1.668231e-38
4628.6904 1494.5443 1000 1.7603176e-38
4550.4839 1441.7828 980 1.7971611e-38
4699.3457 1476.9994 1020 1.8892477e-38
4631.4819 1414.593 1000 1.9261268e-38
4740.7168 1438.4198 1030 1.9539648e-38
4771.3965 1419.479 1040 1.9172318e-38
4644.2676 1334.9907 1000 1.9635067e-38
4595.6943 1293.2701 990 2.0276853e-38
4675.6455 1296.0621 1010 2.0738547e-38
4735.958 1288.1621 1030 2.0923659e-38
4657.752 1235.4006 1010 2.0739262e-38
4639.1602 1194.7271 1000 2.0738902e-38
4580.5928 1152.6575 980 2.1108408e-38
4630.9111 1144.4084 1000 2.138355e-38
4750.4893 1158.5903 1030 2.1200602e-38
4642.6499 1094.788 1000 2.1479345e-38
4633.7031 1064.4573 1000 2.2120399e-38
4624.7559 1034.1265 1000 2.1940314e-38
4605.8154 1003.4468 990 1.8155212e-38
4606.8623 973.46509 990 2.2306949e-38
4567.9336 942.0874 980 2.3225663e-38
4628.5947 924.19354 990 2.3321454e-38
4791.7656 549.65991 1030 2.3506569e-38
4762.8306 518.63123 1030 2.3320388e-38
4734.2451 477.60858 1020 2.3502628e-38
4675.3281 445.53293 1000 2.3044873e-38
4586.4302 412.41025 980 2.3040928e-38
4507.5259 379.63657 960 2.2033241e-38
4498.5791 349.30585 960 2.2398426e-38
4519.6138 320.02209 960 2.2033951e-38
4550.2935 301.08127 970 2.2031072e-38
4610.9551 283.18741 980 2.2212244e-38
4671.9653 255.29965 1000 1.9908812e-38
4672.6631 235.31186 1000 1.1983237e-38
4783.6436 209.16907 1030 1.1429348e-38
4854.6475 181.63031 1050 1.0509548e-38
4875.3335 162.34047 1050 9.586521e-39
4796.4292 129.56679 1030 1.3919333e-38
4897.415 103.07501 1050 1.484273e-38
3718.4832 51.899719 760 1.5947282e-38
3658.5198 49.805748 740 1.6318932e-38
3669.2117 30.166924 750 1.7422397e-38
3679.9036 10.528103 750 1.7975214e-38
3680.6016 -9.459713 750 1.8436908e-38
3651.3179 -30.494514 740 1.8986124e-38
3633.075 -81.162048 740 1.8162461e-38
3653.7607 -100.45187 740 1.935707e-38
3634.4709 -121.13768 740 1.981876e-38
3655.1567 -140.42751 740 2.1751648e-38
3655.8547 -160.41531 740 2.0922244e-38
3646.5588 -180.75214 740 1.9357076e-38
3647.2568 -200.73994 740 6.6341183e-39
3538.7197 -244.55452 710 1.1340385e-38
4564.3804 -388.84741 970 1.1154226e-38
4746.3643 -442.52893 1010 1.0415929e-38
4777.3936 -471.46368 1020 1.3917563e-38
4818.416 -500.04944 1030 1.3180721e-38
4769.1445 -521.78223 1020 1.3917546e-38
4739.8604 -542.81702 1010 1.3458739e-38
4740.9077 -572.79877 1010 1.4103025e-38
4751.9482 -602.43146 1010 1.4379971e-38
4803.314 -640.66211 1020 1.4748748e-38
4834.3428 -669.59686 1030 1.5208298e-38
4875.7144 -708.17651 1040 1.3179995e-38
4917.0859 -746.75616 1050 9.3992431e-39
4958.4575 -785.33582 1060 8.2925494e-39
5577.1597 -1023.8888 1220 3.0431606e-39
4742.6846 -1483.2914 1000 5.8061387e-39
4672.7271 -1485.7344 990 5.6217502e-39
4653.0884 -1496.4263 980 5.6206698e-39
4623.4556 -1507.4672 970 2.6718684e-39
4594.1719 -1528.502 970 1.9361054e-39
4564.1904 -1529.549 960 6.912482e-39
4535.6045 -1570.5715 950 6.1734904e-39
4536.6514 -1600.5532 950 9.4943268e-39
4549.4375 -1680.1555 950 9.7727256e-39
4560.478 -1709.7882 960 9.8631135e-39
4115.0352 1876.8508 850 2.3509886e-38
4164.6553 1888.5897 860 1.0416282e-38
4194.9863 1879.6428 870 1.0046787e-38
4205.3291 1869.9979 870 1.7055815e-38
4177.0923 1818.9814 860 1.4105563e-38
4148.5068 1777.9587 860 8.3844297e-39
4119.9209 1736.9362 850 3.8715004e-39
4071.6963 1685.2217 840 9.3056237e-39
4023.4717 1633.5071 830 1.0971273e-38
3896.6919 1539.025 790 9.4918002e-39
3868.106 1498.0024 790 6.9171974e-39
3858.8101 1477.6656 790 3.4133963e-39
3859.5081 1457.6777 790 3.4137733e-39
3860.5552 1427.696 780 2.766599e-39
3851.2593 1407.3593 780 2.3988927e-39
3861.9512 1387.7205 780 2.3974535e-39
3852.6553 1367.3837 780 2.4896407e-39
3863.3472 1347.7448 780 2.3052523e-39
3864.0452 1327.757 780 2.213421e-39
3874.3879 1318.1121 790 3.5016305e-39
3924.3574 1319.8571 800 5.0711128e-39
3856.145 1267.4446 780 1.3088486e-38
4083.562 1345.4287 840 1.4561819e-38
4320.624 1433.7559 900 1.5484844e-38
4843.3213 1652.1309 1030 1.6039095e-38
4667.2695 1535.9159 980 1.7233323e-38
4865.0537 1602.8593 1030 1.6776661e-38
4787.1963 1540.1039 1010 1.7787934e-38
4817.8765 1521.163 1020 1.8158515e-38
4424.4019 1327.3129 920 1.8342897e-38
4504.0039 1340.0988 940 1.9171223e-38
4396.5142 1266.3025 910 1.8988633e-38
4309.3608 1183.2102 890 1.9999549e-38
4428.5898 1207.386 920 2.0187162e-38
4469.2637 1188.7941 930 2.0188251e-38
4519.2329 1190.5391 950 2.0555239e-38
4471.0088 1138.8246 930 2.1013699e-38
4481.7002 1119.1858 940 2.1382822e-38
4551.6577 1121.6288 950 2.1200951e-38
4740.8438 1148.2474 1000 2.1384986e-38
4642.6499 1094.788 970 2.1660861e-38
4643.6968 1064.8063 970 2.21229e-38
4644.7441 1034.8245 970 2.1753769e-38
4625.8027 1004.1448 970 1.9353036e-38
4626.8501 974.16309 970 2.2491692e-38
4607.9092 943.48334 960 2.2953382e-38
4658.2275 935.23444 980 2.3504751e-38
4772.1265 538.96802 1000 2.3505488e-38
4743.1919 507.93933 990 2.350406e-38
4714.2568 476.91061 990 2.3139937e-38
4675.3281 445.53293 980 2.3411512e-38
4606.418 413.10822 960 2.331895e-38
4537.5078 380.68353 940 2.2766843e-38
4508.5732 349.65482 930 2.2672865e-38
4549.2466 331.06299 940 2.2489907e-38
4600.2632 302.82623 960 2.1752697e-38
4690.9062 285.97937 980 2.129281e-38
4731.5801 267.38754 990 1.9634379e-38
4742.6211 237.75482 990 1.1705927e-38
4803.6309 209.86705 1010 1.1245311e-38
4854.6475 181.63031 1020 1.0601026e-38
4875.3335 162.34047 1020 9.6769104e-39
4806.4229 129.91579 1000 1.4105168e-38
4897.415 103.07501 1030 1.4660851e-38
3788.4404 54.342682 750 1.594727e-38
3668.5137 50.154739 730 1.7145098e-38
3679.2056 30.515923 730 1.769934e-38
3699.8914 11.226093 730 1.7514604e-38
3700.5894 -8.7617226 730 1.926379e-38
3643.0688 -80.813049 720 1.8161014e-38
3653.7607 -100.45187 720 1.9726928e-38
3634.4709 -121.13768 720 1.9818399e-38
3655.1567 -140.42751 720 2.1202442e-38
3655.8547 -160.41531 720 2.0370868e-38
3656.5527 -180.40314 720 1.9264166e-38
3647.2568 -200.73994 720 6.7284635e-39
3568.7014 -243.50754 700 1.170883e-38
4574.374 -388.49841 940 1.2537869e-38
4726.0278 -433.23303 980 1.0508486e-38
4757.4053 -472.16168 990 1.3918278e-38
4808.4219 -500.39844 1000 1.2720818e-38
4769.1445 -521.78223 990 1.3549498e-38
4750.2036 -552.46191 980 1.3643848e-38
4740.9077 -572.79877 980 1.3369056e-38
4751.9482 -602.43146 990 1.4198089e-38
4803.314 -640.66211 1000 1.4014415e-38
4844.6855 -679.24176 1010 1.465799e-38
4875.7144 -708.17651 1020 1.3546979e-38
4917.0859 -746.75616 1020 8.9404229e-39
4948.4639 -785.68481 1030 8.3850996e-39
4712.3535 -1474.3445 970 6.1727618e-39
4662.3843 -1476.0895 960 5.712864e-39
4643.0947 -1496.7753 950 4.0508414e-39
4613.4619 -1507.8162 940 2.488196e-39
4583.8291 -1518.8571 940 1.8435483e-39
4554.1963 -1529.8979 930 6.6355364e-39
4525.6104 -1570.9205 920 6.5411898e-39
4536.6514 -1600.5532 920 9.3102901e-39
4529.1006 -1670.8596 920 9.6790894e-39
4529.7983 -1690.8474 920 9.7709137e-39
4115.0352 1876.8508 830 2.2130554e-38
4155.0107 1878.2468 840 1.0231169e-38
4194.9863 1879.6428 850 1.0324087e-38
4205.6777 1860.004 850 1.6871421e-38
4167.4473 1808.6385 840 4.4257742e-39
4138.5127 1777.6097 830 2.9524266e-39
4109.9268 1736.5872 830 2.8598722e-39
4052.0574 1674.5298 810 7.9205243e-39
4003.8328 1622.8152 800 9.9589525e-39
3886.698 1538.676 770 1.0595618e-38
3877.751 1508.3453 770 6.1814722e-39
3878.449 1488.3575 770 3.2275757e-39
3879.147 1468.3696 770 2.7669605e-39
3870.2 1438.0389 770 2.3059768e-39
3851.2593 1407.3593 760 2.213421e-39
3851.9573 1387.3715 760 2.1215785e-39
3833.0164 1356.6917 760 2.2130553e-39
3833.7144 1336.7039 760 2.2137769e-39
3834.4124 1316.7161 760 2.1215799e-39
3835.1104 1296.7283 760 5.3430095e-39
3835.8083 1276.7405 760 6.359325e-39
3807.2227 1235.7178 750 1.3455472e-38
3916.1086 1269.5385 780 1.4195547e-38
4113.5439 1346.4757 820 1.5025309e-38
4785.1025 1600.0673 980 1.6775576e-38
4914.3252 1624.592 1010 1.7050382e-38
4935.0112 1605.3022 1020 1.7237637e-38
4956.0459 1576.0184 1020 1.7882634e-38
4858.2012 1512.5651 1000 1.8524786e-38
4829.6152 1471.5425 990 1.9171213e-38
4366.8813 1255.2616 880 1.9630752e-38
4288.6748 1202.5 860 1.9634348e-38
4358.6328 1204.943 880 2.0274335e-38
4547.1211 1251.5496 930 2.0094616e-38
4725.9639 1287.8131 970 2.1015116e-38
4628.1191 1224.3597 940 2.1108035e-38
4589.5391 1182.9882 930 2.0739619e-38
4521.3271 1130.5757 920 2.1289562e-38
4502.3862 1099.896 910 2.147575e-38
4710.8623 1147.2004 960 2.1568303e-38
4632.6562 1094.439 940 2.175305e-38
4653.6904 1065.1553 950 2.1571542e-38
4664.3828 1045.5164 950 2.2121824e-38
4635.4482 1014.4877 940 2.037258e-38
4636.4951 984.50598 940 2.1940679e-38
4637.542 954.52423 940 2.3044147e-38
4668.2217 935.58344 950 2.3321808e-38
4772.1265 538.96802 970 2.3509816e-38
4753.1855 508.28833 970 2.3506572e-38
4724.251 477.25964 960 2.3507299e-38
4685.3223 445.8819 950 2.2951618e-38
4616.4121 413.45721 930 2.2950877e-38
4647.0918 394.51639 940 2.2491701e-38
4598.1689 362.7897 930 2.2212236e-38
4629.1978 333.85495 940 2.2121489e-38
4709.8472 316.65909 960 2.1570819e-38
4770.8574 288.77133 970 2.1386076e-38
4791.5435 269.48151 970 1.954074e-38
4802.584 239.84879 980 1.1888522e-38
4823.6191 210.56505 980 1.1246747e-38
4864.6416 181.97929 990 1.1060558e-38
4875.3335 162.34047 990 9.3113691e-39
4826.4111 130.61377 980 1.4197722e-38
4897.415 103.07501 1000 1.5302626e-38
3828.4163 55.738663 750 1.6223134e-38
3698.4954 51.201729 710 1.7145809e-38
3699.1934 31.213913 710 1.7333078e-38
3739.8669 12.622074 720 1.8250004e-38
3730.571 -7.7147388 720 1.8712776e-38
3671.3057 -29.796524 710 1.8529119e-38
3682.6956 -69.423157 710 1.9359587e-38
3633.075 -81.162048 700 1.6685876e-38
3643.7668 -100.80087 700 2.0001721e-38
3634.4709 -121.13768 700 2.0370489e-38
3655.1567 -140.42751 700 2.0833305e-38
3655.8547 -160.41531 700 1.982093e-38
3646.5588 -180.75214 700 1.9172337e-38
3637.2629 -201.08894 700 6.6352001e-39
4513.3638 -360.61066 900 1.069255e-38
4574.374 -388.49841 920 1.2538213e-38
4716.0342 -433.58203 950 1.0232978e-38
4757.4053 -472.16168 960 1.3828966e-38
4808.4219 -500.39844 970 1.3181785e-38
4769.1445 -521.78223 960 1.3825361e-38
4750.2036 -552.46191 960 1.3643482e-38
4740.9077 -572.79877 960 1.391935e-38
4751.9482 -602.43146 960 1.4563642e-38
4803.314 -640.66211 970 1.4839867e-38
4844.6855 -679.24176 980 1.4382852e-38
4875.7144 -708.17651 990 1.3365464e-38
4917.0859 -746.75616 1000 9.3978053e-39
4968.4512 -784.98682 1010 8.6620438e-39
4682.0229 -1465.3976 940 5.989811e-39
4652.3906 -1476.4385 930 5.2522558e-39
4643.0947 -1496.7753 930 3.0417243e-39
4613.4619 -1507.8162 920 1.8431895e-39
4583.8291 -1518.8571 910 1.6580822e-39
4544.2021 -1530.2469 900 6.5422688e-39
4525.6104 -1570.9205 900 6.0838059e-39
4536.6514 -1600.5532 900 8.8507496e-39
4539.0942 -1670.5106 900 1.0138612e-38
4550.1353 -1700.1433 900 9.7716339e-39
4134.6738 1887.5427 810 1.8816222e-38
4155.0107 1878.2468 810 9.9542357e-39
4204.98 1879.9918 820 1.1977845e-38
4205.6777 1860.004 830 1.1899015e-38
4157.4531 1808.2896 820 9.7780981e-39
4138.5127 1777.6097 810 3.3212189e-39
4119.9209 1736.9362 800 2.9520636e-39
4032.4187 1663.8379 790 7.4613468e-39
3994.188 1612.4723 770 1.01437e-38
3877.053 1528.3331 750 1.0872208e-38
3877.751 1508.3453 750 6.9190401e-39
3878.449 1488.3575 750 3.4119726e-39
3898.7859 1479.0615 750 2.4910897e-39
3889.8389 1448.7308 750 2.2130651e-39
3851.2593 1407.3593 740 2.2126979e-39
3841.9634 1387.0225 740 2.0290325e-39
3833.0164 1356.6917 740 2.0290283e-39
3814.0754 1326.012 730 2.2130595e-39
3814.7734 1306.0242 730 2.4896407e-39
3805.8267 1275.6935 730 6.0794913e-39
3796.5308 1255.3567 730 7.9223193e-39
3767.9448 1214.334 720 1.3363643e-38
3788.2817 1205.0381 730 1.4654011e-38
3936.4453 1260.2426 760 1.5481255e-38
4884.6929 1613.5511 980 1.7418423e-38
4974.6377 1616.6921 1000 1.7695729e-38
4975.6846 1586.7103 1000 1.7514223e-38
4887.834 1523.606 980 1.8432572e-38
4829.6152 1471.5425 960 1.8160305e-38
4376.5264 1265.6045 860 1.9169431e-38
4328.3018 1213.8899 850 1.9815149e-38
4358.6328 1204.943 860 1.9173734e-38
4715.2725 1307.452 940 2.0094607e-38
4676.6924 1266.0803 930 2.009317e-38
4598.4863 1213.3188 910 2.0371196e-38
4579.5454 1182.6392 910 2.1012259e-38
4550.96 1141.6166 900 2.1105524e-38
4492.3926 1099.547 890 2.0921863e-38
4542.7109 1091.298 900 2.1200963e-38
4613.0171 1083.7471 910 2.0834688e-38
4692.9688 1086.5391 930 2.175304e-38
4694.0156 1056.5573 930 2.2212224e-38
4665.4297 1015.5347 920 2.1568256e-38
4666.4766 985.55298 920 2.2493113e-38
4667.1748 965.56512 930 2.313671e-38
4688.2095 936.28143 930 2.3507642e-38
4742.1445 537.92108 940 2.3509818e-38
4713.21 506.89233 930 2.3509813e-38
4694.2695 476.21262 930 2.3505132e-38
4655.3408 444.83493 920 2.3503325e-38
4596.4238 412.75922 900 2.2858691e-38
4657.0859 394.86539 920 2.2120767e-38
4797.6982 379.76349 950 2.2301559e-38
4748.7754 348.0368 940 2.1561107e-38
4759.8164 318.40405 940 2.091647e-38
4800.4902 299.81223 950 1.9991996e-38
4821.5254 270.5285 950 1.7321925e-38
4822.5723 240.54675 950 1.1798476e-38
4833.6133 210.91403 960 1.1703775e-38
4864.6416 181.97929 960 1.1152747e-38
4865.3398 161.99149 960 1.0322632e-38
4826.4111 130.61377 950 1.44725e-38
4907.4092 103.42401 970 1.5669248e-38
3848.4041 56.436646 730 1.6317127e-38
3718.8323 41.905807 700 1.7696469e-38
3719.1812 31.911903 700 1.7790812e-38
3800.1794 4.7221336 720 1.8252151e-38
3840.853 -13.869703 730 1.8804976e-38
3681.2996 -29.447529 690 1.9817673e-38
3652.0159 -50.48233 680 1.4099379e-38
3672.7017 -69.772156 690 2.018682e-38
3633.075 -81.162048 680 1.9724778e-38
3643.7668 -100.80087 680 2.0277583e-38
3624.4771 -121.48667 680 2.0184307e-38
3655.1567 -140.42751 680 2.147615e-38
3645.8608 -160.76431 680 2.0002087e-38
3646.5588 -180.75214 680 1.8713866e-38
4513.3638 -360.61066 880 1.1517241e-38
4574.374 -388.49841 890 8.3901428e-39
4686.0522 -434.629 920 1.0693953e-38
4737.0684 -462.86575 930 1.419594e-38
4798.4282 -500.74741 940 1.3088156e-38
4769.1445 -521.78223 940 1.3368696e-38
4750.2036 -552.46191 930 1.4105183e-38
4740.9077 -572.79877 930 1.3827161e-38
4761.9424 -602.08246 930 1.4197013e-38
4813.3076 -640.31311 940 1.4013705e-38
4844.6855 -679.24176 950 1.456687e-38
4875.7144 -708.17651 960 1.3640972e-38
4927.0801 -746.40717 970 9.1222989e-39
4988.7881 -794.28278 980 9.1205024e-39
6003.5352 -1199.1152 1210 9.5847203e-39
4692.0166 -1465.0486 910 8.2046572e-39
4662.3843 -1476.0895 900 5.1593399e-39
4653.0884 -1496.4263 900 2.2116105e-39
4623.4556 -1507.4672 890 2.120854e-39
4583.8291 -1518.8571 890 1.8428336e-39
4543.8535 -1520.2531 880 6.3585936e-39
4535.6045 -1570.5715 870 6.1738562e-39
4536.6514 -1600.5532 870 8.3904904e-39
4527.3555 -1620.8901 870 1.0508484e-38
4538.3965 -1650.5228 870 1.0691079e-38
4549.4375 -1680.1555 880 1.0231177e-38
4560.478 -1709.7882 880 9.7716395e-39
4134.6738 1887.5427 790 1.6507739e-38
4145.3652 1867.9039 790 9.8620429e-39
4184.9922 1879.2938 800 1.3452954e-38
4176.0454 1848.9631 800 1.4471103e-38
4137.8145 1797.5977 790 1.2175592e-38
4109.229 1756.575 780 5.3477305e-39
4070.9983 1705.2095 770 3.9662198e-39
3924.5796 1600.0354 740 8.7527961e-39
3915.6326 1569.7047 740 9.9560686e-39
3847.7693 1507.2983 720 1.0873637e-38
3858.1121 1497.6534 720 7.8434907e-39
3868.804 1478.0146 730 3.3201343e-39
3879.4958 1458.3757 730 2.3059754e-39
3860.2061 1437.6899 720 2.0290325e-39
3841.6143 1397.0164 720 2.2130609e-39
3832.3184 1376.6796 720 2.3992444e-39
3823.3713 1346.3488 710 3.3204804e-39
3814.0754 1326.012 710 2.2127035e-39
3805.1287 1295.6813 710 5.4337688e-39
3795.8328 1275.3445 710 5.3419417e-39
3786.8857 1245.0138 710 9.4889094e-39
3767.9448 1214.334 700 1.364166e-38
3758.6489 1193.9972 700 1.4744774e-38
3700.4304 1141.9337 680 1.5298655e-38
3848.5942 1197.1382 720 1.5301898e-38
4825.7764 1581.4755 940 1.695889e-38
4964.644 1616.3431 970 1.7695369e-38
4975.6846 1586.7103 970 1.778829e-38
4887.834 1523.606 950 1.7790437e-38
4819.6211 1471.1935 930 1.83411e-38
4319.355 1183.5592 820 1.9630043e-38
4695.2842 1306.754 910 1.9447804e-38
4686.3374 1276.4233 900 1.9543597e-38
4657.752 1235.4006 900 2.0369401e-38
4638.811 1204.7209 890 2.0735315e-38
4629.8643 1174.3903 890 2.1382104e-38
4571.6455 1122.3267 880 2.0371916e-38
4443.8184 1057.8263 850 2.1568646e-38
4652.6436 1095.137 900 2.1478608e-38
4762.5767 1098.976 920 2.1476824e-38
4733.6421 1067.9471 910 2.221186e-38
4685.0684 1026.2266 900 2.2490929e-38
4686.1152 996.24487 900 2.3502959e-38
4677.1685 965.91412 900 2.3508707e-38
4658.2275 935.23444 890 2.3509802e-38
4684.8467 746.04816 900 2.3509855e-38
4695.5381 726.4093 900 2.3509845e-38
4577.3564 672.25183 870 2.3509831e-38
4776.8857 689.22565 920 2.350983e-38
4712.1631 536.87408 900 2.3326125e-38
4683.2285 505.84534 900 2.130069e-38
4674.2812 475.51465 890 1.7423447e-38
4655.3408 444.83493 890 1.4930226e-38
4666.3818 415.20221 890 1.4101181e-38
4806.6455 410.09421 920 1.3363984e-38
4857.6621 381.85745 930 1.3546569e-38
4828.7271 350.82877 930 1.2993759e-38
4809.7861 320.14905 920 1.2622832e-38
4830.4717 300.85922 930 1.133353e-38
4831.519 270.8775 930 9.5836301e-39
4842.5596 241.24475 930 1.0689965e-38
4843.6069 211.26303 930 1.1706641e-38
4854.6475 181.63031 930 1.1519737e-38
4845.3516 161.29349 930 1.0231156e-38
4796.4292 129.56679 920 1.4382106e-38
4887.4214 102.72603 940 1.5946189e-38
3908.3674 58.530617 720 1.677523e-38
3748.814 42.952789 690 1.7421667e-38
3860.1428 6.8161011 710 1.9263431e-38
3652.0159 -50.48233 670 1.2716126e-38
