# .PCD v0.7 - Point Cloud Data file format
VERSION 0.7
FIELDS x y z rgb
SIZE 4 4 4 4
TYPE F F F F
COUNT 1 1 1 1
WIDTH 1226
HEIGHT 1
VIEWPOINT 0 0 0 1 0 0 0
POINTS 1226
DATA ascii
4018.3838 219.01086 -160 1.8439126e-39
3999.8276 197.66446 -160 1.9357481e-39
4041.1252 180.50343 -160 2.0279423e-39
3891.281 29.683437 -140 6.0834318e-39
3932.5786 12.522415 -150 1.308895e-38
3984.5496 -13.916685 -150 9.1281353e-39
3905.4419 -29.472841 -140 4.8926098e-39
3645.3777 -37.633877 -110 1.1246782e-38
3626.8215 -58.980289 -110 2.3088606e-39
3638.1924 -78.234009 -110 1.299852e-38
3618.9387 -89.604774 -110 9.6772943e-39
3610.3582 -110.25362 -110 3.962596e-39
3591.1045 -121.62439 -100 3.5938205e-39
3582.5239 -142.27322 -100 1.5949414e-38
3583.2214 -152.24887 -100 1.6775242e-38
3554.6897 -174.29285 -100 1.6774871e-38
4469.2388 -350.92743 -210 5.8043506e-39
4582.459 -393.13242 -220 4.8838334e-39
4594.5273 -422.36176 -220 6.9121205e-39
4657.1709 -458.07895 -230 8.8500322e-39
4780.3667 -499.58636 -240 9.3095754e-39
4741.8594 -522.32788 -240 9.4014151e-39
4763.9033 -550.85968 -240 9.8613114e-39
4775.9717 -580.08905 -240 1.0138253e-38
4767.3911 -600.73792 -240 9.7705507e-39
4768.7861 -620.68921 -240 1.0138251e-38
4770.8789 -650.61609 -240 1.0322641e-38
4823.5474 -687.03082 -250 1.0966574e-38
4845.5913 -715.56262 -250 9.7662347e-39
4898.957 -761.953 -260 5.7132228e-39
3713.6707 -584.20142 -110 3.5938163e-39
3705.0901 -604.85028 -110 3.7774831e-39
3706.4854 -624.80151 -110 3.7774803e-39
3676.5583 -626.89423 -110 3.8696801e-39
3606.0312 -621.80151 -100 3.8700332e-39
3576.802 -633.86987 -100 4.1458999e-39
3577.4995 -643.84552 -100 4.054063e-39
3558.2458 -655.21631 -90 4.1459027e-39
3785.3831 -749.60193 -120 4.0533525e-39
3806.7295 -768.15808 -120 4.1455397e-39
3798.1489 -788.80688 -120 4.2373808e-39
3756.2314 1674.269 -160 6.9074724e-39
3796.134 1677.0592 -160 6.0813355e-39
3797.5291 1657.1079 -160 1.6609675e-39
3808.8999 1637.8542 -160 1.6591668e-39
3828.8513 1639.2494 -170 1.7513652e-39
3792.4365 1586.5809 -160 1.6598913e-39
3774.5779 1555.2589 -160 1.3836617e-39
3756.7192 1523.9368 -160 2.6711593e-39
3748.1389 1503.288 -160 2.2123518e-39
3739.5583 1482.6392 -150 1.3836701e-39
3721.6997 1451.3171 -150 1.6595213e-39
3723.0947 1431.3658 -150 2.9534944e-39
3734.4656 1412.1121 -150 1.6588039e-39
3735.1631 1402.1365 -150 1.4754972e-39
3698.0508 1359.4436 -150 1.1063504e-39
3593.8994 1271.9653 -130 1.2903815e-39
3575.3433 1250.6189 -130 1.1985432e-39
3576.7383 1230.6676 -130 1.1063532e-39
3568.1577 1210.0188 -130 1.1063518e-39
3579.5286 1190.765 -130 1.0148736e-39
3580.2261 1180.7894 -130 1.0145121e-39
3610.8506 1172.9065 -140 1.0137988e-39
3660.7288 1176.3943 -140 8.2976627e-40
3768.3682 1213.9944 -160 1.3822128e-39
3827.5244 1228.1554 -160 1.5684117e-39
3838.8953 1208.9017 -160 1.383296e-39
3859.5439 1200.3212 -170 1.1981873e-39
3850.9636 1179.6724 -170 1.1059874e-39
3842.3831 1159.0236 -170 1.5673229e-39
3960.6956 1187.3456 -180 1.6587955e-39
4011.969 1170.8821 -190 1.1063476e-39
3974.8567 1128.1893 -180 9.2231643e-40
3947.0225 1096.1697 -180 1.1978215e-39
3889.9587 1052.0817 -170 2.8537457e-39
3822.9197 1007.2963 -160 1.8417518e-39
3815.0366 976.67169 -160 1.4736923e-39
3835.6855 968.09119 -160 1.4729721e-39
3856.3342 959.51068 -160 1.4733308e-39
3936.1394 965.09119 -180 2.119775e-39
3995.9934 969.27661 -180 2.2112574e-39
4007.364 950.02289 -180 2.0275794e-39
4008.7593 930.07159 -180 1.9357439e-39
4010.1543 910.1203 -180 1.7517114e-39
4011.5496 890.16907 -180 3.8668032e-39
4002.969 869.5202 -180 3.682419e-39
3995.0859 838.89569 -180 2.9462917e-39
4035.686 831.71033 -190 3.4965886e-39
4047.0569 812.4566 -190 4.2348669e-39
4038.4763 791.80774 -190 2.8551807e-39
4039.8716 771.85651 -190 2.9495301e-39
4051.2422 752.60278 -190 3.0420802e-39
4023.408 720.58313 -180 3.4101439e-39
4004.8518 699.23676 -180 3.5945366e-39
4026.1982 680.6806 -180 3.5023395e-39
4670.4297 785.8761 -270 2.1194163e-39
4750.9321 781.48102 -280 3.6870867e-39
4683.8931 736.6955 -270 3.8711178e-39
4725.1904 719.53448 -270 3.8707577e-39
4795.7178 714.44177 -280 3.8711234e-39
4080.0522 483.95804 -190 3.5959771e-39
4042.2422 451.24084 -180 4.1473488e-39
4033.6619 430.59201 -180 2.9466546e-39
4015.1057 409.24561 -180 4.4235727e-39
4016.5007 389.29431 -180 3.407623e-39
4027.8716 370.04062 -180 4.6983436e-39
4009.3154 348.69418 -180 8.2939815e-39
4020.686 329.44049 -180 3.4101467e-39
4032.0569 310.18677 -180 2.3977968e-39
4034.1497 280.25983 -180 1.9353908e-39
4005.6179 258.21588 -180 1.8431881e-39
3997.0374 237.56702 -180 1.9353852e-39
4008.408 218.31331 -180 1.7527904e-39
4009.8032 198.36203 -180 1.8439112e-39
4051.1008 181.201 -180 1.9353852e-39
3891.281 29.683437 -160 6.1749058e-39
3932.5786 12.522415 -170 1.1981187e-38
3984.5496 -13.916685 -170 4.8850988e-39
3895.4663 -30.170406 -160 2.7677382e-39
3645.3777 -37.633877 -130 9.8631387e-39
3626.8215 -58.980289 -130 8.8647248e-39
3638.1924 -78.234009 -130 1.1615926e-38
3618.9387 -89.604774 -120 8.6627893e-39
3610.3582 -110.25362 -120 3.6860105e-39
3591.1045 -121.62439 -120 3.7785719e-39
3572.5483 -142.97079 -120 1.6502583e-38
3573.2458 -152.94644 -120 1.6774879e-38
4429.3359 -353.71768 -230 5.6210327e-39
4531.8828 -386.64459 -240 4.8841894e-39
4543.9512 -415.87396 -240 6.5465679e-39
4555.3223 -435.12766 -240 8.7560387e-39
4699.1665 -485.21561 -260 8.942225e-39
4721.2104 -513.74744 -260 9.1241023e-39
4753.23 -541.5816 -270 9.4939667e-39
4785.9473 -579.39148 -270 9.4943282e-39
4777.3667 -600.04034 -270 9.5875958e-39
4769.4834 -630.66486 -270 9.7709095e-39
4780.8545 -649.91852 -270 1.0232242e-38
4813.5718 -687.72839 -270 1.0415197e-38
4814.9668 -707.67969 -270 9.0304746e-39
4817.0596 -737.60663 -270 5.6217474e-39
4829.1279 -766.836 -270 5.7117906e-39
4779.9473 -780.29944 -270 3.777846e-39
3752.1782 -561.4599 -140 3.9618757e-39
3794.1733 -588.59656 -140 4.0533525e-39
3724.344 -593.47949 -130 3.8696787e-39
3725.739 -613.43079 -130 3.9607939e-39
3726.4365 -623.40643 -130 4.0533483e-39
3687.2317 -636.1723 -130 4.3302953e-39
3596.0557 -622.49908 -120 5.4366275e-39
3566.1287 -624.5918 -110 5.4351953e-39
3526.2263 -627.38208 -110 4.9770969e-39
3527.6213 -647.33331 -110 5.4359128e-39
3777.5002 -780.22638 -140 5.253318e-39
3347.3623 -649.91388 -80 5.6210229e-39
3338.7817 -670.56268 -80 5.8046995e-39
3401.4258 -706.27991 -90 6.0812794e-39
3516.0408 -768.43616 -110 6.1731149e-39
3824.6658 1699.1033 -190 2.2127007e-39
3778.2754 1645.7372 -180 1.6606144e-39
3789.6462 1626.4835 -180 1.4754972e-39
3790.3438 1616.5078 -180 1.6609675e-39
3763.207 1574.5126 -180 1.2921892e-39
3745.3486 1543.1906 -170 1.2921878e-39
3737.4656 1512.566 -170 1.9371858e-39
3738.8608 1492.6147 -170 1.6606172e-39
3720.3047 1471.2683 -170 1.3847519e-39
3712.4216 1440.6439 -170 1.1992677e-39
3703.8411 1419.995 -170 2.4878387e-39
3715.2119 1400.7413 -170 1.2921878e-39
3716.6069 1380.79 -170 1.5673257e-39
3640.2898 1325.3313 -160 1.1063532e-39
3574.6455 1260.5945 -150 9.230423e-40
3566.0652 1239.9457 -150 1.107072e-39
3557.4846 1219.2969 -150 1.2903801e-39
3558.8796 1199.3456 -150 1.1989075e-39
3559.5774 1189.3699 -150 1.1981859e-39
3560.9724 1169.4186 -150 1.1067091e-39
3591.5969 1161.5356 -150 1.0152337e-39
3621.5239 1163.6284 -150 1.1067091e-39
3739.1389 1201.926 -170 1.7506324e-39
3817.5488 1227.4579 -180 1.752803e-39
3818.9438 1207.5066 -180 1.4751357e-39
3821.0366 1177.5797 -180 1.3825729e-39
3783.2268 1144.8624 -180 9.219619e-40
3774.6462 1124.2136 -180 1.475486e-39
3795.2952 1115.6332 -180 1.1981845e-39
3932.8613 1155.3259 -200 2.580742e-39
3924.9785 1124.7014 -190 1.0141533e-39
3906.4224 1103.3551 -190 9.2267236e-40
3888.5637 1072.033 -190 1.5673243e-39
3831.5 1027.9451 -180 2.6689943e-39
3803.6658 995.92542 -180 1.6584395e-39
3795.0854 975.27661 -180 1.3825757e-39
3806.4561 956.02289 -180 1.1974656e-39
3807.8513 936.07159 -180 1.1978229e-39
3838.4758 928.18866 -180 2.211972e-39
3917.5833 943.74481 -190 2.2116133e-39
3978.1348 937.95453 -200 2.1190576e-39
3988.8079 928.67645 -200 2.0268647e-39
4000.1787 909.42273 -200 1.8435483e-39
4001.5737 889.4715 -200 3.5909408e-39
4002.969 869.5202 -200 4.7865945e-39
4004.364 849.56891 -200 4.8813139e-39
4035.686 831.71033 -210 4.6029291e-39
4047.0569 812.4566 -210 3.4079873e-39
4048.4519 792.50531 -210 3.5902149e-39
4039.8716 771.85651 -210 1.105986e-39
4041.2666 751.90521 -210 2.0272108e-39
4023.408 720.58313 -210 1.2896556e-39
3994.8762 698.53918 -200 1.4736867e-39
3977.0176 667.2171 -200 1.6573563e-39
3968.4373 646.5683 -200 1.9332187e-39
4699.6592 797.94446 -300 2.1172541e-39
4782.2544 763.62244 -310 2.8530128e-39
4695.2637 717.44177 -300 2.5775092e-39
4040.8472 471.19214 -200 3.5902121e-39
4042.2422 451.24084 -200 3.406188e-39
4033.6619 430.59201 -200 3.4054692e-39
4015.1057 409.24561 -200 2.4853121e-39
4026.4763 389.99188 -200 2.7633382e-39
4027.8716 370.04062 -200 5.161107e-39
4019.291 349.39175 -200 8.1120958e-39
4020.686 329.44049 -200 3.4987438e-39
4032.0569 310.18677 -200 3.7771341e-39
4034.1497 280.25983 -200 1.935388e-39
4005.6179 258.21588 -200 1.7513512e-39
4007.0129 238.26459 -200 1.8435511e-39
4048.3105 221.10356 -200 1.5118969e-38
4039.7302 200.45471 -200 4.248978e-39
4061.0764 181.89856 -200 2.0272235e-39
3891.281 29.683437 -180 6.2721264e-39
3922.603 11.824848 -180 1.1428781e-38
3984.5496 -13.916685 -190 4.7005408e-39
3674.6072 -25.565544 -150 7.3824257e-39
3645.3777 -37.633877 -150 4.8828063e-39
3636.7971 -58.282722 -140 1.4659476e-38
3638.1924 -78.234009 -140 1.0602495e-38
3618.9387 -89.604774 -140 7.5571564e-39
3610.3582 -110.25362 -140 3.5952582e-39
3591.1045 -121.62439 -140 3.6867308e-39
3572.5483 -142.97079 -140 1.686814e-38
3573.2458 -152.94644 -130 1.6498648e-38
4408.6875 -345.13718 -250 5.4362911e-39
4471.3315 -380.85434 -250 4.7001596e-39
4503.3511 -408.68857 -260 6.8217129e-39
4454.1704 -422.15204 -250 8.6645675e-39
4577.3662 -463.65945 -270 9.0315522e-39
4670.6348 -507.25958 -280 9.4014095e-39
4702.6543 -535.09381 -290 9.9524183e-39
4795.9229 -578.69391 -300 9.5872301e-39
4817.9668 -607.22571 -300 9.8613086e-39
4799.4106 -628.57214 -300 1.0137887e-38
4801.5034 -658.49908 -300 9.7730619e-39
4813.5718 -687.72839 -300 1.0414477e-38
4774.3667 -700.49432 -290 9.214147e-39
3707.3926 -494.42065 -150 5.4359212e-39
3750.783 -541.50861 -160 4.6997981e-39
3752.1782 -561.4599 -160 3.5941708e-39
3835.4709 -605.75757 -170 4.0533539e-39
3754.9683 -601.36243 -160 4.2373808e-39
3786.988 -629.19666 -160 4.1455467e-39
3869.5833 -663.51874 -170 4.1459069e-39
3727.8318 -643.35767 -150 4.9752934e-39
3534.8066 -606.73322 -130 5.7128556e-39
3504.8799 -608.82593 -120 6.0809277e-39
3444.3284 -603.03564 -110 6.1709555e-39
3538.2944 -656.61139 -130 6.0812822e-39
3338.084 -660.58704 -100 6.6312176e-39
3369.4062 -678.44568 -100 6.2627952e-39
3370.8013 -698.39691 -100 5.526312e-39
3423.4697 -734.81165 -110 5.1593273e-39
3424.1675 -744.78729 -110 5.3422808e-39
3518.1335 -798.3631 -120 5.4341205e-39
3863.1733 1721.8447 -210 2.0293927e-39
3740.4656 1613.02 -190 2.3978122e-39
3741.1631 1603.0444 -190 1.3836617e-39
3752.5339 1583.7906 -190 1.7520827e-39
3734.6753 1552.4686 -190 1.3836659e-39
3726.0947 1531.8198 -190 1.2907486e-39
3727.49 1511.8685 -190 1.7510009e-39
3728.885 1491.9172 -190 1.384382e-39
3720.3047 1471.2683 -190 1.8446399e-39
3712.4216 1440.6439 -190 1.1992691e-39
3713.8167 1420.6926 -190 1.1985516e-39
3724.49 1411.4146 -190 1.9371914e-39
3697.3533 1369.4193 -190 1.1985502e-39
3582.5286 1291.219 -170 1.291106e-39
3555.3918 1249.2238 -160 1.1981901e-39
3556.0894 1239.2482 -160 1.3829344e-39
3547.509 1218.5992 -160 1.1989033e-39
3548.9041 1198.6479 -160 1.1992635e-39
3550.2993 1178.6967 -160 1.1989075e-39
3560.9724 1169.4186 -160 1.1067091e-39
3572.3433 1150.1649 -160 1.198546e-39
3612.2458 1152.9552 -170 1.105993e-39
3719.885 1190.5553 -190 1.6577207e-39
3818.2463 1217.4822 -200 1.7520827e-39
3818.9438 1207.5066 -200 1.4751301e-39
3801.0854 1176.1846 -200 1.1070706e-39
3773.2512 1144.1649 -190 8.3012641e-40
3765.3682 1113.5404 -190 1.5666026e-39
3786.0171 1104.96 -200 1.1971055e-39
3981.3445 1178.765 -220 2.9509748e-39
3934.2566 1135.3746 -220 1.4762063e-39
3945.6272 1116.121 -220 1.5673285e-39
3927.7688 1084.799 -210 1.0137932e-39
3841.4758 1028.6426 -200 6.4573515e-40
3793.6902 995.22784 -200 7.3756504e-40
3785.8074 964.60339 -190 8.2940054e-40
3786.5049 954.62775 -190 1.2903731e-39
3778.6218 924.00323 -190 1.2903787e-39
3779.3196 914.02765 -190 2.211972e-39
3810.6416 896.16901 -200 2.0272221e-39
3850.5442 898.95929 -200 2.0279381e-39
3911.0955 893.16907 -210 1.751717e-39
3951.6956 885.98364 -220 1.7506352e-39
3982.3201 878.10071 -220 3.8657256e-39
3993.6909 858.84698 -220 4.1433901e-39
3995.0859 838.89569 -220 4.3281387e-39
4025.7104 831.01276 -230 3.8685983e-39
4027.1057 811.06146 -230 3.7738929e-39
4028.5007 791.11023 -230 2.5782322e-39
4020.6177 760.48572 -230 1.1974628e-39
4022.0129 740.53442 -230 2.1197666e-39
4013.4324 719.88556 -220 1.1056273e-39
3994.8762 698.53918 -220 9.2231363e-40
3996.2715 678.58789 -220 1.013789e-39
3997.6665 658.6366 -220 1.0137904e-39
3989.7834 628.01215 -220 1.1981817e-39
4001.1543 608.75842 -220 1.3818512e-39
4021.8032 600.17792 -220 1.2903759e-39
4013.9202 569.55341 -220 1.1063448e-39
4034.5691 560.9729 -230 1.2900157e-39
4019.5007 489.74829 -220 1.2907346e-39
4030.8716 470.49457 -220 1.3829288e-39
4032.2666 450.5433 -220 1.4740483e-39
4033.6619 430.59201 -220 1.3822114e-39
4015.1057 409.24561 -220 1.3825729e-39
4026.4763 389.99188 -220 1.1985376e-39
4027.8716 370.04062 -220 5.0681911e-39
4019.291 349.39175 -220 8.5723677e-39
4020.686 329.44049 -220 1.5691124e-39
4032.0569 310.18677 -220 1.3825701e-39
4034.1497 280.25983 -220 2.1190604e-39
4005.6179 258.21588 -220 1.8435483e-39
4007.0129 238.26459 -220 1.8439084e-39
4058.2864 221.80113 -230 1.0316159e-38
4059.6814 201.84985 -230 7.3670184e-39
4081.0278 183.2937 -230 2.0275822e-39
4103.0718 154.7619 -230 2.3963633e-39
3848.5881 66.795738 -190 2.0268591e-39
3820.0564 44.75177 -190 2.1194149e-39
3881.3052 28.985874 -200 9.2237963e-39
3912.6272 11.127285 -200 1.2618328e-38
3944.647 -16.706944 -210 2.8577927e-39
3674.6072 -25.565544 -170 1.2257673e-38
3635.4021 -38.331444 -160 2.4914722e-39
3636.7971 -58.282722 -160 1.2908497e-38
3638.1924 -78.234009 -160 1.1154937e-38
3618.9387 -89.604774 -160 6.4511718e-39
3610.3582 -110.25362 -160 3.503064e-39
3591.1045 -121.62439 -150 3.5941792e-39
3582.5239 -142.27322 -150 1.677487e-38
3573.2458 -152.94644 -150 1.7048584e-38
3483.4651 -159.22452 -140 1.6038392e-38
4398.7119 -345.83472 -270 5.3440899e-39
4380.1558 -367.18115 -270 4.6072493e-39
4442.7998 -402.89832 -270 6.6330183e-39
4403.5947 -415.66422 -270 8.3822255e-39
4415.6631 -444.89355 -270 8.201074e-39
3789.2905 -518.76709 -180 5.3433668e-39
3771.4319 -550.08911 -180 4.9749431e-39
3792.7783 -568.64526 -180 3.7774831e-39
3794.1733 -588.59656 -180 3.9615142e-39
3724.344 -593.47949 -170 4.1448265e-39
3756.3635 -621.31372 -170 3.6852888e-39
3787.6855 -639.1723 -180 4.0533525e-39
3748.4805 -651.93823 -170 5.8039722e-39
3534.8066 -606.73322 -140 5.9887236e-39
3576.802 -633.86987 -150 5.9876502e-39
3403.7283 -595.85028 -120 6.3546307e-39
3578.8948 -663.79681 -150 5.7103459e-39
3294.6938 -613.49915 -110 5.3433598e-39
3316.04 -632.0553 -110 4.9760136e-39
3338.084 -660.58704 -110 4.9745815e-39
3400.7283 -696.30426 -120 4.7916308e-39
3401.4258 -706.27991 -120 5.2490076e-39
3443.4211 -733.41656 -130 4.8813083e-39
3517.436 -788.38745 -140 4.699431e-39
3548.7581 -806.24603 -140 4.8831034e-39
3581.4751 -844.05591 -150 4.9745815e-39
3551.5483 -846.14856 -140 4.8827446e-39
3562.9189 -865.40228 -140 5.0667772e-39
3739.7681 1622.9956 -210 2.0290367e-39
3731.885 1592.3712 -210 1.1989089e-39
3742.5583 1583.0931 -210 1.5684061e-39
3724.6997 1551.771 -210 2.2123392e-39
3726.0947 1531.8198 -210 1.3836603e-39
3727.49 1511.8685 -210 1.6591668e-39
3728.885 1491.9172 -210 1.3840191e-39
3720.3047 1471.2683 -210 1.9368355e-39
3712.4216 1440.6439 -210 1.1989089e-39
3723.0947 1431.3658 -210 1.1070762e-39
3734.4656 1412.1121 -210 2.1183443e-39
3648.8701 1345.9801 -200 1.384382e-39
3553.9968 1269.175 -180 1.8428308e-39
3536.1382 1237.853 -180 1.0145163e-39
3536.8357 1227.8773 -180 1.2907416e-39
3538.231 1207.926 -180 1.3829358e-39
3539.626 1187.9747 -180 1.2903829e-39
3541.0212 1168.0234 -180 1.1067063e-39
3551.6943 1158.7454 -180 1.107065e-39
3562.3674 1149.4673 -180 1.1985446e-39
3583.0164 1140.8868 -180 1.0148722e-39
3680.6802 1177.7894 -200 1.4751315e-39
3779.0413 1204.7163 -220 1.75244e-39
3799.6902 1196.1359 -220 1.3829401e-39
3791.1096 1175.4869 -220 1.2911018e-39
3753.9973 1132.7942 -210 8.3012781e-40
3745.417 1112.1453 -210 1.0134359e-39
3776.0413 1104.2623 -210 9.2267516e-40
3972.0664 1168.0918 -240 9.0257956e-39
3875.7979 1111.238 -230 8.1992664e-39
3935.6516 1115.4233 -240 2.2130735e-39
3937.0469 1095.472 -240 9.219577e-40
3792.2952 1015.1792 -210 8.2940194e-40
3774.4365 983.85712 -210 8.2940194e-40
3765.856 963.20825 -210 6.4573094e-40
3767.2512 943.25696 -210 9.2123603e-40
3758.6707 922.60815 -210 2.0272207e-39
3770.0415 903.35443 -210 1.9357495e-39
3771.4365 883.40314 -210 1.7509967e-39
3802.061 875.5202 -210 1.7520757e-39
3812.7341 866.24213 -220 1.8431909e-39
3863.3101 859.75427 -220 1.10527e-39
3962.3689 876.70557 -240 1.2910961e-39
3973.7395 857.45184 -240 1.6562801e-39
3985.1104 838.19812 -240 3.0345286e-39
4006.4568 819.64197 -240 3.4947879e-39
4007.8518 799.69073 -250 3.5869864e-39
4009.2471 779.73944 -250 1.7499107e-39
4000.6665 759.09058 -240 1.1974656e-39
3972.8323 727.07098 -240 1.1059888e-39
3915.071 692.95868 -230 1.1978229e-39
3916.4663 673.00739 -230 1.1974642e-39
3878.6565 640.29022 -220 1.0152267e-39
3840.1489 617.54865 -220 1.0152267e-39
3949.8811 625.22186 -230 1.2900186e-39
4001.1543 608.75842 -240 1.2903773e-39
4041.7544 601.57306 -250 1.3822114e-39
4013.9202 569.55341 -240 1.3818526e-39
4064.4961 563.06561 -250 1.1063434e-39
4105.7939 545.9046 -260 1.290736e-39
4019.5007 489.74829 -240 1.2903759e-39
4040.8472 471.19214 -250 1.4744084e-39
4042.2422 451.24084 -250 1.38221e-39
4033.6619 430.59201 -240 1.3818526e-39
4015.1057 409.24561 -240 1.1985376e-39
4026.4763 389.99188 -240 1.1070636e-39
4027.8716 370.04062 -240 4.5153886e-39
4019.291 349.39175 -240 8.2965039e-39
4020.686 329.44049 -240 1.1992593e-39
4032.0569 310.18677 -240 1.6587955e-39
4044.1252 280.9574 -240 1.9357481e-39
4005.6179 258.21588 -240 1.9350264e-39
4026.9641 239.65973 -240 1.6598801e-39
4048.3105 221.10356 -240 2.120138e-39
4049.7058 201.15228 -240 2.1187016e-39
4051.1008 181.201 -240 1.9350278e-39
4042.5203 160.55215 -240 1.936104e-39
3843.0076 146.60086 -210 2.3963619e-39
3834.427 125.95203 -210 3.2254009e-39
3835.8223 106.00073 -210 2.1194163e-39
3837.2173 86.049461 -210 1.8431909e-39
3838.6125 66.098175 -210 1.6591584e-39
3859.9587 47.542023 -210 1.6587969e-39
3871.3296 28.288307 -220 1.5495238e-38
3902.6516 10.429722 -220 3.0454658e-39
3923.998 -8.1264324 -220 2.0308612e-39
3674.6072 -25.565544 -180 7.1919374e-39
3635.4021 -38.331444 -180 2.6769439e-39
3626.8215 -58.980289 -180 1.1987255e-38
3638.1924 -78.234009 -180 1.1613751e-38
3618.9387 -89.604774 -180 5.2515608e-39
3610.3582 -110.25362 -170 3.4097922e-39
3591.1045 -121.62439 -170 3.5938219e-39
3592.4995 -141.57567 -170 1.7052189e-38
3583.2214 -152.24887 -170 1.6408244e-38
3534.0408 -165.71234 -160 1.6405374e-38
4388.7363 -346.53229 -290 5.1607805e-39
4349.5312 -359.29819 -290 3.3201021e-39
4381.5508 -387.13242 -290 3.2239674e-39
4332.3701 -400.59589 -280 2.2119706e-39
4344.4385 -429.82523 -280 2.3952843e-39
3799.2661 -518.06946 -200 5.0678632e-39
3780.71 -539.41589 -200 3.2250296e-39
3761.4563 -550.78668 -190 4.5154054e-39
3762.8513 -570.73798 -190 3.5009032e-39
3753.5732 -581.41113 -190 3.8689612e-39
3714.3682 -594.17706 -190 3.685286e-39
3756.3635 -621.31372 -190 3.128162e-39
3777.71 -639.86987 -190 4.4239301e-39
3758.4563 -651.24066 -190 5.8940155e-39
3780.5002 -679.77246 -190 5.6181517e-39
3791.8708 -699.02612 -200 5.4337548e-39
3331.8062 -570.80627 -130 5.2500866e-39
3506.9724 -638.75281 -150 4.9745801e-39
3271.9521 -574.9917 -120 5.1596874e-39
3293.2988 -593.54785 -120 4.9749403e-39
3294.6938 -613.49915 -120 4.8831062e-39
3306.0645 -632.75287 -120 5.15897e-39
3348.0598 -659.88953 -130 4.974227e-39
3359.4307 -679.14319 -130 5.0657038e-39
3401.4258 -706.27991 -140 4.8816684e-39
3433.4453 -734.11414 -140 4.6068766e-39
3599.3337 -812.73383 -160 4.423207e-39
3580.0801 -824.10461 -160 4.6058032e-39
3591.4509 -843.35834 -160 5.0653408e-39
3592.8459 -863.30963 -160 4.6065193e-39
3594.241 -883.26086 -160 4.5132516e-39
3597.1091 1512.7758 -210 1.6598885e-39
3664.8459 1547.5857 -220 1.9364726e-39
3723.3044 1571.7223 -230 1.3843834e-39
3715.4216 1541.0979 -230 1.1989145e-39
3716.8167 1521.1466 -230 1.1992677e-39
3727.49 1511.8685 -230 1.5676872e-39
3718.9094 1491.2196 -230 1.3836589e-39
3720.3047 1471.2683 -230 1.476942e-39
3712.4216 1440.6439 -230 1.1070706e-39
3723.0947 1431.3658 -230 1.1070706e-39
3714.5144 1410.7169 -230 1.0148792e-39
3591.1091 1311.8678 -200 2.2130454e-39
3534.7432 1257.8043 -200 1.0148764e-39
3516.187 1236.4579 -190 1.1992663e-39
3527.5576 1217.2041 -190 1.3825743e-39
3528.9529 1197.2528 -190 1.3832988e-39
3529.6504 1187.2772 -190 1.568762e-39
3521.0698 1166.6284 -190 1.47873e-39
3541.7188 1158.0479 -200 1.7531575e-39
3553.0894 1138.7942 -200 1.6606059e-39
3543.8113 1128.121 -200 1.5684061e-39
3632.197 1154.3503 -210 2.0286682e-39
3730.5583 1181.2772 -230 1.6609619e-39
3741.929 1162.0236 -230 1.5658866e-39
3743.3242 1142.0723 -230 1.2907388e-39
3686.2605 1097.9843 -220 1.1999823e-39
3658.4263 1065.9646 -210 1.1992663e-39
3639.8701 1044.6183 -210 1.0148722e-39
3602.0603 1011.9011 -200 1.1985446e-39
3623.4067 993.34491 -210 1.3818583e-39
3634.0801 984.06683 -210 1.2896626e-39
3625.4995 963.41797 -210 8.3012361e-40
3753.7876 992.43762 -230 9.219563e-40
3735.2314 971.09119 -220 7.3756784e-40
3746.6023 951.83746 -230 6.4501068e-40
3757.2754 942.55939 -230 8.2976067e-40
3748.6951 921.91058 -230 1.3814939e-39
3760.0657 902.65686 -230 1.750638e-39
3761.4609 882.70557 -230 1.5669614e-39
3782.1096 874.12506 -230 1.7509953e-39
3793.4805 854.87134 -230 1.6591528e-39
3824.105 846.9884 -240 1.3825715e-39
3874.6807 840.50055 -250 1.2903717e-39
3905.3052 832.61761 -250 1.0134331e-39
3896.7246 811.96881 -250 8.2940334e-40
3908.0955 792.71509 -250 9.2159616e-40
3938.72 784.83209 -250 7.3720491e-40
3950.0908 765.57843 -260 1.1052644e-39
3912.2808 732.86121 -250 1.2892955e-39
3893.7246 711.51483 -250 9.2123463e-40
3875.8662 680.19275 -240 7.3792237e-40
3877.2612 660.24146 -240 1.1999753e-39
3838.7539 637.49994 -240 1.1059846e-39
3780.9927 603.38763 -230 1.1985446e-39
3851.5198 598.29492 -240 1.2907374e-39
3862.8904 579.04126 -240 1.381854e-39
3805.1294 544.92889 -230 1.1067007e-39
3815.8025 535.65082 -230 1.290736e-39
3817.1978 515.69958 -230 1.3822128e-39
4065.8911 543.11432 -270 1.2903787e-39
4097.2129 525.25574 -280 1.1989005e-39
3989.5737 487.65558 -260 1.1988949e-39
4040.8472 471.19214 -270 1.3829288e-39
4032.2666 450.5433 -270 1.4744042e-39
4033.6619 430.59201 -270 1.2903787e-39
4015.1057 409.24561 -260 1.4747685e-39
4026.4763 389.99188 -260 1.3829302e-39
4027.8716 370.04062 -260 5.0685526e-39
4009.3154 348.69418 -260 9.2173798e-39
4011.408 318.76727 -260 1.2903787e-39
4022.7788 299.51355 -260 1.3822114e-39
4034.1497 280.25983 -260 1.8431937e-39
3955.7395 254.72806 -250 1.8428308e-39
3937.1833 233.38162 -250 1.843907e-39
3978.4812 216.22061 -250 1.9346663e-39
4019.7788 199.05959 -260 1.8435511e-39
4021.1741 179.10831 -260 1.8431923e-39
3952.7395 154.27408 -250 2.0265032e-39
3833.032 145.90331 -230 2.3960074e-39
3824.4514 125.25446 -230 3.2243261e-39
3835.8223 106.00073 -230 2.1190604e-39
3837.2173 86.049461 -230 2.0268591e-39
3838.6125 66.098175 -230 1.6587969e-39
3849.9832 46.84446 -230 1.5673243e-39
3871.3296 28.288307 -240 2.213228e-38
3892.676 9.7321548 -240 3.0435502e-39
3914.0225 -8.8239956 -240 4.5186593e-39
3674.6072 -25.565544 -200 7.8348643e-39
3635.4021 -38.331444 -200 1.2647635e-38
3636.7971 -58.282722 -200 1.2168768e-38
3648.168 -77.536438 -200 1.0969107e-38
3618.9387 -89.604774 -190 4.2381165e-39
3610.3582 -110.25362 -190 3.409788e-39
3601.0801 -120.92683 -190 3.3168749e-39
3602.4751 -140.87811 -190 1.6685565e-38
3593.8945 -161.52695 -190 1.622385e-38
3553.9922 -164.31721 -180 1.5854364e-38
3476.9773 -209.80029 -170 5.4370072e-39
4418.6631 -344.43961 -320 4.6962094e-39
4420.7559 -374.36652 -320 3.5948953e-39
4422.1509 -394.31781 -320 2.580756e-39
4403.5947 -415.66422 -320 2.119775e-39
4404.9902 -435.61548 -320 2.3038061e-39
3819.9148 -526.65002 -220 5.0675044e-39
3780.71 -539.41589 -210 3.0402852e-39
3740.8074 -542.20618 -210 4.6076025e-39
3732.2268 -562.85498 -210 3.5012563e-39
3732.9243 -572.83063 -210 3.4065468e-39
3714.3682 -594.17706 -200 1.7570966e-39
3745.6902 -612.03564 -210 5.0667715e-39
3767.7344 -640.56744 -210 5.4355513e-39
3758.4563 -651.24066 -210 5.2515229e-39
3769.8269 -670.49438 -210 5.2508027e-39
3801.8467 -698.32861 -220 5.3419207e-39
3352.4551 -579.38684 -150 4.8816698e-39
3414.4014 -605.12836 -150 4.6980002e-39
3364.5234 -608.61615 -150 4.882753e-39
3365.2207 -618.5918 -150 4.6075983e-39
3315.3428 -622.07965 -140 4.7905518e-39
3316.04 -632.0553 -140 4.5143278e-39
3368.7085 -668.47003 -150 4.8823817e-39
3380.0796 -687.72375 -150 4.5150439e-39
3391.4502 -706.97742 -150 4.6065207e-39
3444.1187 -743.39221 -160 4.6972772e-39
3599.3337 -812.73383 -180 4.6987149e-39
3590.7532 -833.38269 -180 4.3306526e-39
3613.4949 -871.89014 -180 4.5146852e-39
3567.1821 1510.6831 -220 2.2123378e-39
3558.6016 1490.0343 -220 1.5680558e-39
3588.5286 1492.127 -220 1.6595283e-39
3694.7727 1549.6783 -240 1.6606059e-39
3696.168 1529.7271 -240 1.3833002e-39
3707.5386 1510.4734 -240 1.2918248e-39
3727.49 1511.8685 -250 1.3840148e-39
3719.6069 1481.244 -250 1.2911032e-39
3721.0022 1461.2927 -250 1.5676971e-39
3702.446 1439.9463 -240 1.1989103e-39
3713.8167 1420.6926 -240 1.290743e-39
3685.9824 1388.673 -240 1.1989075e-39
3581.8311 1301.1947 -220 1.5687634e-39
3525.4651 1247.1311 -210 2.955658e-39
3506.9089 1225.7847 -210 4.0576867e-39
3517.582 1216.5066 -210 3.6871035e-39
3518.9771 1196.5553 -210 3.3176007e-39
3520.3723 1176.604 -210 2.4889261e-39
3511.7917 1155.9552 -210 2.4878401e-39
3532.4407 1147.3746 -210 2.1201394e-39
3543.1138 1138.0966 -210 2.3038103e-39
3525.2551 1106.7745 -210 2.1194219e-39
3593.6897 1131.6088 -220 1.5666068e-39
3653.5435 1135.7942 -230 1.1067091e-39
3644.9629 1115.1453 -230 1.4740539e-39
3665.6118 1106.5648 -230 2.0272235e-39
3627.802 1073.8477 -230 2.3045292e-39
3619.2214 1053.1987 -220 2.3974507e-39
3630.592 1033.9451 -230 1.9393494e-39
3592.7822 1001.2279 -220 2.0293857e-39
3594.1775 981.27661 -220 1.7520799e-39
3594.875 971.30096 -220 1.2921794e-39
3586.2944 950.6521 -220 1.105986e-39
3714.5828 979.67169 -240 1.0137918e-39
3725.9534 960.41803 -240 9.219605e-40
3717.373 939.76917 -240 1.0141505e-39
3747.9973 931.88623 -240 1.0141505e-39
3729.4412 910.53979 -240 1.0148652e-39
3740.812 891.28607 -240 1.1974628e-39
3722.2559 869.9397 -240 1.6577165e-39
3743.6023 851.38354 -240 1.2903773e-39
3754.2754 842.10547 -240 1.0130729e-39
3735.7192 820.75903 -240 1.1971041e-39
3815.5244 826.33954 -250 9.2231503e-40
3797.6658 795.01752 -250 8.2976207e-40
3838.2661 787.83209 -260 1.0134331e-39
3809.7341 765.78815 -250 9.219535e-40
3841.0562 747.92957 -260 6.4572954e-40
3812.5244 725.88556 -250 1.1056245e-39
3754.7634 691.77325 -240 1.5651621e-39
3795.3635 684.58789 -250 1.1978201e-39
3796.7585 664.6366 -250 1.0141477e-39
3818.105 646.08044 -250 1.1045483e-39
3769.6218 622.64136 -240 1.2885808e-39
3702.5828 577.85583 -230 8.3047813e-40
3782.3877 583.43634 -250 1.1063434e-39
3724.6267 549.32404 -240 1.3818512e-39
3726.0217 529.37274 -240 1.3829288e-39
3717.4412 508.72394 -230 1.3825701e-39
3768.0171 502.23608 -240 1.4744084e-39
3789.3635 483.67996 -250 1.3818512e-39
3790.061 473.70432 -250 1.3825687e-39
4060.7983 472.58728 -290 1.4754818e-39
4012.3154 449.14816 -280 1.7491932e-39
4023.686 429.89444 -290 1.3843666e-39
4005.1299 408.54803 -280 1.7509925e-39
4016.5007 389.29431 -280 1.3829302e-39
4007.9202 368.64548 -280 4.5161047e-39
4000.0374 338.021 -280 8.6645605e-39
3941.5786 313.88431 -270 1.1067007e-39
3853.1929 287.65497 -250 1.4747657e-39
3844.6125 267.0061 -250 1.9353866e-39
3846.0076 247.05484 -250 1.7506366e-39
3867.354 228.49869 -260 1.9350264e-39
3968.5056 215.52304 -270 1.751354e-39
3999.8276 197.66446 -280 1.6602402e-39
3941.3689 173.52779 -270 1.751354e-39
3912.8372 151.48381 -260 1.9346663e-39
3833.032 145.90331 -250 2.2126923e-39
3814.4758 124.55688 -250 2.8584163e-39
3815.8708 104.60561 -250 2.2108902e-39
3817.2661 84.654327 -250 1.842828e-39
3828.6367 65.400612 -250 1.6584409e-39
3830.032 45.449333 -250 1.5669642e-39
3871.3296 28.288307 -250 1.9625133e-38
3892.676 9.7321548 -260 1.8461042e-39
3663.2363 -6.3118267 -220 7.47212e-39
3664.6313 -26.263109 -220 3.5974891e-39
3635.4021 -38.331444 -210 1.8437391e-38
3636.7971 -58.282722 -210 1.161917e-38
3648.168 -77.536438 -220 9.9542287e-39
3628.9143 -88.907211 -210 3.1332081e-39
3620.3337 -109.55605 -210 3.1328437e-39
3611.0557 -120.22926 -210 3.224682e-39
3602.4751 -140.87811 -210 1.6589423e-38
3603.8704 -160.82939 -210 1.6405733e-38
3574.6409 -172.89772 -200 1.5854365e-38
3586.0117 -192.15144 -200 8.4762386e-39
3637.2849 -208.6149 -210 5.8961875e-39
3578.1287 -222.77592 -200 5.3430151e-39
4504.7461 -428.63986 -360 2.119775e-39
4476.2148 -450.68384 -350 2.2123294e-39
3697.417 -495.11823 -220 4.882037e-39
3742.2024 -562.15741 -230 1.6609479e-39
3743.5977 -582.1087 -230 5.1604063e-39
3713.6707 -584.20142 -220 5.341562e-39
3756.3635 -621.31372 -230 4.7901903e-39
3747.0854 -631.98694 -230 5.1589784e-39
3737.8074 -642.66016 -220 5.1600546e-39
3780.5002 -679.77246 -230 5.343364e-39
3801.8467 -698.32861 -230 5.3422808e-39
3383.0796 -587.26978 -170 4.6065235e-39
3415.0991 -615.104 -170 4.7901973e-39
3374.499 -607.91858 -160 5.0667758e-39
3355.2451 -619.28937 -160 4.8816656e-39
3264.0693 -605.61615 -150 4.7887497e-39
3285.4155 -624.1723 -150 4.4214119e-39
3450.6064 -692.81641 -180 4.146267e-39
3410.7039 -695.60669 -170 4.698359e-39
3504.6702 -749.18243 -180 4.3302939e-39
3547.3628 -786.29474 -190 4.6058004e-39
3630.6558 -830.59241 -200 4.5139621e-39
3631.3533 -840.56805 -200 4.8816628e-39
3664.0706 -878.37793 -210 4.6054431e-39
3654.7925 -889.05115 -210 4.4221294e-39
3655.49 -899.02679 -210 4.3299338e-39
3688.2073 -936.83667 -210 4.5146824e-39
3647.6072 -929.65125 -200 4.4206917e-39
3669.6511 -958.18304 -210 4.4217707e-39
3619.0754 -951.69525 -200 4.5132446e-39
3528.6748 1487.9415 -230 2.3048964e-39
3529.3723 1477.9659 -230 1.568053e-39
3569.2749 1480.7562 -240 1.1999907e-39
3646.9873 1516.2637 -250 1.7531589e-39
3677.6118 1508.3806 -260 1.1996264e-39
3688.2849 1499.1025 -260 1.2914619e-39
3708.2363 1500.4977 -260 1.3836575e-39
3700.3533 1469.8733 -260 1.3829401e-39
3701.0508 1459.8976 -260 1.1070734e-39
3673.9143 1417.9023 -260 1.2921808e-39
3675.3093 1397.951 -260 3.7825446e-39
3638.197 1355.2582 -250 4.701617e-39
3571.8555 1300.4971 -240 3.5934688e-39
3515.4893 1246.4335 -230 2.5800441e-39
3506.9089 1225.7847 -220 2.0286682e-39
3517.582 1216.5066 -230 1.8439126e-39
3509.0015 1195.8577 -230 1.9350278e-39
3510.3967 1175.9065 -220 1.8428364e-39
3501.8162 1155.2576 -220 1.8424763e-39
3522.4651 1146.6771 -230 2.5832755e-39
3533.8357 1127.4233 -230 2.3045334e-39
3506.0015 1095.4038 -220 1.383296e-39
3545.2065 1108.1697 -230 1.1063504e-39
3624.314 1123.7258 -240 1.1063518e-39
3625.0117 1113.7501 -240 1.0145163e-39
3636.3823 1094.4965 -250 1.3829344e-39
3598.5725 1061.7793 -240 1.6598773e-39
3590.6897 1031.1548 -240 2.1201408e-39
3582.1091 1010.506 -240 2.212335e-39
3534.3235 977.09119 -230 2.1215771e-39
3554.9724 968.51068 -230 2.8569855e-39
3546.3918 947.86182 -230 2.9509804e-39
3567.0408 939.28131 -230 2.397808e-39
3646.1482 954.83746 -250 1.8446371e-39
3696.7241 948.34967 -250 1.1074308e-39
3697.4216 938.37402 -250 1.0134317e-39
3738.0217 931.18866 -260 8.2975927e-40
3710.1875 899.16901 -260 8.30118e-40
3720.8608 889.89093 -260 1.750631e-39
3693.0266 857.87134 -250 1.3825701e-39
3694.4216 837.92004 -250 1.29002e-39
3705.095 828.64197 -250 1.7495534e-39
3559.6458 758.32465 -230 1.1978201e-39
3551.0652 737.67584 -230 1.5673411e-39
3542.4846 717.02698 -230 9.2159476e-40
3543.8796 697.07568 -220 7.3756644e-40
3603.7336 701.26111 -230 7.3720631e-40
3624.3823 692.6806 -240 6.4608828e-40
3635.7532 673.42688 -240 1.0127114e-39
3656.4021 664.84637 -240 1.1056245e-39
3667.7727 645.59265 -250 1.013789e-39
3649.2166 624.24622 -240 1.19746e-39
3699.7925 617.75842 -250 1.3814939e-39
3661.9827 585.0412 -240 1.5655222e-39
3662.6802 575.06555 -240 1.5655222e-39
3476.6309 511.93365 -210 1.8410287e-39
3655.4946 534.46545 -240 1.5658796e-39
3676.8411 515.9093 -240 1.7502736e-39
3687.5144 506.63123 -250 1.5662425e-39
3718.8364 488.77264 -250 1.3811338e-39
3700.2803 467.42624 -250 1.1052658e-39
3730.9048 459.54327 -250 1.1052672e-39
3742.2754 440.28955 -260 1.288578e-39
3713.7437 418.24561 -250 1.1056245e-39
3695.1875 396.89917 -250 1.0141505e-39
3735.7876 389.71381 -250 1.0148708e-39
3668.0508 354.90393 -240 1.0145135e-39
3748.5537 350.50879 -260 1.1067035e-39
3720.0217 328.46481 -250 4.6086548e-39
3761.3196 311.3038 -260 8.4816126e-39
3762.7146 291.35251 -260 1.4740497e-39
3753.4365 280.67932 -260 1.6580752e-39
3764.8074 261.4256 -260 1.9357425e-39
3756.2268 240.77676 -260 1.751354e-39
3737.6707 219.43034 -250 1.9353838e-39
3888.7004 209.94254 -280 1.9350264e-39
3949.9495 194.17664 -290 1.9353852e-39
3861.5637 167.94728 -270 1.843907e-39
3843.0076 146.60086 -270 2.1204939e-39
3803.105 143.81061 -260 2.3045306e-39
3804.5002 123.85933 -260 2.9491784e-39
3815.8708 104.60561 -260 1.9353866e-39
3817.2661 84.654327 -260 1.6587983e-39
3818.6611 64.703049 -270 1.6584353e-39
3830.032 45.449333 -270 1.5662453e-39
3881.3052 28.985874 -280 4.145649e-39
3882.7004 9.0345917 -270 1.8450252e-39
3663.2363 -6.3118267 -240 5.7150669e-39
3674.6072 -25.565544 -240 3.4195858e-39
3635.4021 -38.331444 -230 1.613106e-38
3636.7971 -58.282722 -230 1.0695053e-38
3648.168 -77.536438 -230 9.4928975e-39
3628.9143 -88.907211 -230 2.7637081e-39
3620.3337 -109.55605 -230 2.7654976e-39
3611.0557 -120.22926 -230 2.7647801e-39
3612.4507 -140.18054 -230 1.6867093e-38
3613.8459 -160.13182 -230 1.5578496e-38
3594.5923 -171.50259 -220 1.6130223e-38
3646.563 -197.9417 -230 8.1088896e-39
3667.9094 -216.49785 -240 5.5299133e-39
3628.7046 -229.26375 -230 5.8068687e-39
3752.1782 -561.4599 -250 3.2214394e-39
3753.5732 -581.41113 -250 3.2228716e-39
3734.3196 -592.78192 -240 4.3295779e-39
3745.6902 -612.03564 -240 4.329575e-39
3747.0854 -631.98694 -240 4.6061619e-39
3737.8074 -642.66016 -240 4.8831034e-39
3749.8757 -671.88947 -240 4.3299324e-39
3750.5732 -681.86511 -240 4.6980002e-39
3403.0308 -585.87463 -180 4.6990778e-39
3425.0747 -614.40643 -190 4.421049e-39
3426.4697 -634.35773 -190 4.6058032e-39
3417.1919 -645.03088 -190 4.3317288e-39
3448.5137 -662.88953 -190 4.421049e-39
3470.5579 -691.42126 -190 4.1451922e-39
3471.2554 -701.39691 -190 4.1459069e-39
3452.0017 -712.7677 -190 4.2373794e-39
3504.6702 -749.18243 -200 4.3284989e-39
3526.0164 -767.73859 -200 4.0533525e-39
3599.3337 -812.73383 -220 4.1455439e-39
3611.4021 -841.9632 -220 4.2366634e-39
3643.4216 -869.79742 -220 4.1451852e-39
3654.7925 -889.05115 -230 4.0529938e-39
3666.1633 -908.30487 -230 4.0540714e-39
3688.2073 -936.83667 -230 4.2366648e-39
3658.2803 -938.92932 -220 4.4203372e-39
3680.3242 -967.46112 -230 3.8707563e-39
3650.3975 -969.55383 -220 4.0540658e-39
3479.4941 1474.4781 -240 4.059123e-39
3451.6599 1442.4585 -230 2.0283137e-39
3463.0305 1423.2047 -240 1.5673327e-39
3502.2356 1435.9707 -240 1.5676872e-39
3599.2017 1482.8489 -260 1.5676886e-39
3638.4067 1495.6147 -270 1.1989103e-39
3659.0557 1487.0343 -270 1.1992719e-39
3670.4263 1467.7805 -270 1.3829401e-39
3642.592 1435.7609 -270 1.2907444e-39
3663.241 1427.1804 -270 1.1070734e-39
3559.0894 1339.702 -250 3.9618954e-39
3492.7478 1284.9409 -240 2.3963689e-39
3532.6504 1287.7312 -250 2.1197834e-39
3552.6016 1289.1263 -250 1.6588025e-39
3505.5137 1245.736 -240 1.3825771e-39
3496.9331 1225.087 -240 1.0141561e-39
3508.304 1205.8334 -240 1.0137988e-39
3509.699 1185.8821 -240 1.3822198e-39
3510.3967 1175.9065 -240 2.121217e-39
3501.8162 1155.2576 -240 3.9654897e-39
3512.4893 1145.9795 -240 2.76515e-39
3523.8601 1126.7258 -240 1.6595213e-39
3486.0503 1094.0087 -240 1.1070678e-39
3516.6748 1086.1257 -240 1.1985446e-39
3624.314 1123.7258 -260 1.199625e-39
3625.7092 1103.7745 -260 9.230353e-40
3617.1287 1083.1257 -260 1.1059902e-39
3492.3284 1004.2279 -240 2.1204953e-39
3551.4846 1018.3889 -250 2.5796728e-39
3504.3967 974.99847 -240 2.6718642e-39
3495.8162 954.34967 -240 2.5789525e-39
3506.4893 945.07159 -240 2.1201337e-39
3497.9089 924.42273 -240 1.9353894e-39
3518.5576 915.84222 -240 2.303816e-39
3616.9189 942.76917 -260 3.0413782e-39
3666.7971 946.25696 -270 2.8591407e-39
3668.1924 926.30566 -270 2.12194e-39
3728.0461 930.49109 -280 1.1067105e-39
3700.2119 898.47144 -270 1.1063476e-39
3691.6313 877.82263 -270 1.2892997e-39
3653.8215 845.10547 -260 1.750631e-39
3645.241 824.4566 -260 1.1978215e-39
3627.3823 793.13452 -260 1.0137932e-39
3511.1626 734.88556 -240 3.8707549e-39
3492.6064 713.53918 -230 1.8449888e-39
3484.0259 692.89032 -230 1.0137918e-39
3494.6992 683.61224 -230 8.2940054e-40
3515.3479 675.03174 -240 7.3684617e-40
3555.948 667.84631 -240 7.3720771e-40
3576.5969 659.26581 -250 1.5673145e-39
3617.197 652.08044 -250 1.0137904e-39
3491.0015 593.13391 -230 1.9335845e-39
3491.6992 583.15826 -230 1.7499121e-39
3473.1431 561.81183 -230 1.6566417e-39
3474.5381 541.8606 -230 1.5655222e-39
3465.9575 521.21173 -220 1.289657e-39
3466.655 511.23608 -220 1.1059874e-39
3478.0259 491.98236 -230 1.1056273e-39
3469.4453 471.33353 -220 1.19746e-39
3480.1187 462.05545 -230 1.1056259e-39
3461.5625 440.70905 -220 1.105986e-39
3492.187 432.82608 -230 1.1059832e-39
3691.6997 446.77737 -270 1.2892969e-39
3702.373 437.4993 -270 1.1978201e-39
3673.8411 415.45532 -260 1.289657e-39
3675.2363 395.50406 -260 1.289657e-39
3686.6069 376.25034 -260 1.1988977e-39
3638.124 352.81122 -250 1.2900171e-39
3649.4946 333.55753 -260 1.2903759e-39
3650.8899 313.60623 -260 4.8820103e-39
3701.4656 307.11841 -270 8.2032236e-39
3652.9827 283.67932 -260 1.5666026e-39
3714.2314 267.91342 -270 1.6584395e-39
3744.856 260.03046 -270 7.4828806e-39
3766.2024 241.4743 -280 2.7673683e-39
3802.4075 153.78625 -280 2.488196e-39
3803.105 143.81061 -280 2.3048879e-39
3814.4758 124.55688 -280 2.8569785e-39
3825.8464 105.30318 -290 1.935025e-39
3817.2661 84.654327 -280 1.6584395e-39
3828.6367 65.400612 -290 1.6584381e-39
3840.0076 46.146896 -290 1.6587983e-39
3841.4026 26.195614 -290 1.7514017e-39
3713.1145 -2.8240051 -260 4.9835723e-39
3674.6072 -25.565544 -260 5.5238078e-39
3645.3777 -37.633877 -250 9.9434345e-39
3646.7729 -57.585159 -250 1.0132506e-38
3658.1436 -76.838875 -250 9.2134351e-39
3628.9143 -88.907211 -250 2.6725887e-39
3630.3093 -108.85849 -250 2.6722285e-39
3611.0557 -120.22926 -240 2.7640626e-39
3612.4507 -140.18054 -240 1.6129518e-38
3603.8704 -160.82939 -240 1.5486655e-38
3554.6897 -174.29285 -230 1.5484148e-38
3774.2222 -589.99164 -270 4.6997953e-39
3764.9441 -600.66486 -270 4.2377466e-39
3766.3391 -620.61615 -260 5.1593315e-39
3757.061 -631.28937 -260 4.3292191e-39
3748.4805 -651.93823 -260 4.606885e-39
3759.8513 -671.19189 -260 4.6050773e-39
3771.2222 -690.44562 -260 4.514332e-39
3464.9773 -611.61615 -210 4.7901903e-39
3455.6992 -622.28937 -210 4.055149e-39
3457.0942 -642.24066 -210 4.5146838e-39
3457.7917 -652.21631 -210 4.1451894e-39
3469.1626 -671.47003 -210 4.6072353e-39
3470.5579 -691.42126 -210 4.1469831e-39
3481.9285 -710.67499 -210 4.0529966e-39
3452.0017 -712.7677 -210 4.3303023e-39
3504.6702 -749.18243 -210 4.6054417e-39
3495.3921 -759.85565 -210 4.23882e-39
3548.0605 -796.27039 -220 4.3302981e-39
3549.4556 -816.22168 -220 4.237741e-39
3591.4509 -843.35834 -230 3.8711178e-39
3613.4949 -871.89014 -230 4.0533539e-39
3635.5388 -900.42194 -240 3.7774859e-39
3677.5339 -927.55859 -250 3.870399e-39
3668.2559 -938.23181 -240 4.0533539e-39
3659.6755 -958.88062 -240 3.9611583e-39
3639.7241 -960.27576 -240 3.5941708e-39
3450.9622 1452.4341 -250 5.7175528e-39
3452.3574 1432.4828 -250 3.4151942e-39
3453.0549 1422.5072 -250 1.5684061e-39
3473.7039 1413.9266 -250 1.2914647e-39
3493.655 1415.3218 -260 1.4751343e-39
3542.8357 1428.7853 -270 1.3829387e-39
3544.231 1408.834 -270 1.290743e-39
3507.1187 1366.1412 -260 1.1989075e-39
3537.0454 1368.2339 -270 1.1067147e-39
3509.2112 1336.2142 -260 1.1989033e-39
3424.3135 1260.1067 -240 1.9368313e-39
3415.7329 1239.4579 -240 1.1996222e-39
3464.9136 1252.9213 -250 1.0145149e-39
3542.626 1288.4287 -270 1.1070692e-39
3506.2112 1235.7603 -260 1.0148722e-39
3497.6309 1215.1115 -260 1.1067091e-39
3508.304 1205.8334 -260 1.0148764e-39
3509.699 1185.8821 -260 1.1999837e-39
3500.4209 1175.2089 -260 3.6906923e-39
3492.5381 1144.5844 -260 3.0428131e-39
3513.187 1136.0039 -260 1.9350306e-39
3513.8845 1126.0282 -260 1.3836533e-39
3476.7722 1083.3354 -250 1.4751315e-39
3555.1821 1108.8672 -270 1.1070692e-39
3633.592 1134.399 -280 1.1059888e-39
3634.9873 1114.4478 -280 1.1985474e-39
3414.6157 968.7204 -240 2.3952843e-39
3493.0259 994.2522 -250 2.211972e-39
3368.2256 915.35437 -230 2.211972e-39
3418.1038 918.84222 -240 2.2112546e-39
3477.26 933.00323 -250 2.2108916e-39
3468.6794 912.35443 -250 1.475493e-39
3479.3528 903.07635 -250 1.3822128e-39
3470.7722 882.42749 -250 1.7502722e-39
3472.1672 862.4762 -250 2.2119734e-39
3512.0698 865.26648 -250 3.0410153e-39
3552.6699 858.08105 -260 3.2286365e-39
3554.0652 838.12982 -260 1.753512e-39
3564.7383 828.85175 -260 1.1059944e-39
3526.9285 796.13452 -260 9.219549e-40
3518.3479 775.48572 -250 1.0145107e-39
3489.8162 753.44171 -250 2.1201295e-39
3471.9575 722.11969 -250 2.855531e-39
3453.4014 700.77325 -240 2.3030845e-39
3444.1233 690.10004 -240 1.4744056e-39
3455.4941 670.84631 -240 8.301208e-40
3446.9136 650.19751 -240 7.3720771e-40
3448.3088 630.24622 -240 8.2939913e-40
3458.9819 620.96814 -240 1.474407e-39
3469.655 611.69006 -240 1.4747629e-39
3451.0989 590.34363 -240 1.7513498e-39
3452.4941 570.3924 -240 1.6598787e-39
3453.8892 550.4411 -240 1.6591556e-39
3454.5869 540.46545 -240 1.6584381e-39
3446.0063 519.81659 -240 1.6587997e-39
3447.4014 499.8653 -240 1.5673201e-39
3458.0747 490.58722 -240 1.5669614e-39
3459.4697 470.63596 -240 1.4747601e-39
3440.9136 449.28955 -240 1.4744056e-39
3441.6111 439.3139 -240 1.3825715e-39
3472.9331 421.45532 -240 1.2910947e-39
3473.6309 411.47968 -240 1.4744098e-39
3465.0503 390.83084 -240 1.4744112e-39
3475.7234 381.55276 -240 1.4747713e-39
3477.1187 361.60147 -240 1.4747643e-39
3517.7188 354.41611 -250 1.5669656e-39
3549.0408 336.5575 -250 1.4744098e-39
3539.7627 325.88431 -250 1.7513512e-39
3541.1577 305.93301 -250 4.2391647e-39
3472.7234 281.09879 -240 7.0968873e-39
3414.2646 256.96213 -230 1.7509897e-39
3415.6599 237.01083 -230 1.8431895e-39
3406.3818 226.33763 -220 4.6990778e-39
3377.8501 204.29367 -220 2.4889247e-39
3388.5232 195.01559 -220 2.1201337e-39
3736.0657 99.025093 -290 1.7502778e-39
3737.4609 79.073814 -290 1.4747671e-39
3748.134 69.795738 -290 1.4744042e-39
3879.9102 48.937157 -310 2.0286528e-39
3655.3533 -36.936314 -270 1.9353852e-39
3666.7241 -56.190029 -270 2.0279381e-39
3668.1191 -76.141312 -270 1.8439084e-39
3638.8899 -88.209641 -270 1.6573591e-39
3630.3093 -108.85849 -260 2.0250599e-39
3611.0557 -120.22926 -260 2.3020055e-39
3602.4751 -140.87811 -260 1.6772018e-38
3593.8945 -161.52695 -260 1.5852201e-38
3584.6165 -172.20015 -260 1.5668889e-38
3595.9873 -191.45387 -260 6.7256147e-39
3607.3582 -210.7076 -260 5.5292014e-39
3462.8845 -581.68927 -230 4.8823845e-39
3453.6064 -592.36243 -220 4.4232112e-39
3444.3284 -603.03564 -220 4.4217763e-39
3445.7236 -622.98694 -220 4.3310198e-39
3405.8208 -625.77722 -210 4.3302953e-39
3395.8452 -626.47473 -210 4.4228567e-39
3407.9136 -655.7041 -210 4.7898301e-39
3429.26 -674.26025 -220 4.0547986e-39
3450.6064 -692.81641 -220 4.8805894e-39
3442.0259 -713.46527 -220 4.3302967e-39
3473.3479 -731.32385 -220 4.4221322e-39
3495.3921 -759.85565 -230 4.0540784e-39
3476.1382 -771.22644 -230 4.4224909e-39
3446.2114 -773.31909 -220 4.0533539e-39
3488.2065 -800.45575 -230 3.8704032e-39
3602.8215 -862.61206 -250 4.5125272e-39
3624.8655 -891.14386 -250 3.9618771e-39
3646.9094 -919.67566 -260 4.329938e-39
3626.9583 -921.07074 -250 4.2370263e-39
3649.0022 -949.60254 -260 4.0544315e-39
3629.7485 -960.97333 -250 4.1444705e-39
3412.4548 1429.6926 -260 8.2021544e-39
3403.8745 1409.0437 -260 6.8235346e-39
3415.2451 1389.79 -260 3.0478592e-39
3415.9426 1379.8143 -260 1.5705725e-39
3445.8696 1381.9071 -260 1.3843764e-39
3447.2646 1361.9558 -270 1.2918234e-39
3447.9622 1351.9801 -270 1.1081496e-39
3391.5962 1297.9165 -250 1.2914605e-39
3383.7134 1267.2921 -250 1.1999865e-39
3336.6255 1223.9017 -240 1.5691292e-39
3328.0449 1203.2528 -240 3.7832648e-39
3329.4399 1183.3015 -240 1.8442727e-39
3387.8987 1207.4382 -250 3.3172294e-39
3533.3479 1277.7555 -280 4.5168474e-39
3496.2356 1235.0627 -270 5.0693065e-39
3487.655 1214.4138 -270 4.9778241e-39
3498.3284 1205.1357 -270 4.7937944e-39
3499.7234 1185.1846 -270 5.1650965e-39
3501.1187 1165.2333 -270 5.5310147e-39
3492.5381 1144.5844 -270 1.8442741e-39
3503.2112 1135.3063 -270 1.6598773e-39
3504.6064 1115.355 -270 4.0551588e-39
3476.7722 1083.3354 -270 3.5952526e-39
3622.9189 1143.6771 -300 2.5829098e-39
3643.5679 1135.0966 -300 2.0304605e-39
3286.3276 939.70081 -230 1.3850938e-39
3288.4204 909.77386 -230 2.0279395e-39
3260.5862 877.75427 -220 1.9364628e-39
3309.7668 891.21771 -230 1.9361068e-39
3359.645 894.70557 -240 1.8439084e-39
3448.0305 920.93494 -260 2.0275794e-39
3468.6794 912.35443 -260 1.9361054e-39
3470.0747 892.40314 -260 1.8435539e-39
3451.5186 871.0567 -260 1.8431923e-39
3423.6841 839.03711 -250 1.7513512e-39
3434.3574 829.75903 -260 2.1194163e-39
3425.7769 809.11017 -250 2.211972e-39
3475.655 812.59802 -260 1.8421133e-39
3486.3284 803.31995 -270 1.10527e-39
3497.699 784.06622 -270 1.1063434e-39
3489.1187 763.41736 -270 1.7502764e-39
3470.5625 742.07092 -260 3.0395635e-39
3442.0305 720.02698 -260 2.4863925e-39
3345.7622 663.17316 -240 1.4744098e-39
3327.2061 641.82672 -230 1.3836477e-39
3327.9033 631.85107 -230 2.1176142e-39
3329.2986 611.89978 -230 2.577512e-39
3310.7424 590.55341 -230 1.5662411e-39
3321.4155 581.27533 -230 1.4736853e-39
3371.2939 584.76312 -240 1.3829302e-39
3382.6646 565.5094 -240 1.7509953e-39
3393.3379 556.23132 -240 1.7517156e-39
3404.7085 536.9776 -250 1.9357411e-39
3415.3818 527.69952 -250 2.2112504e-39
3406.8013 507.05072 -250 2.2108888e-39
3388.2451 485.70428 -240 2.1190576e-39
3378.967 475.0311 -240 2.1194107e-39
3370.3867 454.38223 -240 2.1201281e-39
3361.8062 433.7334 -240 2.119775e-39
3392.4307 425.85043 -240 2.1201323e-39
3393.1279 415.87482 -240 2.1197736e-39
3404.499 396.62109 -240 2.2116063e-39
3395.9185 375.97226 -240 2.0283011e-39
3406.5916 366.69418 -240 1.9364614e-39
3398.011 346.04532 -240 2.2119692e-39
3369.4792 324.00134 -240 2.1201337e-39
3360.2012 313.32816 -230 1.8442671e-39
3361.5962 293.37686 -230 1.8442671e-39
3362.2939 283.40121 -230 3.9629421e-39
3393.616 265.54263 -240 6.8202962e-39
3374.3623 254.17188 -230 1.9357397e-39
3395.7085 235.61572 -240 1.9353866e-39
3396.4062 225.64008 -240 7.5578164e-39
3407.7769 206.38635 -240 2.397092e-39
3398.499 195.71315 -240 2.1201323e-39
3645.3777 -37.633877 -290 1.7517142e-39
3666.7241 -56.190029 -290 2.2116077e-39
3658.1436 -76.838875 -290 1.8428322e-39
3649.563 -97.487724 -290 2.0265018e-39
3640.2849 -108.16093 -280 1.9350222e-39
3631.7046 -128.80977 -280 1.9357439e-39
3592.4995 -141.57567 -270 1.6685205e-38
3583.2214 -152.24887 -270 1.6035514e-38
3584.6165 -172.20015 -270 1.5392321e-38
3595.9873 -191.45387 -270 8.3861828e-39
3607.3582 -210.7076 -280 5.5292014e-39
3392.3574 -576.59656 -230 4.5139761e-39
3393.0552 -586.5722 -230 4.6065193e-39
3394.4502 -606.5235 -230 4.6072409e-39
