# .PCD v0.7 - Point Cloud Data file format
VERSION 0.7
FIELDS x y z rgb
SIZE 4 4 4 4
TYPE F F F F
COUNT 1 1 1 1
WIDTH 1223
HEIGHT 1
VIEWPOINT 0 0 0 1 0 0 0
POINTS 1223
DATA ascii
4741.9971 726.24298 1370 2.3325131e-38
4770.313 712.1651 1380 2.3509886e-38
4767.5293 692.35974 1380 2.3509886e-38
4795.8457 678.28186 1400 2.3509886e-38
4843.9678 661.42053 1420 2.3509886e-38
4872.2842 647.34265 1430 2.3509886e-38
4838.4004 621.80981 1420 2.3509886e-38
4824.3228 593.49347 1410 2.3509886e-38
4821.5391 573.68811 1410 2.3509886e-38
4735.3594 535.30859 1380 2.3509879e-38
4649.1792 496.92902 1340 7.2867506e-39
4594.0986 464.27695 1320 1.4288477e-38
4581.4126 445.86331 1320 2.3509886e-38
4598.4346 423.27448 1320 2.3509877e-38
4606.9453 411.98007 1330 2.3509877e-38
4604.1621 392.17471 1330 2.3509886e-38
4621.1836 369.58588 1340 2.3509886e-38
4659.4028 354.11627 1360 2.3509876e-38
4687.7192 340.03842 1370 2.3509886e-38
4704.7412 317.44958 1380 2.3509886e-38
4731.666 293.46902 1390 2.3509883e-38
3726.4097 182.29161 950 2.3509886e-38
3713.7236 163.87798 950 2.3509886e-38
3712.332 153.9753 950 2.3509886e-38
3720.8428 142.68088 950 2.3509886e-38
3718.0593 122.87552 960 2.3509886e-38
3716.6675 112.97284 960 2.1206434e-38
3725.1787 101.67844 960 2.3509837e-38
3732.2979 80.481339 970 2.3509886e-38
3721.1641 1.2598934 970 2.3509886e-38
3718.3804 -18.545469 970 2.3509845e-38
3716.9888 -28.448149 970 2.3509832e-38
3714.2053 -48.25351 970 2.037088e-38
3712.8135 -58.156193 960 9.3088579e-39
3710.0303 -77.961548 970 2.1196255e-38
3708.6382 -87.864235 970 2.3509886e-38
4919.5488 -237.84999 1500 2.3509877e-38
4867.252 -250.6967 1480 2.3509168e-38
4843.2715 -277.62128 1480 2.3509886e-38
4830.585 -296.03491 1470 2.3509886e-38
4816.5078 -324.35123 1470 2.3326208e-38
4833.5293 -346.94006 1480 2.0743652e-38
4890.1621 -375.09579 1500 2.0378457e-38
4866.1816 -402.02039 1490 2.2220932e-38
4853.4951 -420.43402 1490 2.2495717e-38
4850.7119 -440.23938 1490 2.3234004e-38
4867.7334 -462.82819 1500 2.2589723e-38
4932.877 -502.27835 1530 2.231601e-38
4969.7046 -527.65063 1550 1.4838794e-38
4985.335 -560.14215 1550 1.3456561e-38
5050.4785 -599.59229 1590 8.2943529e-39
5244.3564 -657.13495 1680 5.4370114e-39
5288.3032 -703.70435 1700 7.8344355e-39
5313.8359 -737.58752 1710 1.7605289e-38
5476.6147 -800.85767 1790 2.3506923e-38
5502.1475 -834.74091 1800 7.6504044e-39
5488.0693 -863.05725 1790 7.7408063e-39
5473.9917 -891.37354 1790 7.741521e-39
6409.6611 -1275.3302 2220 8.294692e-39
4822.9307 -1284.5901 1530 7.556771e-39
4856.9746 -1329.7678 1550 6.7280936e-39
4815.9717 -1334.1035 1530 6.9110471e-39
4803.2861 -1352.5172 1520 6.7284509e-39
4780.6973 -1369.5391 1510 6.5429932e-39
4768.0107 -1387.9526 1510 7.0957943e-39
4736.9111 -1393.6802 1500 1.0969425e-38
4714.3223 -1410.702 1490 1.0230821e-38
4691.7334 -1427.724 1480 9.4943394e-39
4688.9502 -1447.5293 1480 8.3883562e-39
4676.2637 -1465.943 1470 1.0326966e-38
4615.4561 -1467.4952 1450 1.4106287e-38
4612.6729 -1487.3007 1450 1.4661265e-38
4518.1421 -1585.0963 1410 1.3000318e-38
4515.3584 -1604.9016 1410 1.2448946e-38
4512.5752 -1624.707 1410 1.0693641e-38
4481.4756 -1630.4344 1400 1.1803924e-38
4460.2783 -1637.5537 1390 1.171029e-38
4447.5918 -1655.9673 1380 1.0681043e-38
4434.9062 -1674.381 1380 6.4385643e-39
4422.2197 -1692.7946 1380 6.6387958e-39
4382.6094 -1687.2277 1360 6.2682491e-39
4342.998 -1681.6608 1340 3.1342941e-39
4311.8984 -1687.3883 1330 5.9059377e-39
4290.7012 -1694.5074 1320 5.0722212e-39
4269.5044 -1701.6267 1310 1.5198144e-38
4229.8936 -1696.0598 1290 1.749654e-38
4208.6963 -1703.179 1290 1.096693e-38
4187.4995 -1710.2982 1270 1.2447867e-38
4670.1621 1221.0559 1280 4.3364288e-39
4647.5732 1204.0339 1280 4.6108591e-39
4643.3984 1174.3259 1280 5.1629455e-39
4640.6147 1154.5205 1280 4.9785626e-39
4637.8311 1134.7152 1280 5.0711142e-39
4613.8506 1107.7906 1270 4.7955993e-39
4568.6729 1073.7468 1250 5.4391778e-39
4587.0869 1061.0607 1260 5.0714813e-39
4584.3032 1041.2554 1260 5.5310161e-39
4560.3228 1014.3307 1250 1.9452539e-38
4599.9336 1008.7638 1270 2.1856847e-38
4636.7607 983.39154 1290 2.1303323e-38
4676.3711 977.82458 1300 2.0562528e-38
4735.7876 969.47424 1330 1.9824597e-38
4595.9189 908.34528 1270 1.917851e-38
4560.6436 872.90973 1260 1.9178511e-38
4569.1548 861.61536 1260 1.9825314e-38
4629.9629 863.1676 1290 2.0472462e-38
4584.7852 829.12384 1270 2.1391194e-38
4697.8896 843.52283 1320 2.1760328e-38
4566.853 629.67847 1280 2.3509886e-38
4583.875 607.08966 1290 2.3509876e-38
4623.4854 601.52271 1300 2.3509877e-38
4755.0039 603.2356 1360 2.3509881e-38
4824.3228 593.49347 1390 2.3509869e-38
4883.7388 585.14313 1410 2.3509886e-38
4735.3594 535.30859 1350 2.1853252e-38
4649.1792 496.92902 1320 6.0874731e-39
4584.1963 465.66867 1290 1.5209705e-38
4581.4126 445.86331 1290 2.3509876e-38
4598.4346 423.27448 1300 2.3509874e-38
4597.043 413.3718 1300 2.3509877e-38
4614.0645 390.78299 1310 2.3509883e-38
4642.3809 376.70511 1320 2.3509873e-38
4690.5029 359.84378 1350 2.3509881e-38
4728.7217 344.37418 1360 2.3509874e-38
4745.7437 321.78534 1370 2.3509886e-38
4742.96 301.97998 1370 2.3509886e-38
4769.8848 277.99942 1390 2.3509886e-38
3715.1152 173.78065 940 2.3509886e-38
3712.332 153.9753 940 2.3509886e-38
3720.8428 142.68088 940 2.3509886e-38
3718.0593 122.87552 940 2.3509886e-38
3716.6675 112.97284 940 2.2126225e-38
3725.1787 101.67844 950 2.3506593e-38
3732.2979 80.481339 950 2.3509881e-38
3781.811 73.52269 970 2.3509886e-38
3779.0278 53.717323 970 2.3509886e-38
3777.636 43.814644 970 2.3509886e-38
3723.9473 21.065254 950 2.028627e-38
3721.1641 1.2598934 950 2.3509886e-38
3718.3804 -18.545469 950 2.3509835e-38
3716.9888 -28.448149 950 2.350983e-38
3714.2053 -48.25351 950 1.972587e-38
3712.8135 -58.156193 950 8.7553254e-39
3719.9326 -79.353287 950 2.0463019e-38
3708.6382 -87.864235 950 2.3509886e-38
4887.0576 -253.48016 1470 2.3509886e-38
4833.3691 -276.22955 1450 2.3509876e-38
4810.7803 -293.25146 1440 2.3509884e-38
4816.5078 -324.35123 1440 2.341804e-38
4853.335 -349.72351 1460 2.0005377e-38
4909.9673 -377.87927 1490 2.0746878e-38
4876.084 -403.41211 1470 2.2313123e-38
4863.3979 -421.82574 1470 2.2863782e-38
4850.7119 -440.23938 1470 2.305069e-38
4867.7334 -462.82819 1470 2.3326199e-38
4932.877 -502.27835 1500 2.2865937e-38
4979.6074 -529.04236 1520 1.5393405e-38
4995.2373 -561.53387 1530 1.4010464e-38
5050.4785 -599.59229 1560 8.3876289e-39
5234.4541 -655.74323 1640 5.5302818e-39
5308.1084 -706.48779 1680 7.0965187e-39
5343.5439 -741.76276 1690 2.1751898e-38
5536.0308 -809.20807 1780 2.3509863e-38
5570.0747 -854.38574 1800 1.0879437e-38
5537.583 -870.01587 1790 7.9259053e-39
5561.7241 -913.80182 1800 7.557843e-39
6507.1357 -1228.4397 2230 8.0184666e-39
6497.3936 -1297.7584 2220 8.662757e-39
6452.2158 -1331.8022 2210 8.9389782e-39
6514.5762 -1391.0577 2240 9.2170028e-39
6496.8047 -1661.2136 2250 2.3509886e-38
4825.8745 -1335.4952 1510 7.0039588e-39
4821.6992 -1365.2032 1510 7.0032441e-39
4780.6973 -1369.5391 1490 6.9117659e-39
4768.0107 -1387.9526 1490 7.3720238e-39
4727.0083 -1392.2885 1470 9.4921408e-39
4714.3223 -1410.702 1460 1.050634e-38
4691.7334 -1427.724 1460 9.8624045e-39
4688.9502 -1447.5293 1450 8.9404425e-39
4676.2637 -1465.943 1450 1.0048221e-38
4615.4561 -1467.4952 1430 1.4382155e-38
4622.5752 -1488.6924 1430 1.4934259e-38
4512.4146 -1553.9965 1390 1.3367656e-38
4509.6309 -1573.8019 1390 1.2723727e-38
4515.3584 -1604.9016 1390 1.281592e-38
4512.5752 -1624.707 1390 1.1986162e-38
4491.3779 -1631.8262 1380 1.0419201e-38
4468.7891 -1648.8481 1370 1.1156756e-38
4447.5918 -1655.9673 1370 1.0596756e-38
4434.9062 -1674.381 1360 7.6335145e-39
4422.2197 -1692.7946 1360 6.9135918e-39
4382.6094 -1687.2277 1340 5.8101618e-39
4342.998 -1681.6608 1320 2.9491854e-39
4321.8013 -1688.78 1310 5.6307858e-39
4300.6045 -1695.8992 1300 4.9800186e-39
4279.4072 -1703.0184 1290 1.4369106e-38
4239.7964 -1697.4515 1280 1.6116502e-38
4218.5996 -1704.5707 1270 1.1609772e-38
4205.9131 -1722.9844 1260 1.2356377e-38
4671.5537 1230.9585 1260 5.4402568e-39
4657.4761 1202.6422 1260 5.4406114e-39
4643.3984 1174.3259 1260 5.3487801e-39
4640.6147 1154.5205 1260 5.6242781e-39
4637.8311 1134.7152 1260 5.5324525e-39
4623.7534 1106.3989 1250 5.8086694e-39
4557.3789 1065.2358 1230 5.8997972e-39
4565.8896 1053.9414 1230 6.1767401e-39
4456.0498 847.21631 1200 1.3365833e-38
4420.7754 811.78076 1180 1.3178556e-38
4439.1885 799.09467 1190 1.2440279e-38
4499.9966 800.64697 1220 1.087261e-38
4570.707 800.8075 1250 9.7655369e-39
4618.9893 713.23566 1270 5.8043534e-39
4637.4033 700.54956 1280 7.0979859e-39
4634.6196 680.7442 1280 7.0994166e-39
4694.0356 672.3938 1310 1.2999909e-38
4545.6562 622.55927 1250 2.1295719e-38
4552.7754 601.36218 1250 2.0835823e-38
4508.9893 577.22107 1240 2.1202449e-38
4869.5005 627.53729 1380 2.1940744e-38
4886.5225 604.94849 1390 2.2309168e-38
4934.644 588.08716 1410 2.2682625e-38
4610.96 512.39862 1280 2.1204632e-38
4596.8823 484.08228 1280 5.4399247e-39
4564.3906 468.45212 1270 1.7330206e-38
4571.5098 447.25504 1270 2.350916e-38
4588.5317 424.6662 1280 2.3509886e-38
4606.9453 411.98007 1280 2.350987e-38
4623.9673 389.39124 1300 2.3509874e-38
4672.0889 372.52991 1320 2.3509881e-38
4731.5049 364.17953 1340 2.3509886e-38
4758.4297 340.19897 1350 2.3509886e-38
4765.5488 319.00189 1360 2.3509873e-38
4752.8628 300.58826 1360 2.3509876e-38
4779.7871 276.6077 1370 2.3509886e-38
3715.1152 173.78065 920 2.3509886e-38
3722.2344 152.58357 930 2.3509886e-38
3720.8428 142.68088 930 2.3509886e-38
3718.0593 122.87552 930 2.3509886e-38
3716.6675 112.97284 930 2.1850352e-38
3725.1787 101.67844 930 2.2586779e-38
3732.2979 80.481339 940 2.3509883e-38
3781.811 73.52269 960 2.3509883e-38
3788.9304 52.325592 960 2.3509886e-38
3787.5386 42.422913 960 2.3509886e-38
3725.3391 30.967934 940 2.0652533e-38
3731.0667 -0.13183784 940 2.3509886e-38
3718.3804 -18.545469 940 2.3509838e-38
3716.9888 -28.448149 940 2.3509824e-38
3714.2053 -48.25351 940 1.8251827e-38
3712.8135 -58.156193 940 8.7538877e-39
3719.9326 -79.353287 940 2.1107655e-38
3708.6382 -87.864235 940 2.350988e-38
4896.96 -254.8719 1450 2.3509886e-38
4813.5635 -273.44611 1410 2.3509879e-38
4800.877 -291.85974 1410 2.350988e-38
4806.6045 -322.9595 1410 2.3509879e-38
4892.9453 -355.29044 1450 1.9546534e-38
4929.7725 -380.66272 1470 2.1757796e-38
4885.9868 -404.80383 1450 2.3141449e-38
4863.3979 -421.82574 1440 2.2772662e-38
4850.7119 -440.23938 1440 2.3418032e-38
4867.7334 -462.82819 1450 2.2774843e-38
4932.877 -502.27835 1480 2.3416241e-38
4979.6074 -529.04236 1500 1.6037334e-38
5005.1401 -562.9256 1510 1.5760006e-38
5040.5757 -598.20056 1530 8.4791085e-39
5204.7461 -651.56799 1600 5.7146703e-39
5308.1084 -706.48779 1650 6.2656861e-39
5353.4468 -743.15448 1670 2.3040814e-38
5594.0552 -827.46112 1780 2.3509886e-38
5629.4907 -862.73608 1800 2.3509879e-38
5625.3154 -892.44415 1790 8.3872449e-39
5649.4565 -936.23004 1810 7.9255521e-39
6545.5151 -1314.6198 2210 8.6631158e-39
6510.2402 -1350.0553 2200 8.7556631e-39
6622.1138 -1416.2694 2250 9.3999676e-39
6468.4883 -1647.1357 2200 2.3509886e-38
6482.7271 -1689.5299 2200 2.3509886e-38
4854.1909 -1349.5731 1500 6.6384091e-39
4841.5049 -1367.9868 1490 6.6359021e-39
4800.5024 -1372.3225 1470 7.0043161e-39
4777.9136 -1389.3445 1470 7.372021e-39
4727.0083 -1392.2885 1440 8.5720005e-39
4714.3223 -1410.702 1440 1.1336447e-38
4691.7334 -1427.724 1430 9.8620457e-39
4679.0474 -1446.1376 1430 9.3996256e-39
4666.3613 -1464.5513 1420 9.4039388e-39
4615.4561 -1467.4952 1400 1.4013366e-38
4622.5752 -1488.6924 1400 1.4752022e-38
4587.4609 -1594.8384 1400 1.3459487e-38
4518.1421 -1585.0963 1370 1.3276525e-38
4515.3584 -1604.9016 1370 1.2356756e-38
4512.5752 -1624.707 1370 1.2354226e-38
4489.9863 -1641.7289 1360 9.8660268e-39
4478.6919 -1650.2399 1350 1.1615221e-38
4456.103 -1667.2617 1350 1.1523371e-38
4444.8086 -1675.7727 1340 9.9409402e-39
4432.1226 -1694.1863 1340 6.360774e-39
4382.6094 -1687.2277 1320 5.0725715e-39
4352.9014 -1683.0525 1300 2.5814832e-39
4331.7041 -1690.1718 1290 6.2711049e-39
4309.1152 -1707.1936 1290 4.5208383e-39
4278.0156 -1712.9211 1280 1.4643547e-38
4248.3076 -1708.7458 1260 1.6484203e-38
4218.5996 -1704.5707 1250 1.1794513e-38
4205.9131 -1722.9844 1240 1.2911358e-38
4670.1621 1221.0559 1240 6.1778163e-39
4647.5732 1204.0339 1240 6.1774505e-39
4643.3984 1174.3259 1240 6.6362763e-39
4640.6147 1154.5205 1240 6.4533199e-39
4637.8311 1134.7152 1240 6.5465946e-39
4623.7534 1106.3989 1230 6.6362763e-39
4568.6729 1073.7468 1210 6.3611327e-39
4565.8896 1053.9414 1210 5.8093967e-39
4357.1836 790.42316 1140 3.2268512e-39
4365.6948 779.12872 1140 3.1350144e-39
4395.4028 774.95355 1160 2.8587834e-39
4423.7192 760.87567 1170 2.8580603e-39
4388.4443 725.44012 1150 2.9502588e-39
4647.3057 699.15784 1270 5.626083e-39
4623.3252 672.23322 1260 9.6780062e-39
4514.5562 616.83179 1210 1.558068e-38
4831.4419 572.29639 1350 2.0931609e-38
4567.1738 488.25751 1250 4.8863656e-39
4562.999 458.54944 1240 1.0595611e-38
4550.3125 440.1358 1240 2.2955591e-38
4578.6289 426.05795 1250 2.3509869e-38
4597.043 413.3718 1260 2.3509862e-38
4645.1646 396.51047 1280 2.3509856e-38
4724.3857 385.37662 1310 2.3509873e-38
4772.5078 368.51529 1340 2.350988e-38
4789.5293 345.92645 1350 2.3509886e-38
4796.6484 324.72937 1350 2.3509886e-38
4783.9629 306.31573 1340 2.350988e-38
4791.082 285.11865 1350 2.3509886e-38
4796.8096 254.01889 1350 2.3509886e-38
3722.2344 152.58357 910 2.3509886e-38
3720.8428 142.68088 910 2.3509883e-38
3718.0593 122.87552 910 2.3509874e-38
3716.6675 112.97284 910 2.1758157e-38
3725.1787 101.67844 920 2.221514e-38
3743.5923 88.992287 920 2.350987e-38
3781.811 73.52269 940 2.350988e-38
3788.9304 52.325592 950 2.350988e-38
3787.5386 42.422913 950 2.3509886e-38
3725.3391 30.967934 920 2.1023454e-38
3731.0667 -0.13183784 920 2.3509886e-38
3718.3804 -18.545469 920 2.3509841e-38
3716.9888 -28.448149 920 2.3509834e-38
3714.2053 -48.25351 920 1.8158189e-38
3712.8135 -58.156193 920 8.3854695e-39
3719.9326 -79.353287 920 2.1569353e-38
3708.6382 -87.864235 920 2.2217702e-38
4906.8628 -256.26361 1430 2.3509874e-38
4803.6606 -272.05438 1390 2.350987e-38
4800.877 -291.85974 1380 2.3509877e-38
4796.7021 -321.56778 1390 2.2956698e-38
4912.751 -358.07388 1440 1.889865e-38
4929.7725 -380.66272 1450 2.1852138e-38
4876.084 -403.41211 1420 2.2497882e-38
4853.4951 -420.43402 1420 2.3508078e-38
4840.8091 -438.84763 1410 2.3418042e-38
4857.8311 -461.43646 1420 2.3050342e-38
4924.3662 -490.98395 1450 2.323436e-38
4979.6074 -529.04236 1470 1.7695767e-38
5005.1401 -562.9256 1480 1.5852937e-38
5040.5757 -598.20056 1500 8.5720258e-39
5175.0381 -647.39282 1560 5.8061457e-39
5308.1084 -706.48779 1620 6.1742079e-39
5373.252 -745.93793 1650 2.3501783e-38
5633.666 -833.02808 1760 2.3509886e-38
5677.6123 -879.59741 1780 2.3509886e-38
5683.3398 -910.6972 1790 1.0325899e-38
5679.1646 -940.40527 1790 8.4787217e-39
6686.9365 -1314.2986 2230 8.7545869e-39
6593.6372 -1331.4811 2190 9.0304536e-39
6578.1675 -1369.7001 2190 9.3081152e-39
4809.0132 -1383.6169 1450 6.6373399e-39
4796.3271 -1402.0305 1450 7.0968733e-39
4727.0083 -1392.2885 1420 8.0181037e-39
4714.3223 -1410.702 1410 1.1061299e-38
4691.7334 -1427.724 1410 1.0230471e-38
4679.0474 -1446.1376 1400 9.1241079e-39
4666.3613 -1464.5513 1400 9.1255513e-39
4606.9453 -1456.2008 1370 1.4011213e-38
4594.2588 -1474.6145 1370 1.4566192e-38
4516.4292 -1453.578 1330 1.4658046e-38
4671.0181 -1646.9747 1410 1.3643884e-38
4518.1421 -1585.0963 1350 1.3183985e-38
4515.3584 -1604.9016 1340 1.2630455e-38
4512.5752 -1624.707 1340 1.171209e-38
4499.8887 -1643.1206 1340 1.1524112e-38
4478.6919 -1650.2399 1330 9.3131992e-39
4475.9082 -1670.0452 1330 1.1801774e-38
4453.3193 -1687.0671 1320 1.1511514e-38
4432.1226 -1694.1863 1320 5.9012336e-39
4382.6094 -1687.2277 1290 5.1636882e-39
4352.9014 -1683.0525 1280 2.7658731e-39
4331.7041 -1690.1718 1270 5.5353349e-39
4309.1152 -1707.1936 1270 4.6116004e-39
4287.918 -1714.3129 1250 1.4092521e-38
4248.3076 -1708.7458 1240 1.6209046e-38
4218.5996 -1704.5707 1230 1.2620681e-38
4196.0107 -1721.5927 1220 1.2354573e-38
4670.1621 1221.0559 1220 6.3618586e-39
4647.5732 1204.0339 1220 1.0326976e-38
4643.3984 1174.3259 1220 7.7462392e-39
4640.6147 1154.5205 1210 7.8355355e-39
4637.8311 1134.7152 1210 7.4678544e-39
4613.8506 1107.7906 1210 8.3051667e-39
4546.084 1056.725 1180 1.0520387e-38
4543.3008 1036.9196 1180 1.2643407e-38
4426.5029 780.68103 1150 2.5811203e-39
3286.0349 425.9512 700 2.5811175e-39
4428.0547 719.87323 1150 4.6162583e-39
4599.1841 716.01917 1220 7.4714446e-39
4679.7969 714.78796 1250 8.5778131e-39
4665.7192 686.47168 1250 9.4979632e-39
4769.2422 560.84143 1300 2.2218739e-38
4567.1738 488.25751 1220 1.9635838e-38
4553.0967 459.94116 1220 1.9814101e-38
4550.3125 440.1358 1220 1.8610185e-38
4568.7266 427.44968 1230 1.5849706e-38
4585.748 404.86084 1230 1.4106968e-38
4645.1646 396.51047 1260 1.2165109e-38
4755.4854 391.10413 1300 2.2305891e-38
4803.6074 374.24277 1320 2.3509872e-38
4820.6289 351.65396 1330 2.3509879e-38
4817.8457 331.8486 1330 2.3509886e-38
4803.7676 303.53229 1330 2.3509883e-38
4800.9844 283.72693 1330 2.3509876e-38
4796.8096 254.01889 1330 2.3509886e-38
3722.2344 152.58357 900 2.3509886e-38
3720.8428 142.68088 900 2.3509877e-38
3718.0593 122.87552 900 2.3509863e-38
3726.5703 111.58112 900 2.1941813e-38
3735.0813 100.2867 900 2.2308027e-38
3743.5923 88.992287 910 2.3509884e-38
3771.9084 74.914413 920 2.3509886e-38
3788.9304 52.325592 930 2.350988e-38
3787.5386 42.422913 930 2.3509886e-38
3735.2417 29.576206 910 2.2773002e-38
3731.0667 -0.13183784 910 2.3509886e-38
3718.3804 -18.545469 910 2.3509828e-38
3716.9888 -28.448149 910 2.3509824e-38
3714.2053 -48.25351 910 1.7512819e-38
3712.8135 -58.156193 910 8.0159653e-39
3719.9326 -79.353287 910 2.1659753e-38
3708.6382 -87.864235 910 2.1570535e-38
3656.3416 -100.71095 890 2.3509436e-38
4847.4463 -247.91324 1380 2.3509876e-38
4793.7578 -270.66263 1360 2.3509876e-38
4790.9746 -290.46799 1360 2.3509866e-38
4826.4102 -325.74295 1370 2.0648221e-38
4932.5562 -360.85736 1420 2.2034737e-38
4929.7725 -380.66272 1420 2.2495343e-38
4876.084 -403.41211 1400 2.3234012e-38
4843.5928 -419.04227 1390 2.332548e-38
4840.8091 -438.84763 1390 2.341732e-38
4857.8311 -461.43646 1390 2.3509876e-38
4914.4639 -489.59219 1420 2.3141449e-38
4969.7046 -527.65063 1450 1.7328074e-38
5005.1401 -562.9256 1460 1.5942968e-38
5040.5757 -598.20056 1480 8.5720174e-39
5145.3301 -643.21765 1520 5.7135927e-39
5308.1084 -706.48779 1590 6.4504403e-39
5393.0576 -748.72137 1630 2.3501781e-38
5653.4712 -835.81152 1740 2.3509886e-38
5697.418 -882.38092 1760 2.3509886e-38
5713.0479 -914.87238 1770 2.3509886e-38
5698.9697 -943.18872 1770 6.9114072e-39
6686.9365 -1314.2986 2190 7.0036028e-39
6641.7588 -1348.3424 2170 7.2801883e-39
6655.9971 -1390.7366 2180 7.4652957e-39
4796.3271 -1402.0305 1430 7.0054021e-39
4717.1055 -1390.8967 1390 7.7408035e-39
4704.4194 -1409.3103 1390 1.1337174e-38
4691.7334 -1427.724 1390 1.0505982e-38
4679.0474 -1446.1376 1380 8.8478882e-39
4666.3613 -1464.5513 1380 9.0340633e-39
4606.9453 -1456.2008 1350 1.3645299e-38
4594.2588 -1474.6145 1350 1.4567263e-38
4506.5264 -1452.1863 1310 1.4659111e-38
4577.5581 -1593.4467 1350 1.3368015e-38
4518.1421 -1585.0963 1320 1.3184698e-38
4515.3584 -1604.9016 1320 1.3183253e-38
4512.5752 -1624.707 1320 1.2448208e-38
4499.8887 -1643.1206 1320 1.2354221e-38
4497.1055 -1662.926 1320 1.0233728e-38
4484.4194 -1681.3396 1320 1.1339718e-38
4463.2222 -1688.4589 1310 1.0119558e-38
4440.6338 -1705.4807 1300 5.7157619e-39
4374.0981 -1675.9332 1270 5.4402638e-39
4352.9014 -1683.0525 1260 2.6733201e-39
4321.8013 -1688.78 1250 5.8083233e-39
4309.1152 -1707.1936 1240 4.3339191e-39
4287.918 -1714.3129 1230 1.3908849e-38
4248.3076 -1708.7458 1220 1.6670383e-38
4218.5996 -1704.5707 1210 1.2807924e-38
4205.9131 -1722.9844 1200 1.1799611e-38
4670.1621 1221.0559 1200 1.7158464e-38
4647.5732 1204.0339 1200 1.7800263e-38
4643.3984 1174.3259 1200 5.5350112e-39
4640.6147 1154.5205 1190 2.766236e-39
4637.8311 1134.7152 1190 6.0820179e-39
4613.8506 1107.7906 1190 1.8631058e-38
4557.3789 1065.2358 1170 2.0101562e-38
4565.8896 1053.9414 1170 1.8534238e-38
3287.4268 435.85388 700 5.5324623e-39
4418.1523 721.26495 1130 8.1265264e-39
4599.1841 716.01917 1200 1.7890939e-38
4689.7002 713.39624 1240 2.0276169e-38
4665.7192 686.47168 1230 1.9630074e-38
4567.1738 488.25751 1200 2.2678627e-38
4553.0967 459.94116 1200 2.2679706e-38
4550.3125 440.1358 1200 2.3139605e-38
4557.4321 418.93872 1200 2.3508388e-38
4575.8457 406.25259 1210 2.2675763e-38
4623.9673 389.39124 1230 1.3367624e-38
4765.3887 389.71237 1290 1.5575975e-38
4813.5098 372.85104 1310 2.3509851e-38
4840.4346 348.87048 1320 2.3509876e-38
4837.6514 329.06512 1320 2.3509859e-38
4813.6709 302.14056 1310 2.3509886e-38
4810.8872 282.33521 1310 2.3509886e-38
4796.8096 254.01889 1310 2.3509886e-38
3733.5288 161.09451 890 2.3509867e-38
3720.8428 142.68088 880 2.3509874e-38
3718.0593 122.87552 880 2.3509866e-38
3726.5703 111.58112 890 2.1664883e-38
3735.0813 100.2867 890 2.1480804e-38
3743.5923 88.992287 900 2.3509886e-38
3771.9084 74.914413 910 2.3509886e-38
3788.9304 52.325592 920 2.350988e-38
3797.4414 41.031181 920 2.350988e-38
3735.2417 29.576206 900 2.2681877e-38
3731.0667 -0.13183784 890 2.3509886e-38
3718.3804 -18.545469 890 2.3509834e-38
3716.9888 -28.448149 890 2.3509825e-38
3714.2053 -48.25351 890 1.6498674e-38
3722.7163 -59.54792 890 7.65041e-39
3719.9326 -79.353287 900 2.1843419e-38
3718.541 -89.255966 890 2.0648213e-38
3695.9521 -106.27786 890 2.1195221e-38
4737.1255 -242.50688 1310 2.350988e-38
4754.1475 -265.0957 1320 2.350987e-38
4781.0723 -289.07626 1330 2.1016624e-38
4877.3154 -322.79892 1370 2.1300052e-38
4932.5562 -360.85736 1390 2.221986e-38
4929.7725 -380.66272 1400 2.1855014e-38
4866.1816 -402.02039 1370 2.3326194e-38
4843.5928 -419.04227 1360 2.3509877e-38
4840.8091 -438.84763 1360 2.3509873e-38
4847.9287 -460.04474 1370 2.350987e-38
4904.561 -488.20047 1390 2.3505208e-38
4959.8018 -526.25891 1420 1.7511737e-38
4995.2373 -561.53387 1430 1.6127709e-38
5050.4785 -599.59229 1450 8.2961465e-39
5145.3301 -643.21765 1490 6.0820095e-39
5318.0112 -707.87952 1570 6.1745638e-39
5422.7656 -752.89661 1610 2.0920315e-38
5653.4712 -835.81152 1710 2.3509886e-38
5707.3203 -883.77264 1730 2.3509886e-38
5713.0479 -914.87238 1740 2.3509886e-38
5718.7754 -945.97217 1740 8.3901316e-39
5800.9409 -1008.0112 1780 6.729174e-39
4786.4248 -1400.6388 1390 7.2801813e-39
4688.7891 -1376.8188 1350 7.5571298e-39
4686.0059 -1396.6243 1360 1.161267e-38
4691.7334 -1427.724 1360 1.0047516e-38
4679.0474 -1446.1376 1350 8.8489616e-39
4666.3613 -1464.5513 1350 9.2162994e-39
4606.9453 -1456.2008 1330 1.3183591e-38
4604.1616 -1476.0062 1330 1.474913e-38
4843.5391 -1640.926 1430 1.4568721e-38
4522.3174 -1555.3882 1300 1.4011942e-38
4518.1421 -1585.0963 1300 1.373356e-38
4515.3584 -1604.9016 1300 1.281376e-38
4512.5752 -1624.707 1300 1.2171994e-38
4509.792 -1644.5123 1300 1.2445325e-38
4497.1055 -1662.926 1300 1.1432268e-38
4494.3223 -1682.7313 1290 1.0142238e-38
4463.2222 -1688.4589 1280 1.0027727e-38
4440.6338 -1705.4807 1280 5.4391834e-39
4382.6094 -1687.2277 1250 5.0736435e-39
4352.9014 -1683.0525 1240 2.581842e-39
4321.8013 -1688.78 1230 5.2562257e-39
4309.1152 -1707.1936 1220 4.2431584e-39
4287.918 -1714.3129 1210 1.4554578e-38
4248.3076 -1708.7458 1200 1.6852986e-38
4218.5996 -1704.5707 1190 1.4921232e-38
4197.4023 -1711.6899 1180 7.8276308e-39
4670.1621 1221.0559 1180 2.2867037e-38
4647.5732 1204.0339 1180 2.0107667e-38
4643.3984 1174.3259 1170 6.6420847e-39
4640.6147 1154.5205 1170 4.9792787e-39
4637.8311 1134.7152 1170 8.385824e-39
4613.8506 1107.7906 1170 9.7687655e-39
4557.3789 1065.2358 1150 9.402148e-39
4575.792 1052.5497 1150 9.3103139e-39
3269.0129 448.54001 680 1.8160706e-38
3267.6211 438.63733 680 1.7878734e-38
3287.4268 435.85388 680 1.613096e-38
3317.1348 431.67868 700 1.6044865e-38
4396.9551 714.14569 1100 1.8074235e-38
4486.0791 701.62012 1140 2.1758466e-38
4483.2959 681.81476 1140 2.1577683e-38
4689.7002 713.39624 1220 2.2219445e-38
4579.8604 506.67114 1190 2.3507303e-38
4567.1738 488.25751 1180 2.3508367e-38
4553.0967 459.94116 1180 2.3504792e-38
4540.4102 441.52756 1180 2.3048128e-38
4547.5293 420.33044 1180 2.3415463e-38
4564.5513 397.74164 1180 2.2864087e-38
4592.8677 383.66376 1200 1.4012629e-38
4765.3887 389.71237 1270 1.3459445e-38
4833.3154 370.0676 1290 1.9542172e-38
4871.5342 354.59799 1310 2.3509869e-38
4868.751 334.79263 1310 2.3509862e-38
4834.8677 309.25977 1300 2.3509866e-38
4820.79 280.94345 1290 2.3509886e-38
4808.1035 262.52982 1290 2.3509881e-38
3743.4316 159.70279 880 2.3509872e-38
3730.7456 141.28915 870 2.3509853e-38
3719.4512 132.7782 870 2.3509502e-38
3726.5703 111.58112 870 2.1479424e-38
3735.0813 100.2867 880 2.1293174e-38
3743.5923 88.992287 880 2.3509867e-38
3760.6143 66.403465 890 2.3509884e-38
3788.9304 52.325592 900 2.3509886e-38
3797.4414 41.031181 900 2.2036552e-38
3735.2417 29.576206 880 2.3509859e-38
3731.0667 -0.13183784 880 2.3509873e-38
3718.3804 -18.545469 880 2.3509825e-38
3726.8916 -29.83988 880 2.350982e-38
3724.1079 -49.645241 880 1.5577808e-38
3722.7163 -59.54792 880 7.2805555e-39
3729.8354 -80.74501 880 2.1202377e-38
3718.541 -89.255966 880 2.1015555e-38
3695.9521 -106.27786 870 1.6594109e-38
4781.0723 -289.07626 1310 2.2313835e-38
4897.1206 -325.5824 1360 2.2863771e-38
4932.5562 -360.85736 1370 2.3324396e-38
4939.6753 -382.05444 1370 2.3048878e-38
4866.1816 -402.02039 1350 2.350987e-38
4843.5928 -419.04227 1340 2.3326202e-38
4840.8091 -438.84763 1340 2.350986e-38
4847.9287 -460.04474 1340 2.3326202e-38
4894.6582 -486.80875 1360 2.2589357e-38
4939.9966 -523.47546 1380 1.6682338e-38
4995.2373 -561.53387 1410 1.4931691e-38
5050.4785 -599.59229 1430 8.569865e-39
5155.2324 -644.60938 1470 5.8990574e-39
5337.8164 -710.66296 1550 6.0827354e-39
5441.1792 -765.5827 1590 1.667864e-38
5613.8604 -830.24463 1660 2.3509886e-38
5677.6123 -879.59741 1690 2.3509886e-38
5703.1455 -913.48065 1700 2.3509886e-38
5718.7754 -945.97217 1710 2.3509886e-38
5792.4297 -996.71674 1740 7.0961572e-39
4786.4248 -1400.6388 1370 7.0036014e-39
4670.376 -1364.1327 1330 7.5556878e-39
4676.1035 -1395.2324 1330 1.152118e-38
4691.7334 -1427.724 1340 1.0138983e-38
4679.0474 -1446.1376 1330 9.4003305e-39
4666.3613 -1464.5513 1330 8.7556954e-39
4597.042 -1454.8091 1300 1.2722256e-38
4594.2588 -1474.6145 1300 1.4382871e-38
4591.4756 -1494.4198 1300 1.4382881e-38
4849.2666 -1672.0259 1410 1.4476865e-38
4836.5801 -1690.4395 1410 1.4566897e-38
4805.4805 -1696.167 1390 1.4104499e-38
4559.1445 -1580.7605 1290 1.3734625e-38
4556.3613 -1600.5659 1290 1.318541e-38
4525.2612 -1606.2933 1280 1.2630808e-38
4512.5752 -1624.707 1280 1.2630087e-38
4509.792 -1644.5123 1280 1.2079425e-38
4497.1055 -1662.926 1270 1.1617017e-38
4494.3223 -1682.7313 1270 8.48417e-39
4463.2222 -1688.4589 1260 1.0030253e-38
4440.6338 -1705.4807 1250 6.082385e-39
4382.6094 -1687.2277 1230 4.611599e-39
4342.998 -1681.6608 1210 2.8566324e-39
4321.8013 -1688.78 1200 4.8881662e-39
4309.1152 -1707.1936 1200 3.7821872e-39
4287.918 -1714.3129 1190 1.2988343e-38
4248.3076 -1708.7458 1180 1.3447911e-38
4218.5996 -1704.5707 1170 6.8120453e-39
4197.4023 -1711.6899 1160 2.4878415e-39
4670.1621 1221.0559 1160 2.3234379e-38
4647.5732 1204.0339 1150 1.7707369e-38
4643.3984 1174.3259 1150 5.9016091e-39
4640.6147 1154.5205 1150 4.1477187e-39
4637.8311 1134.7152 1150 3.7796621e-39
4623.7534 1106.3989 1150 3.8732898e-39
4568.6729 1073.7468 1130 4.8877949e-39
4608.2842 1068.1799 1140 4.9810779e-39
3266.2295 428.73465 660 2.277226e-38
4596.4004 696.21381 1160 2.3509837e-38
4569.958 508.06287 1160 2.3509108e-38
4567.1738 488.25751 1160 2.3509469e-38
4553.0967 459.94116 1160 2.3509469e-38
4540.4102 441.52756 1150 2.3507318e-38
4547.5293 420.33044 1160 2.3416178e-38
4554.6484 399.13336 1160 2.3046333e-38
4573.0625 386.4472 1170 1.4379606e-38
4775.291 388.32065 1250 1.3733875e-38
4844.6099 378.57855 1270 1.4010808e-38
4902.6343 360.32547 1290 2.2761112e-38
4899.8506 340.52011 1300 2.3509869e-38
4885.7729 312.2038 1290 2.3509869e-38
4861.792 285.27921 1280 2.3509872e-38
4849.1064 266.8656 1280 2.3509863e-38
3743.4316 159.70279 860 2.3509848e-38
3730.7456 141.28915 860 2.3509842e-38
3729.3538 131.38647 860 2.3509856e-38
3726.5703 111.58112 860 2.1757432e-38
3735.0813 100.2867 860 2.1569393e-38
3743.5923 88.992287 860 2.3509873e-38
3760.6143 66.403465 870 2.3509877e-38
3788.9304 52.325592 890 2.3509886e-38
3797.4414 41.031181 890 2.1759577e-38
3735.2417 29.576206 860 2.3509884e-38
3731.0667 -0.13183784 870 2.3509886e-38
3718.3804 -18.545469 860 2.350983e-38
3726.8916 -29.83988 870 2.3509828e-38
3724.1079 -49.645241 870 1.4658004e-38
3722.7163 -59.54792 870 7.0050504e-39
3719.9326 -79.353287 870 2.1015472e-38
3708.6382 -87.864235 860 1.9635133e-38
4721.6558 -280.72589 1260 2.2681176e-38
4776.8965 -318.7843 1280 2.3140365e-38
4902.8481 -356.68216 1340 2.3049607e-38
4929.7725 -380.66272 1350 2.3414782e-38
4866.1816 -402.02039 1320 2.3509869e-38
4833.6899 -417.65054 1310 2.3509855e-38
4830.9062 -437.4559 1310 2.3509873e-38
4838.0254 -458.65302 1320 2.3326213e-38
4874.853 -484.0253 1330 2.2772322e-38
4920.1914 -520.69202 1350 1.5206138e-38
4985.335 -560.14215 1380 1.447108e-38
5060.3809 -600.98401 1410 8.0184919e-39
5194.8433 -650.17627 1460 5.8997776e-39
5387.3301 -717.62164 1540 6.4504389e-39
5470.8872 -769.75793 1570 1.188811e-38
5584.1523 -826.0694 1620 2.3509849e-38
5649.2959 -865.51959 1650 2.3509886e-38
5653.6318 -906.52203 1650 2.3509886e-38
5679.1646 -940.40527 1660 2.3509886e-38
5782.5273 -995.32501 1710 7.6493338e-39
4796.3271 -1402.0305 1350 7.0965145e-39
4660.4731 -1362.741 1300 7.1894332e-39
4657.6895 -1382.5464 1300 1.0509907e-38
4691.7334 -1427.724 1310 9.9571084e-39
4679.0474 -1446.1376 1310 9.3085062e-39
4656.4585 -1463.1595 1300 8.8464434e-39
4597.042 -1454.8091 1280 1.1983614e-38
4584.3564 -1473.2228 1270 1.4473257e-38
4750.0791 -1587.3981 1340 1.4843124e-38
4784.123 -1632.5757 1360 1.4656598e-38
4677.9766 -1597.4613 1320 1.4104847e-38
4673.8018 -1627.1693 1320 1.4196326e-38
4689.4316 -1659.6609 1320 1.4104484e-38
4639.918 -1652.7021 1300 1.3458394e-38
4598.916 -1657.038 1290 1.2816982e-38
4549.4023 -1650.0793 1270 1.2814839e-38
4536.7163 -1668.4929 1260 1.235314e-38
4515.519 -1675.6122 1260 1.1892876e-38
4502.833 -1694.0258 1250 9.2184938e-39
4471.7334 -1699.7533 1240 1.0126417e-38
4450.5361 -1706.8724 1230 8.7545967e-39
4382.6094 -1687.2277 1210 4.4275622e-39
4342.998 -1681.6608 1190 2.5832811e-39
4311.8984 -1687.3883 1180 4.7920162e-39
4300.6045 -1695.8992 1180 4.9800186e-39
4287.918 -1714.3129 1170 1.0413043e-38
4248.3076 -1708.7458 1160 4.8795343e-39
4218.5996 -1704.5707 1150 2.4878443e-39
4197.4023 -1711.6899 1140 2.2123322e-39
4670.1621 1221.0559 1140 2.1119293e-38
4647.5732 1204.0339 1130 8.9491292e-39
4643.3984 1174.3259 1130 5.2598242e-39
4640.6147 1154.5205 1130 7.3824649e-39
4637.8311 1134.7152 1130 1.1159612e-38
4625.1455 1116.3015 1130 1.4106987e-38
4589.8701 1080.8661 1120 1.5212963e-38
4618.1865 1066.7882 1130 1.6689881e-38
3332.6042 469.89767 680 2.3509101e-38
4601.0576 513.79034 1150 2.350983e-38
4567.1738 488.25751 1140 2.3509823e-38
4553.0967 459.94116 1130 2.3509807e-38
4540.4102 441.52756 1130 2.3509831e-38
4547.5293 420.33044 1140 2.350982e-38
4554.6484 399.13336 1140 2.2953787e-38
4573.0625 386.4472 1150 1.4379252e-38
4765.3887 389.71237 1220 1.3457291e-38
4854.5127 377.1868 1250 1.2905917e-38
4922.4395 357.54202 1280 1.391897e-38
4940.8535 344.85587 1290 1.4189831e-38
4916.8726 317.93127 1280 2.3508416e-38
4892.8921 291.00671 1270 2.3509855e-38
4868.9116 264.08212 1270 2.3417658e-38
3743.4316 159.70279 850 2.3326191e-38
3730.7456 141.28915 840 2.3509135e-38
3729.3538 131.38647 840 2.3326167e-38
3736.4731 110.18938 850 2.129897e-38
3735.0813 100.2867 850 1.9911682e-38
3732.2979 80.481339 850 2.3509852e-38
3750.7114 67.795197 850 2.3509856e-38
3788.9304 52.325592 870 2.3509879e-38
3797.4414 41.031181 870 2.110918e-38
3725.3391 30.967934 850 2.350987e-38
3731.0667 -0.13183784 850 2.3509883e-38
3718.3804 -18.545469 850 2.3509838e-38
3726.8916 -29.83988 850 2.3509831e-38
3724.1079 -49.645241 850 1.4472173e-38
3722.7163 -59.54792 850 6.5447869e-39
3719.9326 -79.353287 850 2.0832879e-38
3708.6382 -87.864235 850 1.9268875e-38
4810.7803 -293.25146 1270 2.2222723e-38
4847.6074 -318.62375 1290 2.2773732e-38
4892.9453 -355.29044 1310 2.314251e-38
4919.8701 -379.271 1320 2.3509855e-38
4866.1816 -402.02039 1300 2.314252e-38
4843.5928 -419.04227 1290 2.3509851e-38
4840.8091 -438.84763 1290 2.3326213e-38
4847.9287 -460.04474 1290 2.3509866e-38
4874.853 -484.0253 1310 2.3047816e-38
4900.3857 -517.90851 1320 1.5391953e-38
4995.2373 -561.53387 1350 1.4285244e-38
5070.2837 -602.37573 1390 8.0174157e-39
5460.9844 -768.36621 1540 8.4794224e-39
5536.0308 -809.20807 1570 2.2948729e-38
5609.6855 -859.95264 1600 2.3509779e-38
5615.4131 -891.05243 1610 2.3509886e-38
5640.9453 -924.93567 1620 2.3509886e-38
5772.6245 -993.93329 1670 1.3545569e-38
4650.5703 -1361.3492 1270 7.0979523e-39
4647.7871 -1381.1547 1270 9.7705437e-39
4681.8311 -1426.3323 1280 1.0231172e-38
4679.0474 -1446.1376 1280 9.3085104e-39
4666.3613 -1464.5513 1280 8.4791071e-39
4597.042 -1454.8091 1250 1.1615534e-38
4594.2588 -1474.6145 1250 1.4289586e-38
4778.3955 -1601.476 1330 1.4381801e-38
4774.2197 -1631.184 1330 1.46591e-38
4677.9766 -1597.4613 1290 1.4014093e-38
4655.3877 -1614.4832 1290 1.38297e-38
4680.9209 -1648.3665 1300 1.3644593e-38
4639.918 -1652.7021 1280 1.3366568e-38
4637.1348 -1672.5076 1280 1.2633312e-38
4577.7188 -1664.1571 1260 1.2722635e-38
4565.0322 -1682.5708 1250 1.1987226e-38
4533.9326 -1688.2983 1240 1.2168391e-38
4502.833 -1694.0258 1230 9.1277401e-39
4471.7334 -1699.7533 1220 1.0040699e-38
4450.5361 -1706.8724 1210 1.0593467e-38
4401.0225 -1699.9138 1190 5.5313931e-39
4342.998 -1681.6608 1170 2.8584303e-39
4311.8984 -1687.3883 1160 4.7930867e-39
4300.6045 -1695.8992 1150 8.3876443e-39
4287.918 -1714.3129 1150 3.7760692e-39
4258.21 -1710.1377 1140 2.4878401e-39
4227.1104 -1715.8651 1130 2.3034502e-39
4197.4023 -1711.6899 1120 2.0275794e-39
4670.1621 1221.0559 1120 1.8249672e-38
4646.1816 1194.1312 1110 1.6414018e-38
4643.3984 1174.3259 1110 1.7242697e-38
4640.6147 1154.5205 1110 1.8440166e-38
4637.8311 1134.7152 1110 1.9729827e-38
4623.7534 1106.3989 1110 2.1020179e-38
4568.6729 1073.7468 1090 2.2304817e-38
4618.1865 1066.7882 1110 2.1939626e-38
4601.0576 513.79034 1130 2.350983e-38
4567.1738 488.25751 1120 2.3509816e-38
4553.0967 459.94116 1110 2.3509825e-38
4540.4102 441.52756 1110 2.3509817e-38
4547.5293 420.33044 1110 2.3509814e-38
4554.6484 399.13336 1120 2.2308415e-38
4573.0625 386.4472 1120 1.465475e-38
4744.1914 382.59317 1190 1.3457646e-38
4844.6099 378.57855 1230 1.2631135e-38
4943.6367 364.66122 1260 1.1799934e-38
4970.5615 340.68066 1280 1.4653664e-38
4946.5806 313.7561 1270 1.3822115e-38
4923.9922 296.73419 1260 2.2676838e-38
4960.8193 271.36191 1270 2.2219458e-38
4936.8389 244.43735 1270 2.2862313e-38
4852.0503 215.96045 1240 2.35084e-38
3729.3538 131.38647 830 2.3509125e-38
3736.4731 110.18938 830 2.1941821e-38
3735.0813 100.2867 830 1.9820197e-38
3732.2979 80.481339 830 2.3509844e-38
3750.7114 67.795197 840 2.3509851e-38
3788.9304 52.325592 850 2.3509123e-38
3787.5386 42.422913 860 2.2958113e-38
3723.9473 21.065254 830 2.3509823e-38
3722.5557 11.162575 830 2.350986e-38
3731.0667 -0.13183784 840 2.3509873e-38
3718.3804 -18.545469 830 2.3509839e-38
3716.9888 -28.448149 830 2.3509832e-38
3714.2053 -48.25351 830 1.3827164e-38
3712.8135 -58.156193 830 6.5437121e-39
3710.0303 -77.961548 830 2.0740314e-38
3698.7358 -86.472504 830 2.0187592e-38
4754.1475 -265.0957 1220 2.1298966e-38
4830.585 -296.03491 1260 2.2774451e-38
4827.8018 -315.84027 1260 2.350879e-38
4853.335 -349.72351 1270 2.3509143e-38
4890.1621 -375.09579 1280 2.3416949e-38
4856.2788 -400.62866 1270 2.3509867e-38
4833.6899 -417.65054 1260 2.350988e-38
4840.8091 -438.84763 1270 2.3234367e-38
4847.9287 -460.04474 1270 2.3509867e-38
4874.853 -484.0253 1280 2.3049241e-38
4900.3857 -517.90851 1290 1.4194146e-38
5005.1401 -562.9256 1330 1.3546967e-38
5080.1865 -603.76746 1360 7.8330216e-39
5224.5513 -654.3515 1420 6.1738548e-39
5451.082 -766.97449 1510 6.5429778e-39
5526.1279 -807.81635 1540 1.6218102e-38
5599.7827 -858.56091 1570 1.9076481e-38
5605.5098 -889.66071 1570 2.3509771e-38
5611.2373 -920.76044 1570 2.3507623e-38
5752.8193 -991.14984 1630 9.5836498e-39
4660.4731 -1362.741 1250 7.4638565e-39
4637.8843 -1379.7629 1240 9.0329745e-39
4673.3198 -1415.0378 1260 1.059816e-38
4669.1445 -1444.7458 1260 9.3099425e-39
4666.3613 -1464.5513 1250 8.4805392e-39
4587.1396 -1453.4174 1230 1.0970889e-38
4594.2588 -1474.6145 1230 1.4196679e-38
4778.3955 -1601.476 1300 1.4382867e-38
4775.6118 -1621.2812 1300 1.4198847e-38
4668.0742 -1596.0696 1270 1.4016596e-38
4655.3877 -1614.4832 1260 1.3919371e-38
4680.9209 -1648.3665 1270 1.3460565e-38
4639.918 -1652.7021 1260 1.3368722e-38
4645.6455 -1683.802 1260 1.2998138e-38
4596.1323 -1676.8433 1240 1.2446414e-38
4583.4463 -1695.257 1240 1.2444618e-38
4552.3467 -1700.9844 1230 1.1709204e-38
4502.833 -1694.0258 1210 8.6678353e-39
4471.7334 -1699.7533 1200 1.0413444e-38
4440.6338 -1705.4807 1190 7.5441916e-39
4410.9258 -1701.3055 1180 5.0682289e-39
4352.9014 -1683.0525 1150 6.3611313e-39
4321.8013 -1688.78 1140 7.3724064e-39
4300.6045 -1695.8992 1130 2.9477448e-39
4287.918 -1714.3129 1130 2.3963605e-39
4258.21 -1710.1377 1120 2.1197806e-39
4227.1104 -1715.8651 1110 2.1204953e-39
4187.4995 -1710.2982 1090 2.5818364e-39
4671.5537 1230.9585 1100 2.1203141e-38
4646.1816 1194.1312 1090 2.1016604e-38
4643.3984 1174.3259 1090 2.1477931e-38
4640.6147 1154.5205 1090 2.175739e-38
4637.8311 1134.7152 1090 2.1478638e-38
4625.1455 1116.3015 1090 2.2218356e-38
4578.5757 1072.3551 1070 2.1571565e-38
4629.481 1075.2991 1090 2.2031462e-38
4629.481 1075.2991 1090 2.3509838e-38
4629.481 1075.2991 1090 2.350983e-38
4629.481 1075.2991 1090 2.3509831e-38
4629.481 1075.2991 1090 2.3509825e-38
4629.481 1075.2991 1090 2.3509824e-38
4589.7627 505.27936 1110 2.3509835e-38
4567.1738 488.25751 1100 2.3509809e-38
4553.0967 459.94116 1090 2.3509821e-38
4540.4102 441.52756 1090 2.3509825e-38
4537.627 421.7222 1090 2.3509821e-38
4554.6484 399.13336 1100 2.1112386e-38
4563.1597 387.83896 1100 1.4194479e-38
4734.2886 383.98489 1160 1.3275066e-38
4844.6099 378.57855 1200 1.2537853e-38
4943.6367 364.66122 1240 1.225875e-38
4970.5615 340.68066 1250 1.1062e-38
4946.5806 313.7561 1240 7.9324227e-39
4933.8945 295.34247 1240 1.5390492e-38
4980.6245 268.57846 1260 2.2029316e-38
4936.8389 244.43735 1250 2.2861232e-38
4832.2451 218.74391 1210 2.2861953e-38
4798.3613 193.21106 1190 2.3416551e-38
3736.4731 110.18938 820 2.1940365e-38
3744.9839 98.894974 820 1.9724764e-38
3742.2004 79.089607 820 2.3509828e-38
3740.8086 69.186928 820 2.3509832e-38
3769.125 55.109055 830 2.3509839e-38
3777.636 43.814644 840 2.1478663e-38
3714.0447 22.456985 820 2.3509831e-38
3722.5557 11.162575 820 2.350986e-38
3731.0667 -0.13183784 820 2.3509865e-38
3718.3804 -18.545469 820 2.3509825e-38
3716.9888 -28.448149 820 2.3508382e-38
3714.2053 -48.25351 820 1.3181796e-38
3712.8135 -58.156193 820 6.358246e-39
3710.0303 -77.961548 820 2.0921467e-38
3698.7358 -86.472504 810 2.1106678e-38
4783.8555 -269.2709 1210 2.3139982e-38
4840.4883 -297.42664 1240 2.3231104e-38
4826.4102 -325.74295 1230 2.3508044e-38
4853.335 -349.72351 1240 2.2404606e-38
4890.1621 -375.09579 1260 2.3322573e-38
4856.2788 -400.62866 1250 2.3324383e-38
4833.6899 -417.65054 1240 2.3325814e-38
4840.8091 -438.84763 1240 2.3231448e-38
4847.9287 -460.04474 1250 2.2863404e-38
4884.7559 -485.41702 1260 2.2217678e-38
4910.2886 -519.30029 1270 1.3733159e-38
5005.1401 -562.9256 1310 1.2904099e-38
5080.1865 -603.76746 1340 7.8348097e-39
5224.5513 -654.3515 1390 5.8979812e-39
5516.2256 -806.42462 1500 1.2440981e-38
5599.7827 -858.56091 1540 1.4374528e-38
5605.5098 -889.66071 1540 1.7601714e-38
5611.2373 -920.76044 1550 1.972078e-38
5762.7217 -992.54156 1600 8.6645619e-39
4660.4731 -1362.741 1220 7.5556976e-39
4639.2759 -1369.8602 1220 8.2968444e-39
4673.3198 -1415.0378 1230 9.8631121e-39
4669.1445 -1444.7458 1230 9.6772845e-39
4666.3613 -1464.5513 1230 8.8468022e-39
4587.1396 -1453.4174 1200 1.0233683e-38
4594.2588 -1474.6145 1210 1.4012278e-38
4768.4922 -1600.0842 1280 1.4290316e-38
4765.709 -1619.8895 1280 1.4199561e-38
4677.9766 -1597.4613 1240 1.4198116e-38
4655.3877 -1614.4832 1240 1.3276891e-38
4680.9209 -1648.3665 1250 1.3091782e-38
4649.8208 -1654.0939 1230 1.3091415e-38
4645.6455 -1683.802 1240 1.2998501e-38
4606.0352 -1678.235 1220 1.2998498e-38
4601.8599 -1707.9431 1220 1.1895391e-38
4570.7598 -1713.6705 1210 1.1620245e-38
4512.7354 -1695.4175 1190 8.7600408e-39
4471.7334 -1699.7533 1180 1.0598909e-38
4440.6338 -1705.4807 1160 5.7971661e-39
4419.4365 -1712.6 1160 4.6072479e-39
4351.5093 -1692.9552 1130 6.9085556e-39
4321.8013 -1688.78 1120 2.4881988e-39
4300.6045 -1695.8992 1110 2.1201366e-39
4287.918 -1714.3129 1110 2.8580701e-39
4258.21 -1710.1377 1100 2.0275906e-39
4217.2075 -1714.4734 1080 3.2318693e-39
4187.4995 -1710.2982 1070 3.4108796e-39
4671.5537 1230.9585 1080 2.138645e-38
4647.5732 1204.0339 1070 2.1200268e-38
4643.3984 1174.3259 1070 2.1846712e-38
4640.6147 1154.5205 1070 2.1477561e-38
4637.8311 1134.7152 1070 2.1571919e-38
4623.7534 1106.3989 1070 2.1479369e-38
4557.3789 1065.2358 1040 2.1755585e-38
4608.2842 1068.1799 1060 2.2032876e-38
4608.2842 1068.1799 1060 2.3509824e-38
4608.2842 1068.1799 1060 2.3509835e-38
4608.2842 1068.1799 1060 2.3509823e-38
4608.2842 1068.1799 1060 2.3509834e-38
4608.2842 1068.1799 1060 2.350983e-38
4608.2842 1068.1799 1060 2.3509838e-38
4569.958 508.06287 1080 2.3509816e-38
4567.1738 488.25751 1080 2.3509842e-38
4553.0967 459.94116 1070 2.3509821e-38
4540.4102 441.52756 1070 2.3509821e-38
4537.627 421.7222 1070 2.3509818e-38
4554.6484 399.13336 1080 2.0831487e-38
4573.0625 386.4472 1080 1.4746943e-38
4754.0938 381.20142 1150 1.3733154e-38
4854.5127 377.1868 1180 1.308923e-38
4943.6367 364.66122 1210 1.2353462e-38
4970.5615 340.68066 1230 1.1706656e-38
4936.6777 315.14783 1220 1.6497567e-38
4912.6973 288.22324 1210 2.0279739e-38
4970.7217 269.97018 1230 2.0925832e-38
4958.0356 251.55655 1230 2.258677e-38
4883.1499 221.68794 1200 2.2216585e-38
4828.0693 189.03587 1190 2.2494957e-38
3736.4731 110.18938 800 2.2126548e-38
3744.9839 98.894974 810 1.9173028e-38
3732.2979 80.481339 800 2.3508752e-38
3730.906 70.578659 800 2.3508395e-38
3749.3198 57.892517 810 2.3508397e-38
3746.5361 38.087158 810 2.1112393e-38
3704.1421 23.848717 800 2.3509828e-38
3712.6528 12.554302 800 2.3509865e-38
3731.0667 -0.13183784 810 2.3509848e-38
3718.3804 -18.545469 800 2.350983e-38
3716.9888 -28.448149 800 2.3508388e-38
3714.2053 -48.25351 800 1.244531e-38
3712.8135 -58.156193 800 6.5422716e-39
3710.0303 -77.961548 800 2.1659744e-38
4737.1255 -242.50688 1170 1.6408614e-38
4793.7578 -270.66263 1190 1.9268838e-38
4840.4883 -297.42664 1210 2.0099334e-38
4826.4102 -325.74295 1210 2.1570864e-38
4853.335 -349.72351 1220 2.1753455e-38
4880.2593 -373.70407 1230 2.1573375e-38
4856.2788 -400.62866 1220 2.1479385e-38
4833.6899 -417.65054 1220 2.1848152e-38
4840.8091 -438.84763 1220 2.1663058e-38
4847.9287 -460.04474 1220 2.0836895e-38
4884.7559 -485.41702 1240 2.0741808e-38
4920.1914 -520.69202 1250 1.281011e-38
5005.1401 -562.9256 1280 1.2349139e-38
5070.2837 -602.37573 1310 7.6496967e-39
5204.7461 -651.56799 1360 6.1745652e-39
5516.2256 -806.42462 1470 1.1243889e-38
5599.7827 -858.56091 1510 1.0227203e-38
5625.3154 -892.44415 1520 1.4562874e-38
5639.5537 -934.83832 1520 1.9080087e-38
5782.5273 -995.32501 1580 8.9386363e-39
4660.4731 -1362.741 1200 7.5578444e-39
4629.373 -1368.4685 1190 9.0311794e-39
4673.3198 -1415.0378 1210 9.9560266e-39
4669.1445 -1444.7458 1210 9.7687613e-39
4666.3613 -1464.5513 1210 8.2035922e-39
4588.5312 -1443.5148 1180 1.0047128e-38
4584.3564 -1473.2228 1180 1.3460552e-38
4768.4922 -1600.0842 1250 1.4474344e-38
4765.709 -1619.8895 1250 1.4471473e-38
4668.0742 -1596.0696 1220 1.3737861e-38
4646.877 -1603.1887 1210 1.3552033e-38
4680.9209 -1648.3665 1220 1.382825e-38
4639.918 -1652.7021 1210 1.2724079e-38
4645.6455 -1683.802 1210 1.2997785e-38
4606.0352 -1678.235 1200 1.3363692e-38
4620.2734 -1720.6293 1210 1.1985792e-38
4589.1738 -1726.3567 1190 1.1526609e-38
4512.7354 -1695.4175 1170 9.9542666e-39
4471.7334 -1699.7533 1150 1.0511026e-38
4440.6338 -1705.4807 1140 9.0355319e-39
4429.3389 -1713.9917 1140 5.8936904e-39
4361.4121 -1694.3469 1110 2.2116175e-39
4330.3125 -1700.0743 1100 4.7084231e-39
4309.1152 -1707.1936 1090 1.1429042e-38
4287.918 -1714.3129 1090 5.0707737e-39
4266.7207 -1721.432 1080 2.4874939e-39
4218.5996 -1704.5707 1060 6.0863297e-39
4178.9883 -1699.0038 1050 6.3582615e-39
4671.5537 1230.9585 1060 2.1384292e-38
4646.1816 1194.1312 1050 2.0557407e-38
4643.3984 1174.3259 1050 2.1845618e-38
4640.6147 1154.5205 1050 2.1293529e-38
4627.9287 1136.1069 1050 2.1476488e-38
4613.8506 1107.7906 1040 2.1848131e-38
4524.8872 1049.6057 1010 2.1572268e-38
4575.792 1052.5497 1030 2.2490626e-38
4575.792 1052.5497 1030 2.3509824e-38
4575.792 1052.5497 1030 2.3509821e-38
4575.792 1052.5497 1030 2.3509832e-38
4575.792 1052.5497 1030 2.3509824e-38
4575.792 1052.5497 1030 2.3509834e-38
4575.792 1052.5497 1030 2.3509828e-38
4575.792 1052.5497 1030 2.3509834e-38
4575.792 1052.5497 1030 2.3509837e-38
4589.7627 505.27936 1060 2.3509823e-38
4567.1738 488.25751 1060 2.3509824e-38
4553.0967 459.94116 1050 2.3509813e-38
4540.4102 441.52756 1050 2.3509828e-38
4537.627 421.7222 1050 2.350982e-38
4554.6484 399.13336 1060 1.9818418e-38
4582.9648 385.05548 1070 1.4563991e-38
4755.4854 391.10413 1130 1.3735306e-38
4854.5127 377.1868 1160 1.3181065e-38
4922.4395 357.54202 1180 1.2536054e-38
4950.7559 343.46414 1190 1.1154929e-38
4916.8726 317.93127 1190 1.4196636e-38
4892.8921 291.00671 1180 1.705218e-38
4941.0137 274.14539 1200 1.9359219e-38
4967.9385 250.16483 1210 2.0927269e-38
4912.8579 217.51276 1190 2.2031097e-38
4828.0693 189.03587 1160 2.2678263e-38
3744.9839 98.894974 790 1.8803887e-38
3732.2979 80.481339 790 2.3509464e-38
3730.906 70.578659 790 2.3507683e-38
3739.417 59.284248 790 2.2130142e-38
3726.731 40.870613 790 2.2400948e-38
3704.1421 23.848717 780 2.3509845e-38
3712.6528 12.554302 790 2.3509867e-38
3721.1641 1.2598934 790 2.3509849e-38
3718.3804 -18.545469 790 2.3509832e-38
3716.9888 -28.448149 790 2.3506597e-38
3714.2053 -48.25351 790 1.2441723e-38
3712.8135 -58.156193 790 6.174917e-39
3710.0303 -77.961548 790 2.1475715e-38
4737.1255 -242.50688 1150 1.4379242e-38
4793.7578 -270.66263 1170 1.6962164e-38
4840.4883 -297.42664 1190 1.8621666e-38
4826.4102 -325.74295 1180 1.9634027e-38
4853.335 -349.72351 1200 2.0832926e-38
4890.1621 -375.09579 1210 2.0648548e-38
4856.2788 -400.62866 1200 2.1108797e-38
4833.6899 -417.65054 1190 2.1295702e-38
4840.8091 -438.84763 1200 2.0926204e-38
4847.9287 -460.04474 1200 2.1478287e-38
4884.7559 -485.41702 1210 2.0461997e-38
4920.1914 -520.69202 1230 1.2349146e-38
4995.2373 -561.53387 1260 1.1795598e-38
5050.4785 -599.59229 1270 7.6482604e-39
5175.0381 -647.39282 1320 6.1738464e-39
5526.1279 -807.81635 1450 1.1335358e-38
5609.6855 -859.95264 1480 7.8344467e-39
5645.1211 -895.2276 1490 1.4558902e-38
5669.2617 -939.01355 1500 1.9723651e-38
5792.4297 -996.71674 1550 9.2155763e-39
4660.4731 -1362.741 1180 7.7433217e-39
4629.373 -1368.4685 1170 9.1251701e-39
4673.3198 -1415.0378 1180 9.9545805e-39
4679.0474 -1446.1376 1190 9.4928975e-39
4666.3613 -1464.5513 1180 8.3869016e-39
4588.5312 -1443.5148 1160 9.124831e-39
4594.2588 -1474.6145 1160 1.4103031e-38
4768.4922 -1600.0842 1230 1.4289586e-38
4765.709 -1619.8895 1230 1.410664e-38
4668.0742 -1596.0696 1190 1.382826e-38
4646.877 -1603.1887 1190 1.4009774e-38
4671.0181 -1646.9747 1200 1.3275093e-38
4639.918 -1652.7021 1180 1.2815551e-38
4637.1348 -1672.5076 1190 1.3091404e-38
4596.1323 -1676.8433 1170 1.2171969e-38
4620.2734 -1720.6293 1180 1.2262732e-38
4580.6626 -1715.0623 1170 1.1984717e-38
4502.833 -1694.0258 1140 1.032843e-38
