# .PCD v0.7 - Point Cloud Data file format
VERSION 0.7
FIELDS x y z rgb
SIZE 4 4 4 4
TYPE F F F F
COUNT 1 1 1 1
WIDTH 1233
HEIGHT 1
VIEWPOINT 0 0 0 1 0 0 0
POINTS 1233
DATA ascii
3670.9956 -1658.5 800 1.1152787e-38
3719.8206 -1852.4487 860 1.0229749e-38
3697.9844 -1847.6338 850 9.9549602e-39
3676.1484 -1842.8188 840 1.0139354e-38
3671.3335 -1864.655 850 1.0138991e-38
3658.7471 -1880.1979 850 1.0414873e-38
3646.1606 -1895.7408 850 1.0507779e-38
2721.4414 -606.47955 340 1.0048601e-38
2722.9197 -620.54419 340 1.1896803e-38
2722.9197 -620.54419 340 2.102961e-38
3324.1938 -1673.6204 710 2.2591531e-38
3429.2776 -1861.656 780 2.2867037e-38
3356.3779 -1776.8879 740 2.341805e-38
3385.6055 -1852.0261 770 2.3509886e-38
3388.562 -1880.1555 780 2.3509886e-38
3365.2476 -1861.2759 770 2.3326215e-38
3352.6611 -1876.8188 760 2.3509886e-38
3347.8462 -1898.6549 770 2.3509886e-38
3358.5742 -1933.0775 780 2.1397669e-38
3345.9878 -1948.6204 780 1.6048578e-38
3226.8394 -1762.0629 710 1.9186084e-38
3202.0469 -1729.1187 700 1.8723319e-38
3178.7324 -1710.239 690 1.6784003e-38
3164.6677 -1711.7173 680 1.5313886e-38
3158.3745 -1719.4888 680 1.6232619e-38
3152.0813 -1727.2603 680 1.604857e-38
3138.0166 -1728.7385 680 1.5404655e-38
3123.9521 -1730.2168 680 1.6140426e-38
3108.4092 -1717.6304 670 1.5681223e-38
3094.3445 -1719.1086 670 1.5865281e-38
3080.2798 -1720.5869 660 1.4483772e-38
4989.9072 -474.70395 880 9.49541e-39
4977.3203 -490.24686 880 9.4957757e-39
4956.9629 -499.49658 870 9.8649114e-39
4944.376 -515.03949 880 1.0141131e-38
4967.6904 -533.91907 880 9.8649142e-39
5145.3359 -600.56799 940 1.0692508e-38
5176.4219 -625.74078 950 7.5596843e-39
5185.6719 -646.09863 960 6.9106855e-39
5165.3135 -655.34839 960 7.096153e-39
5174.5635 -675.70624 970 4.8834705e-39
5161.9771 -691.24915 970 3.6856504e-39
5163.4551 -705.31384 970 4.1473432e-39
5590.5479 -845.28491 1100 6.0834458e-39
5708.9785 -889.71753 1140 6.5440652e-39
5704.1631 -911.55365 1150 7.0957985e-39
5707.1201 -939.68298 1150 7.0054049e-39
5702.3047 -961.5191 1150 8.9404047e-39
5719.3262 -988.17017 1170 1.1150219e-38
5758.1836 -1019.6362 1180 6.7281048e-39
5753.3682 -1041.4723 1190 5.5281168e-39
7327.7656 -1544.3378 1680 5.529193e-39
7284.8115 -1676.8328 1700 5.3465968e-39
5732.5459 -1655.1223 1310 4.3310114e-39
5654.4512 -1656.2205 1290 4.7912707e-39
5627.7998 -1673.2416 1280 4.8849054e-39
5548.2266 -1660.275 1260 5.4377135e-39
4962.3682 -1430.3407 1070 6.0780536e-39
4934.2393 -1433.2972 1060 4.6007697e-39
4915.3594 -1456.6116 1060 8.00875e-39
4895.0015 -1465.8613 1050 5.3444388e-39
4829.4932 -1451.4165 1040 5.9898139e-39
4824.6782 -1473.2526 1040 5.8057841e-39
4790.2559 -1483.9806 1030 5.5299161e-39
4769.8975 -1493.2303 1030 6.4507892e-39
4765.083 -1515.0664 1030 9.6765586e-39
4677.7383 -1495.8066 1010 9.4954044e-39
4680.6948 -1523.936 1010 9.5883175e-39
4887.5679 -1665.7231 1090 9.6787138e-39
4944.9248 -1737.9049 1120 9.3099355e-39
4916.7949 -1740.8613 1120 9.4010508e-39
4927.5234 -1775.2839 1130 8.8496804e-39
4740.6279 -1688.2772 1060 8.6638585e-39
4667.3481 -1667.5392 1040 8.6642116e-39
4608.1328 -1645.3229 1020 8.2043166e-39
4573.7104 -1656.0508 1010 8.0213617e-39
4553.3525 -1665.3005 1010 7.9284416e-39
4540.7661 -1680.8435 1010 8.2035964e-39
4520.4082 -1690.0931 1010 7.7447748e-39
4492.2793 -1693.0497 1000 7.2848813e-39
4479.6924 -1708.5927 1000 6.7320718e-39
4467.1064 -1724.1355 1000 6.2674825e-39
4448.2266 -1747.45 1000 3.3190357e-39
4427.8687 -1756.6997 1000 4.7023246e-39
4415.2822 -1772.2426 1000 5.8097526e-39
4402.6958 -1787.7855 1000 2.8623833e-39
4390.1094 -1803.3284 1000 6.5429918e-39
4361.9805 -1806.2849 990 3.4072656e-39
4223.5723 -1707.072 940 2.578591e-39
4170.6504 -1677.0842 920 2.4874743e-39
4158.0635 -1692.6272 910 2.3034418e-39
4137.7061 -1701.8768 910 2.3030817e-39
4125.1191 -1717.4198 910 2.0264962e-39
4096.9902 -1720.3763 910 2.1186946e-39
4082.9253 -1721.8546 900 2.1194121e-39
4070.3389 -1737.3975 900 1.9353824e-39
4042.2097 -1740.354 900 1.7502722e-39
3997.0591 -1716.6594 880 1.6580794e-39
3905.2798 -1655.2057 850 4.3338826e-39
3867.9009 -1637.8043 830 1.1711726e-38
3839.7715 -1640.7609 830 1.2263116e-38
3817.9355 -1635.9459 820 1.2264181e-38
3788.3279 -1624.8378 810 1.2262749e-38
3767.97 -1634.0875 810 7.6447011e-39
3738.3623 -1622.9794 800 1.3364035e-38
3716.5264 -1618.1644 790 5.6189196e-39
3703.9399 -1633.7073 790 1.014508e-38
3674.3323 -1622.5992 780 2.0006833e-38
3668.0391 -1630.3706 780 1.2987642e-38
3663.2241 -1652.2068 780 1.0876556e-38
3719.8206 -1852.4487 840 9.9553232e-39
3690.2129 -1841.3406 830 1.0138274e-38
3676.1484 -1842.8188 830 1.0322309e-38
3671.3335 -1864.655 830 1.0415581e-38
3658.7471 -1880.1979 830 1.0322667e-38
3646.1606 -1895.7408 830 1.0324822e-38
2721.4414 -606.47955 330 1.0508517e-38
2722.9197 -620.54419 340 1.1159961e-38
2722.9197 -620.54419 340 2.1856844e-38
3346.0303 -1678.4353 710 2.3234379e-38
3331.9653 -1679.9136 710 2.3509886e-38
3334.9219 -1708.0428 710 2.341805e-38
3345.6499 -1742.4653 720 2.3050708e-38
3368.584 -1825.3751 740 2.3509886e-38
3379.312 -1859.7976 750 2.3509886e-38
3357.4761 -1854.9827 750 2.3509886e-38
3352.6611 -1876.8188 750 2.3509886e-38
3347.8462 -1898.6549 760 2.3509886e-38
3350.8027 -1926.7843 760 2.2499695e-38
3338.2163 -1942.3271 760 1.5496843e-38
3217.5898 -1741.7051 690 1.9003489e-38
3194.2754 -1722.8254 680 1.8632919e-38
3178.7324 -1710.239 670 1.7341841e-38
3164.6677 -1711.7173 670 1.715278e-38
3158.3745 -1719.4888 670 1.7244979e-38
3152.0813 -1727.2603 670 1.6415921e-38
3138.0166 -1728.7385 670 1.6969108e-38
3123.9521 -1730.2168 660 1.5493955e-38
3108.4092 -1717.6304 660 1.5862735e-38
3094.3445 -1719.1086 650 1.6783626e-38
3072.5083 -1714.2937 650 1.5032277e-38
4989.9072 -474.70395 860 9.5876042e-39
4977.3203 -490.24686 860 9.5886846e-39
4956.9629 -499.49658 860 9.9567413e-39
4944.376 -515.03949 860 1.0232961e-38
4953.626 -535.39734 860 1.0231537e-38
5070.5781 -565.76526 900 1.0417001e-38
5137.5645 -594.27478 920 1.0694302e-38
5168.6504 -619.44757 930 7.0968957e-39
5177.9004 -639.80542 940 6.910324e-39
5151.249 -656.8266 930 6.7288096e-39
5166.792 -669.41302 940 4.699445e-39
5154.2056 -684.95593 940 3.6860105e-39
5149.3906 -706.79205 940 3.8707605e-39
5626.4487 -848.62164 1090 6.2682014e-39
5716.75 -896.01068 1120 5.8997888e-39
5711.9346 -917.84686 1120 7.1887088e-39
5707.1201 -939.68298 1130 7.1894402e-39
5702.3047 -961.5191 1130 8.2039313e-39
5733.3906 -986.69189 1140 1.0321177e-38
5670.8389 -1000.3764 1130 6.4515095e-39
5797.041 -1051.1022 1170 5.6221061e-39
7327.7656 -1544.3378 1640 5.8061302e-39
7316.6577 -1573.9453 1650 5.7150136e-39
7269.6484 -1600.2162 1640 5.8983315e-39
7274.0835 -1642.4102 1650 5.8068505e-39
7314.4189 -1687.9409 1670 5.8986846e-39
5732.5459 -1655.1223 1280 4.424286e-39
5646.6797 -1649.9272 1250 4.9760207e-39
5612.2568 -1660.6553 1250 5.0692925e-39
5489.0117 -1638.0587 1210 5.7139388e-39
4996.791 -1419.6127 1050 2.0311765e-39
4962.3682 -1430.3407 1040 2.1197708e-39
4934.2393 -1433.2972 1040 1.4747643e-39
4915.3594 -1456.6116 1030 1.3825715e-39
4895.0015 -1465.8613 1030 5.2526047e-39
4837.2646 -1457.7097 1020 5.8050667e-39
4824.6782 -1473.2526 1020 5.8047079e-39
4790.2559 -1483.9806 1010 5.7135843e-39
4777.6689 -1499.5236 1010 6.3596712e-39
4765.083 -1515.0664 1010 9.3110243e-39
4691.8027 -1494.3284 990 9.5879616e-39
4702.5312 -1528.751 1000 9.3124495e-39
4850.1885 -1648.3218 1060 9.2195392e-39
4868.6885 -1689.0375 1070 9.3113761e-39
4856.1016 -1704.5804 1070 8.942239e-39
4843.5156 -1720.1233 1070 8.9407985e-39
4732.8564 -1681.984 1040 8.666364e-39
4681.4131 -1666.0609 1020 8.3890638e-39
4615.9043 -1651.6161 1000 8.2968682e-39
4573.7104 -1656.0508 990 8.20539e-39
4545.5811 -1659.0073 990 8.296864e-39
4532.9946 -1674.5503 990 8.2053844e-39
4520.4082 -1690.0931 990 7.9284444e-39
4484.5078 -1686.7565 980 7.2802051e-39
4471.9209 -1702.2994 970 6.8228241e-39
4459.335 -1717.8424 980 6.0823654e-39
4440.4551 -1741.1567 980 3.225761e-39
4420.0972 -1750.4065 970 3.4112341e-39
4399.7393 -1759.6561 970 6.2660448e-39
4379.3813 -1768.9059 970 4.5114608e-39
4382.3379 -1797.0353 970 1.4729707e-39
4292.0371 -1749.6461 940 1.5658796e-39
4206.5508 -1680.4209 910 1.7499093e-39
4170.6504 -1677.0842 900 1.9335831e-39
4150.292 -1686.334 890 1.9339432e-39
4122.1631 -1689.2904 890 2.0257787e-39
4117.3481 -1711.1266 890 1.8424651e-39
4096.9902 -1720.3763 890 1.8424693e-39
4082.9253 -1721.8546 880 1.658078e-39
4062.5676 -1731.1042 880 1.3825743e-39
4034.4382 -1734.0608 880 2.3037991e-39
3981.5161 -1704.073 860 1.4744084e-39
3905.2798 -1655.2057 830 3.5977609e-39
3867.9009 -1637.8043 820 1.1709938e-38
3839.7715 -1640.7609 810 1.1709938e-38
3817.9355 -1635.9459 800 1.217235e-38
3796.0994 -1631.131 800 1.244678e-38
3767.97 -1634.0875 790 8.3837053e-39
3738.3623 -1622.9794 780 1.4563325e-38
3716.5264 -1618.1644 770 6.4457964e-39
3696.1685 -1627.4142 770 1.0604262e-38
3674.3323 -1622.5992 760 1.9178155e-38
3668.0391 -1630.3706 760 1.0410496e-38
3655.4526 -1645.9136 760 1.1060581e-38
3719.8206 -1852.4487 820 1.0140429e-38
3690.2129 -1841.3406 810 1.0048591e-38
3676.1484 -1842.8188 810 1.0139357e-38
3671.3335 -1864.655 810 1.023263e-38
3658.7471 -1880.1979 810 1.0232635e-38
3644.6821 -1881.6761 810 1.0784364e-38
2721.4414 -606.47955 330 1.041738e-38
2722.9197 -620.54419 330 1.0146529e-38
3355.2798 -1698.7931 700 2.3050708e-38
3339.7368 -1686.2068 690 2.341805e-38
3327.1504 -1701.7496 690 2.2499695e-38
3330.1069 -1729.879 700 2.3509886e-38
3342.3132 -1778.3662 710 2.3509886e-38
3354.5195 -1826.8534 730 2.2958873e-38
3348.2263 -1834.6249 730 2.3509886e-38
3335.6399 -1850.1677 730 2.3509886e-38
3338.5964 -1878.2971 730 2.3509886e-38
3333.7815 -1900.1332 740 2.2499695e-38
3247.1973 -1752.8132 680 1.558869e-38
3208.3398 -1721.3472 670 1.9000261e-38
3194.2754 -1722.8254 670 1.8450682e-38
3186.5039 -1716.5322 660 1.7892495e-38
3172.4392 -1718.0105 660 1.7062388e-38
3166.146 -1725.782 660 1.669396e-38
3152.0813 -1727.2603 660 1.6416646e-38
3138.0166 -1728.7385 650 1.6785075e-38
3116.1807 -1723.9236 650 1.5866709e-38
3108.4092 -1717.6304 640 1.5679084e-38
3086.573 -1712.8154 640 1.5588326e-38
3078.8015 -1706.5222 640 1.6418807e-38
4989.9072 -474.70395 840 1.0416643e-38
4977.3203 -490.24686 840 9.9563839e-39
4956.9629 -499.49658 840 1.0326608e-38
4944.376 -515.03949 840 9.9553035e-39
4967.6904 -533.91907 850 9.9578203e-39
5056.5137 -567.24353 880 1.03266e-38
5131.2715 -602.04626 900 1.060103e-38
5154.5859 -620.92584 910 6.729181e-39
5163.8354 -641.28369 910 6.7273719e-39
5143.4775 -650.53345 910 6.2671196e-39
5152.7275 -670.8913 920 4.5161299e-39
5140.1406 -686.4342 920 3.7778432e-39
5141.6191 -700.4989 920 3.870406e-39
5670.1211 -858.25153 1080 6.7277376e-39
5738.5859 -900.82568 1100 5.4377373e-39
5725.9995 -916.36859 1100 7.3759727e-39
5721.1846 -938.20471 1110 8.2025034e-39
5834.4199 -1068.5035 1160 5.8064918e-39
5732.5459 -1655.1223 1250 4.3328163e-39
5624.8433 -1645.1123 1220 4.7012288e-39
5590.4209 -1655.8403 1210 5.2536837e-39
5503.0762 -1636.5806 1190 5.7142962e-39
4996.791 -1419.6127 1030 2.3967108e-39
4962.3682 -1430.3407 1020 1.6591598e-39
4934.2393 -1433.2972 1010 1.4744056e-39
4915.3594 -1456.6116 1010 1.3822128e-39
4895.0015 -1465.8613 1010 5.3455206e-39
4837.2646 -1457.7097 990 5.712871e-39
4832.4497 -1479.5458 1000 5.7143074e-39
4798.0273 -1490.2738 990 5.3455304e-39
4785.4404 -1505.8168 990 6.9121205e-39
4772.8545 -1521.3596 990 9.2191776e-39
4707.3457 -1506.9148 970 9.9542245e-39
4770.9961 -1571.3251 1000 9.4946869e-39
4826.874 -1629.4421 1030 9.5872441e-39
4792.4521 -1640.1702 1020 9.1273505e-39
4787.6367 -1662.0062 1020 8.8507622e-39
4775.0508 -1677.5492 1020 8.5748928e-39
4748.3994 -1694.5704 1020 8.6660109e-39
4681.4131 -1666.0609 1000 8.5727432e-39
4631.4473 -1664.2025 990 8.3887065e-39
4587.7754 -1654.5726 970 8.2050313e-39
4553.3525 -1665.3005 970 8.0217176e-39
4532.9946 -1674.5503 970 7.7465727e-39
4520.4082 -1690.0931 960 2.8544744e-39
4484.5078 -1686.7565 950 1.3825701e-39
4456.3779 -1689.713 950 1.0137904e-39
4445.27 -1719.3206 950 1.7491918e-39
4424.9121 -1728.5703 950 4.9738655e-39
4404.5542 -1737.8201 950 1.2441686e-38
4376.4248 -1740.7766 940 1.0229354e-38
4309.4385 -1712.2671 920 7.3741832e-39
4320.166 -1746.6896 930 3.9640365e-39
4206.5508 -1680.4209 890 2.9491685e-39
4191.0078 -1667.8345 880 1.3836519e-39
4162.8789 -1670.791 870 9.2159196e-40
4142.5205 -1680.0408 870 1.1052644e-39
4114.3916 -1682.9973 870 1.2892969e-39
4109.5767 -1704.8334 870 1.289657e-39
4089.2188 -1714.0831 860 1.1070622e-39
4075.1538 -1715.5614 860 2.0275724e-39
4047.0247 -1718.5178 860 1.5658824e-39
4003.3525 -1708.8879 850 1.8435469e-39
3958.2019 -1685.1935 830 2.580393e-39
3897.5083 -1648.9125 810 4.426451e-39
3867.9009 -1637.8043 800 1.1247868e-38
3847.543 -1647.0541 790 1.2537888e-38
3817.9355 -1635.9459 790 1.2172355e-38
3796.0994 -1631.131 780 1.2446787e-38
3767.97 -1634.0875 770 8.6602936e-39
3730.5908 -1616.6862 760 1.4195958e-38
3716.5264 -1618.1644 760 5.9894958e-39
3696.1685 -1627.4142 760 1.0511692e-38
3674.3323 -1622.5992 750 2.0469253e-38
3668.0391 -1630.3706 750 1.3353545e-38
3712.0491 -1846.1555 800 9.8624101e-39
3697.9844 -1847.6338 800 1.023083e-38
3676.1484 -1842.8188 790 9.9556833e-39
3663.562 -1858.3618 790 1.0415943e-38
3650.9756 -1873.9047 790 1.0692167e-38
3644.6821 -1881.6761 790 1.0875487e-38
2721.4414 -606.47955 320 1.0785089e-38
2722.9197 -620.54419 330 9.7745052e-39
3363.0513 -1705.0863 690 2.3234379e-38
3339.7368 -1686.2068 680 2.3142544e-38
3325.6724 -1687.6849 680 2.3509886e-38
3320.8574 -1709.5211 680 2.3509886e-38
3308.271 -1725.0641 680 2.3509886e-38
3318.999 -1759.4866 690 2.3509886e-38
3304.9341 -1760.9648 690 2.3509886e-38
3317.1404 -1809.452 700 2.3509886e-38
3203.9053 -1679.1532 650 1.5590494e-38
3189.8406 -1680.6315 650 1.9371549e-38
3185.0256 -1702.4675 650 1.8911295e-38
3178.7324 -1710.239 650 1.7710259e-38
3172.4392 -1718.0105 650 1.6877277e-38
3158.3745 -1719.4888 650 1.6419879e-38
3152.0813 -1727.2603 640 1.6232626e-38
3138.0166 -1728.7385 640 1.6139349e-38
3116.1807 -1723.9236 640 1.6325517e-38
3108.4092 -1717.6304 630 1.6049667e-38
3094.3445 -1719.1086 630 1.7336084e-38
3080.2798 -1720.5869 630 1.6142213e-38
4975.8423 -476.18219 820 9.4946967e-39
4977.3203 -490.24686 820 9.9556637e-39
4956.9629 -499.49658 820 9.6801656e-39
4952.1475 -521.3327 820 9.9560266e-39
4967.6904 -533.91907 830 1.0233328e-38
5056.5137 -567.24353 860 1.0326962e-38
5115.7285 -589.45984 880 1.0508121e-38
5146.8145 -614.63263 890 6.727739e-39
5156.064 -634.99048 890 6.6351763e-39
5143.4775 -650.53345 890 5.5299245e-39
5152.7275 -670.8913 900 4.3324617e-39
5140.1406 -686.4342 900 4.0540686e-39
5149.3906 -706.79205 900 3.5023437e-39
5691.957 -863.06647 1060 6.9121317e-39
5752.6504 -899.34741 1080 5.6213985e-39
5725.9995 -916.36859 1080 8.0173946e-39
5593.7573 -1619.9395 1180 4.8845397e-39
5590.4209 -1655.8403 1190 5.2540467e-39
5548.2266 -1660.275 1180 2.3959948e-39
4996.791 -1419.6127 1000 2.3034432e-39
4962.3682 -1430.3407 1000 1.3825687e-39
4926.4678 -1427.004 990 1.289657e-39
4907.5879 -1450.3184 990 1.1063434e-39
4895.0015 -1465.8613 990 5.5281112e-39
4837.2646 -1457.7097 970 5.5302762e-39
4832.4497 -1479.5458 980 5.896542e-39
4805.7988 -1496.567 970 5.5295574e-39
4785.4404 -1505.8168 970 7.371298e-39
4772.8545 -1521.3596 970 9.5872385e-39
4722.8887 -1519.5012 960 9.9553091e-39
4802.082 -1596.4979 990 9.5868826e-39
4826.874 -1629.4421 1000 9.3103013e-39
4792.4521 -1640.1702 1000 9.4943254e-39
4779.8652 -1655.713 1000 8.7600044e-39
4775.0508 -1677.5492 1000 8.9418747e-39
4762.4639 -1693.0922 1000 8.9418733e-39
4696.9556 -1678.6473 980 8.3897813e-39
4662.5332 -1689.3752 980 8.2975885e-39
4603.3179 -1667.1589 960 8.205397e-39
4561.124 -1671.5938 950 8.2032334e-39
4540.7661 -1680.8435 950 4.2420864e-39
4520.4082 -1690.0931 940 1.3829344e-39
4476.7363 -1680.4633 930 1.8475181e-39
4448.6064 -1683.4198 930 9.2159616e-40
4429.7271 -1706.7343 930 1.0141505e-39
4417.1406 -1722.2771 920 1.1063434e-39
4389.0112 -1725.2336 920 1.2809025e-38
4345.3389 -1715.6038 910 1.0413381e-38
4247.2666 -1661.9215 870 9.2162896e-39
4219.1372 -1664.8779 870 6.9121289e-39
4183.2363 -1661.5413 860 4.6990848e-39
4167.6934 -1648.955 850 3.5938191e-39
4139.5645 -1651.9114 850 2.9491699e-39
4126.978 -1667.4543 850 2.5800315e-39
4098.8486 -1670.4109 840 9.2339263e-40
4078.4907 -1679.6605 840 1.2892969e-39
4048.8831 -1668.5525 830 1.1971041e-39
4012.9824 -1665.2157 820 1.7506324e-39
3983.3748 -1654.1075 810 2.3960018e-39
3955.2454 -1657.0641 800 2.9495329e-39
3934.8877 -1666.3138 800 3.3186783e-39
3889.7371 -1642.6193 790 5.0700198e-39
3867.9009 -1637.8043 780 1.0328454e-38
3847.543 -1647.0541 780 1.1526601e-38
3825.707 -1642.2391 770 1.1898289e-38
3796.0994 -1631.131 760 1.2171282e-38
3760.1985 -1627.7943 750 8.8464883e-39
3722.8193 -1610.3929 740 1.48406e-38
3708.7549 -1611.8712 740 6.5405157e-39
3688.397 -1621.121 740 1.1338209e-38
3674.3323 -1622.5992 730 1.9641643e-38
3660.2676 -1624.0774 730 1.2708903e-38
3647.6812 -1639.6204 730 1.0140432e-38
3658.4092 -1674.0428 740 1.0139339e-38
3648.7793 -1717.7151 750 1.0138989e-38
3684.2998 -1785.0819 770 9.7720081e-39
3695.0278 -1819.5045 770 1.0229392e-38
3690.2129 -1841.3406 780 1.0231537e-38
3668.377 -1836.5256 770 1.0047524e-38
3663.562 -1858.3618 770 1.050634e-38
3643.2041 -1867.6115 770 1.0324106e-38
2721.4414 -606.47955 320 1.0417029e-38
2721.4414 -606.47955 320 1.0693971e-38
2715.1482 -614.25098 320 9.0383793e-39
3363.0513 -1705.0863 680 2.3509886e-38
3341.2151 -1700.2714 670 2.3509886e-38
3327.1504 -1701.7496 670 2.341805e-38
3330.1069 -1729.879 670 2.3509886e-38
3323.814 -1737.6504 670 2.3509886e-38
3336.02 -1786.1376 690 2.3509886e-38
3323.4336 -1801.6805 680 2.3509886e-38
3326.3901 -1829.8099 690 2.3509886e-38
3123.6143 -1524.0618 590 1.6050398e-38
3163.5696 -1633.6226 620 1.8818742e-38
3183.5474 -1688.403 630 1.8817666e-38
3170.9609 -1703.9458 630 1.7343276e-38
3172.4392 -1718.0105 630 1.6605722e-38
3159.8528 -1733.5535 630 1.7153145e-38
3152.0813 -1727.2603 630 1.6601054e-38
3138.0166 -1728.7385 630 1.6230825e-38
3123.9521 -1730.2168 630 1.6603567e-38
3109.8872 -1731.6949 620 1.6785435e-38
3094.3445 -1719.1086 620 1.6326621e-38
3080.2798 -1720.5869 610 1.6418103e-38
4975.8423 -476.18219 800 8.8489588e-39
4963.2559 -491.72513 800 8.481621e-39
4956.9629 -499.49658 800 9.1269904e-39
4944.376 -515.03949 800 1.0047862e-38
4953.626 -535.39734 810 9.9571042e-39
5042.4487 -568.7218 830 1.0325885e-38
5101.6641 -590.93811 850 1.0324087e-38
5132.75 -616.1109 860 6.7270188e-39
5141.9995 -636.46875 870 6.1752855e-39
5129.4131 -652.01166 870 5.1607791e-39
5138.6631 -672.36957 880 3.9647568e-39
5126.0762 -687.91248 880 3.9629547e-39
5149.3906 -706.79205 880 3.7785691e-39
5721.5645 -874.17456 1040 6.8220885e-39
5534.542 -1597.7233 1130 5.1607706e-39
5582.6494 -1649.5471 1160 3.3183084e-39
5518.6191 -1649.1669 1140 2.3967108e-39
4989.0195 -1413.3195 980 1.1981817e-39
4954.5967 -1424.0475 970 1.6595143e-39
4920.1743 -1434.7755 970 1.4747657e-39
4907.5879 -1450.3184 970 1.4747643e-39
4895.0015 -1465.8613 970 5.4377121e-39
4837.2646 -1457.7097 950 5.6210341e-39
4832.4497 -1479.5458 950 5.529556e-39
4805.7988 -1496.567 950 5.5288357e-39
4785.4404 -1505.8168 950 6.9149973e-39
4772.8545 -1521.3596 950 9.4950429e-39
4722.8887 -1519.5012 940 9.7716339e-39
4802.082 -1596.4979 970 9.5886846e-39
4819.1025 -1623.1489 980 9.4939751e-39
4784.6807 -1633.877 970 9.2188189e-39
4779.8652 -1655.713 970 8.9425935e-39
4775.0508 -1677.5492 980 9.1262673e-39
4762.4639 -1693.0922 980 8.5741656e-39
4704.7271 -1684.9406 960 8.756766e-39
4699.9121 -1706.7766 970 8.2053886e-39
4649.9468 -1704.9182 950 8.0224365e-39
4576.667 -1684.1802 930 7.9295262e-39
4540.7661 -1680.8435 930 6.3629376e-39
4520.4082 -1690.0931 920 8.4844824e-39
4476.7363 -1680.4633 910 5.9930733e-39
4448.6064 -1683.4198 900 1.0145093e-39
4429.7271 -1706.7343 900 9.2159616e-40
4409.3691 -1715.9839 900 1.105986e-39
4381.2402 -1718.9404 900 1.2533501e-38
4306.4819 -1684.1377 870 1.0874728e-38
4239.4951 -1655.6283 850 9.2155707e-39
4211.3657 -1658.5848 850 8.2932515e-39
4181.7583 -1647.4767 840 5.9898139e-39
4159.9219 -1642.6617 830 4.4239357e-39
4131.793 -1645.6182 830 3.777853e-39
4111.4351 -1654.8679 820 3.1332067e-39
4083.3057 -1657.8245 820 3.1321235e-39
4053.698 -1646.7163 810 1.1067049e-39
4017.7974 -1643.3796 800 2.0290143e-39
3988.1897 -1632.2715 790 4.7091209e-39
3960.0603 -1635.228 790 5.35627e-39
3931.9312 -1638.1846 780 6.0895204e-39
3933.4092 -1652.2491 780 5.8147286e-39
3889.7371 -1642.6193 770 5.9072844e-39
3867.9009 -1637.8043 760 6.6426914e-39
3847.543 -1647.0541 760 6.549421e-39
3825.707 -1642.2391 760 6.4590204e-39
3797.5776 -1645.1957 750 6.5497797e-39
3752.4272 -1621.5011 740 7.0968635e-39
3722.8193 -1610.3929 730 1.4841668e-38
3708.7549 -1611.8712 720 6.3586482e-39
3688.397 -1621.121 720 8.9357664e-39
3682.1038 -1628.8923 720 1.4665201e-38
3660.2676 -1624.0774 720 1.2156085e-38
3647.6812 -1639.6204 720 1.0415938e-38
3658.4092 -1674.0428 720 9.9556777e-39
3645.8228 -1689.5858 720 9.679095e-39
3647.301 -1703.6505 730 1.023047e-38
3667.2788 -1758.4309 740 1.0138272e-38
3678.0068 -1792.8534 750 1.0046081e-38
3674.6699 -1828.7542 760 1.0230831e-38
3668.377 -1836.5256 760 1.0047879e-38
3663.562 -1858.3618 760 1.0415577e-38
2721.4414 -606.47955 310 1.0784365e-38
2721.4414 -606.47955 320 1.0785803e-38
2722.9197 -620.54419 320 8.9440341e-39
2722.9197 -620.54419 320 1.9553768e-38
3363.0513 -1705.0863 660 2.3509886e-38
3341.2151 -1700.2714 660 2.3509886e-38
3327.1504 -1701.7496 650 2.2958873e-38
3330.1069 -1729.879 660 2.3326215e-38
3325.292 -1751.7151 660 2.3509886e-38
3336.02 -1786.1376 670 2.3509886e-38
3331.2051 -1807.9738 670 2.3509886e-38
3097.3433 -1477.0529 560 1.6971629e-38
3145.0703 -1592.9067 590 1.8819101e-38
3157.2764 -1641.394 610 1.9097118e-38
3177.2542 -1696.1744 620 1.8908066e-38
3164.6677 -1711.7173 620 1.8076166e-38
3159.8528 -1733.5535 620 1.697127e-38
3145.7881 -1735.0317 620 1.7523e-38
3138.0166 -1728.7385 620 1.7798148e-38
3123.9521 -1730.2168 610 1.6878358e-38
3102.1157 -1725.4019 610 1.7250723e-38
3094.3445 -1719.1086 600 1.780317e-38
3072.5083 -1714.2937 600 1.7062738e-38
4975.8423 -476.18219 790 9.8631107e-39
4969.5488 -483.95364 790 9.6798069e-39
4956.9629 -499.49658 790 9.0340829e-39
4944.376 -515.03949 790 9.6805131e-39
4953.626 -535.39734 790 1.0141488e-38
5034.6772 -562.42859 810 1.0417354e-38
5101.6641 -590.93811 830 9.8641855e-39
5124.9785 -609.81769 840 6.0841633e-39
5134.228 -630.17554 850 6.5433478e-39
5129.4131 -652.01166 850 5.0682261e-39
5130.8916 -666.07635 850 3.778932e-39
5126.0762 -687.91248 850 4.23882e-39
5163.4551 -705.31384 870 3.8711178e-39
5757.4658 -877.51129 1030 7.0968803e-39
5582.6494 -1649.5471 1130 2.9491713e-39
4989.0195 -1413.3195 960 2.4878331e-39
4954.5967 -1424.0475 950 2.0272164e-39
4920.1743 -1434.7755 940 1.4740469e-39
4907.5879 -1450.3184 940 1.3825701e-39
4895.0015 -1465.8613 940 5.9887292e-39
4837.2646 -1457.7097 930 5.1611378e-39
4824.6782 -1473.2526 930 5.7135857e-39
4798.0273 -1490.2738 930 5.3451633e-39
4785.4404 -1505.8168 930 7.7422329e-39
4765.083 -1515.0664 930 9.4957631e-39
4722.8887 -1519.5012 920 9.6801558e-39
4802.082 -1596.4979 950 9.4957701e-39
4819.1025 -1623.1489 950 9.3099425e-39
4784.6807 -1633.877 950 9.4024913e-39
4779.8652 -1655.713 950 9.0337144e-39
4775.0508 -1677.5492 950 8.6652836e-39
4762.4639 -1693.0922 960 8.6660081e-39
4712.4985 -1691.2336 940 8.6642088e-39
4715.4551 -1719.363 950 8.3872688e-39
4665.4897 -1717.5046 940 8.204304e-39
4590.7314 -1682.7019 910 7.9291633e-39
4540.7661 -1680.8435 910 7.4696271e-39
4520.4082 -1690.0931 900 9.0297529e-39
4468.9648 -1674.1702 890 8.2035894e-39
4434.542 -1684.8981 880 9.2231503e-40
4421.9556 -1700.441 880 8.2940054e-40
4401.5977 -1709.6907 880 1.1052644e-39
4373.4688 -1712.6472 870 1.0413719e-38
4298.7104 -1677.8446 850 1.1797749e-38
4231.7236 -1649.3351 830 9.3995948e-39
4203.5942 -1652.2916 820 7.8347956e-39
4173.9868 -1641.1835 820 6.9117617e-39
4152.1504 -1636.3685 810 4.977464e-39
4124.0215 -1639.325 810 4.6068878e-39
4103.6636 -1648.5747 800 5.6228278e-39
4075.5342 -1651.5312 800 7.368784e-39
4045.9265 -1640.4231 790 7.0010805e-39
4010.0259 -1637.0864 780 4.9745759e-39
3980.4182 -1625.9783 770 7.6543196e-39
3960.0603 -1635.228 770 7.4666928e-39
3931.9312 -1638.1846 760 7.0997109e-39
3925.6377 -1645.9559 760 7.0071551e-39
3889.7371 -1642.6193 750 6.7320074e-39
3867.9009 -1637.8043 750 7.1000696e-39
3847.543 -1647.0541 750 7.4681263e-39
3833.4785 -1648.5323 740 7.5617596e-39
3805.3491 -1651.4889 740 6.6394614e-39
3750.9487 -1607.4364 720 8.664901e-39
3721.3413 -1596.3282 710 1.5764731e-38
3708.7549 -1611.8712 710 5.8036724e-39
3694.6902 -1613.3495 710 7.8398417e-39
3682.1038 -1628.8923 710 2.010623e-38
3668.0391 -1630.3706 700 1.2800379e-38
3647.6812 -1639.6204 700 1.0416654e-38
3658.4092 -1674.0428 710 1.0046787e-38
3645.8228 -1689.5858 710 9.9538826e-39
3639.5295 -1697.3573 710 9.7705676e-39
3642.4861 -1725.4866 710 9.9538924e-39
3653.2141 -1759.9092 720 1.0048582e-38
3673.1919 -1814.6896 740 1.0414495e-38
3660.6055 -1830.2324 740 1.0416307e-38
2721.4414 -606.47955 310 1.0692888e-38
2721.4414 -606.47955 310 1.0969832e-38
2722.9197 -620.54419 310 8.3908687e-39
2722.9197 -620.54419 310 2.0104439e-38
2716.6265 -628.31567 310 2.2224189e-38
3363.0513 -1705.0863 650 2.3234379e-38
3341.2151 -1700.2714 640 2.3509886e-38
3327.1504 -1701.7496 640 2.3509886e-38
3337.8784 -1736.1722 650 2.3509886e-38
3325.292 -1751.7151 650 2.3509886e-38
3337.4983 -1800.2023 660 2.3509886e-38
3331.2051 -1807.9738 660 2.3509886e-38
3334.1616 -1836.103 670 2.3509886e-38
3080.3223 -1450.4017 540 1.7434035e-38
3128.0491 -1566.2557 570 1.7991146e-38
3148.0269 -1621.0361 590 1.9003489e-38
3150.9832 -1649.1654 590 1.8910577e-38
3155.418 -1691.3594 600 1.7602264e-38
3158.3745 -1719.4888 610 1.6125959e-38
3145.7881 -1735.0317 610 1.6696789e-38
3138.0166 -1728.7385 600 1.7521924e-38
3123.9521 -1730.2168 600 1.872583e-38
3102.1157 -1725.4019 600 1.8911654e-38
3094.3445 -1719.1086 590 1.8260554e-38
3080.2798 -1720.5869 590 1.5299133e-38
4968.0708 -469.88901 770 9.4928905e-39
4963.2559 -491.72513 770 9.0333542e-39
4956.9629 -499.49658 770 9.2188315e-39
4944.376 -515.03949 770 1.0140056e-38
4945.8545 -529.10413 770 1.0232967e-38
5026.9058 -556.13538 790 1.0508475e-38
5101.6641 -590.93811 810 8.8525545e-39
5124.9785 -609.81769 820 6.8202878e-39
5120.1631 -631.65381 830 6.6348161e-39
5121.6416 -645.71851 830 4.7008813e-39
5130.8916 -666.07635 830 3.6863749e-39
5118.3047 -681.61926 830 3.9636708e-39
5171.2266 -711.60699 850 3.778918e-39
5612.2568 -1660.6553 1110 1.5658852e-39
5571.541 -1679.1547 1100 2.6718656e-39
4989.0195 -1413.3195 930 1.3829274e-39
4954.5967 -1424.0475 930 1.5669614e-39
4920.1743 -1434.7755 920 1.3825715e-39
4899.8164 -1444.0251 920 1.5669586e-39
4887.23 -1459.5681 920 5.8054156e-39
4837.2646 -1457.7097 910 5.0689408e-39
4824.6782 -1473.2526 910 5.4366457e-39
4798.0273 -1490.2738 910 5.3455304e-39
4785.4404 -1505.8168 900 8.0199044e-39
4765.083 -1515.0664 900 9.7701948e-39
4722.8887 -1519.5012 890 9.5868797e-39
4794.3105 -1590.2047 920 9.8620275e-39
4805.0381 -1624.6272 930 9.40285e-39
4784.6807 -1633.877 930 9.3106516e-39
4772.0938 -1649.4199 930 8.757845e-39
4767.2793 -1671.256 930 8.849672e-39
4762.4639 -1693.0922 930 8.8478896e-39
4712.4985 -1691.2336 920 8.1128385e-39
4723.2266 -1725.6562 930 8.1135475e-39
4681.0327 -1730.0909 920 8.0202757e-39
4614.0459 -1701.5815 900 7.7451294e-39
4548.5376 -1687.1367 890 7.8355313e-39
4512.6367 -1683.8 880 8.4787161e-39
4468.9648 -1674.1702 870 8.7574764e-39
4434.542 -1684.8981 860 1.1978243e-39
4414.1841 -1694.1478 860 8.2975927e-40
4393.8262 -1703.3976 850 1.013789e-39
4365.6973 -1706.354 850 7.4638355e-39
4290.939 -1671.5514 830 1.2071833e-38
4231.7236 -1649.3351 810 9.4006738e-39
4203.5942 -1652.2916 810 8.2014174e-39
4173.9868 -1641.1835 800 7.002877e-39
4152.1504 -1636.3685 790 6.815606e-39
4124.0215 -1639.325 790 7.3680596e-39
4095.8921 -1642.2815 780 7.3680652e-39
4067.7627 -1645.238 780 6.9096051e-39
4045.9265 -1640.4231 770 6.7252111e-39
4010.0259 -1637.0864 760 6.6347909e-39
3988.1897 -1632.2715 750 7.5606961e-39
3960.0603 -1635.228 750 6.6390929e-39
3931.9312 -1638.1846 740 6.7302137e-39
3917.8662 -1639.6627 740 6.6394558e-39
3881.9656 -1636.326 730 6.8227639e-39
3867.9009 -1637.8043 730 6.7305739e-39
3847.543 -1647.0541 730 7.1926226e-39
3825.707 -1642.2391 720 6.6391069e-39
3797.5776 -1645.1957 720 6.8216933e-39
3743.1772 -1601.1432 700 7.7461873e-39
3721.3413 -1596.3282 690 1.5580697e-38
3708.7549 -1611.8712 690 5.443512e-39
3688.397 -1621.121 690 8.5670189e-39
3682.1038 -1628.8923 690 3.9636806e-39
3668.0391 -1630.3706 690 8.5752572e-39
3655.4526 -1645.9136 690 1.0507414e-38
3650.6377 -1667.7496 690 9.5850959e-39
3644.3445 -1675.5211 690 1.013791e-38
3639.5295 -1697.3573 690 9.9538854e-39
3626.9434 -1712.9001 690 1.0045718e-38
3622.1284 -1734.7363 700 1.0321945e-38
3657.6489 -1802.1031 720 1.0323741e-38
3652.834 -1823.9392 720 1.0415214e-38
2721.4414 -606.47955 310 1.0875479e-38
2721.4414 -606.47955 310 1.0785447e-38
2722.9197 -620.54419 310 8.5734719e-39
2722.9197 -620.54419 310 1.9738532e-38
2716.6265 -628.31567 310 2.2591531e-38
3370.8228 -1711.3795 640 2.3326215e-38
3341.2151 -1700.2714 630 2.3509886e-38
3334.9219 -1708.0428 630 2.3509886e-38
3337.8784 -1736.1722 630 2.3509886e-38
3340.835 -1764.3015 640 2.3509886e-38
3337.4983 -1800.2023 650 2.3509886e-38
3331.2051 -1807.9738 650 2.3509886e-38
3335.6399 -1850.1677 650 2.3509886e-38
3126.5708 -1552.191 560 1.6977368e-38
3140.2554 -1614.7429 570 1.8453194e-38
3116.9409 -1595.8633 560 1.8359564e-38
3138.397 -1664.7084 580 1.8635071e-38
3150.603 -1713.1956 590 1.9740325e-38
3152.0813 -1727.2603 590 1.8263783e-38
3131.7234 -1736.5099 590 1.5484243e-38
3123.9521 -1730.2168 590 1.2634798e-38
3109.8872 -1731.6949 580 1.1153569e-38
3094.3445 -1719.1086 580 8.8522546e-39
3080.2798 -1720.5869 580 8.6725409e-39
4955.4844 -485.43192 750 9.4003333e-39
4942.8979 -500.97482 750 9.6783607e-39
4944.376 -515.03949 750 9.8645498e-39
4945.8545 -529.10413 750 1.0140771e-38
5026.9058 -556.13538 770 1.0599595e-38
5101.6641 -590.93811 800 8.1124882e-39
5132.75 -616.1109 800 6.8181354e-39
5134.228 -630.17554 810 6.4515039e-39
5129.4131 -652.01166 810 4.8849082e-39
5138.6631 -672.36957 810 3.6856532e-39
5132.3696 -680.14099 820 4.2391787e-39
5207.1279 -714.94373 840 3.5023423e-39
5620.0283 -1666.9485 1080 2.4889135e-39
5563.7695 -1672.8615 1070 2.0282898e-39
4989.0195 -1413.3195 910 2.0275752e-39
4954.5967 -1424.0475 900 1.4747657e-39
4920.1743 -1434.7755 900 1.3825715e-39
4899.8164 -1444.0251 900 1.7506282e-39
4887.23 -1459.5681 900 5.8050611e-39
4837.2646 -1457.7097 880 5.0685806e-39
4824.6782 -1473.2526 880 5.4380792e-39
4798.0273 -1490.2738 880 5.4366443e-39
4785.4404 -1505.8168 880 8.387961e-39
4765.083 -1515.0664 880 9.7705521e-39
4722.8887 -1519.5012 870 9.4950471e-39
4794.3105 -1590.2047 900 9.6790754e-39
4819.1025 -1623.1489 910 9.3113845e-39
4784.6807 -1633.877 900 9.4024899e-39
4779.8652 -1655.713 910 8.8504021e-39
4775.0508 -1677.5492 910 8.66708e-39
4770.2354 -1699.3854 910 5.8951071e-39
4720.27 -1697.5269 900 7.1829676e-39
4730.998 -1731.9495 910 7.6475387e-39
4702.8687 -1734.9059 900 7.7422553e-39
4629.5889 -1714.168 890 7.6518561e-39
4556.3091 -1693.4299 870 7.2841568e-39
4520.4082 -1690.0931 860 6.9132079e-39
4468.9648 -1674.1702 850 1.5662411e-39
4434.542 -1684.8981 840 1.1063462e-39
4406.4126 -1687.8546 840 7.3792377e-40
4386.0547 -1697.1044 830 8.2976067e-40
4357.9258 -1700.0608 830 4.6065095e-39
4290.939 -1671.5514 810 1.2346982e-38
4239.4951 -1655.6283 790 6.4464662e-39
4203.5942 -1652.2916 790 5.523798e-39
4173.9868 -1641.1835 780 6.815606e-39
4152.1504 -1636.3685 770 6.9999973e-39
4124.0215 -1639.325 770 7.0925531e-39
4095.8921 -1642.2815 760 7.2762283e-39
4067.7627 -1645.238 760 7.1843914e-39
4038.1553 -1634.1299 750 7.2783765e-39
4010.0259 -1637.0864 740 8.573392e-39
3988.1897 -1632.2715 740 7.4702857e-39
3960.0603 -1635.228 730 7.7468684e-39
3931.9312 -1638.1846 730 7.8369088e-39
3910.0947 -1633.3696 720 7.6543112e-39
3881.9656 -1636.326 720 7.7450691e-39
3867.9009 -1637.8043 710 7.4699213e-39
3847.543 -1647.0541 710 7.7461509e-39
3817.9355 -1635.9459 700 8.2989702e-39
3796.0994 -1631.131 700 7.4681319e-39
3735.4058 -1594.85 680 6.7302389e-39
3721.3413 -1596.3282 680 1.6498336e-38
3708.7549 -1611.8712 680 9.8609513e-39
3694.6902 -1613.3495 670 9.3996256e-39
3682.1038 -1628.8923 670 8.4773106e-39
3668.0391 -1630.3706 670 4.5111021e-39
3655.4526 -1645.9136 670 1.0230823e-38
3650.6377 -1667.7496 670 9.7705634e-39
3644.3445 -1675.5211 670 9.6790894e-39
3631.7583 -1691.0641 670 9.769134e-39
3625.4648 -1698.8356 670 9.9556735e-39
3612.8784 -1714.3784 670 9.9553204e-39
3632.8562 -1769.1588 690 1.0413786e-38
2721.4414 -606.47955 300 1.0786163e-38
2722.9197 -620.54419 300 8.5756299e-39
2722.9197 -620.54419 300 2.0379945e-38
2716.6265 -628.31567 300 2.2316024e-38
3363.0513 -1705.0863 620 2.2499695e-38
3341.2151 -1700.2714 620 2.3509886e-38
3342.6934 -1714.3361 620 2.3509886e-38
3354.8997 -1762.8232 630 2.3509886e-38
3351.563 -1798.724 630 2.3509886e-38
3362.291 -1833.1466 640 2.3509886e-38
3357.4761 -1854.9827 640 2.3509886e-38
3369.6821 -1903.4698 660 2.3509886e-38
3039.9866 -1404.8711 500 1.71553e-38
3089.1917 -1534.7897 540 1.5300932e-38
3136.9185 -1650.6437 560 1.171284e-38
3132.1035 -1672.4799 570 1.1246121e-38
3152.0813 -1727.2603 580 8.8526092e-39
3139.4949 -1742.8031 580 8.304843e-39
3131.7234 -1736.5099 580 9.6867012e-39
3109.8872 -1731.6949 570 9.8685786e-39
3094.3445 -1719.1086 570 9.1324499e-39
3078.8015 -1706.5222 560 8.853342e-39
4963.2559 -491.72513 730 8.5763292e-39
4942.8979 -500.97482 730 1.0048941e-38
4939.5615 -536.87561 730 1.0693939e-38
5020.6123 -563.90686 750 1.05092e-38
5115.7285 -589.45984 780 7.4660468e-39
5146.8145 -614.63263 790 6.7252167e-39
5156.064 -634.99048 790 6.7280851e-39
5143.4775 -650.53345 790 4.7916378e-39
5160.499 -677.18451 800 3.5016263e-39
5161.9771 -691.24915 800 4.1477019e-39
5228.9639 -719.75867 820 3.1342815e-39
4989.0195 -1413.3195 890 1.8435469e-39
4954.5967 -1424.0475 880 1.3825715e-39
4912.4028 -1428.4823 880 1.2903759e-39
4899.8164 -1444.0251 870 1.8428252e-39
4887.23 -1459.5681 870 5.6217474e-39
4829.4932 -1451.4165 860 5.2515327e-39
4810.6133 -1474.7308 860 5.7121494e-39
4798.0273 -1490.2738 860 5.5295546e-39
4777.6689 -1499.5236 860 8.4801594e-39
4765.083 -1515.0664 860 9.403206e-39
4715.1172 -1513.208 850 9.9549406e-39
4770.9961 -1571.3251 870 9.4950457e-39
4819.1025 -1623.1489 890 9.2188161e-39
4792.4521 -1640.1702 880 9.3099425e-39
4779.8652 -1655.713 880 8.7574792e-39
4775.0508 -1677.5492 890 1.05081e-38
4770.2354 -1699.3854 890 5.5310063e-39
4720.27 -1697.5269 880 6.6369881e-39
4730.998 -1731.9495 890 5.4420491e-39
4710.6401 -1741.1991 880 4.4250203e-39
4629.5889 -1714.168 860 4.4239399e-39
4548.5376 -1687.1367 840 7.0979705e-39
4520.4082 -1690.0931 840 4.2428038e-39
4476.7363 -1680.4633 830 4.6976331e-39
4434.542 -1684.8981 820 1.290736e-39
4406.4126 -1687.8546 810 7.3756364e-40
4386.0547 -1697.1044 810 8.2939913e-40
4357.9258 -1700.0608 810 2.5800175e-39
4290.939 -1671.5514 790 1.0413755e-38
4247.2666 -1661.9215 780 3.3161532e-39
4211.3657 -1658.5848 770 4.0526294e-39
4181.7583 -1647.4767 760 6.4471879e-39
4152.1504 -1636.3685 760 7.2747849e-39
4131.793 -1645.6182 750 8.2993625e-39
4095.8921 -1642.2815 740 1.1433346e-38
4067.7627 -1645.238 740 8.7639714e-39
4045.9265 -1640.4231 730 5.8234307e-39
4010.0259 -1637.0864 730 4.5302032e-39
3989.668 -1646.3362 720 4.7041337e-39
3975.6033 -1647.8145 720 5.5302931e-39
3947.4739 -1650.7709 720 4.5175831e-39
3925.6377 -1645.9559 710 4.6130129e-39
3913.0513 -1661.4989 710 8.4808965e-39
3892.6934 -1670.7487 710 8.7513864e-39
3878.6289 -1672.2269 710 5.154675e-39
3817.9355 -1635.9459 690 3.1292452e-39
3796.0994 -1631.131 680 5.5320713e-39
3735.4058 -1594.85 660 8.5702195e-39
3721.3413 -1596.3282 660 8.6606145e-39
3700.9834 -1605.578 660 5.1557498e-39
3694.6902 -1613.3495 660 3.0395705e-39
3682.1038 -1628.8923 660 2.9480966e-39
3668.0391 -1630.3706 660 2.765143e-39
3655.4526 -1645.9136 660 1.01397e-38
3658.4092 -1674.0428 660 9.7698487e-39
3644.3445 -1675.5211 660 9.5861735e-39
3631.7583 -1691.0641 660 9.6780174e-39
3625.4648 -1698.8356 660 9.6772915e-39
3605.1069 -1708.0852 660 9.7694914e-39
3608.0635 -1736.2146 660 9.7702214e-39
2721.4414 -606.47955 300 1.0970191e-38
2722.9197 -620.54419 300 8.7575016e-39
2722.9197 -620.54419 300 2.0473575e-38
2716.6265 -628.31567 300 2.1302964e-38
3355.2798 -1698.7931 600 2.1122163e-38
3356.7581 -1712.8578 610 2.3326215e-38
3359.7146 -1740.9872 610 2.3142544e-38
3364.1494 -1783.1812 620 2.3509886e-38
3376.3555 -1831.6683 630 2.3509886e-38
3397.8115 -1900.5133 650 2.3509886e-38
2998.1729 -1345.2758 470 7.936415e-39
3047.3779 -1475.1943 500 9.6838202e-39
3095.1047 -1591.0483 530 9.6838314e-39
3127.2886 -1694.3159 560 8.946974e-39
3138.0166 -1728.7385 560 8.9441027e-39
3114.7021 -1709.8589 560 8.2980019e-39
3099.1594 -1697.2725 550 7.4711209e-39
3085.0947 -1698.7507 550 7.5633109e-39
3023.3032 -1584.375 520 7.0104986e-39
4975.8423 -476.18219 710 9.956035e-39
4969.5488 -483.95364 710 1.0047866e-38
5123.5 -595.75305 760 6.9132261e-39
5154.5859 -620.92584 770 6.2667623e-39
5177.9004 -639.80542 780 6.3589495e-39
5179.3784 -653.87012 780 4.6997995e-39
5196.3994 -680.52118 790 3.5023381e-39
5205.6494 -700.87903 790 4.23882e-39
5258.5713 -730.86682 810 3.0410153e-39
5434.7383 -783.45099 850 8.0184666e-39
4981.248 -1407.0264 860 1.9353796e-39
4954.5967 -1424.0475 860 1.4736895e-39
4912.4028 -1428.4823 850 1.3822128e-39
4899.8164 -1444.0251 850 1.8435413e-39
4887.23 -1459.5681 850 5.8061331e-39
4829.4932 -1451.4165 840 5.2522502e-39
4810.6133 -1474.7308 840 5.713227e-39
4798.0273 -1490.2738 840 5.4384309e-39
4777.6689 -1499.5236 840 8.3879652e-39
4757.3115 -1508.7732 840 9.5875972e-39
4715.1172 -1513.208 830 9.5872399e-39
4763.2246 -1565.0319 840 9.4946967e-39
4819.1025 -1623.1489 860 9.3110159e-39
4792.4521 -1640.1702 860 9.3095852e-39
4779.8652 -1655.713 860 9.3102943e-39
4775.0508 -1677.5492 870 9.9552951e-39
4770.2354 -1699.3854 870 4.9753186e-39
4728.0415 -1703.8201 860 6.6333812e-39
4730.998 -1731.9495 870 5.7117934e-39
4710.6401 -1741.1991 860 7.2809114e-39
4629.5889 -1714.168 840 4.1484306e-39
4548.5376 -1687.1367 820 6.913575e-39
4528.1797 -1696.3864 820 5.9919901e-39
4476.7363 -1680.4633 810 5.8958035e-39
4434.542 -1684.8981 800 1.3825729e-39
4406.4126 -1687.8546 790 7.3792377e-40
4393.8262 -1703.3976 790 8.2939913e-40
4357.9258 -1700.0608 790 1.5662383e-39
4298.7104 -1677.8446 770 1.0874739e-38
4262.8096 -1674.5078 760 5.4348352e-39
4226.9087 -1671.1711 760 7.2866651e-39
4198.7793 -1674.1277 750 1.106599e-38
4175.4648 -1655.248 740 1.1612352e-38
4139.5645 -1651.9114 740 6.909273e-39
4095.8921 -1642.2815 730 5.4363024e-39
4067.7627 -1645.238 720 3.8693214e-39
4045.9265 -1640.4231 720 1.069072e-38
4025.5688 -1649.6729 710 3.3197573e-39
4005.2109 -1658.9225 710 3.3222867e-39
3998.9175 -1666.694 710 4.7030407e-39
3963.0168 -1663.3573 700 6.083457e-39
3941.1807 -1658.5424 700 9.8598681e-39
3920.8228 -1667.7921 700 6.0787837e-39
3916.0078 -1689.6282 700 3.5927499e-39
3903.4214 -1705.1711 700 3.5963316e-39
3850.4995 -1675.1833 680 5.7150402e-39
3797.5776 -1645.1957 670 5.8929561e-39
3743.1772 -1601.1432 650 2.9477378e-39
3721.3413 -1596.3282 640 2.4881974e-39
3700.9834 -1605.578 640 2.7633466e-39
3694.6902 -1613.3495 640 2.4882016e-39
3682.1038 -1628.8923 640 2.4885589e-39
3668.0391 -1630.3706 640 2.8562625e-39
3655.4526 -1645.9136 640 9.7712724e-39
3650.6377 -1667.7496 640 9.8609751e-39
3636.5732 -1669.2279 640 9.5847386e-39
3623.9868 -1684.7709 640 9.7694801e-39
3617.6934 -1692.5424 640 9.5847428e-39
3605.1069 -1708.0852 640 9.4929045e-39
3615.835 -1742.5078 650 1.0047516e-38
2721.4414 -606.47955 290 1.2079395e-38
2722.9197 -620.54419 290 1.254978e-38
2722.9197 -620.54419 290 1.9727382e-38
2716.6265 -628.31567 290 2.1486626e-38
3366.0078 -1733.2157 600 2.3050708e-38
3370.4426 -1775.4097 600 2.3509886e-38
3415.2129 -1863.1343 630 2.3509886e-38
3419.6477 -1905.3282 640 2.3509886e-38
2925.6533 -1196.4774 430 9.3150363e-39
2981.1516 -1318.6246 460 8.6678718e-39
3019.6287 -1414.1207 480 7.6555093e-39
3059.584 -1523.6815 500 7.4700391e-39
3116.5608 -1659.8934 540 7.103053e-39
3147.2664 -1749.0963 560 6.9168555e-39
3060.6821 -1601.7764 520 6.5527617e-39
3008.1404 -1507.7584 490 7.7524105e-39
3001.8472 -1515.5299 490 8.8587497e-39
2984.8262 -1488.8789 480 9.0406382e-39
4989.9072 -474.70395 700 1.0048935e-38
5168.6504 -619.44757 750 6.2671196e-39
5199.7363 -644.62036 760 6.1745596e-39
5208.9863 -664.97827 770 4.1491467e-39
5240.0718 -690.15106 780 3.685649e-39
5241.5498 -704.2157 780 4.1469845e-39
5302.2437 -740.4967 800 2.5814762e-39
5428.4453 -791.22247 830 7.9269927e-39
4981.248 -1407.0264 840 1.6584381e-39
4954.5967 -1424.0475 840 1.4744084e-39
4912.4028 -1428.4823 830 1.2907318e-39
4899.8164 -1444.0251 830 2.1190491e-39
4887.23 -1459.5681 830 5.8050583e-39
4829.4932 -1451.4165 820 5.1604091e-39
4810.6133 -1474.7308 820 5.712871e-39
4790.2559 -1483.9806 820 5.3455276e-39
4777.6689 -1499.5236 810 8.9404215e-39
4757.3115 -1508.7732 810 9.5858078e-39
4699.5742 -1500.6216 800 9.6790754e-39
4725.8457 -1547.6305 810 9.0358668e-39
4826.874 -1629.4421 840 9.1276981e-39
4807.9946 -1652.7566 840 9.4936065e-39
4787.6367 -1662.0062 840 9.03335e-39
4782.8223 -1683.8424 850 9.5872413e-39
4778.0068 -1705.6785 850 5.4402372e-39
4743.5845 -1716.4065 840 6.2685756e-39
4738.7695 -1738.2427 840 4.5186509e-39
4726.1831 -1753.7855 840 2.3012922e-39
4645.1318 -1726.7543 830 3.1310361e-39
4564.0806 -1699.723 800 6.8217339e-39
4543.7227 -1708.9728 800 6.3607628e-39
4500.0503 -1699.3429 790 6.0805479e-39
4434.542 -1684.8981 780 2.0282983e-39
4414.1841 -1694.1478 780 8.2976067e-40
4393.8262 -1703.3976 770 8.2939913e-40
4373.4688 -1712.6472 770 1.0134303e-39
4322.0249 -1696.7241 760 1.0597785e-38
4278.3525 -1687.0942 750 9.5869036e-39
4234.6802 -1677.4644 740 7.73724e-39
4198.7793 -1674.1277 730 4.3310422e-39
4167.6934 -1648.955 720 2.7626263e-39
4139.5645 -1651.9114 720 2.2105315e-39
4103.6636 -1648.5747 710 1.1996152e-39
4067.7627 -1645.238 700 1.3843736e-39
4053.698 -1646.7163 700 1.4754916e-39
4033.3403 -1655.9661 700 2.5886523e-39
4012.9824 -1665.2157 700 4.4253902e-39
3998.9175 -1666.694 690 5.3397739e-39
3947.4739 -1650.7709 680 6.4504529e-39
3933.4092 -1652.2491 680 2.9477336e-39
3913.0513 -1661.4989 680 2.3034432e-39
3900.4648 -1677.0419 680 2.6729446e-39
3895.6499 -1698.8779 680 3.1317689e-39
3858.271 -1681.4766 670 2.4878387e-39
3820.8921 -1664.0752 660 2.3963619e-39
3750.9487 -1607.4364 640 2.4878373e-39
3721.3413 -1596.3282 630 2.3963633e-39
3708.7549 -1611.8712 630 2.3960032e-39
3694.6902 -1613.3495 630 2.3045236e-39
3682.1038 -1628.8923 630 2.487117e-39
3668.0391 -1630.3706 620 2.1197764e-39
3655.4526 -1645.9136 620 9.5872455e-39
3642.8662 -1661.4565 630 9.8613339e-39
3636.5732 -1669.2279 620 9.1252052e-39
3623.9868 -1684.7709 620 9.3095894e-39
3617.6934 -1692.5424 620 9.1244709e-39
3605.1069 -1708.0852 620 9.4003431e-39
3615.835 -1742.5078 630 9.5829393e-39
2721.4414 -606.47955 290 1.0043186e-38
2722.9197 -620.54419 290 1.1701268e-38
2722.9197 -620.54419 290 1.235238e-38
2716.6265 -628.31567 290 2.2867037e-38
2716.6265 -628.31567 290 2.3509886e-38
2710.3333 -636.08716 290 2.0010796e-38
2710.3333 -636.08716 290 1.6411188e-38
2704.04 -643.85858 290 1.2717589e-38
2696.2686 -637.56543 290 1.9185334e-38
2899.3823 -1149.4685 400 7.5608026e-39
2936.3813 -1230.9 420 6.5484457e-39
2974.8584 -1326.3961 450 6.554198e-39
3022.5852 -1442.2501 470 7.6620085e-39
3073.2686 -1586.2334 510 8.3967009e-39
3110.2676 -1667.6649 520 8.489614e-39
3179.4502 -1852.3639 570 9.4094095e-39
4989.9072 -474.70395 680 9.9567483e-39
4977.3203 -490.24686 680 1.0141494e-38
5182.7148 -617.96936 740 5.9912502e-39
5221.5723 -649.43536 750 5.8061429e-39
5230.8223 -669.79321 750 4.1477075e-39
5275.9727 -693.48773 770 3.9618785e-39
5292.9941 -720.13879 770 3.8707591e-39
5367.752 -754.94153 790 2.8573344e-39
5450.2812 -796.03741 810 7.8337222e-39
4981.248 -1407.0264 820 1.5673145e-39
4954.5967 -1424.0475 810 1.4747657e-39
4920.1743 -1434.7755 810 1.1981803e-39
4899.8164 -1444.0251 810 2.3034348e-39
4887.23 -1459.5681 810 5.8972525e-39
4837.2646 -1457.7097 800 4.9763836e-39
4824.6782 -1473.2526 800 5.5299105e-39
4798.0273 -1490.2738 790 5.5288357e-39
4777.6689 -1499.5236 790 8.9397097e-39
4757.3115 -1508.7732 790 9.8641799e-39
4691.8027 -1494.3284 780 9.5876028e-39
4694.7598 -1522.4578 780 9.4028416e-39
4857.96 -1654.615 830 9.2188161e-39
4860.917 -1682.7443 830 8.9422334e-39
4803.1797 -1674.5927 820 8.9429495e-39
4813.9077 -1709.0153 830 9.2181e-39
4816.8643 -1737.1445 840 4.3317485e-39
4773.1924 -1727.5146 830 4.6072465e-39
4762.084 -1757.1222 830 5.0682261e-39
4741.7261 -1766.3719 830 1.2914535e-39
4668.4463 -1745.6339 810 3.1342745e-39
4601.4595 -1717.1244 790 3.7821788e-39
4574.8086 -1734.1456 790 6.2696461e-39
4515.5933 -1711.9293 780 5.2511628e-39
4448.6064 -1683.4198 760 2.4917945e-39
4421.9556 -1700.441 760 1.0137904e-39
4401.5977 -1709.6907 750 8.290404e-40
4381.2402 -1718.9404 750 7.372035e-40
4337.5674 -1709.3105 740 5.1561127e-39
4293.8955 -1699.6807 730 2.6689873e-39
4250.2231 -1690.0508 720 1.8428266e-39
4206.5508 -1680.4209 710 1.3854512e-39
4152.1504 -1636.3685 700 1.5705627e-39
4116.25 -1633.0319 690 1.6609619e-39
4080.3491 -1629.6951 680 2.0329786e-39
4058.5129 -1624.8801 680 3.504143e-39
4038.1553 -1634.1299 680 4.8841922e-39
4017.7974 -1643.3796 680 4.515781e-39
3997.4395 -1652.6294 670 2.9535014e-39
3983.3748 -1654.1075 670 4.9792703e-39
3955.2454 -1657.0641 660 4.8856397e-39
3933.4092 -1652.2491 660 2.764064e-39
3913.0513 -1661.4989 660 2.5807518e-39
3900.4648 -1677.0419 660 2.3967234e-39
3894.1719 -1684.8132 660 2.5803916e-39
3858.271 -1681.4766 650 2.5796728e-39
3836.4351 -1676.6616 650 2.3041677e-39
3760.1985 -1627.7943 630 2.4878331e-39
3722.8193 -1610.3929 620 2.2119692e-39
3708.7549 -1611.8712 610 2.2112504e-39
3688.397 -1621.121 610 1.9346649e-39
3682.1038 -1628.8923 610 1.5669642e-39
3668.0391 -1630.3706 610 1.4740511e-39
3655.4526 -1645.9136 610 9.2184546e-39
3642.8662 -1661.4565 610 9.7684194e-39
3628.8018 -1662.9347 610 9.4007116e-39
3622.5083 -1670.7062 610 9.030113e-39
3609.9219 -1686.2491 610 8.1088798e-39
3597.3354 -1701.7921 610 7.279845e-39
3608.0635 -1736.2146 610 7.9237697e-39
2721.4414 -606.47955 280 8.8446498e-39
2722.9197 -620.54419 280 8.6595158e-39
2722.9197 -620.54419 290 1.0877243e-38
2716.6265 -628.31567 290 2.3509886e-38
2716.6265 -628.31567 280 2.3509886e-38
2710.3333 -636.08716 280 2.0652569e-38
2710.3333 -636.08716 280 1.6782119e-38
2704.04 -643.85858 280 1.225948e-38
2696.2686 -637.56543 280 1.853851e-38
2905.6755 -1141.697 400 8.5785572e-39
2936.3813 -1230.9 410 8.6718333e-39
2974.8584 -1326.3961 440 8.6718361e-39
3022.5852 -1442.2501 460 8.768712e-39
3079.5618 -1578.4619 490 1.0240255e-38
3147.2664 -1749.0963 530 1.1730871e-38
4997.6782 -480.99713 660 1.0048575e-38
4977.3203 -490.24686 660 1.0232613e-38
5176.4219 -625.74078 720 6.3589537e-39
5221.5723 -649.43536 730 5.6221103e-39
5252.6582 -674.60815 740 3.5948995e-39
5305.5801 -704.59589 750 3.8707563e-39
5336.666 -729.76868 760 3.7789264e-39
5447.3252 -767.90808 790 3.2250366e-39
5478.4111 -793.08087 790 7.1901549e-39
4981.248 -1407.0264 790 1.5669642e-39
4954.5967 -1424.0475 790 1.2903773e-39
4920.1743 -1434.7755 790 1.2900171e-39
4899.8164 -1444.0251 790 2.4874673e-39
4887.23 -1459.5681 790 6.0816423e-39
4837.2646 -1457.7097 780 4.9763836e-39
4824.6782 -1473.2526 770 5.713227e-39
4798.0273 -1490.2738 770 5.7125039e-39
4777.6689 -1499.5236 770 9.1262547e-39
4757.3115 -1508.7732 770 9.8638226e-39
4691.8027 -1494.3284 760 9.6783551e-39
4657.3804 -1505.0564 750 9.4032074e-39
4910.8818 -1684.6028 820 9.4954072e-39
4974.5322 -1749.0131 840 9.0347906e-39
4985.2598 -1783.4355 850 9.3102915e-39
4981.9233 -1819.3363 850 8.2965053e-39
4946.0225 -1815.9996 850 3.3262341e-39
