# .PCD v0.7 - Point Cloud Data file format
VERSION 0.7
FIELDS x y z rgb
SIZE 4 4 4 4
TYPE F F F F
COUNT 1 1 1 1
WIDTH 1206
HEIGHT 1
VIEWPOINT 0 0 0 1 0 0 0
POINTS 1206
DATA ascii
3580.1252 -1720.0691 -160 2.8555394e-39
3546.5784 -1698.2836 -150 2.8569813e-39
3470.6638 -1613.2133 -140 3.6871021e-39
3420.3435 -1580.5349 -120 8.2036006e-39
3406.5105 -1583.4752 -120 8.6634983e-39
3426.6584 -1644.2539 -130 8.6634955e-39
3429.5986 -1658.087 -130 1.0504157e-38
3435.4795 -1685.7533 -140 1.2533163e-38
3441.3599 -1713.4194 -140 1.3818868e-38
3427.5269 -1716.3597 -140 1.2435944e-38
3405.3071 -1713.8536 -130 1.0223261e-38
3391.4741 -1716.7939 -130 7.6460954e-39
3377.6409 -1719.7344 -130 5.8954644e-39
3372.1946 -1728.121 -130 4.0544287e-39
3358.3613 -1731.0614 -130 6.4554793e-39
3352.915 -1739.448 -130 1.1712117e-38
3330.6953 -1736.942 -130 1.8728341e-38
3316.8623 -1739.8823 -130 2.3509886e-38
3714.0508 -173.50395 -50 1.0692508e-38
3686.3848 -179.38458 -40 7.0046945e-39
4047.3479 -211.095 -100 5.8061373e-39
4274.9922 -227.76901 -130 5.6213929e-39
4358.4253 -246.17999 -150 5.6213915e-39
4508.5176 -272.10919 -170 5.7135829e-39
4605.7832 -287.57986 -190 5.6213845e-39
4558.8379 -304.78754 -180 5.6217488e-39
4583.998 -321.12671 -190 5.162207e-39
4711.8701 -344.5498 -210 5.0692995e-39
4817.5225 -365.46686 -230 4.8841936e-39
4784.4102 -379.73422 -220 4.8834663e-39
4795.7373 -399.0137 -230 4.9771011e-39
4798.6777 -412.8468 -230 6.4525871e-39
4823.8379 -429.18597 -230 8.2939857e-39
4454.4878 -392.02917 -180 9.8623736e-39
4474.2012 -416.75504 -180 9.6812194e-39
4468.7549 -425.14172 -180 1.0231523e-38
4441.0889 -431.02237 -180 1.0783971e-38
4430.1963 -447.79578 -180 1.1150596e-38
4477.5762 -466.64102 -190 1.0970163e-38
4747.5879 -546.59985 -230 1.1430062e-38
4745.082 -568.8197 -240 1.1613375e-38
4748.0225 -582.65277 -240 1.1798834e-38
4970.6548 -643.76636 -280 1.2165468e-38
4929.1553 -652.58728 -270 1.0046413e-38
4901.4893 -658.46796 -270 8.2939731e-39
4907.3701 -686.13416 -270 6.175633e-39
4927.0835 -710.86005 -280 6.2628008e-39
4921.6372 -719.2467 -280 5.5270364e-39
4927.5176 -746.9129 -280 4.6994352e-39
4938.8447 -766.19238 -280 4.7916266e-39
4927.9521 -782.96582 -280 4.6994338e-39
4947.666 -807.69171 -290 4.237385e-39
4975.7666 -837.86395 -300 4.5143222e-39
4925.8804 -841.23853 -290 4.5139663e-39
4965.3076 -890.69025 -300 4.5153998e-39
5024.0146 -928.815 -310 5.1578896e-39
5166.5889 -1021.4036 -340 6.9095883e-39
5055.4897 -1008.8732 -320 6.9095939e-39
5105.8101 -1041.5515 -340 6.9085149e-39
5159.0703 -1088.063 -350 6.5422449e-39
5109.1846 -1091.4375 -340 6.2638672e-39
5020.3057 -1081.4133 -330 6.2638728e-39
4939.8125 -1076.8354 -310 5.7135703e-39
5015.293 -1125.8529 -330 6.723409e-39
5146.54 -1199.162 -360 6.3560656e-39
4921.4019 -1160.2682 -320 6.2645861e-39
5069.4219 -1244.4701 -350 6.3553454e-39
4557.9326 -1150.7776 -260 6.0809123e-39
4874.2207 -1618.4973 -360 3.6827721e-39
4866.2686 -1649.1039 -360 4.144102e-39
4821.8286 -1644.0917 -350 4.9727766e-39
4794.1621 -1649.9723 -350 5.0671331e-39
4735.8896 -1647.9005 -340 5.2515299e-39
4716.6104 -1659.2275 -340 5.5292e-39
4613.4639 -1616.0907 -320 4.9756605e-39
4510.3174 -1572.9539 -300 4.2370263e-39
4412.6172 -1521.4303 -280 3.2243163e-39
4373.624 -1508.0314 -270 2.2112476e-39
4345.9575 -1513.912 -270 1.750631e-39
4309.9048 -1514.3463 -260 1.4744056e-39
4228.978 -1473.7155 -250 1.1059874e-39
4150.9917 -1446.9178 -230 1.0137918e-39
4070.0649 -1406.287 -220 1.1974614e-39
4047.845 -1403.781 -210 1.2900143e-39
4053.7256 -1431.4471 -220 1.3818512e-39
4023.1191 -1423.4946 -210 1.5655208e-39
4028.9998 -1451.1609 -220 1.2896584e-39
3634.8245 -1195.1805 -130 1.4744098e-39
3632.3184 -1217.4004 -130 1.2914563e-39
3654.9727 -1255.9594 -140 1.3825757e-39
3641.1394 -1258.8997 -140 1.4744112e-39
3647.02 -1286.5659 -140 1.6598773e-39
3630.2466 -1275.6731 -140 1.659157e-39
3923.4465 -1668.781 -220 1.1992635e-39
3904.167 -1680.108 -220 1.1985474e-39
3862.2334 -1652.8761 -210 1.29002e-39
3848.4004 -1655.8164 -210 1.3818568e-39
4014.4971 -1859.0698 -250 1.1059902e-39
3846.3286 -1714.0891 -210 1.2896612e-39
3868.9827 -1752.6481 -220 1.5658824e-39
3869.417 -1788.7009 -220 1.6577193e-39
3863.9705 -1797.0876 -220 1.6584381e-39
3844.6909 -1808.4147 -220 1.4736881e-39
3822.4712 -1805.9086 -220 1.4758433e-39
3808.6382 -1808.849 -220 1.7509953e-39
3758.3179 -1776.1707 -210 1.7513526e-39
3713.4438 -1735.1056 -200 1.6584451e-39
3682.8374 -1727.1531 -190 2.027578e-39
3652.231 -1719.2007 -190 2.1194191e-39
3638.3979 -1722.141 -180 2.6715041e-39
3632.9517 -1730.5277 -180 2.4878387e-39
3613.6719 -1741.8547 -180 2.2116119e-39
3588.512 -1725.5155 -180 2.211972e-39
3563.3518 -1709.1764 -170 2.3967248e-39
3470.6638 -1613.2133 -150 3.5027123e-39
3420.3435 -1580.5349 -140 7.7433511e-39
3406.5105 -1583.4752 -140 8.8478882e-39
3435.0452 -1649.7003 -150 9.3049119e-39
3432.5391 -1671.9202 -150 1.0504168e-38
3430.033 -1694.1399 -150 1.2530297e-38
3435.9136 -1721.8062 -150 1.3266775e-38
3427.5269 -1716.3597 -150 1.2341946e-38
3405.3071 -1713.8536 -150 9.8548304e-39
3391.4741 -1716.7939 -150 7.2762339e-39
3377.6409 -1719.7344 -150 5.3437312e-39
3372.1946 -1728.121 -140 4.0537168e-39
3349.9746 -1725.615 -140 6.6395147e-39
3352.915 -1739.448 -140 1.2084477e-38
3330.6953 -1736.942 -140 1.9371907e-38
3325.2488 -1745.3287 -140 2.3509886e-38
3691.8311 -170.99788 -50 1.078398e-38
3677.998 -173.9382 -50 7.0976019e-39
4069.5679 -213.60107 -110 5.6213929e-39
4261.1592 -230.70932 -150 5.7146633e-39
4358.4253 -246.17999 -160 5.6210355e-39
4508.5176 -272.10919 -190 5.5295574e-39
4628.0029 -290.08594 -210 5.6210355e-39
4755.8755 -313.50906 -230 5.3458794e-39
4775.5889 -338.23492 -240 5.4370002e-39
4747.9229 -344.11557 -230 5.3437284e-39
4795.3027 -362.96082 -240 4.8841908e-39
4748.3574 -380.16846 -240 4.7916392e-39
4809.5703 -396.07339 -250 4.7923553e-39
4879.1699 -417.42468 -260 6.1749212e-39
4921.1035 -444.65665 -270 7.834081e-39
4968.4834 -463.50186 -280 9.2191664e-39
4488.0347 -413.81473 -200 9.5868797e-39
4485.5283 -436.03452 -200 1.023152e-38
4480.082 -444.42123 -200 1.0782179e-38
4474.6357 -452.80792 -200 1.050883e-38
4508.1826 -474.59348 -210 1.0785412e-38
4563.9492 -498.8851 -220 1.0694302e-38
4680.9287 -539.08167 -240 1.096909e-38
4736.6953 -563.37329 -250 1.1431493e-38
4725.8027 -580.14673 -250 1.1430059e-38
4720.3564 -588.53339 -250 1.1063435e-38
4717.8501 -610.75317 -260 9.4946799e-39
4729.1772 -630.03271 -260 7.8340782e-39
4723.7305 -638.41943 -260 5.9901656e-39
4782.4375 -676.54413 -270 5.4366373e-39
4846.5908 -706.2821 -280 5.0682121e-39
4880.1377 -728.06769 -290 4.9745829e-39
4877.6318 -750.28748 -290 4.6994352e-39
4844.5195 -764.55481 -290 4.7909105e-39
4833.6265 -781.32825 -290 4.3299366e-39
4836.5669 -795.16132 -290 4.4224825e-39
4664.2549 -766.72607 -260 4.5146824e-39
4636.5889 -772.60669 -260 3.9615086e-39
4625.6958 -789.38013 -260 3.8700318e-39
4695.7295 -846.7843 -270 5.8976056e-39
5086.0962 -1016.8257 -350 6.4489745e-39
5161.5767 -1065.8433 -370 6.4479011e-39
5150.6836 -1082.6166 -370 5.621739e-39
5148.1777 -1104.8364 -370 6.1713142e-39
5042.5254 -1083.9194 -350 5.8961595e-39
4970.4189 -1084.7878 -340 6.1720373e-39
5084.8926 -1147.2041 -360 6.2642259e-39
5163.3135 -1210.0548 -380 5.8046925e-39
5113.4277 -1213.4293 -380 6.0798431e-39
4890.9941 -1629.3901 -380 3.5920156e-39
4866.2686 -1649.1039 -380 4.3288534e-39
4830.2153 -1649.5381 -380 5.1582427e-39
4802.5488 -1655.4187 -370 5.0667758e-39
4761.0498 -1664.2397 -370 5.9865755e-39
4724.9971 -1664.674 -360 5.2536823e-39
4596.6904 -1605.1979 -330 4.9760165e-39
4518.7041 -1578.4003 -320 3.6870853e-39
4421.0039 -1526.8766 -300 2.7654947e-39
4390.3975 -1518.9242 -290 1.7517142e-39
4354.3442 -1519.3584 -290 1.4751259e-39
4335.0649 -1530.6854 -290 1.3822114e-39
4245.7515 -1484.6083 -270 1.1974572e-39
4167.7646 -1457.8105 -250 1.1059874e-39
4078.4517 -1411.7334 -240 1.1981831e-39
4047.845 -1403.781 -230 1.2907388e-39
4036.9521 -1420.5543 -230 1.2003411e-39
4014.7324 -1418.0483 -230 1.2003411e-39
4003.8396 -1434.8217 -230 1.0163099e-39
4009.7202 -1462.4879 -230 1.1996222e-39
3693.5315 -1233.3053 -160 1.2918178e-39
3654.5381 -1219.9065 -150 1.7528016e-39
3657.4785 -1233.7396 -150 1.7531659e-39
3671.7461 -1266.8522 -160 1.8446427e-39
3649.5261 -1264.3461 -160 1.5673271e-39
3655.4067 -1292.0123 -160 1.6587997e-39
3630.2466 -1275.6731 -150 1.3832932e-39
3956.5591 -1654.5137 -240 1.2907416e-39
3945.6665 -1671.2871 -240 1.3825743e-39
3923.4465 -1668.781 -240 1.2903801e-39
3901.2266 -1666.2749 -230 1.1985432e-39
3862.2334 -1652.8761 -230 1.3818597e-39
3840.0137 -1650.37 -220 1.2900186e-39
4034.2107 -1883.7957 -280 1.0137946e-39
3983.8906 -1851.1173 -260 1.1056287e-39
3908.4102 -1802.0999 -250 1.1974642e-39
3877.8037 -1794.1473 -240 1.1985432e-39
3863.9705 -1797.0876 -240 2.1190576e-39
3841.7507 -1794.5815 -240 2.2126923e-39
3819.5308 -1792.0756 -230 2.1212156e-39
3800.2515 -1803.4026 -230 1.3840163e-39
3755.3774 -1762.3375 -220 9.208787e-40
3705.0574 -1729.6592 -210 1.3811324e-39
3682.8374 -1727.1531 -210 1.3811296e-39
3660.6177 -1724.6471 -200 1.7491946e-39
3646.7847 -1727.5874 -200 1.9343006e-39
3635.8918 -1744.3607 -200 2.2101714e-39
3622.0586 -1747.3011 -200 2.0268577e-39
3599.8389 -1744.795 -190 2.2119678e-39
3563.3518 -1709.1764 -190 2.6729502e-39
3459.3369 -1593.9337 -160 4.054807e-39
3437.1169 -1591.4276 -150 6.2692972e-39
3411.9568 -1575.0885 -150 7.9284514e-39
3398.1238 -1578.0288 -150 8.6620578e-39
3423.7183 -1630.4209 -160 8.9390034e-39
3429.5986 -1658.087 -160 1.0781107e-38
3435.4795 -1685.7533 -160 1.3175658e-38
3435.9136 -1721.8062 -170 1.3909992e-38
3427.5269 -1716.3597 -170 1.1974603e-38
3405.3071 -1713.8536 -160 9.48785e-39
3391.4741 -1716.7939 -160 6.9088905e-39
3377.6409 -1719.7344 -160 5.1579036e-39
3372.1946 -1728.121 -160 4.3295807e-39
3349.9746 -1725.615 -160 6.9153855e-39
3352.915 -1739.448 -160 1.2361435e-38
3339.082 -1742.3883 -150 1.9465178e-38
3325.2488 -1745.3287 -150 2.3509886e-38
4269.5459 -236.1557 -160 5.8969022e-39
4344.5918 -249.1203 -170 5.9890964e-39
4361.3652 -260.01309 -180 5.530279e-39
4703.0488 -303.05054 -240 5.528484e-39
4778.0952 -316.01514 -250 5.4366429e-39
4781.0356 -329.84824 -250 5.5274036e-39
4734.0898 -347.05591 -250 4.975313e-39
4714.8105 -358.38293 -240 4.6083227e-39
4717.751 -372.216 -250 4.3317401e-39
4787.3506 -393.56732 -260 4.055156e-39
4901.3896 -419.93076 -280 4.1451866e-39
4890.4971 -436.70419 -280 3.5009046e-39
4507.314 -402.4877 -220 3.3154371e-39
4474.2012 -416.75504 -210 3.0402852e-39
4477.1416 -430.58813 -210 3.1321249e-39
4480.082 -444.42123 -220 3.2243135e-39
4505.2422 -460.76038 -220 3.2243149e-39
4530.4023 -477.09955 -230 3.3161476e-39
4563.9492 -498.8851 -240 3.2246806e-39
4605.8828 -526.11707 -240 3.3165147e-39
4728.3086 -557.92688 -270 3.2239604e-39
4695.1963 -572.19421 -260 3.2253953e-39
4675.917 -583.52124 -260 3.4087076e-39
4701.0767 -599.86041 -270 4.6054487e-39
4690.1841 -616.63385 -270 5.2540397e-39
4679.291 -633.40723 -270 5.897614e-39
4668.3984 -650.18066 -270 5.1604147e-39
4701.9453 -671.96625 -280 4.7008757e-39
4896.9111 -738.96045 -310 5.066417e-39
4732.9863 -715.97156 -280 4.699075e-39
4766.5332 -737.75714 -290 4.8823873e-39
4747.2534 -749.08417 -290 4.5143236e-39
4722.5273 -768.79791 -290 3.8707507e-39
4634.5166 -830.87939 -280 6.3564202e-39
5116.7026 -1024.7781 -380 5.8057701e-39
5200.5698 -1079.2421 -400 5.988725e-39
5131.4043 -1093.9436 -390 5.9883579e-39
4212.3408 -783.26404 -210 5.9883621e-39
4287.8208 -832.28156 -230 5.5288203e-39
4993.5078 -1159.3997 -370 5.5288273e-39
3770.4507 -710.92285 -130 5.8046911e-39
3798.551 -741.09509 -140 5.8039736e-39
3793.1045 -749.48181 -140 5.9872873e-39
4933.3618 -1692.6749 -420 4.6979974e-39
4903.1895 -1720.7754 -420 3.7785635e-39
4775.3174 -1697.3523 -390 5.5288287e-39
4596.6904 -1605.1979 -360 4.7916322e-39
4535.4775 -1589.293 -340 3.7782061e-39
4479.7109 -1565.0013 -330 2.7644186e-39
4435.271 -1559.9893 -330 1.6602374e-39
4371.1177 -1530.2512 -310 1.4751245e-39
4360.2251 -1547.0247 -310 1.1988991e-39
4195.4312 -1451.9299 -270 1.0134303e-39
4114.5044 -1411.2992 -260 8.2939633e-40
4061.6782 -1400.8406 -250 9.208759e-40
4039.4583 -1398.3346 -250 1.0134261e-39
4028.5654 -1415.1079 -240 1.1056273e-39
3997.959 -1407.1555 -240 1.0141477e-39
3995.4529 -1429.3754 -240 1.1978215e-39
3973.2332 -1426.8693 -240 1.2907332e-39
3909.0798 -1397.1312 -220 1.2900214e-39
3825.2126 -1342.6674 -200 1.290736e-39
3707.7988 -1266.4178 -180 1.4747713e-39
3693.9658 -1269.3583 -170 2.302374e-39
3688.5193 -1277.7449 -180 2.7637095e-39
3686.0132 -1299.9647 -180 2.8562695e-39
3680.5669 -1308.3514 -180 2.0283109e-39
3669.6741 -1325.1249 -180 1.3825799e-39
3692.3281 -1363.6838 -190 1.5666068e-39
3933.905 -1615.9547 -250 1.4747727e-39
3939.7856 -1643.6208 -250 1.382217e-39
3934.3394 -1652.0076 -250 1.1992649e-39
3906.6731 -1657.8882 -250 1.566611e-39
3876.0667 -1649.9358 -250 1.1996264e-39
3845.46 -1641.9833 -240 1.1978271e-39
3831.627 -1644.9236 -240 1.1056301e-39
3829.1211 -1667.1434 -240 1.0134331e-39
3843.3882 -1700.256 -250 1.0141533e-39
3936.5105 -1832.2721 -270 1.2900214e-39
3905.9041 -1824.3196 -270 1.290736e-39
3883.6841 -1821.8136 -260 1.1996194e-39
3844.6909 -1808.4147 -260 1.2903773e-39
3819.5308 -1792.0756 -250 1.4736881e-39
3791.8647 -1797.9562 -250 1.105986e-39
3738.604 -1751.4447 -230 1.1052672e-39
3705.0574 -1729.6592 -230 1.0130729e-39
3691.2241 -1732.5995 -220 8.2904601e-40
3669.0044 -1730.0934 -220 9.2123603e-40
3649.7251 -1741.4204 -220 9.2159897e-40
3635.8918 -1744.3607 -220 1.0141505e-39
3613.6719 -1741.8547 -210 1.3814981e-39
3577.1851 -1706.2361 -200 1.4733336e-39
3464.7832 -1585.547 -170 2.0272221e-39
3450.9502 -1588.4873 -170 3.1332081e-39
3434.1768 -1577.5946 -170 6.0823892e-39
3409.0166 -1561.2554 -160 7.9255704e-39
3395.1836 -1564.1957 -160 8.4794742e-39
3420.7778 -1616.5878 -170 9.2152302e-39
3429.5986 -1658.087 -170 1.0964421e-38
3435.4795 -1685.7533 -180 1.299163e-38
3435.9136 -1721.8062 -180 1.3818152e-38
3427.5269 -1716.3597 -180 1.142323e-38
3405.3071 -1713.8536 -180 8.9336042e-39
3391.4741 -1716.7939 -170 6.7241405e-39
3377.6409 -1719.7344 -170 5.1582693e-39
3372.1946 -1728.121 -170 4.6983632e-39
3349.9746 -1725.615 -170 7.1912521e-39
3347.4688 -1747.8347 -170 1.2727702e-38
3330.6953 -1736.942 -170 1.9833955e-38
3325.2488 -1745.3287 -170 2.3509886e-38
4336.2051 -243.67392 -190 5.4373673e-39
4347.5322 -262.9534 -190 5.8050625e-39
4600.3369 -295.96655 -230 5.5288357e-39
4603.2773 -309.79968 -240 5.2529705e-39
4583.998 -321.12671 -230 5.1607763e-39
4578.5513 -329.5134 -230 4.8831104e-39
4573.105 -337.90009 -240 4.699438e-39
4592.8184 -362.62598 -240 4.055156e-39
4542.9326 -366.00055 -230 3.7782089e-39
4523.6533 -377.32758 -230 3.3186727e-39
4504.374 -388.6546 -230 2.6736691e-39
4507.314 -402.4877 -230 2.0290143e-39
4465.8145 -411.30865 -220 2.0279381e-39
4454.9219 -428.08206 -230 2.028657e-39
4449.4756 -436.46875 -230 2.213044e-39
4483.0225 -458.2543 -230 2.3960004e-39
4485.9629 -472.0874 -240 2.4885547e-39
4497.29 -491.36688 -240 2.3963605e-39
4508.6167 -510.64639 -240 2.5803902e-39
4633.9834 -556.28931 -270 2.4896323e-39
4631.4771 -578.50916 -270 2.8573302e-39
4634.4175 -592.34222 -270 3.963675e-39
4628.9707 -600.72888 -270 5.1611266e-39
4626.4648 -622.94873 -280 6.0820025e-39
4607.1855 -634.27576 -270 5.5277525e-39
4701.9453 -671.96625 -290 4.7909175e-39
4744.313 -735.25104 -310 4.3310128e-39
4733.4199 -752.02448 -310 3.9618701e-39
4736.3604 -765.85754 -310 3.5938107e-39
4352.7432 -695.5882 -240 4.9770898e-39
4216.4844 -666.71869 -210 5.8972441e-39
4305.7979 -712.79584 -230 5.8050512e-39
4247.5249 -710.724 -220 5.9883677e-39
4195.1328 -736.31836 -220 5.8050526e-39
4253.8398 -774.44312 -230 5.9883691e-39
4248.3936 -782.82983 -230 6.1716772e-39
4212.3408 -783.26404 -220 5.8954532e-39
4248.8276 -818.88269 -230 5.7117822e-39
3917.6025 -723.01898 -170 5.8039793e-39
3898.323 -734.34595 -160 5.6210201e-39
3775.897 -702.53613 -140 5.7117836e-39
3851.3774 -751.55365 -160 5.804331e-39
3784.7178 -744.0354 -150 5.6203041e-39
4621.8506 -1621.5371 -380 5.0674932e-39
4661.2778 -1670.9888 -400 3.8707577e-39
4597.1245 -1641.2509 -380 2.6725873e-39
4577.8447 -1652.5779 -380 1.8435455e-39
4172.7773 -1413.371 -280 1.0145107e-39
4187.0444 -1446.4835 -290 1.2896556e-39
4089.3442 -1394.96 -270 8.290404e-40
4061.6782 -1400.8406 -270 8.29039e-40
4031.0715 -1392.8882 -260 9.2123463e-40
4008.8518 -1390.3821 -260 1.1052658e-39
3981.1855 -1396.2627 -250 8.2975366e-40
3967.3525 -1399.203 -250 1.0141491e-39
3922.9128 -1394.1909 -240 1.1981831e-39
3909.0798 -1397.1312 -240 1.4747657e-39
3878.4731 -1389.1787 -230 1.4751273e-39
3831.0933 -1370.3335 -220 1.4751301e-39
3775.3267 -1346.0419 -210 1.4751273e-39
3744.7202 -1338.0895 -210 1.3832974e-39
3747.6606 -1351.9225 -210 1.4751273e-39
3733.8274 -1354.8629 -200 1.3832946e-39
3731.3213 -1377.0826 -210 1.382217e-39
3725.875 -1385.4694 -210 1.3825757e-39
3731.7556 -1413.1356 -210 1.1996208e-39
3765.7368 -1470.974 -220 1.1992579e-39
3760.2903 -1479.3607 -220 1.107428e-39
3802.6582 -1542.6455 -240 1.1070734e-39
3819.8657 -1589.5912 -240 1.1067077e-39
3789.2593 -1581.6388 -240 1.3818583e-39
3803.5266 -1614.7513 -250 1.1978215e-39
3820.7344 -1661.697 -250 1.0137932e-39
3843.3882 -1700.256 -260 1.0137918e-39
3871.9229 -1766.4812 -270 8.2940054e-40
3886.1904 -1799.5938 -280 9.2123603e-40
3863.9705 -1797.0876 -270 1.0130701e-39
3841.7507 -1794.5815 -270 9.208745e-40
3811.144 -1786.6292 -270 1.0134331e-39
3788.9243 -1784.123 -260 1.2896556e-39
3730.2173 -1745.9983 -250 1.3814911e-39
3705.0574 -1729.6592 -240 1.1056245e-39
3691.2241 -1732.5995 -240 1.0137946e-39
3671.9448 -1743.9265 -240 1.1978285e-39
3638.3979 -1722.141 -230 1.4740511e-39
3596.4644 -1694.9091 -220 1.5655236e-39
3500.8359 -1585.1128 -190 1.1052686e-39
3487.0029 -1588.0531 -190 1.0134317e-39
3464.7832 -1585.547 -180 1.105986e-39
3450.9502 -1588.4873 -180 1.4744084e-39
3437.1169 -1591.4276 -180 4.5154265e-39
3411.9568 -1575.0885 -180 6.2675022e-39
3395.1836 -1564.1957 -170 8.387989e-39
3412.3911 -1611.1414 -180 9.1241107e-39
3429.5986 -1658.087 -190 1.160871e-38
3435.4795 -1685.7533 -190 1.3544437e-38
3435.9136 -1721.8062 -190 1.353978e-38
3419.1401 -1710.9133 -190 1.0870783e-38
3405.3071 -1713.8536 -190 8.4744127e-39
3391.4741 -1716.7939 -190 6.5404681e-39
3377.6409 -1719.7344 -190 4.7901959e-39
3372.1946 -1728.121 -190 4.0555175e-39
3358.3613 -1731.0614 -180 7.1926857e-39
3355.8555 -1753.2811 -180 1.3371993e-38
3339.082 -1742.3883 -180 1.9832878e-38
3333.6355 -1750.775 -180 2.3509886e-38
4358.4253 -246.17999 -200 5.6196006e-39
4525.291 -283.00195 -240 5.3451633e-39
4550.4512 -299.34113 -240 5.2522572e-39
4539.5581 -316.11456 -240 5.2529691e-39
4542.4985 -329.94763 -240 4.6079668e-39
4559.2715 -340.84042 -250 4.332096e-39
4562.2119 -354.67352 -250 4.0555119e-39
4529.0996 -368.94086 -250 3.7792879e-39
4509.8203 -380.26788 -240 3.4097936e-39
4490.5405 -391.59491 -240 2.6729516e-39
4485.0942 -399.98163 -240 2.304518e-39
4451.9814 -414.24896 -240 2.1201337e-39
4446.5352 -422.63568 -240 2.1201337e-39
4413.4229 -436.90302 -230 2.3045236e-39
4483.0225 -458.2543 -250 2.1212127e-39
4494.3496 -477.53381 -250 2.3041649e-39
4550.1162 -501.82544 -270 2.3052383e-39
4604.2451 -620.44263 -290 5.8979685e-39
4568.1924 -620.87689 -280 5.2526047e-39
4322.1367 -687.63574 -250 5.7132144e-39
4341.8506 -712.36157 -250 6.0805661e-39
4314.1846 -718.24225 -250 6.0802004e-39
4247.5249 -710.724 -240 6.0805591e-39
4228.2456 -722.05103 -230 5.9887208e-39
4175.4189 -711.59253 -220 5.8972455e-39
4164.5264 -728.36591 -220 5.8043338e-39
4159.0801 -736.75262 -220 5.9883621e-39
4053.4272 -715.83557 -200 6.0798403e-39
4167.9009 -778.25189 -230 5.8961735e-39
4154.0679 -781.19226 -230 5.8036121e-39
3917.6025 -723.01898 -180 5.4373505e-39
3912.1562 -731.40564 -180 5.4362715e-39
3876.103 -731.8399 -170 5.4366331e-39
3848.437 -737.72052 -170 5.711062e-39
3881.9839 -759.5061 -180 5.8947301e-39
3996.4575 -821.92242 -210 5.7114193e-39
3737.3379 -725.19019 -150 5.7114165e-39
3692.8984 -720.17804 -140 5.4359114e-39
4594.6182 -1663.4706 -410 2.028657e-39
4172.7773 -1413.371 -300 1.4751273e-39
4203.8179 -1457.3763 -310 1.0141491e-39
4064.1841 -1378.6208 -280 9.219563e-40
4041.9644 -1376.1147 -280 1.0130701e-39
4022.6848 -1387.4418 -270 1.104907e-39
4008.8518 -1390.3821 -270 1.0127114e-39
3964.4121 -1385.37 -260 1.0130715e-39
3958.9658 -1393.7567 -260 1.0134317e-39
3928.3594 -1385.8042 -260 1.105986e-39
3909.0798 -1397.1312 -260 1.1989005e-39
3886.8599 -1394.6251 -250 1.1985432e-39
3859.1938 -1400.5057 -250 1.2914563e-39
3792.1001 -1356.9347 -230 1.3832918e-39
3778.2671 -1359.875 -230 1.6591612e-39
3764.4341 -1362.8153 -230 1.5676872e-39
3745.1543 -1374.1423 -220 1.7506394e-39
3731.3213 -1377.0826 -220 1.567683e-39
3728.8154 -1399.3025 -220 1.4758475e-39
3824.4436 -1509.0988 -250 1.2914577e-39
3782.5103 -1481.8668 -240 1.5662467e-39
3763.2305 -1493.1938 -240 1.290743e-39
3785.8848 -1531.7528 -250 1.382933e-39
3783.3784 -1553.9725 -250 1.2907374e-39
3761.1587 -1551.4666 -250 1.1052714e-39
3775.4263 -1584.5791 -250 1.1059832e-39
3792.6338 -1631.5248 -260 1.0137932e-39
3846.3286 -1714.0891 -280 1.1056245e-39
3871.9229 -1766.4812 -290 8.2939913e-40
3894.5771 -1805.0402 -300 8.2975787e-40
3863.9705 -1797.0876 -290 9.2123603e-40
3833.364 -1789.1353 -290 8.290418e-40
3811.144 -1786.6292 -280 9.2231643e-40
3788.9243 -1784.123 -280 1.0141491e-39
3730.2173 -1745.9983 -260 9.2231503e-40
3696.6707 -1724.2128 -250 1.0134345e-39
3674.4507 -1721.7067 -250 9.219591e-40
3669.0044 -1730.0934 -250 1.1059888e-39
3598.9705 -1672.6892 -230 1.0141561e-39
3514.6692 -1582.1725 -210 9.219591e-40
3509.2227 -1590.5592 -210 8.2976207e-40
3487.0029 -1588.0531 -200 1.0141519e-39
3461.8428 -1571.7139 -200 1.1059888e-39
3456.3965 -1580.1006 -200 1.2914563e-39
3437.1169 -1591.4276 -190 4.6076165e-39
3420.3435 -1580.5349 -190 6.452248e-39
3395.1836 -1564.1957 -180 8.4791099e-39
3412.3911 -1611.1414 -190 9.4914555e-39
3429.5986 -1658.087 -200 1.1518306e-38
3435.4795 -1685.7533 -210 1.2991996e-38
3435.9136 -1721.8062 -210 1.2897281e-38
3427.5269 -1716.3597 -210 1.0410525e-38
3405.3071 -1713.8536 -200 8.1978258e-39
3391.4741 -1716.7939 -200 5.9873027e-39
3377.6409 -1719.7344 -200 4.4221406e-39
3372.1946 -1728.121 -200 4.5161285e-39
3349.9746 -1725.615 -200 7.6540281e-39
3347.4688 -1747.8347 -200 1.3100438e-38
3330.6953 -1736.942 -190 2.0659757e-38
3316.8623 -1739.8823 -190 2.3509886e-38
4344.5918 -249.1203 -210 5.6206712e-39
4347.5322 -262.9534 -220 5.4377205e-39
4436.4116 -272.97769 -230 5.2533334e-39
4469.9585 -294.76324 -240 5.6199579e-39
4472.8984 -308.59634 -240 4.7927126e-39
4498.0586 -324.93549 -250 4.3313785e-39
4514.832 -335.82828 -260 4.1480719e-39
4495.5527 -347.1553 -250 3.9636778e-39
4529.0996 -368.94086 -260 3.871129e-39
4501.4336 -374.8215 -260 3.4105124e-39
4482.1538 -386.14853 -260 2.8566226e-39
4462.8745 -397.47552 -250 2.028657e-39
4451.9814 -414.24896 -250 2.0293744e-39
4446.5352 -422.63568 -250 2.2123266e-39
4427.2559 -433.96271 -250 2.3048823e-39
4474.6357 -452.80792 -260 2.3963577e-39
4516.5693 -480.03989 -270 2.3967206e-39
4572.3359 -504.33151 -290 2.5807504e-39
4544.6699 -510.21213 -280 2.6725817e-39
4380.4092 -689.70752 -270 5.8039666e-39
4383.3496 -703.54065 -270 5.8036163e-39
4364.0703 -714.86768 -270 5.7110606e-39
4358.624 -723.25439 -270 5.7135703e-39
4122.5928 -701.13397 -230 5.8046911e-39
4125.5332 -714.9671 -230 5.8950903e-39
4120.0869 -723.35376 -230 5.6192265e-39
4053.4272 -715.83557 -220 5.4369876e-39
4103.7476 -748.51392 -230 5.7114179e-39
4098.3013 -756.90063 -230 5.342641e-39
3917.6025 -723.01898 -190 5.2515257e-39
4045.9092 -782.495 -220 5.3433612e-39
4065.623 -807.22083 -230 5.4351925e-39
3792.6704 -713.42889 -170 5.6185034e-39
3954.5239 -794.69049 -210 5.0682121e-39
3974.2375 -819.41638 -210 5.5270308e-39
3938.1846 -819.85065 -210 5.2515229e-39
3715.1182 -722.68414 -160 5.0689295e-39
3695.8389 -734.01117 -150 5.6185034e-39
4581.5547 -1499.9795 -400 4.7912693e-39
4595.8218 -1533.0922 -410 4.6079584e-39
4484.2886 -1484.5089 -380 4.5143306e-39
4532.1025 -1539.407 -400 4.2373864e-39
4504.4365 -1545.2876 -400 3.5941722e-39
4527.0908 -1583.8466 -400 3.0410026e-39
4513.2578 -1586.7869 -400 2.5807448e-39
4519.1382 -1614.4531 -410 2.3967192e-39
4077.583 -1339.6276 -290 1.5673215e-39
4075.0769 -1361.8474 -300 1.1985432e-39
4055.7974 -1373.1744 -300 1.1985362e-39
4050.3511 -1381.5612 -290 9.219549e-40
4022.6848 -1387.4418 -290 8.2975927e-40
3992.0784 -1379.4894 -280 9.2159336e-40
3956.0254 -1379.9236 -280 7.3756504e-40
3942.1924 -1382.8639 -270 1.0137932e-39
3919.9727 -1380.3578 -270 1.1978201e-39
3909.0798 -1397.1312 -270 1.0141505e-39
3895.2466 -1400.0715 -270 1.1981789e-39
3892.7407 -1422.2914 -270 1.1981817e-39
3862.1343 -1414.3389 -260 1.2903787e-39
3884.7881 -1452.8978 -270 1.5666026e-39
3873.8955 -1469.6713 -270 1.7502764e-39
3753.541 -1379.5887 -240 1.6587983e-39
3722.9346 -1371.6362 -230 1.6587955e-39
3725.875 -1385.4694 -240 1.7499163e-39
3731.7556 -1413.1356 -240 1.4733322e-39
3720.8628 -1429.9089 -240 1.2896598e-39
3743.5168 -1468.4679 -250 1.1056273e-39
3794.2715 -1537.1992 -270 1.0145121e-39
3774.9917 -1548.5262 -270 9.219577e-40
3752.772 -1546.0201 -260 1.0137946e-39
3710.8384 -1518.7882 -250 1.0134331e-39
3744.8196 -1576.6266 -260 1.0137932e-39
3863.1021 -1724.9819 -300 1.0141533e-39
3880.3096 -1771.9275 -310 1.4740469e-39
3886.1904 -1799.5938 -310 2.0264962e-39
3863.9705 -1797.0876 -310 2.4871156e-39
3833.364 -1789.1353 -300 2.5800329e-39
3811.144 -1786.6292 -300 2.7637025e-39
3788.9243 -1784.123 -290 2.3967192e-39
3730.2173 -1745.9983 -280 1.9364614e-39
3705.0574 -1729.6592 -270 1.3840106e-39
3674.4507 -1721.7067 -270 9.230367e-40
3671.9448 -1743.9265 -270 1.0137946e-39
3559.543 -1623.2374 -230 1.0141533e-39
3514.6692 -1582.1725 -220 9.219591e-40
3500.8359 -1585.1128 -220 9.2231503e-40
3487.0029 -1588.0531 -220 1.1056301e-39
3461.8428 -1571.7139 -210 1.0137932e-39
3448.0098 -1574.6542 -210 1.2903759e-39
3434.1768 -1577.5946 -210 3.9658484e-39
3420.3435 -1580.5349 -200 6.1753051e-39
3395.1836 -1564.1957 -200 8.3869128e-39
3404.0044 -1605.6949 -200 9.8591562e-39
3421.2119 -1652.6406 -210 1.1793462e-38
3435.4795 -1685.7533 -220 1.3635206e-38
3435.9136 -1721.8062 -220 1.2896918e-38
3427.5269 -1716.3597 -220 1.0778576e-38
3405.3071 -1713.8536 -220 8.1052701e-39
3399.8608 -1722.2404 -220 5.8036303e-39
3377.6409 -1719.7344 -210 4.6047284e-39
3372.1946 -1728.121 -210 4.4239399e-39
3358.3613 -1731.0614 -210 7.9302549e-39
3355.8555 -1753.2811 -210 1.3928388e-38
3330.6953 -1736.942 -210 2.0291697e-38
3322.3086 -1731.4956 -200 2.3509886e-38
4344.5918 -249.1203 -230 5.3466038e-39
4361.3652 -260.01309 -230 5.5288385e-39
4378.1387 -270.90588 -240 5.0696638e-39
4389.4658 -290.18536 -240 4.9767451e-39
4428.459 -303.5842 -250 4.6997953e-39
4453.6191 -319.92337 -260 4.3310268e-39
4448.1729 -328.31006 -260 4.5161285e-39
4459.5 -347.58954 -260 4.0555161e-39
4462.4404 -361.42267 -260 3.7789264e-39
4443.1606 -372.74969 -260 3.1335654e-39
4437.7144 -381.13638 -260 2.489275e-39
4426.8213 -397.90979 -260 2.1208554e-39
4421.375 -406.29651 -260 2.2130468e-39
4424.3154 -420.12961 -260 2.3063173e-39
4405.0361 -431.45663 -260 2.397078e-39
4399.5898 -439.84332 -260 2.3048837e-39
4344.2573 -451.60461 -250 2.7647829e-39
4316.5908 -457.48523 -250 2.4899953e-39
4275.0918 -466.30618 -240 2.4899939e-39
3898.6577 -531.86169 -180 4.3288492e-39
3918.3716 -556.58752 -190 4.9738599e-39
4191.3242 -650.37952 -250 5.3419207e-39
4347.2969 -703.97491 -280 5.5270308e-39
4297.4111 -707.34943 -280 5.4359128e-39
4211.4722 -711.15826 -260 5.3444332e-39
4175.4189 -711.59253 -250 5.3440773e-39
4147.7529 -717.47314 -250 5.3437172e-39
4145.2471 -739.69293 -250 5.343357e-39
4061.814 -721.28198 -230 5.3433626e-39
4120.521 -759.40668 -250 5.1593315e-39
4106.688 -762.34698 -250 5.3430039e-39
4079.0217 -768.22766 -240 5.342278e-39
3934.376 -733.91174 -210 4.8834649e-39
4045.9092 -782.495 -240 4.9760151e-39
4074.0098 -812.66724 -250 5.1600434e-39
3809.4438 -724.32172 -180 5.1582539e-39
3954.5239 -794.69049 -220 5.0671401e-39
3974.2375 -819.41638 -230 5.2518873e-39
3737.3379 -725.19019 -170 4.7005114e-39
3692.8984 -720.17804 -160 5.1593301e-39
3679.0654 -723.11835 -160 5.0682093e-39
3747.0273 -838.79529 -190 5.4348366e-39
4595.8218 -1533.0922 -430 4.7012288e-39
4515.3291 -1528.5143 -420 5.0667772e-39
4060.8096 -1328.7349 -310 2.0272164e-39
4058.3035 -1350.9546 -310 2.0264934e-39
4039.0239 -1362.2816 -310 1.9346593e-39
4041.9644 -1376.1147 -310 1.7506296e-39
4014.2981 -1381.9954 -300 1.2900171e-39
3992.0784 -1379.4894 -300 9.2195209e-40
3953.085 -1366.0905 -290 1.0130701e-39
3942.1924 -1382.8639 -290 1.0134261e-39
3919.9727 -1380.3578 -290 1.1052672e-39
3909.0798 -1397.1312 -290 1.013789e-39
3903.6333 -1405.5179 -290 1.0137918e-39
3884.354 -1416.845 -280 9.219535e-40
3878.9075 -1425.2317 -280 1.1063476e-39
3884.7881 -1452.8978 -290 1.106349e-39
3873.8955 -1469.6713 -290 1.1985446e-39
3868.449 -1478.058 -290 1.3822128e-39
3865.9429 -1500.2778 -290 1.2896654e-39
3863.437 -1522.4976 -290 1.2903773e-39
3832.8303 -1514.5452 -290 1.0152281e-39
3818.9971 -1517.4855 -280 1.1059846e-39
3808.1045 -1534.2589 -280 1.0141491e-39
3802.6582 -1542.6455 -280 1.0134373e-39
3774.9917 -1548.5262 -280 1.19746e-39
3749.8318 -1532.187 -270 1.0134345e-39
3702.4517 -1513.3418 -260 1.198539e-39
3705.3921 -1527.1749 -260 1.0141505e-39
3863.1021 -1724.9819 -320 1.38221e-39
3860.5959 -1747.2017 -320 1.6591598e-39
3866.4766 -1774.8679 -320 1.8435469e-39
3847.1973 -1786.1949 -320 2.1190547e-39
3813.6504 -1764.4093 -310 2.4878345e-39
3791.4304 -1761.9033 -310 2.3045194e-39
3769.2107 -1759.3972 -300 2.2112546e-39
3727.2771 -1732.1653 -290 1.4765664e-39
3696.6707 -1724.2128 -290 1.3847365e-39
3674.4507 -1721.7067 -280 1.7531547e-39
3590.1494 -1631.1899 -260 1.5691208e-39
3556.6025 -1609.4044 -250 1.6598829e-39
3523.0557 -1587.6188 -240 1.3832946e-39
3500.8359 -1585.1128 -230 1.3832946e-39
3478.6162 -1582.6067 -230 1.1085042e-39
3453.4561 -1566.2676 -220 1.4758489e-39
3439.623 -1569.2079 -220 1.6602374e-39
3425.79 -1572.1482 -220 4.7009009e-39
3420.3435 -1580.5349 -220 6.2671392e-39
3403.5701 -1569.6421 -210 8.6634983e-39
3401.064 -1591.8619 -220 9.9520651e-39
3418.2717 -1638.8076 -220 1.1794892e-38
3435.4795 -1685.7533 -230 1.3633762e-38
3441.3599 -1713.4194 -240 1.2254075e-38
3427.5269 -1716.3597 -230 1.0224323e-38
3405.3071 -1713.8536 -230 7.1869151e-39
3399.8608 -1722.2404 -230 5.6188803e-39
3386.0276 -1725.1807 -230 4.0533567e-39
3380.5813 -1733.5674 -230 4.5168572e-39
3366.748 -1736.5077 -220 8.2976053e-39
3344.5283 -1734.0017 -220 1.4024182e-38
3327.7549 -1723.1089 -220 2.0199503e-38
3313.9219 -1726.0492 -210 2.3509886e-38
4344.5918 -249.1203 -240 5.529556e-39
4339.1455 -257.50702 -240 4.975313e-39
4350.4727 -276.7865 -250 4.9760263e-39
4358.8594 -282.23291 -250 4.700517e-39
4347.9668 -299.00629 -250 4.5164886e-39
4378.5732 -306.95877 -260 4.7005184e-39
4367.6807 -323.73218 -250 4.2409836e-39
4415.0605 -342.57739 -270 4.0555161e-39
4440.2207 -358.91656 -270 3.5941806e-39
4407.542 -409.23682 -270 2.5814678e-39
4410.4824 -423.06992 -280 2.6732991e-39
4382.8164 -428.95056 -270 2.7658521e-39
4205.0576 -408.90198 -240 3.0406425e-39
4246.9912 -436.13394 -250 2.9491727e-39
4210.9385 -436.56818 -240 3.3168665e-39
4222.2656 -455.84766 -240 3.5005389e-39
3904.1042 -523.47498 -190 5.0674918e-39
3912.491 -528.92139 -190 5.160765e-39
4096.5645 -612.68903 -240 5.4359128e-39
4113.3379 -623.58179 -240 5.3444374e-39
4102.4448 -640.35522 -240 5.4351953e-39
4266.8047 -699.39697 -280 5.5277441e-39
4177.9253 -689.37268 -260 5.3451521e-39
4189.252 -708.65222 -270 5.2515299e-39
4169.9727 -719.97925 -270 5.5284686e-39
4125.5332 -714.9671 -260 5.3433626e-39
4120.0869 -723.35376 -260 5.7114207e-39
4053.4272 -715.83557 -240 5.3440787e-39
4056.3677 -729.66864 -250 5.0674932e-39
4076.0815 -754.39453 -250 5.5270266e-39
4040.0286 -754.8288 -250 5.1593343e-39
4012.3623 -760.70941 -240 5.1593329e-39
4045.9092 -782.495 -250 5.067496e-39
4065.623 -807.22083 -260 5.1582539e-39
3840.0503 -732.27417 -200 5.1593301e-39
3954.5239 -794.69049 -240 5.4348338e-39
3957.4644 -808.52362 -240 5.3437228e-39
3745.7246 -730.6366 -190 5.1578952e-39
3715.1182 -722.68414 -180 5.4355583e-39
3695.8389 -734.01117 -180 5.1589686e-39
3732.7603 -805.68268 -190 5.2508055e-39
3783.0803 -838.36102 -210 5.0678519e-39
3786.0205 -852.19409 -210 5.0674974e-39
3823.0415 -1162.4028 -260 2.6722215e-39
3851.1421 -1192.5751 -260 1.9350222e-39
3935.4434 -1283.0919 -290 1.7499121e-39
3955.157 -1307.8177 -300 1.9343034e-39
3969.4243 -1340.9303 -310 1.7502708e-39
3950.1448 -1352.2573 -300 1.4740441e-39
3936.3118 -1355.1978 -300 9.2231223e-40
3942.1924 -1382.8639 -310 9.2159476e-40
3919.9727 -1380.3578 -300 1.0134317e-39
3917.4663 -1402.5776 -300 1.0134345e-39
3906.5737 -1419.3511 -300 1.1059832e-39
3884.354 -1416.845 -300 1.0141505e-39
3881.8477 -1439.0648 -300 1.1985404e-39
3893.1748 -1458.3442 -310 1.1981831e-39
3873.8955 -1469.6713 -310 1.1985432e-39
3871.3892 -1491.8911 -310 1.2903773e-39
3874.3296 -1505.7241 -310 1.1989005e-39
3880.2102 -1533.3904 -310 1.2896612e-39
3723.3689 -1407.6892 -270 1.1978257e-39
3720.8628 -1429.9089 -270 1.1971069e-39
3715.4165 -1438.2957 -270 1.0141505e-39
3741.0107 -1490.6877 -280 1.0134359e-39
3743.9512 -1504.5209 -280 9.219563e-40
3696.5713 -1485.6757 -270 1.1063406e-39
3671.4111 -1469.3364 -260 1.1974656e-39
3660.5183 -1486.1099 -270 1.1981803e-39
3863.1021 -1724.9819 -330 1.290736e-39
3868.9827 -1752.6481 -340 1.6584367e-39
3877.8037 -1794.1473 -350 1.8424707e-39
3844.2568 -1772.3618 -340 2.0272164e-39
3785.5498 -1734.2371 -320 2.3949186e-39
3771.7168 -1737.1774 -320 2.6718684e-39
3732.7236 -1723.7786 -310 2.7647815e-39
3718.8904 -1726.7189 -310 3.4094292e-39
3696.6707 -1724.2128 -300 4.2406248e-39
3643.4102 -1677.7014 -290 5.0703925e-39
3573.376 -1620.2971 -260 6.5451582e-39
3548.2158 -1603.958 -260 7.097616e-39
3523.0557 -1587.6188 -250 7.0061392e-39
3500.8359 -1585.1128 -240 5.9941425e-39
3478.6162 -1582.6067 -240 4.3339093e-39
3461.8428 -1571.7139 -240 2.9488168e-39
3439.623 -1569.2079 -230 2.1201309e-39
3434.1768 -1577.5946 -230 4.7934455e-39
3420.3435 -1580.5349 -230 6.5433688e-39
3406.5105 -1583.4752 -230 8.9382874e-39
3401.064 -1591.8619 -230 9.5843742e-39
3390.1714 -1608.6353 -230 1.1793457e-38
3415.7656 -1661.0273 -240 1.3632695e-38
3424.5864 -1702.5266 -250 1.2435935e-38
3419.1401 -1710.9133 -250 9.7640725e-39
3405.3071 -1713.8536 -240 7.2765954e-39
3399.8608 -1722.2404 -240 5.3422963e-39
3386.0276 -1725.1807 -240 3.9600821e-39
3375.1348 -1741.9541 -240 4.7927266e-39
3361.3018 -1744.8944 -240 8.5727544e-39
3352.915 -1739.448 -240 1.494003e-38
3327.7549 -1723.1089 -230 2.0932393e-38
3313.9219 -1726.0492 -230 2.3509886e-38
4225.1064 -231.14357 -230 5.8047037e-39
4286.3193 -247.04849 -240 5.2526146e-39
4303.0928 -257.94128 -250 4.9763892e-39
4342.0859 -271.34012 -260 4.6079654e-39
4322.8066 -282.66714 -260 4.6076109e-39
4325.7471 -296.50024 -260 4.5172089e-39
4342.5205 -307.39301 -260 4.7012372e-39
4345.4604 -321.2261 -260 4.515411e-39
4348.4009 -335.0592 -270 4.0558748e-39
4329.1211 -346.38623 -260 3.2253939e-39
4323.6748 -354.77295 -270 2.765143e-39
4171.0767 -351.06354 -230 2.6722243e-39
4104.8516 -379.59821 -220 3.0413642e-39
4121.625 -390.491 -230 3.3165133e-39
4138.3984 -401.38379 -230 3.3172308e-39
4171.9453 -423.16934 -240 3.5927387e-39
4152.6655 -434.49637 -240 3.5005403e-39
4147.2192 -442.88306 -240 3.4097824e-39
4016.8408 -441.67975 -210 3.86932e-39
3980.7881 -442.11398 -210 3.8711164e-39
3983.7283 -455.94708 -210 4.6079598e-39
3978.2817 -464.33377 -210 4.6997953e-39
3981.2222 -478.16687 -210 4.7916308e-39
3953.5559 -484.04752 -210 5.0674946e-39
3870.5574 -501.68942 -190 4.9763738e-39
3873.4976 -515.52252 -190 5.3433612e-39
3881.8843 -520.96887 -200 5.2522418e-39
3870.9917 -537.74231 -200 5.3444374e-39
3896.1519 -554.08148 -200 5.4369932e-39
4068.8979 -618.5697 -250 5.2518887e-39
4085.6714 -629.4624 -250 5.3440801e-39
4244.5845 -696.89093 -290 5.3437214e-39
4147.3188 -681.42023 -270 5.4359142e-39
4158.6455 -700.69971 -280 5.4362771e-39
4192.1924 -722.48529 -290 5.4366317e-39
4117.1465 -709.52069 -270 5.1596916e-39
3950.2808 -672.69873 -230 5.3433612e-39
3858.4614 -648.84131 -210 4.8841838e-39
4034.1479 -727.1626 -250 5.3430053e-39
4045.4749 -746.44208 -260 5.1593301e-39
4031.6418 -749.38239 -260 4.9760179e-39
3995.5889 -749.81665 -250 5.2522418e-39
4006.916 -769.09613 -260 4.9756619e-39
4018.2429 -788.37561 -260 5.1589728e-39
3959.9702 -786.30377 -250 5.34372e-39
3946.1372 -789.24414 -240 5.3430039e-39
3940.6909 -797.6308 -250 5.4355499e-39
3745.7246 -730.6366 -200 5.0682191e-39
3723.5049 -728.13049 -190 5.0671387e-39
3704.2256 -739.45752 -190 4.9753032e-39
3737.7722 -761.2431 -200 5.0674932e-39
3743.6528 -788.9093 -200 5.0678533e-39
3746.5933 -802.74237 -210 5.0674932e-39
3783.0803 -838.36102 -220 5.0682149e-39
3811.1807 -868.53326 -230 4.8827558e-39
3822.5078 -887.81274 -230 4.8841866e-39
3817.0615 -896.19946 -230 4.9753018e-39
3845.1619 -926.37177 -240 5.0674918e-39
3806.2681 -1151.51 -260 3.2268372e-39
3825.9819 -1176.236 -270 2.4889135e-39
3865.4092 -1225.6877 -290 1.6595185e-39
3921.6101 -1286.0322 -310 1.8421077e-39
3961.0376 -1335.484 -320 1.9339432e-39
3941.7581 -1346.811 -320 1.8421077e-39
3936.3118 -1355.1978 -320 1.2907318e-39
3942.1924 -1382.8639 -320 1.0137932e-39
3919.9727 -1380.3578 -320 9.2231083e-40
3917.4663 -1402.5776 -320 1.1059846e-39
3923.3472 -1430.2438 -320 1.1063448e-39
3859.1938 -1400.5057 -310 1.105986e-39
3878.9075 -1425.2317 -310 1.1981859e-39
3876.4014 -1447.4514 -320 1.1981845e-39
3857.1221 -1458.7784 -320 1.2903773e-39
3753.541 -1379.5887 -280 1.1985376e-39
3849.1694 -1489.385 -320 1.1978299e-39
3728.8154 -1399.3025 -280 1.1978243e-39
3706.5955 -1396.7964 -280 1.0137918e-39
3709.5356 -1410.6295 -280 1.0134331e-39
3687.3159 -1408.1234 -270 1.0137904e-39
3701.5835 -1441.236 -280 8.2940334e-40
3690.6904 -1458.0094 -280 9.2159757e-40
3676.8574 -1460.9497 -280 7.382825e-40
3671.4111 -1469.3364 -280 1.0134303e-39
3677.2917 -1497.0027 -280 1.198539e-39
3871.4888 -1730.4282 -350 1.4744084e-39
3916.7969 -1807.5461 -370 1.7509925e-39
3675.6543 -1591.3282 -300 2.0279339e-39
3729.3491 -1673.8926 -320 2.2112476e-39
3726.8428 -1696.1123 -320 2.5796714e-39
3721.3965 -1704.499 -320 2.9480909e-39
3707.5635 -1707.4393 -320 3.7767754e-39
3696.6707 -1724.2128 -320 4.2395472e-39
3587.2092 -1617.3568 -280 5.6224831e-39
3570.4358 -1606.4641 -280 7.1876522e-39
3548.2158 -1603.958 -270 7.5585871e-39
3523.0557 -1587.6188 -260 8.6624151e-39
3500.8359 -1585.1128 -260 8.66422e-39
3478.6162 -1582.6067 -260 8.2021614e-39
3461.8428 -1571.7139 -250 8.0199394e-39
3439.623 -1569.2079 -250 7.3788734e-39
3434.1768 -1577.5946 -250 7.9320556e-39
3420.3435 -1580.5349 -240 8.1117735e-39
3398.1238 -1578.0288 -240 9.1230303e-39
3392.6772 -1586.4155 -240 1.0225779e-38
3387.231 -1594.8022 -240 1.2252276e-38
3393.1116 -1622.4684 -240 1.2990558e-38
3421.6462 -1688.6936 -260 1.1976756e-38
3419.1401 -1710.9133 -260 9.3949341e-39
3405.3071 -1713.8536 -260 7.0000141e-39
3399.8608 -1722.2404 -260 5.2504537e-39
3386.0276 -1725.1807 -260 3.6852944e-39
3375.1348 -1741.9541 -260 4.7934441e-39
3361.3018 -1744.8944 -250 8.6674696e-39
3344.5283 -1734.0017 -250 1.5401723e-38
3327.7549 -1723.1089 -240 2.0202014e-38
3305.5352 -1720.6028 -240 2.3509886e-38
4216.7197 -225.69717 -240 5.343734e-39
4277.9326 -241.6021 -250 4.9760277e-39
4280.873 -255.4352 -260 4.7012372e-39
4297.6465 -266.32797 -260 4.7927196e-39
4278.3667 -277.655 -260 4.8849138e-39
4281.3071 -291.4881 -260 5.3440927e-39
4298.0806 -302.38086 -270 4.7012386e-39
4309.4077 -321.66034 -270 4.5154124e-39
4290.1279 -332.98737 -270 3.6860175e-39
4218.0225 -333.8559 -250 3.0413628e-39
4127.0713 -382.10431 -240 3.3168693e-39
4143.8447 -392.99707 -250 3.4087062e-39
4146.7852 -406.83017 -250 3.4094236e-39
4155.1719 -412.27655 -250 3.3175881e-39
4152.6655 -434.49637 -250 3.593096e-39
4147.2192 -442.88306 -250 3.9622331e-39
4150.1597 -456.71616 -260 3.9636694e-39
4016.8408 -441.67975 -230 4.2395402e-39
3975.3416 -450.5007 -220 4.7912679e-39
3969.895 -458.88739 -220 4.7916294e-39
3978.2817 -464.33377 -220 4.8841838e-39
3989.6089 -483.61328 -230 4.5168418e-39
3953.5559 -484.04752 -220 5.067496e-39
3850.8438 -476.96356 -200 5.0685806e-39
3862.1707 -496.24304 -200 5.0682177e-39
3856.7241 -504.62973 -200 5.6188677e-39
3859.6646 -518.46283 -210 5.0682163e-39
3862.605 -532.2959 -210 5.252246e-39
3935.145 -567.48035 -230 5.345878e-39
4060.5112 -613.12329 -260 5.3440843e-39
4233.2578 -677.61145 -300 5.1604091e-39
4213.978 -688.93848 -300 5.2526033e-39
4147.3188 -681.42023 -290 5.3429983e-39
4133.4854 -684.3606 -280 5.5284686e-39
4183.8057 -717.03888 -300 5.2515257e-39
4103.3135 -712.461 -280 5.434838e-39
3941.894 -667.25232 -240 4.9763808e-39
3936.4478 -675.63904 -240 5.0678576e-39
4008.9878 -710.82343 -260 5.6192251e-39
4045.4749 -746.44208 -270 5.3437214e-39
4031.6418 -749.38239 -270 5.618509e-39
3995.5889 -749.81665 -260 5.0682135e-39
3976.3096 -761.14368 -260 5.5273952e-39
3987.6365 -780.42316 -270 5.2526005e-39
3934.8101 -769.9646 -250 5.343364e-39
3898.7573 -770.39886 -250 5.2522488e-39
3806.9377 -746.5415 -220 5.3437256e-39
3762.498 -741.52936 -210 5.1600546e-39
3748.665 -744.46967 -210 5.3440829e-39
3743.2188 -752.85638 -210 5.0685778e-39
3754.5457 -772.13586 -220 5.2522432e-39
3743.6528 -788.9093 -220 4.9753032e-39
3738.2065 -797.29596 -220 4.7916336e-39
3774.6936 -832.91461 -230 5.3437214e-39
3794.4072 -857.6405 -240 5.1596945e-39
3749.9678 -852.62836 -230 4.8845481e-39
3786.4551 -888.24701 -240 5.1604077e-39
3806.1685 -912.9729 -250 5.2518831e-39
3809.2085 -1165.3433 -280 4.3310142e-39
3831.8623 -1203.9021 -290 4.1455495e-39
3854.5166 -1242.4611 -300 3.6849301e-39
3961.0376 -1335.484 -330 3.0420802e-39
3933.3716 -1341.3646 -330 3.0413642e-39
3944.6982 -1360.644 -330 2.7654962e-39
3958.9658 -1393.7567 -340 2.5811063e-39
3939.6863 -1405.0837 -340 2.0272221e-39
3909.0798 -1397.1312 -330 1.56696e-39
3755.1787 -1285.2632 -290 1.1063476e-39
3761.0593 -1312.9293 -290 9.2231503e-40
3860.0623 -1472.6116 -330 1.1059902e-39
3865.9429 -1500.2778 -340 1.1978201e-39
3855.0503 -1517.0511 -340 1.1978229e-39
3631.9836 -1419.8846 -280 8.30118e-40
3634.9238 -1433.7178 -280 9.2231503e-40
3660.5183 -1486.1099 -290 1.2900157e-39
3626.9714 -1464.3243 -280 1.6577193e-39
3537.2236 -1382.1942 -250 1.565881e-39
3512.498 -1401.908 -250 2.0275794e-39
3324.1816 -1196.1486 -180 2.3038061e-39
3594.7275 -1550.6974 -290 3.0413684e-39
3699.1768 -1701.993 -330 4.1466285e-39
3696.6707 -1724.2128 -330 4.7930839e-39
3587.2092 -1617.3568 -300 5.8987182e-39
3562.0491 -1601.0177 -290 6.6391489e-39
3548.2158 -1603.958 -290 7.6504296e-39
3523.0557 -1587.6188 -280 8.1121224e-39
3492.4492 -1579.6664 -270 8.5723663e-39
3475.6758 -1568.7736 -270 7.8340978e-39
3453.4561 -1566.2676 -260 8.2961521e-39
3439.623 -1569.2079 -260 8.84897e-39
3434.1768 -1577.5946 -260 9.8616912e-39
3420.3435 -1580.5349 -260 9.3106726e-39
3406.5105 -1583.4752 -250 9.2173938e-39
3392.6772 -1586.4155 -250 1.0228656e-38
3387.231 -1594.8022 -250 1.2714324e-38
3384.7249 -1617.022 -250 1.3265703e-38
3413.2595 -1683.2472 -270 1.1516138e-38
3419.1401 -1710.9133 -270 8.8421246e-39
3405.3071 -1713.8536 -270 6.1727716e-39
3399.8608 -1722.2404 -270 4.9745885e-39
3386.0276 -1725.1807 -270 3.5001857e-39
3375.1348 -1741.9541 -270 5.1615035e-39
3361.3018 -1744.8944 -270 8.8504203e-39
3344.5283 -1734.0017 -260 1.5401014e-38
3327.7549 -1723.1089 -260 2.0843786e-38
3305.5352 -1720.6028 -250 2.341805e-38
4189.0537 -231.57782 -250 5.0671471e-39
4250.2666 -247.48273 -260 4.6076095e-39
4258.6533 -252.92912 -260 4.7923525e-39
4253.207 -261.31583 -260 4.8852698e-39
4242.314 -278.08923 -260 4.9778311e-39
4259.0874 -288.98203 -270 4.7934343e-39
4253.6411 -297.36871 -270 4.515774e-39
4234.3613 -308.69574 -270 3.8707647e-39
4215.082 -320.02277 -260 3.1328451e-39
4195.8027 -331.34979 -260 2.8562554e-39
4154.3032 -340.17078 -250 2.8573302e-39
4140.4702 -343.11108 -250 3.1331969e-39
4151.7974 -362.39056 -260 3.4094236e-39
4124.1309 -368.27118 -250 3.3172308e-39
4104.8516 -379.59821 -250 3.3172322e-39
4135.458 -387.55066 -260 3.4105054e-39
4124.5654 -404.3241 -260 3.8700402e-39
4163.5586 -417.72293 -270 3.7789264e-39
4144.2788 -429.04996 -260 4.1477019e-39
3994.6211 -439.17368 -230 5.0660583e-39
3958.5681 -439.60791 -220 4.8834663e-39
3969.895 -458.88739 -230 5.0671359e-39
3978.2817 -464.33377 -230 4.9760207e-39
3967.3892 -481.10721 -230 5.3430039e-39
3953.5559 -484.04752 -230 5.1604077e-39
3917.5029 -484.48175 -220 5.0678604e-39
3906.6104 -501.25519 -220 5.1614867e-39
3892.7773 -504.1955 -220 5.4359198e-39
3895.7175 -518.02856 -220 5.1596916e-39
3876.438 -529.35559 -220 5.1600504e-39
3884.8247 -534.802 -220 5.3440871e-39
3935.145 -567.48035 -240 5.3447934e-39
4191.3242 -650.37952 -310 5.7110648e-39
4155.271 -650.81372 -300 5.2526019e-39
4158.2114 -664.64685 -300 5.528107e-39
4161.1519 -678.47992 -300 5.4355541e-39
4141.8721 -689.80695 -300 5.2522418e-39
4183.8057 -717.03888 -310 5.4362729e-39
4133.9199 -720.41345 -300 5.0678576e-39
3925.1206 -656.35956 -250 5.0675016e-39
3905.8413 -667.68658 -250 5.4355555e-39
3917.1682 -686.96606 -250 5.3430067e-39
3920.1084 -700.79913 -250 5.251167e-39
3897.8887 -698.29309 -250 4.9767395e-39
3948.209 -730.97144 -260 5.3433654e-39
3951.1494 -744.8045 -270 5.0671415e-39
3996.0232 -785.86957 -280 5.6192237e-39
3934.8101 -769.9646 -270 5.2515285e-39
3881.9839 -759.5061 -250 5.2526047e-39
3798.551 -741.09509 -230 5.2526019e-39
3745.7246 -730.6366 -220 5.2515299e-39
3743.2188 -752.85638 -220 5.0674946e-39
3771.3191 -783.02863 -230 5.2518901e-39
3768.813 -805.24847 -240 5.34372e-39
3788.5269 -829.9743 -240 5.3437256e-39
3791.467 -843.80743 -250 5.3444458e-39
3802.7939 -863.08691 -250 5.3433612e-39
3800.8218 -1159.8967 -290 4.2402591e-39
3831.8623 -1203.9021 -310 4.2388214e-39
3846.1299 -1237.0148 -310 3.9622387e-39
3891.0037 -1278.0797 -330 3.6856546e-39
3905.271 -1311.1924 -340 3.5012605e-39
3927.925 -1349.7513 -340 3.409425e-39
3950.5791 -1388.3103 -360 2.9488112e-39
3840.7827 -1483.9386 -340 1.0145079e-39
3818.563 -1481.4325 -340 1.105986e-39
3631.9836 -1419.8846 -290 8.2940194e-40
3626.5371 -1428.2714 -290 7.3792657e-40
3632.418 -1455.9376 -300 1.1056231e-39
3618.5847 -1458.8779 -300 1.2903759e-39
3556.9375 -1406.92 -280 1.6584367e-39
3523.3906 -1385.1345 -260 1.8421105e-39
3301.5273 -1157.5896 -180 1.9346663e-39
3307.4082 -1185.2557 -190 2.0272193e-39
3710.5037 -1721.2725 -350 3.9622443e-39
3747.425 -1792.944 -370 5.4373701e-39
3702.5513 -1751.879 -350 6.5429988e-39
3573.376 -1620.2971 -310 7.4649579e-39
3570.8701 -1642.517 -310 8.2021544e-39
3506.2825 -1576.7261 -290 8.5698692e-39
3472.7356 -1554.9406 -280 8.2028691e-39
3467.2891 -1563.3271 -280 7.0054161e-39
3453.4561 -1566.2676 -270 7.466753e-39
3439.623 -1569.2079 -270 7.8344607e-39
3425.79 -1572.1482 -270 9.4936233e-39
3420.3435 -1580.5349 -270 9.6791048e-39
3406.5105 -1583.4752 -270 1.0321948e-38
3392.6772 -1586.4155 -260 1.1244251e-38
3378.8442 -1589.3558 -260 1.2898365e-38
3376.3381 -1611.5757 -270 1.2988399e-38
3404.873 -1677.8008 -280 1.0870059e-38
3419.1401 -1710.9133 -290 8.6588012e-39
3405.3071 -1713.8536 -290 5.8951057e-39
3399.8608 -1722.2404 -280 4.6980016e-39
3386.0276 -1725.1807 -280 3.5012633e-39
3375.1348 -1741.9541 -280 5.5299301e-39
3361.3018 -1744.8944 -280 9.4043074e-39
3344.5283 -1734.0017 -270 1.5403517e-38
3327.7549 -1723.1089 -270 2.0750157e-38
3305.5352 -1720.6028 -270 2.3509886e-38
4091.7876 -216.10715 -230 4.8845593e-39
4180.667 -226.13144 -260 4.8845425e-39
4183.6069 -239.96452 -260 4.9767479e-39
4191.9937 -245.41092 -260 5.3448074e-39
4181.1011 -262.18433 -260 5.2533348e-39
4211.7075 -270.13678 -270 5.2518985e-39
4223.0347 -289.41626 -270 4.5161369e-39
4209.2012 -292.35657 -270 4.0558804e-39
4176.0889 -306.62393 -270 3.3193846e-39
4170.6426 -315.01062 -270 2.9495259e-39
4159.7495 -331.78406 -270 2.672939e-39
4123.6968 -332.21829 -260 3.1335598e-39
4118.2505 -340.60501 -260 3.5927359e-39
4121.1904 -354.43811 -260 3.5930988e-39
