# .PCD v0.7 - Point Cloud Data file format
VERSION 0.7
FIELDS x y z rgb
SIZE 4 4 4 4
TYPE F F F F
COUNT 1 1 1 1
WIDTH 1248
HEIGHT 1
VIEWPOINT 0 0 0 1 0 0 0
POINTS 1248
DATA ascii
5074.1943 -595.24976 810 7.005056e-39
5110.5732 -621.26093 820 7.7411567e-39
5692.7266 -845.08539 980 1.5302975e-38
5776.9253 -888.79517 1000 1.4376722e-38
5791.9863 -921.5545 1000 1.3826393e-38
5816.9238 -955.87817 1010 1.2535704e-38
5616.4727 -1582.2322 990 1.4379207e-38
5620.0918 -1623.3041 990 6.8174109e-39
5607.0864 -1641.4934 980 7.7389931e-39
5556.1377 -1643.5486 970 6.1799336e-39
5477.1226 -1631.0339 950 5.7132312e-39
4920.9805 -1370.8306 800 4.0555147e-39
4899.6621 -1377.5787 800 3.1339185e-39
4876.7798 -1394.2039 790 2.3974339e-39
4855.4619 -1400.952 790 2.6722285e-39
4842.4561 -1419.1415 790 2.580749e-39
4812.8252 -1414.4484 780 2.2119706e-39
4771.7539 -1418.0679 770 2.3048795e-39
4750.4355 -1424.8162 760 7.5560508e-39
4747.3066 -1444.5698 760 9.5825497e-39
4744.1777 -1464.3236 760 8.7538597e-39
4741.0493 -1484.0774 760 9.3084796e-39
4709.8545 -1489.2612 760 9.030099e-39
4706.7256 -1509.015 760 1.4658713e-38
4749.8525 -1556.3442 770 1.6221002e-38
4764.9136 -1589.1036 770 1.5211877e-38
4779.9741 -1621.8629 780 1.5300841e-38
4758.6562 -1628.6112 770 1.475126e-38
4710.8359 -1610.9126 760 1.5115368e-38
4687.9536 -1627.5376 760 1.4288488e-38
4686.3892 -1637.4146 760 1.4562916e-38
4665.0713 -1644.1627 750 5.9905397e-39
4752.8896 -1728.9443 780 6.5429988e-39
4776.2627 -1773.1449 780 7.0032553e-39
4692.064 -1729.4352 760 5.3498563e-39
4698.812 -1750.7533 760 4.6104835e-39
4677.4941 -1757.5015 760 8.8514769e-39
4664.4883 -1775.6909 760 5.8072359e-39
4653.0469 -1784.0034 750 8.8478798e-39
4645.9292 728.03741 640 2.3509814e-38
4718.1963 736.84082 650 2.3509852e-38
4726.5088 725.3996 660 2.3509876e-38
4756.1392 720.70654 660 2.3509886e-38
4753.0107 700.95276 660 2.3509886e-38
4730.1279 684.3277 660 2.3509886e-38
5165.2021 554.6709 770 2.3509886e-38
5224.4629 545.28485 780 2.3509856e-38
5218.2061 505.77728 780 2.3509779e-38
5014.9014 436.73102 740 2.3509755e-38
5001.896 418.54156 730 2.2947249e-38
4988.8906 400.35217 730 2.1747646e-38
4995.6387 379.03406 730 2.0464811e-38
4994.0742 369.15717 730 1.7700768e-38
4990.9453 349.40338 730 1.2625356e-38
4976.376 321.3371 730 1.7881542e-38
5004.4419 306.76718 740 2.1570821e-38
4254.1978 172.47787 560 2.0551991e-38
4252.6333 162.60098 560 2.3509858e-38
4259.3818 141.28287 560 2.3509851e-38
4267.6943 129.84164 570 2.3484903e-38
4203.7397 109.59708 550 2.3509886e-38
4180.8574 92.971985 550 2.3509886e-38
4179.293 83.095093 550 2.3509886e-38
3784.1257 -46.684952 460 1.0505233e-38
3782.5615 -56.561836 460 6.5447869e-39
3790.874 -68.003067 460 5.4355625e-39
3789.3096 -77.879951 460 2.3508704e-38
3787.7451 -87.756836 460 1.6593347e-38
3319.3296 -104.68896 350 1.6314622e-38
3307.8882 -113.0015 350 1.6963235e-38
3256.9395 -115.05666 330 1.6773828e-38
3357.2727 -120.82321 360 1.5396639e-38
4893.4653 -202.13773 730 1.336582e-38
4880.46 -220.32715 730 1.3644208e-38
4887.208 -241.64526 730 1.3923325e-38
4874.2021 -259.83469 730 1.862383e-38
4890.8271 -282.71713 740 2.0924406e-38
4897.5757 -304.03525 740 1.8988649e-38
4896.0117 -313.91214 740 1.9725144e-38
4871.5645 -340.41409 730 2.0003168e-38
4998.3994 -370.62744 760 2.046521e-38
5046.2197 -388.32605 780 2.0280846e-38
4952.6348 -403.87762 750 2.0835425e-38
4919.8755 -418.93835 750 2.0837584e-38
4906.8701 -437.12778 740 2.1754513e-38
4903.7412 -456.88153 740 2.1113815e-38
4900.6123 -476.63531 740 2.1479722e-38
4897.4839 -496.38907 740 1.9634747e-38
4904.2319 -517.70715 750 1.2624629e-38
5009.749 -554.6687 770 1.2534585e-38
5065.8818 -583.80859 790 1.1885643e-38
5084.0713 -596.81415 790 7.5553473e-39
5120.4502 -622.82532 800 7.6500428e-39
5175.0186 -661.84198 820 6.6359161e-39
5672.9727 -841.95673 950 1.4745136e-38
5776.9253 -888.79517 970 1.4652228e-38
5791.9863 -921.5545 980 1.4654722e-38
5624.7852 -1593.6733 960 1.6223841e-38
5658.0352 -1639.4384 970 7.9237459e-39
5635.1528 -1656.0634 970 8.5680279e-39
5603.958 -1661.2472 960 8.477284e-39
5515.0659 -1647.1681 940 4.1469873e-39
4920.9805 -1370.8306 780 4.0548e-39
4889.7852 -1376.0144 780 2.8566142e-39
4868.4673 -1382.7626 770 2.7658577e-39
4855.4619 -1400.952 770 2.3045236e-39
4832.5791 -1417.5771 760 2.3038061e-39
4811.2612 -1424.3253 760 2.3034488e-39
4771.7539 -1418.0679 750 2.5800301e-39
4758.748 -1436.2573 750 7.7382882e-39
4747.3066 -1444.5698 740 9.5843448e-39
4754.0547 -1465.8879 750 8.3868834e-39
4741.0493 -1484.0774 740 9.2137742e-39
4709.8545 -1489.2612 740 9.39852e-39
4706.7256 -1509.015 740 1.5392302e-38
4723.3506 -1531.8975 740 1.5670342e-38
4736.8472 -1574.5337 750 1.5669621e-38
4761.7852 -1608.8574 750 1.5484513e-38
4740.4668 -1615.6056 750 1.5392672e-38
4710.8359 -1610.9126 740 1.5117519e-38
4634.9497 -1578.644 720 1.4472875e-38
4668.2002 -1624.4089 730 1.3642048e-38
4655.1943 -1642.5984 730 1.2908445e-38
4724.8232 -1714.3744 750 1.2169791e-38
4767.9502 -1761.7037 760 1.1615542e-38
4692.064 -1729.4352 740 1.0417724e-38
4688.9355 -1749.189 740 7.9313297e-39
4675.9297 -1767.3783 740 9.6794369e-39
4664.4883 -1775.6909 740 8.204681e-39
4662.9238 -1785.5677 740 7.1919472e-39
4662.5542 705.15497 630 2.3509886e-38
4713.5029 707.21014 640 2.3509886e-38
4354.7148 551.41895 560 2.3509886e-38
4351.5859 531.66516 560 2.3509886e-38
4317.2622 506.72754 550 2.3509886e-38
5214.5859 546.84918 760 2.3509876e-38
5180.2627 521.91156 750 2.3509811e-38
5175.5693 492.28094 750 2.3509782e-38
5026.3428 445.04358 720 2.3509767e-38
5001.896 418.54156 710 2.3504751e-38
4998.7676 398.78784 710 2.2124317e-38
4995.6387 379.03406 710 2.1663699e-38
4994.0742 369.15717 720 1.7242316e-38
4990.9453 349.40338 720 1.2903368e-38
4976.376 321.3371 710 1.9170471e-38
4994.5649 308.33151 720 2.3043065e-38
4285.3926 177.66171 560 2.3509752e-38
4272.3872 159.47229 560 2.3509886e-38
4270.8228 149.59543 550 2.3509886e-38
4330.084 140.20935 570 2.0981643e-38
4190.7344 91.407639 540 2.3491785e-38
4179.293 83.095093 540 2.3509886e-38
3784.1257 -46.684952 450 1.0228649e-38
3772.6846 -54.997498 450 6.4507906e-39
3790.874 -68.003067 450 4.8831118e-39
3789.3096 -77.879951 450 2.3509776e-38
3787.7451 -87.756836 450 1.6959631e-38
3319.3296 -104.68896 340 1.6680892e-38
3268.3809 -106.74412 330 1.7052191e-38
3266.8164 -116.621 330 1.4932794e-38
3357.2727 -120.82321 350 1.5118965e-38
4893.4653 -202.13773 710 1.2445306e-38
4890.3369 -221.89149 710 1.299993e-38
4887.208 -241.64526 710 1.594623e-38
4874.2021 -259.83469 710 1.8901487e-38
4900.7041 -284.28149 720 2.0557784e-38
4897.5757 -304.03525 720 1.8435121e-38
4896.0117 -313.91214 720 1.8991893e-38
4861.6875 -338.84973 710 1.9728745e-38
5088.856 -374.82965 770 2.0186129e-38
5056.0967 -389.89038 760 2.0559567e-38
4962.5117 -405.44196 740 2.0925842e-38
4919.8755 -418.93835 730 2.0560634e-38
4906.8701 -437.12778 730 2.1477211e-38
4903.7412 -456.88153 730 2.1112736e-38
4900.6123 -476.63531 720 2.0837595e-38
4897.4839 -496.38907 730 1.9270634e-38
4904.2319 -517.70715 730 1.2809379e-38
4999.8721 -553.10437 750 1.2440952e-38
5075.7588 -585.37292 770 1.087437e-38
5103.8252 -599.94281 780 7.0043441e-39
5148.5161 -637.3952 790 7.6486009e-39
5214.5254 -668.09937 800 6.8188641e-39
5653.2188 -838.82806 910 1.3917886e-38
5757.1719 -885.66644 940 1.3918243e-38
5791.9863 -921.5545 950 1.4654007e-38
5644.5391 -1596.8021 940 1.621952e-38
5687.666 -1644.1313 950 8.2914564e-39
5645.0293 -1657.6277 940 8.476205e-39
5612.2705 -1672.6885 940 7.4631489e-39
5515.0659 -1647.1681 910 3.962603e-39
4920.9805 -1370.8306 760 3.7789306e-39
4889.7852 -1376.0144 760 2.3038061e-39
4868.4673 -1382.7626 750 2.672946e-39
4845.585 -1399.3877 750 2.4889149e-39
4834.1436 -1407.7002 740 2.2126923e-39
4811.2612 -1424.3253 740 2.1204939e-39
4771.7539 -1418.0679 730 2.120138e-39
4758.748 -1436.2573 730 7.372377e-39
4747.3066 -1444.5698 730 9.4921534e-39
4744.1777 -1464.3236 730 7.8340796e-39
4741.0493 -1484.0774 720 9.6754656e-39
4709.8545 -1489.2612 720 9.0315368e-39
4696.8486 -1507.4507 720 1.4472158e-38
4738.4116 -1564.6569 730 1.6039119e-38
4761.7852 -1608.8574 730 1.5393754e-38
4732.1543 -1604.1643 730 1.4842384e-38
4692.6465 -1597.907 720 1.4842012e-38
4679.6411 -1616.0964 720 1.419594e-38
4704.5786 -1650.42 720 1.327649e-38
4673.3838 -1655.604 720 1.4101224e-38
4734.7002 -1715.9387 730 1.2631128e-38
4767.9502 -1761.7037 740 1.299596e-38
4692.064 -1729.4352 720 1.2078669e-38
4688.9355 -1749.189 720 1.1430072e-38
4675.9297 -1767.3783 720 1.032409e-38
4674.3652 -1777.2552 720 9.4932562e-39
4661.3599 -1795.4447 720 5.8998085e-39
4750.9551 751.90155 630 2.3509886e-38
4747.8267 732.14777 630 2.3509886e-38
4734.8213 713.95831 620 2.3509886e-38
4356.2793 561.29584 550 2.3509886e-38
4343.2734 543.10638 540 2.3509886e-38
4353.1504 541.54205 550 2.3509886e-38
4371.3398 528.5365 550 2.3509886e-38
4389.5293 515.53094 550 2.3509886e-38
4387.9648 505.65405 550 2.3509886e-38
4353.6411 480.71643 550 2.3509886e-38
4361.9536 469.27521 550 2.3509886e-38
4424.3438 479.64288 560 2.3509886e-38
5178.6982 512.03467 730 2.3509818e-38
5196.8877 499.02911 740 2.3509806e-38
5026.3428 445.04358 700 2.3509768e-38
5001.896 418.54156 700 2.3509399e-38
4998.7676 398.78784 700 2.350223e-38
4995.6387 379.03406 700 2.3044834e-38
4994.0742 369.15717 700 1.7235154e-38
4989.3809 339.52652 700 1.3178167e-38
4984.6885 309.89587 700 2.2309096e-38
4270.8228 149.59543 540 7.2783933e-39
4382.5972 152.14139 570 9.4885731e-39
4202.1753 99.720184 530 1.0321562e-38
4199.0469 79.966415 530 2.2949446e-38
3784.1257 -46.684952 440 1.0783248e-38
3772.6846 -54.997498 440 6.8174151e-39
3792.4382 -58.126183 440 4.514695e-39
3790.874 -68.003067 440 2.3509416e-38
3789.3096 -77.879951 440 1.604307e-38
3329.2065 -106.2533 340 1.6407893e-38
3268.3809 -106.74412 320 1.7790117e-38
3266.8164 -116.621 320 1.5574934e-38
3357.2727 -120.82321 350 1.5574908e-38
3375.4622 -133.82878 350 1.4840949e-38
4883.5884 -200.57338 690 1.2629323e-38
4890.3369 -221.89149 690 1.3458377e-38
4887.208 -241.64526 690 1.5119334e-38
4874.2021 -259.83469 690 1.8897187e-38
4900.7041 -284.28149 700 2.1108437e-38
4897.5757 -304.03525 700 1.8161057e-38
4894.4473 -323.789 700 1.9267768e-38
4861.6875 -338.84973 690 1.963511e-38
5078.979 -373.26532 740 2.0279743e-38
5046.2197 -388.32605 730 2.0648186e-38
4952.6348 -403.87762 710 2.0467368e-38
4919.8755 -418.93835 710 2.0653201e-38
4906.8701 -437.12778 710 2.1204918e-38
4903.7412 -456.88153 710 2.1939263e-38
4900.6123 -476.63531 710 2.1295338e-38
4907.3604 -497.9534 710 2.0370862e-38
4904.2319 -517.70715 710 1.2624989e-38
4989.9951 -551.54004 730 1.2164373e-38
5075.7588 -585.37292 750 1.151758e-38
5123.5786 -603.07153 760 7.5542627e-39
5207.7773 -646.78125 780 7.7407993e-39
5263.9102 -675.92108 790 6.9121289e-39
5623.5884 -834.13501 880 1.3824978e-38
5717.6641 -879.40912 900 1.3456547e-38
5782.1094 -919.99017 920 1.4654007e-38
5652.8516 -1608.2433 910 9.5807294e-39
5695.9785 -1655.5725 930 8.7517073e-39
5663.2188 -1670.6333 920 8.8456895e-39
5650.2139 -1688.8228 920 6.8166949e-39
5543.1318 -1661.738 890 3.8714738e-39
4920.9805 -1370.8306 740 3.8696815e-39
4879.9082 -1374.4501 730 2.3041649e-39
4858.5903 -1381.1982 730 2.7651374e-39
4845.585 -1399.3877 720 2.4889163e-39
4824.2666 -1406.1359 720 2.3038061e-39
4802.9482 -1412.884 720 1.9368257e-39
4771.7539 -1418.0679 710 2.3956416e-39
4758.748 -1436.2573 710 7.1879843e-39
4747.3066 -1444.5698 710 9.5825497e-39
4744.1777 -1464.3236 710 7.2823365e-39
4741.0493 -1484.0774 700 9.3070418e-39
4709.8545 -1489.2612 700 9.3988773e-39
4706.7256 -1509.015 700 1.4563268e-38
4649.5195 -1550.5778 690 1.4842019e-38
4628.2012 -1557.3259 680 1.5301197e-38
4606.8833 -1564.0741 680 1.4382475e-38
4691.5732 -1668.6095 700 1.3550926e-38
4752.8896 -1728.9443 720 1.3458017e-38
4786.1396 -1774.7092 730 1.2446739e-38
4692.064 -1729.4352 700 1.2075795e-38
4698.812 -1750.7533 700 1.1799571e-38
4685.8066 -1768.9427 700 1.0877626e-38
4674.3652 -1777.2552 700 9.5861707e-39
4661.3599 -1795.4447 700 7.9291731e-39
4163.9253 561.3877 490 9.9581916e-39
4152.4839 553.0752 490 2.3509844e-38
4041.2002 489.70355 460 2.3509859e-38
4147.791 523.44452 490 2.3509886e-38
4242.9404 548.87299 510 2.3509886e-38
4338.0898 574.30139 530 2.3509886e-38
4334.9609 554.54767 530 2.3509886e-38
4343.2734 543.10638 530 2.3509886e-38
4351.5859 531.66516 530 2.3509886e-38
4350.0215 521.78827 530 2.3509886e-38
4337.0161 503.59888 530 2.3509886e-38
4324.0107 485.40942 530 2.3509886e-38
4322.4463 475.53259 530 2.3509886e-38
4319.3174 455.77881 530 2.3509886e-38
4307.876 447.46625 530 2.3509886e-38
4304.7476 427.71252 530 2.3509886e-38
4545.9951 480.62451 570 2.3509886e-38
5190.1396 520.34723 710 2.350983e-38
5208.3291 507.34167 720 2.3509814e-38
5016.4658 446.60791 680 2.3509792e-38
5001.896 418.54156 680 2.3509786e-38
4998.7676 398.78784 680 2.3509755e-38
4985.7617 380.59839 680 2.3506539e-38
4992.5098 359.28027 680 1.631644e-38
4979.5044 341.09085 680 1.3178524e-38
4973.2471 301.58334 670 2.2770074e-38
4919.1694 279.77441 660 1.9720808e-38
4249.5049 142.84723 520 3.9680485e-39
4221.9292 96.591492 520 1.3656462e-38
4220.3647 86.7146 520 2.1486559e-38
3772.6846 -54.997498 430 6.2663965e-39
3792.4382 -58.126183 430 4.2384668e-39
3800.751 -69.567413 430 2.350511e-38
3799.1865 -79.44429 430 1.6410765e-38
3329.2065 -106.2533 330 1.6313562e-38
3258.5039 -105.17978 320 1.6590478e-38
3266.8164 -116.621 320 1.3734996e-38
3357.2727 -120.82321 340 1.4659069e-38
4784.8193 -184.92995 650 1.3462346e-38
4893.4653 -202.13773 670 1.1524783e-38
4890.3369 -221.89149 670 1.3549857e-38
4887.208 -241.64526 680 1.4108769e-38
4874.2021 -259.83469 670 1.9817338e-38
4890.8271 -282.71713 680 2.1019108e-38
4897.5757 -304.03525 680 1.8621661e-38
4894.4473 -323.789 680 1.9821281e-38
4851.8105 -337.2854 670 2.0095e-38
5078.979 -373.26532 720 2.0831842e-38
5046.2197 -388.32605 710 2.1842401e-38
4952.6348 -403.87762 690 2.0832932e-38
4919.8755 -418.93835 690 2.083257e-38
4906.8701 -437.12778 690 2.1753441e-38
4903.7412 -456.88153 690 2.1757034e-38
4900.6123 -476.63531 690 2.1479024e-38
4907.3604 -497.9534 690 2.0182536e-38
4904.2319 -517.70715 690 1.2071815e-38
4989.9951 -551.54004 710 1.2072537e-38
5075.7588 -585.37292 730 1.1149162e-38
5143.332 -606.2002 740 7.2783989e-39
5247.2852 -653.03864 770 7.1879843e-39
5474.9443 -749.84418 820 4.6990862e-39
5549.2666 -791.98962 840 1.3459075e-38
5605.3989 -821.12946 850 1.3180325e-38
5678.1562 -873.15173 870 1.3180322e-38
5752.4785 -915.29712 890 1.4193751e-38
5606.5957 -1580.6678 880 9.3995808e-39
5705.8555 -1657.137 900 8.4769112e-39
5645.0293 -1657.6277 890 8.8442588e-39
5650.2139 -1688.8228 890 5.8047009e-39
5561.3213 -1674.7437 870 4.1473446e-39
4920.9805 -1370.8306 720 3.5027025e-39
4879.9082 -1374.4501 710 2.3970738e-39
4858.5903 -1381.1982 710 2.6725873e-39
4837.2725 -1387.9464 700 2.3967206e-39
4824.2666 -1406.1359 700 2.304525e-39
4802.9482 -1412.884 700 2.0275822e-39
4771.7539 -1418.0679 690 2.0279395e-39
4750.4355 -1424.8162 690 6.911403e-39
4747.3066 -1444.5698 690 9.7680186e-39
4744.1777 -1464.3236 690 7.7397259e-39
4731.1729 -1482.5131 680 8.8485874e-39
4709.8545 -1489.2612 680 9.030099e-39
4662.0342 -1471.5626 670 1.41952e-38
4620.9624 -1475.1821 660 1.5671412e-38
4677.5859 -1565.1477 670 1.5852934e-38
4674.457 -1584.9014 670 1.4749108e-38
4691.5732 -1668.6095 680 1.3641334e-38
4734.7002 -1715.9387 690 1.3364384e-38
4758.0732 -1760.1393 700 1.3088868e-38
4683.7515 -1717.9939 680 1.2444929e-38
4680.623 -1737.7477 680 1.1982164e-38
4667.6172 -1755.9371 680 1.1152408e-38
4656.1758 -1764.2496 680 9.7716311e-39
4643.1704 -1782.4391 670 8.2972339e-39
4163.9253 561.3877 480 1.2530295e-38
4172.2378 549.94647 480 2.3509835e-38
4203.4326 555.13037 490 2.3509851e-38
4169.1089 530.19275 480 2.350988e-38
4274.1353 554.05682 500 2.3509886e-38
4359.4077 581.04962 520 2.3509886e-38
4356.2793 561.29584 520 2.3509886e-38
4364.5918 549.85461 520 2.3509886e-38
4363.0273 539.97772 520 2.3509886e-38
4350.0215 521.78827 520 2.3509886e-38
4337.0161 503.59888 510 2.3509886e-38
4324.0107 485.40942 510 2.3509886e-38
4322.4463 475.53259 510 2.3509886e-38
4309.4404 457.34314 510 2.3509886e-38
4296.4351 439.15375 510 2.3509886e-38
4273.5527 422.52863 510 2.3509886e-38
4303.1831 417.83563 510 2.3509886e-38
4300.0547 398.08185 510 2.3509886e-38
4541.3018 450.9939 560 2.3509886e-38
5245.2905 612.8587 700 2.3509886e-38
5200.0166 518.7829 690 2.3509825e-38
5218.2061 505.77728 700 2.3509807e-38
5014.9014 436.73102 660 2.3509788e-38
5001.896 418.54156 660 2.3509775e-38
4998.7676 398.78784 660 2.3509762e-38
4985.7617 380.59839 660 2.3507609e-38
4982.6328 360.8446 660 1.529977e-38
4979.5044 341.09085 650 1.3179599e-38
4953.4932 304.71201 650 2.3509797e-38
4897.8516 273.02621 640 2.1655438e-38
4249.5049 142.84723 510 7.2954022e-39
4279.1353 138.15417 520 1.1335804e-38
4244.8115 113.21658 510 2.3509886e-38
4243.2471 103.33969 510 2.3509886e-38
4241.6831 93.462799 510 2.3509876e-38
4238.5542 73.70903 510 1.5582492e-38
3802.3152 -59.690529 420 3.8722038e-39
3800.751 -69.567413 420 2.2307316e-38
3799.1865 -79.44429 420 1.5857965e-38
3329.2065 -106.2533 320 1.6958927e-38
3276.6934 -118.18535 310 1.3828983e-38
3357.2727 -120.82321 330 1.4566167e-38
4903.3423 -203.70207 660 1.2073286e-38
4890.3369 -221.89149 660 1.2354908e-38
4887.208 -241.64526 660 1.650225e-38
4884.0791 -261.39902 650 1.9450355e-38
4890.8271 -282.71713 660 2.101947e-38
4897.5757 -304.03525 660 1.8529466e-38
4894.4473 -323.789 660 1.9267034e-38
4812.3032 -331.02802 640 2.0279755e-38
4939.1387 -361.24139 670 2.1108054e-38
5036.3428 -386.76172 690 2.055812e-38
4952.6348 -403.87762 670 2.1020894e-38
4919.8755 -418.93835 670 2.0927993e-38
4916.7471 -438.69211 670 2.1754511e-38
4913.6182 -458.44589 670 2.1478289e-38
4910.4893 -478.19965 670 2.1754874e-38
4907.3604 -497.9534 670 2.009536e-38
4904.2319 -517.70715 670 1.179596e-38
4960.3647 -546.84705 680 1.1612999e-38
5075.7588 -585.37292 710 1.0965847e-38
5153.209 -607.76453 720 8.2954151e-39
5276.916 -657.73169 750 7.924113e-39
5504.5752 -754.53723 800 5.9876488e-39
5569.02 -795.11829 820 1.3364001e-38
5605.3989 -821.12946 830 1.2996303e-38
5668.2798 -871.5874 840 1.3088848e-38
5732.7246 -912.16846 860 1.3549096e-38
5596.7188 -1579.1035 850 9.766564e-39
5705.8555 -1657.137 870 8.6613109e-39
5626.8403 -1644.6222 860 8.7535065e-39
5650.2139 -1688.8228 860 8.2925312e-39
4943.8628 -1354.2054 700 4.056228e-39
4911.1035 -1369.2662 700 3.6863692e-39
4871.5957 -1363.0088 690 2.4885547e-39
4848.7134 -1379.6339 690 2.7644214e-39
4837.2725 -1387.9464 680 2.3045236e-39
4824.2666 -1406.1359 680 2.3960032e-39
4802.9482 -1412.884 680 2.1197778e-39
4771.7539 -1418.0679 670 2.3952829e-39
4750.4355 -1424.8162 670 7.002514e-39
4747.3066 -1444.5698 670 9.8577031e-39
4744.1777 -1464.3236 670 7.7393672e-39
4731.1729 -1482.5131 660 9.5825581e-39
4709.8545 -1489.2612 660 8.9386195e-39
4596.0249 -1440.8585 630 1.290842e-38
4657.832 -1562.0189 650 1.5209375e-38
4654.7031 -1581.7727 650 1.5118246e-38
4726.3877 -1704.4976 670 1.3642749e-38
4731.5713 -1735.6925 670 1.3179268e-38
4665.562 -1704.9884 660 1.3088144e-38
4662.4336 -1724.7422 660 1.189177e-38
4649.4277 -1742.9315 660 1.1524776e-38
4637.9863 -1751.2441 650 1.0601382e-38
4606.7915 -1756.428 650 9.0322766e-39
4176.9307 579.57715 470 8.5748984e-39
4163.9253 561.3877 470 2.2846001e-38
4172.2378 549.94647 470 2.3509816e-38
4193.5557 556.6947 470 2.3509837e-38
4169.1089 530.19275 470 2.3509839e-38
4264.2583 555.62115 490 2.3509867e-38
4357.8433 571.17273 500 2.350988e-38
4356.2793 561.29584 500 2.3509886e-38
4364.5918 549.85461 510 2.3509886e-38
4372.9043 538.41339 510 2.3509886e-38
4350.0215 521.78827 500 2.3509886e-38
4337.0161 503.59888 500 2.3509886e-38
4324.0107 485.40942 500 2.3509886e-38
4322.4463 475.53259 500 2.3509886e-38
4309.4404 457.34314 500 2.3509886e-38
4306.312 437.58936 500 2.3509886e-38
4314.6245 426.14813 500 2.3509886e-38
4324.5015 424.5838 500 2.3509886e-38
4332.814 413.14258 500 2.3509886e-38
4319.8081 394.95319 500 2.3509886e-38
4392.0752 403.75653 520 2.3509886e-38
4633.3223 456.66858 560 2.3509884e-38
4978.0317 523.56781 630 2.3509873e-38
5178.6982 512.03467 670 2.3509811e-38
5206.7646 497.46478 680 2.3509797e-38
5005.0244 438.29535 640 2.3509795e-38
4992.019 420.10596 640 2.3509785e-38
4988.8906 400.35217 640 2.3509758e-38
4985.7617 380.59839 640 2.3507248e-38
4982.6328 360.8446 640 1.4746588e-38
4969.6274 342.65521 630 1.3088123e-38
4942.0518 296.39948 630 2.3509788e-38
4909.2925 281.33875 620 2.3501824e-38
4267.6943 129.84164 500 1.235219e-38
4256.2529 121.52911 500 2.3509886e-38
4253.124 101.77533 500 2.3509886e-38
4241.6831 93.462799 500 2.2035085e-38
4238.5542 73.70903 500 1.3648207e-38
4204.2305 48.771423 490 2.3509858e-38
3802.3152 -59.690529 410 3.8704046e-39
3800.751 -69.567413 410 1.8990112e-38
3799.1865 -79.44429 410 1.5490283e-38
3319.3296 -104.68896 320 1.6313927e-38
3268.3809 -106.74412 310 1.7048232e-38
3276.6934 -118.18535 310 1.4198476e-38
3357.2727 -120.82321 320 1.401732e-38
4893.4653 -202.13773 640 1.1529482e-38
4890.3369 -221.89149 640 1.3364024e-38
4887.208 -241.64526 640 1.4936031e-38
4884.0791 -261.39902 640 1.9085523e-38
4900.7041 -284.28149 640 2.0558141e-38
4897.5757 -304.03525 640 1.8806049e-38
4894.4473 -323.789 640 1.9634736e-38
4871.5645 -340.41409 640 2.0648169e-38
5018.1533 -373.75613 670 2.1107354e-38
5034.7783 -396.63861 670 2.0557061e-38
4952.6348 -403.87762 660 2.1019106e-38
4919.8755 -418.93835 650 2.1383223e-38
4916.7471 -438.69211 650 2.1294975e-38
4913.6182 -458.44589 650 2.1662673e-38
4910.4893 -478.19965 650 2.1294969e-38
4907.3604 -497.9534 650 1.9727648e-38
4904.2319 -517.70715 650 1.2621762e-38
4950.4878 -545.28265 660 1.2164368e-38
5046.1279 -580.67987 680 1.0415549e-38
5143.332 -606.2002 700 8.478007e-39
5524.3286 -757.66589 780 7.0986781e-39
5578.897 -796.68262 790 6.4432194e-39
5605.3989 -821.12946 800 1.2720786e-38
5659.9668 -860.14612 810 1.317853e-38
5722.8477 -910.60406 830 1.3548386e-38
5550.4629 -1551.528 810 9.674374e-39
5583.7129 -1597.2928 820 9.2134015e-39
5541.0771 -1610.7893 810 8.9378894e-39
5537.9482 -1630.5431 810 7.0036014e-39
4952.1753 -1365.6467 690 4.2398976e-39
4911.1035 -1369.2662 680 3.1353605e-39
4879.9082 -1374.4501 670 2.4885533e-39
4848.7134 -1379.6339 670 3.0410082e-39
4837.2725 -1387.9464 660 2.3048837e-39
4814.3896 -1404.5715 660 2.0286598e-39
4802.9482 -1412.884 660 2.0279409e-39
4771.7539 -1418.0679 650 2.211249e-39
4750.4355 -1424.8162 650 6.1734764e-39
4747.3066 -1444.5698 650 9.1240897e-39
4744.1777 -1464.3236 650 7.3734546e-39
4731.1729 -1482.5131 650 9.3970851e-39
4709.8545 -1489.2612 640 9.2144945e-39
4605.9014 -1442.4229 620 1.2263049e-38
4631.3301 -1537.5721 630 1.5119322e-38
4724.8232 -1714.3744 650 1.3826431e-38
4721.6943 -1734.1282 650 1.3180707e-38
4655.6851 -1703.4241 640 1.2351674e-38
4644.2441 -1711.7366 630 1.225804e-38
4631.2383 -1729.926 630 1.1522266e-38
4619.7969 -1738.2385 630 1.0599594e-38
4580.2896 -1731.9812 620 9.2181e-39
4209.6899 594.63788 460 8.8500308e-39
4175.3662 569.70026 450 2.3503584e-38
4172.2378 549.94647 450 2.3509792e-38
4170.6733 540.06958 450 2.3509809e-38
4159.2324 531.75708 450 2.3509825e-38
4242.9404 548.87299 470 2.3509831e-38
4326.6484 565.98889 480 2.3509856e-38
4334.9609 554.54767 480 2.3509873e-38
4343.2734 543.10638 490 2.3509883e-38
4353.1504 541.54205 490 2.3509883e-38
4338.5806 513.47577 490 2.3509886e-38
4325.5747 495.28632 480 2.3509886e-38
4324.0107 485.40942 490 2.3509886e-38
4322.4463 475.53259 490 2.3509886e-38
4309.4404 457.34314 480 2.3509886e-38
4317.7529 445.90192 490 2.3509886e-38
4326.0654 434.46069 490 2.3509886e-38
4345.8193 431.33203 490 2.3509886e-38
4375.4502 426.63898 500 2.3509886e-38
4403.5166 412.06903 500 2.3509881e-38
4423.27 408.94037 510 2.3509881e-38
4452.9009 404.24731 510 2.3509856e-38
4535.0444 411.48633 530 2.3509863e-38
4858.4355 471.63739 590 2.3509851e-38
5045.6055 502.74048 630 2.3509834e-38
5106.4316 503.23132 640 2.3509811e-38
5144.3745 487.09705 640 2.3509789e-38
5005.0244 438.29535 620 2.3509782e-38
5001.896 418.54156 620 2.3509783e-38
4998.7676 398.78784 620 2.3509785e-38
4975.8848 382.16272 620 2.3505827e-38
4972.7559 362.409 620 1.4010102e-38
4969.6274 342.65521 610 1.3273584e-38
4925.4268 319.28192 610 2.1753399e-38
4932.1748 297.96384 610 2.3509811e-38
4256.2529 121.52911 480 2.3509886e-38
4253.124 101.77533 480 2.3509886e-38
4251.5596 91.898453 480 2.2130177e-38
4248.4312 72.144684 480 1.106279e-38
4223.9844 45.642731 480 2.3509848e-38
3772.6846 -54.997498 400 5.8983413e-39
3802.3152 -59.690529 400 3.961524e-39
3800.751 -69.567413 400 1.6867472e-38
3799.1865 -79.44429 400 1.5120774e-38
3268.3809 -106.74412 300 1.5761473e-38
3266.8164 -116.621 300 1.3646758e-38
3347.3958 -119.25887 310 1.4752724e-38
4893.4653 -202.13773 620 1.309284e-38
4890.3369 -221.89149 620 1.272225e-38
4887.208 -241.64526 620 1.6409705e-38
4884.0791 -261.39902 620 1.880607e-38
4890.8271 -282.71713 620 2.1109131e-38
4887.6987 -302.47089 620 1.8619871e-38
4884.5703 -322.22467 620 1.9542899e-38
5098.7329 -376.39401 660 1.9823795e-38
5024.9014 -395.07425 650 2.0559934e-38
4942.7578 -402.31326 630 2.1019829e-38
4919.8755 -418.93835 630 2.1386096e-38
4916.7471 -438.69211 630 2.0469537e-38
4913.6182 -458.44589 630 2.1387888e-38
4910.4893 -478.19965 630 2.2123655e-38
4907.3604 -497.9534 630 2.018863e-38
4904.2319 -517.70715 630 1.2255134e-38
4930.7339 -542.15399 630 1.1610491e-38
5026.374 -577.55115 650 1.087257e-38
5084.0713 -596.81415 670 8.1106693e-39
5544.082 -760.79462 760 8.5712775e-39
5598.6504 -799.81134 770 5.715036e-39
5613.7114 -832.57068 780 8.2856746e-39
5659.9668 -860.14612 790 1.272043e-38
5712.9707 -909.03973 800 1.3822812e-38
5497.459 -1502.6344 770 9.8594771e-39
5540.5859 -1549.9636 780 1.0136056e-38
5545.77 -1581.1587 790 9.6747271e-39
5513.0107 -1596.2194 780 9.2133931e-39
5471.9385 -1599.8389 770 7.741535e-39
4980.2417 -1380.2167 670 4.2391815e-39
4911.1035 -1369.2662 660 3.7789236e-39
4879.9082 -1374.4501 650 2.5800301e-39
4858.5903 -1381.1982 650 2.9498874e-39
4837.2725 -1387.9464 640 2.3052425e-39
4814.3896 -1404.5715 640 2.3952843e-39
4802.9482 -1412.884 640 2.1197722e-39
4771.7539 -1418.0679 630 2.0275836e-39
4750.4355 -1424.8162 630 5.3473101e-39
4747.3066 -1444.5698 630 9.0326116e-39
4744.1777 -1464.3236 630 7.6486121e-39
4741.0493 -1484.0774 630 9.1237352e-39
4709.8545 -1489.2612 620 9.0297445e-39
4636.5137 -1568.7672 610 1.5300122e-38
4588.6938 -1551.0686 600 1.4655829e-38
4621.9443 -1596.8335 610 1.4102664e-38
4719.6396 -1683.1794 630 1.4101223e-38
4724.8232 -1714.3744 630 1.3456928e-38
4713.3818 -1722.687 630 1.3181792e-38
4645.8081 -1701.8596 620 1.272117e-38
4634.3672 -1710.1722 610 1.1983958e-38
4622.9258 -1718.4847 610 1.179849e-38
4601.6074 -1725.2329 610 1.0417728e-38
4563.6646 -1709.0986 600 7.3698939e-39
4209.6899 594.63788 450 8.3890624e-39
4175.3662 569.70026 440 2.3506148e-38
4183.6787 558.25903 440 2.3509767e-38
4191.9912 546.81781 440 2.3509781e-38
4223.1865 552.00165 450 2.3509804e-38
4285.5767 562.36938 460 2.35098e-38
4433.2388 599.72986 490 2.3509835e-38
4226.8062 510.92975 450 2.3509835e-38
4331.832 534.79388 470 2.3509848e-38
4341.709 533.22955 470 2.3509858e-38
4317.2622 506.72754 470 2.3509867e-38
4304.2568 488.53815 470 2.3509865e-38
4314.1338 486.97382 470 2.350988e-38
4322.4463 475.53259 470 2.3509884e-38
4319.3174 455.77881 470 2.3509873e-38
4329.1943 454.21448 470 2.3509883e-38
4347.3838 441.20886 480 2.3509886e-38
4386.8916 434.95154 480 2.3509886e-38
4406.645 431.82281 490 2.3509862e-38
4424.8345 418.81726 490 2.3509884e-38
4444.5884 415.68854 500 2.3509858e-38
4484.0957 409.43121 500 2.3509862e-38
4503.8496 406.30249 510 2.3509856e-38
4543.3574 400.0451 520 2.3509844e-38
4625.501 407.28412 530 2.350981e-38
4801.2295 430.07471 560 2.3509803e-38
5008.1533 458.04913 600 2.3509803e-38
5005.0244 438.29535 600 2.3509793e-38
4992.019 420.10596 600 2.3509774e-38
4998.7676 398.78784 600 2.3509769e-38
4985.7617 380.59839 600 2.3506179e-38
4972.7559 362.409 600 1.3916452e-38
4969.6274 342.65521 600 1.3639499e-38
4935.3037 317.71759 590 2.1477533e-38
4942.0518 296.39948 590 2.3509806e-38
4248.4312 72.144684 470 1.0325916e-38
4223.9844 45.642731 470 2.3509848e-38
3782.5615 -56.561836 390 5.9908929e-39
3802.3152 -59.690529 390 4.0547916e-39
3790.874 -68.003067 390 1.4477934e-38
3278.2576 -108.30846 290 1.5026052e-38
3276.6934 -118.18535 290 1.3464165e-38
3296.447 -121.31403 300 1.5398093e-38
4870.583 -218.7628 590 1.3181779e-38
4877.3311 -240.08092 600 1.6227838e-38
4874.2021 -259.83469 600 1.8806775e-38
4890.8271 -282.71713 600 2.0649964e-38
4887.6987 -302.47089 600 1.8530907e-38
4874.6934 -320.66034 600 1.9726943e-38
5108.6099 -377.95837 640 2.0463785e-38
5036.3428 -386.76172 630 2.1015503e-38
4942.7578 -402.31326 610 2.092799e-38
4919.8755 -418.93835 610 2.1200987e-38
4916.7471 -438.69211 610 2.1386459e-38
4913.6182 -458.44589 610 2.1388611e-38
4910.4893 -478.19965 610 2.1386457e-38
4907.3604 -497.9534 610 1.9818047e-38
4904.2319 -517.70715 610 1.2072539e-38
4920.8574 -540.5896 610 1.1888147e-38
4996.7432 -572.85815 630 1.0965481e-38
5044.5635 -590.55676 640 8.5694866e-39
5573.7129 -765.48761 740 9.9506064e-39
5628.2812 -804.50433 750 8.5687607e-39
5643.3418 -837.26367 760 3.9662043e-39
5688.0332 -874.71606 770 1.0776383e-38
5462.6445 -1466.7463 740 9.7683633e-39
5515.6484 -1515.64 750 9.7672885e-39
5540.5859 -1549.9636 760 1.0042073e-38
5535.8931 -1579.5942 760 9.7647718e-39
5494.8213 -1583.2137 750 8.7535037e-39
5433.9956 -1583.7046 740 7.37347e-39
4962.0522 -1367.2111 650 3.8711108e-39
4911.1035 -1369.2662 640 3.5945408e-39
4879.9082 -1374.4501 630 2.4885547e-39
4858.5903 -1381.1982 630 2.8562611e-39
4837.2725 -1387.9464 620 2.120854e-39
4824.2666 -1406.1359 620 2.0275808e-39
4802.9482 -1412.884 620 2.1194163e-39
4771.7539 -1418.0679 610 1.9357439e-39
4750.4355 -1424.8162 610 4.1480508e-39
4747.3066 -1444.5698 610 8.8478532e-39
4744.1777 -1464.3236 610 7.6478848e-39
4741.0493 -1484.0774 610 9.2144875e-39
4719.7314 -1490.8256 600 8.9397027e-39
4724.8232 -1714.3744 610 1.3549477e-38
4685.3154 -1708.1171 600 1.3272188e-38
4647.3726 -1691.9828 600 1.2810142e-38
4616.1777 -1697.1666 590 1.2901964e-38
4604.7363 -1705.4791 590 1.1247481e-38
4583.418 -1712.2274 590 1.0691069e-38
4543.9106 -1705.97 580 6.3546769e-39
4231.0083 601.38605 440 8.1124825e-39
4196.6846 576.44843 430 2.294651e-38
4183.6787 558.25903 430 2.3506874e-38
4203.4326 555.13037 430 2.3509759e-38
4310.0234 588.87134 450 2.3509774e-38
4207.0522 514.05847 440 2.3509802e-38
4279.3193 522.86182 450 2.3509832e-38
4341.709 533.22955 460 2.3509816e-38
4286.0674 501.5437 450 2.3509842e-38
4294.3799 490.10248 450 2.3509848e-38
4324.0107 485.40942 460 2.3509855e-38
4322.4463 475.53259 460 2.3509867e-38
4320.8818 465.6557 460 2.3509866e-38
4339.0713 452.65009 460 2.3509873e-38
4368.7021 447.95709 470 2.3509869e-38
4398.3325 443.26404 470 2.350986e-38
4418.0864 440.13538 480 2.3509862e-38
4436.2759 427.12976 480 2.3509867e-38
4465.9062 422.43677 490 2.3509844e-38
4505.4141 416.17938 490 2.3509852e-38
4525.168 413.05072 500 2.3509845e-38
4553.2339 398.48077 500 2.3509835e-38
4625.501 407.28412 510 2.3509811e-38
4696.2031 406.21063 530 2.3509806e-38
4965.5171 444.55273 570 2.3509792e-38
4995.1475 439.85968 580 2.3509781e-38
4992.019 420.10596 580 2.3509769e-38
4998.7676 398.78784 580 2.350942e-38
4985.7617 380.59839 580 2.3504741e-38
4982.6328 360.8446 580 1.3363281e-38
4979.5044 341.09085 580 1.3641653e-38
4945.1807 316.15326 570 2.1570086e-38
4973.2471 301.58334 580 2.3509793e-38
4253.124 101.77533 460 2.2212442e-38
4241.6831 93.462799 450 2.3509886e-38
4238.5542 73.70903 450 1.0324086e-38
4246.8667 62.267807 460 2.3509886e-38
4223.9844 45.642731 450 2.3509853e-38
3782.5615 -56.561836 380 6.2663993e-39
3792.4382 -58.126183 380 4.4228539e-39
3789.3096 -77.879951 380 1.3557065e-38
3288.1345 -109.8728 290 1.4934928e-38
3286.5703 -119.74969 290 1.3464507e-38
3306.324 -122.87838 290 1.4846361e-38
4867.4541 -238.51657 580 1.3737869e-38
4874.2021 -259.83469 580 1.8623091e-38
4890.8271 -282.71713 580 2.0744673e-38
4887.6987 -302.47089 580 1.9080128e-38
4864.8164 -319.09598 580 1.9359234e-38
5046.2197 -388.32605 610 2.0373752e-38
4952.6348 -403.87762 590 2.0098949e-38
4919.8755 -418.93835 590 2.0926191e-38
4916.7471 -438.69211 590 2.0835793e-38
4913.6182 -458.44589 590 2.0838656e-38
4910.4893 -478.19965 590 2.1018751e-38
4907.3604 -497.9534 590 1.9726577e-38
4904.2319 -517.70715 590 1.161157e-38
4920.8574 -540.5896 590 1.1611567e-38
4976.9897 -569.72949 600 1.0505589e-38
5005.0557 -584.29938 610 8.2014356e-39
5667.7891 -810.76172 730 9.1240827e-39
5692.7266 -845.08539 740 8.0198988e-39
5767.0488 -887.23083 750 3.2279204e-39
5482.3984 -1469.875 720 1.013319e-38
5515.6484 -1515.64 730 1.0318306e-38
5540.5859 -1549.9636 730 1.0135698e-38
5517.7036 -1566.5887 730 1.0040994e-38
5484.9443 -1581.6494 720 9.0293605e-39
5359.6738 -1541.5592 700 5.3433668e-39
4990.1187 -1381.781 630 3.7799928e-39
4911.1035 -1369.2662 620 3.6860147e-39
4879.9082 -1374.4501 610 2.397078e-39
4858.5903 -1381.1982 610 2.8566114e-39
4837.2725 -1387.9464 600 2.211972e-39
4824.2666 -1406.1359 600 2.1194177e-39
4802.9482 -1412.884 600 1.9360998e-39
4771.7539 -1418.0679 590 1.9357453e-39
4750.4355 -1424.8162 590 4.6097591e-39
4747.3066 -1444.5698 590 8.8474902e-39
4754.0547 -1465.8879 590 7.0972306e-39
4741.0493 -1484.0774 590 9.6722258e-39
4719.7314 -1490.8256 580 8.7549569e-39
4706.7256 -1509.015 580 9.4957351e-39
4724.8232 -1714.3744 590 1.3917908e-38
4677.0029 -1696.6758 580 1.354985e-38
4637.4956 -1690.4185 580 1.2627894e-38
4607.8652 -1685.7255 570 1.2259827e-38
4594.8594 -1703.9148 570 1.1798855e-38
4573.541 -1710.6631 570 1.0877972e-38
4543.9106 -1705.97 560 6.7234595e-39
4317.8447 638.25574 440 6.2732573e-39
4218.0029 583.19666 420 2.1475705e-38
4141.043 544.76263 410 2.3316013e-38
4203.4326 555.13037 420 2.3503647e-38
4416.6138 622.6123 460 2.3509759e-38
4151.4102 482.37268 410 2.3509886e-38
4192.4824 485.99219 420 2.3509799e-38
4202.3594 484.4278 420 2.3509817e-38
4231.9897 479.7348 430 2.350982e-38
4261.6206 475.04175 430 2.3509825e-38
4324.0107 485.40942 440 2.3509837e-38
4322.4463 475.53259 440 2.3509844e-38
4330.7588 464.09137 450 2.3509849e-38
4339.0713 452.65009 450 2.3509845e-38
4378.5786 446.39276 450 2.3509846e-38
4408.2095 441.69971 460 2.3509858e-38
4427.9629 438.57104 460 2.3509855e-38
4457.5938 433.87799 470 2.3509849e-38
4497.1016 427.62061 480 2.3509838e-38
4526.7319 422.92755 480 2.3509858e-38
4544.9214 409.922 480 2.3509835e-38
4584.4287 403.66461 490 2.3509816e-38
4635.3779 405.71979 500 2.3509803e-38
4684.7622 397.89807 510 2.3509806e-38
4829.2959 415.50476 530 2.3509793e-38
4963.9526 434.67584 560 2.3509788e-38
4992.019 420.10596 560 2.3509788e-38
4988.8906 400.35217 560 2.3509761e-38
4995.6387 379.03406 560 2.3507611e-38
4992.5098 359.28027 560 1.2903372e-38
4990.9453 349.40338 560 1.3823879e-38
4976.376 321.3371 560 2.2584233e-38
5015.8828 315.07971 570 2.0838338e-38
4243.2471 103.33969 440 2.3509643e-38
4230.2417 85.150269 440 2.2211274e-38
4228.6772 75.273376 440 1.3544427e-38
4227.1133 65.3965 440 2.3509876e-38
4204.2305 48.771423 440 2.3509842e-38
3784.1257 -46.684952 370 9.1233863e-39
3782.5615 -56.561836 370 6.3575132e-39
3792.4382 -58.126183 370 4.6065277e-39
3789.3096 -77.879951 370 1.1896833e-38
3288.1345 -109.8728 280 1.502497e-38
3286.5703 -119.74969 280 1.3925125e-38
3306.324 -122.87838 290 1.5490274e-38
3345.8315 -129.13576 290 1.6681259e-38
4857.5771 -236.95224 550 1.4655821e-38
4874.2021 -259.83469 560 1.8896812e-38
4880.9507 -281.1528 560 2.0282255e-38
4877.8223 -300.90656 560 1.8989008e-38
4854.9395 -317.53165 560 1.9450704e-38
5108.6099 -377.95837 600 2.0740369e-38
5056.0967 -389.89038 590 2.0465213e-38
4962.5117 -405.44196 580 2.0926202e-38
4919.8755 -418.93835 570 2.1018752e-38
4916.7471 -438.69211 570 2.0557065e-38
4913.6182 -458.44589 570 2.0560654e-38
4910.4893 -478.19965 570 2.1295334e-38
4907.3604 -497.9534 570 2.0092852e-38
4894.3555 -516.14282 570 1.1795238e-38
4920.8574 -540.5896 570 1.1702681e-38
4986.8667 -571.29382 590 1.0413035e-38
4995.1792 -582.73505 590 8.2028663e-39
5697.4194 -815.45477 710 9.4907044e-39
5732.2339 -851.34277 720 8.4797993e-39
5824.7451 -906.49377 740 8.0188254e-39
5492.2754 -1471.4395 700 9.767643e-39
5525.5254 -1517.2043 700 1.004423e-38
5540.5859 -1549.9636 710 1.0503051e-38
5517.7036 -1566.5887 700 1.0410853e-38
5475.0674 -1580.0851 700 9.2148266e-39
5339.9199 -1538.4305 670 5.0682149e-39
4911.1035 -1369.2662 600 3.6860105e-39
4879.9082 -1374.4501 590 3.2253911e-39
4858.5903 -1381.1982 590 2.2119678e-39
4837.2725 -1387.9464 580 2.395999e-39
4824.2666 -1406.1359 580 2.1190561e-39
4802.9482 -1412.884 580 2.0275808e-39
4771.7539 -1418.0679 570 2.1194121e-39
4750.4355 -1424.8162 570 3.8739821e-39
4747.3066 -1444.5698 570 8.4783448e-39
4752.4907 -1475.7649 570 7.2801869e-39
4741.0493 -1484.0774 570 9.214133e-39
4719.7314 -1490.8256 560 9.2141273e-39
4716.6025 -1510.5793 560 9.2173517e-39
4744.5771 -1717.5032 580 1.400902e-38
4685.3154 -1708.1171 570 1.3273973e-38
4637.4956 -1690.4185 560 1.3272901e-38
4607.8652 -1685.7255 550 1.2445302e-38
4594.8594 -1703.9148 550 1.1799929e-38
4575.1055 -1700.7861 550 1.0878335e-38
4545.4751 -1696.0931 540 7.3706225e-39
4141.043 544.76263 400 2.1938491e-38
4170.6733 540.06958 400 2.2395865e-38
4141.5337 483.93701 400 1.7048039e-38
4139.9692 474.06012 400 2.3509785e-38
4138.4048 464.18323 400 2.3509796e-38
4179.4766 467.80273 410 2.3509803e-38
4209.1074 463.10968 410 2.3509816e-38
4312.5693 477.09692 430 2.3509816e-38
4322.4463 475.53259 430 2.3509814e-38
4330.7588 464.09137 430 2.3509823e-38
4360.3892 459.39832 440 2.3509821e-38
4390.02 454.70526 440 2.3509823e-38
4409.7739 451.5766 450 2.3509848e-38
4427.9629 438.57104 450 2.3509827e-38
4457.5938 433.87799 450 2.3509827e-38
4497.1016 427.62061 460 2.3509831e-38
4526.7319 422.92755 460 2.3509827e-38
4554.7983 408.35767 470 2.3509827e-38
4595.8701 411.97717 480 2.3509802e-38
4656.6958 412.46796 490 2.3509802e-38
4696.2031 406.21063 490 2.3509795e-38
4798.1006 410.32092 510 2.3509779e-38
4847.4854 402.49921 520 2.3509775e-38
4970.7012 413.35773 540 2.3509782e-38
4988.8906 400.35217 540 2.3504387e-38
4995.6387 379.03406 540 2.3504739e-38
5003.9512 367.59283 540 1.3179234e-38
5000.8223 347.83905 540 1.3826395e-38
4997.6938 328.0853 540 2.2582789e-38
5035.6367 311.95102 550 1.2536158e-38
4233.3701 104.90402 430 2.3509633e-38
4220.3647 86.7146 420 1.8807897e-38
4218.8008 76.837723 420 2.0731273e-38
4205.7949 58.6483 420 2.3509873e-38
3784.1257 -46.684952 360 9.3988843e-39
3782.5615 -56.561836 360 6.359318e-39
3792.4382 -58.126183 360 5.4359156e-39
3789.3096 -77.879951 360 1.2997766e-38
3355.7085 -130.7001 290 1.5762183e-38
4857.5771 -236.95224 540 1.5398436e-38
4874.2021 -259.83469 540 1.7515665e-38
4880.9507 -281.1528 540 2.0462347e-38
4877.8223 -300.90656 540 1.8435826e-38
4845.0625 -315.96729 540 2.0002066e-38
5118.4863 -379.52271 580 1.9638346e-38
5056.0967 -389.89038 570 2.0189344e-38
4962.5117 -405.44196 560 2.1015867e-38
4919.8755 -418.93835 550 2.1108773e-38
4916.7471 -438.69211 550 2.0652481e-38
4913.6182 -458.44589 550 2.1661576e-38
4910.4893 -478.19965 550 2.129283e-38
4907.3604 -497.9534 550 1.9082636e-38
4894.3555 -516.14282 550 1.1794518e-38
4920.8574 -540.5896 550 1.1242783e-38
4986.8667 -571.29382 570 9.9542119e-39
5005.0557 -584.29938 570 7.8326517e-39
5001.9272 -604.05316 570 7.6475275e-39
5705.7319 -826.896 690 9.0315312e-39
5742.1108 -852.9071 700 9.2162811e-39
5824.7451 -906.49377 710 8.6627542e-39
5500.5879 -1482.8806 670 1.0595246e-38
5535.4023 -1518.7687 680 1.032117e-38
5540.5859 -1549.9636 680 1.0504488e-38
5507.8271 -1565.0244 680 1.0502694e-38
5466.7549 -1568.6439 670 8.5723341e-39
5311.8535 -1523.8606 640 5.3433654e-39
5204.7725 -1496.776 630 3.5016193e-39
4920.9805 -1370.8306 570 3.3186713e-39
4889.7852 -1376.0144 570 2.9495301e-39
4858.5903 -1381.1982 570 2.3963549e-39
4837.2725 -1387.9464 560 2.3952787e-39
4824.2666 -1406.1359 560 2.1190604e-39
4802.9482 -1412.884 560 2.0268591e-39
4771.7539 -1418.0679 550 1.9353739e-39
4758.748 -1436.2573 550 3.3190189e-39
4747.3066 -1444.5698 550 7.6496799e-39
4752.4907 -1475.7649 550 7.6468157e-39
4741.0493 -1484.0774 550 9.0315326e-39
4719.7314 -1490.8256 550 9.029383e-39
4716.6025 -1510.5793 550 8.9396957e-39
4744.5771 -1717.5032 560 1.3550562e-38
4695.1924 -1709.6814 550 1.3455143e-38
4647.3726 -1691.9828 540 1.3087434e-38
4616.1777 -1697.1666 530 1.2627171e-38
4604.7363 -1705.4791 530 1.1983605e-38
4593.2949 -1713.7917 530 1.1151697e-38
4553.7876 -1707.5343 520 8.3851346e-39
4152.4839 553.0752 390 5.2573355e-39
4141.043 544.76263 390 8.6624137e-39
4160.7964 541.63397 390 9.2173826e-39
4146.7173 452.742 390 2.3509782e-38
4176.3481 448.04895 390 2.3509797e-38
4314.1338 486.97382 410 2.350979e-38
4332.3232 473.9682 420 2.3509807e-38
4361.9536 469.27521 420 2.3509806e-38
4391.5845 464.58215 430 2.3509799e-38
4411.3379 461.45349 430 2.3509809e-38
4419.6504 450.01227 430 2.350981e-38
4449.2812 445.31921 440 2.3509802e-38
4488.7891 439.06183 440 2.3509813e-38
4518.4194 434.36877 450 2.3509807e-38
4536.6089 421.36322 450 2.350982e-38
4556.3623 418.23456 450 2.3509809e-38
4605.7471 410.41284 460 2.3509796e-38
4656.6958 412.46796 470 2.3509796e-38
4696.2031 406.21063 480 2.3509767e-38
4788.2241 411.88525 490 2.3509765e-38
4816.29 397.31537 500 2.3509764e-38
4949.3828 406.60956 520 2.3507977e-38
4967.5723 393.60394 520 2.350725e-38
4995.6387 379.03406 520 2.35051e-38
5003.9512 367.59283 530 1.3362188e-38
5010.6992 346.27472 530 1.3550881e-38
5007.5703 326.52094 530 2.230836e-38
5037.2012 321.82791 530 1.6120161e-38
4221.9292 96.591492 410 2.3509647e-38
4210.4878 88.278946 410 1.8161418e-38
4197.4824 70.089523 410 2.3509678e-38
4186.041 61.776993 410 2.3509865e-38
3784.1257 -46.684952 350 9.1244485e-39
3782.5615 -56.561836 350 6.3578733e-39
3802.3152 -59.690529 350 9.583228e-39
3790.874 -68.003067 350 1.3458009e-38
3375.4622 -133.82878 280 1.4746235e-38
4857.5771 -236.95224 520 1.695855e-38
4874.2021 -259.83469 520 1.8896099e-38
4880.9507 -281.1528 520 2.0741081e-38
4877.8223 -300.90656 520 1.8068492e-38
4825.3086 -312.83862 510 1.8991176e-38
5056.0967 -389.89038 550 2.0188629e-38
4952.6348 -403.87762 540 2.0557058e-38
4919.8755 -418.93835 530 2.0742164e-38
4916.7471 -438.69211 530 2.0650689e-38
4903.7412 -456.88153 530 2.0653189e-38
4900.6123 -476.63531 530 2.1477567e-38
4907.3604 -497.9534 530 1.9541476e-38
4894.3555 -516.14282 530 1.1612622e-38
4920.8574 -540.5896 530 1.1518288e-38
4986.8667 -571.29382 550 1.0135738e-38
5005.0557 -584.29938 550 7.8344439e-39
5715.6089 -828.46033 660 9.1251589e-39
5751.9878 -854.4715 670 9.0329703e-39
5824.7451 -906.49377 680 9.3992361e-39
5500.5879 -1482.8806 650 1.068779e-38
5525.5254 -1517.2043 650 1.0504486e-38
5530.709 -1548.3993 650 1.0872184e-38
5489.6377 -1552.0188 650 1.078035e-38
5428.8115 -1552.5096 640 8.5708949e-39
5293.6641 -1510.8551 620 5.1593315e-39
5224.5259 -1499.9047 600 3.2257568e-39
4911.1035 -1369.2662 550 3.4101411e-39
4889.7852 -1376.0144 550 3.8689654e-39
4858.5903 -1381.1982 550 2.671867e-39
4837.2725 -1387.9464 540 2.3960004e-39
4824.2666 -1406.1359 540 2.027578e-39
4811.2612 -1424.3253 540 1.9353824e-39
4771.7539 -1418.0679 530 1.8428322e-39
4758.748 -1436.2573 530 2.8584064e-39
4747.3066 -1444.5698 530 7.4638439e-39
4752.4907 -1475.7649 530 7.7393686e-39
4741.0493 -1484.0774 530 9.3981599e-39
4719.7314 -1490.8256 530 9.3056111e-39
4743.0127 -1727.38 540 1.4009382e-38
4703.5049 -1721.1227 530 1.3547336e-38
4655.6851 -1703.4241 520 1.2996678e-38
4626.0547 -1698.731 520 1.2259105e-38
4622.9258 -1718.4847 520 1.179706e-38
4601.6074 -1725.2329 510 1.0696459e-38
4562.1001 -1718.9756 510 9.033727e-39
4134.2944 566.08075 370 7.5600837e-39
4142.6069 554.63953 370 6.6352281e-39
4150.9199 543.1983 380 1.1054816e-38
4160.7964 541.63397 380 1.0791865e-38
4135.2764 444.42944 380 1.1422511e-38
4145.1533 442.86511 380 1.8780149e-38
4238.7383 458.41669 390 2.3500428e-38
4322.4463 475.53259 400 2.3509785e-38
4394.7129 484.33594 410 2.3509793e-38
4412.9023 471.33038 420 2.3509795e-38
4432.6562 468.20166 420 2.3509793e-38
4440.9688 456.76044 420 2.350979e-38
4480.4766 450.50305 430 2.35098e-38
4510.1069 445.81006 430 2.3509814e-38
4528.2964 432.80444 430 2.3509786e-38
4548.0498 429.67578 440 2.3509811e-38
4587.5576 423.4184 440 2.3509814e-38
4638.5063 425.47357 450 2.3509802e-38
4666.5728 410.90363 460 2.3509783e-38
4706.0801 404.64624 460 2.3509789e-38
4776.7827 403.57275 470 2.3509772e-38
4806.4131 398.8797 480 2.3507255e-38
4918.1875 401.42572 490 2.3506892e-38
4957.6953 395.16833 500 2.3506528e-38
4995.6387 379.03406 500 2.3504011e-38
5013.8281 366.0285 510 1.3270355e-38
5010.6992 346.27472 510 1.3826746e-38
5019.0117 334.8335 510 2.3135599e-38
5035.6367 311.95102 510 2.157179e-38
4247.9404 132.97034 400 2.3509649e-38
4202.1753 99.720184 390 2.3509646e-38
4189.1699 81.530762 390 1.8436206e-38
4187.6055 71.65387 390 2.3509757e-38
4174.6001 53.464447 390 2.3509866e-38
3774.249 -45.120613 340 9.4910842e-39
3812.1919 -61.254868 340 1.4103665e-38
3810.6277 -71.131752 340 1.4471089e-38
4857.5771 -236.95224 500 1.5673223e-38
4884.0791 -261.39902 500 1.8437275e-38
4890.8271 -282.71713 500 2.0647809e-38
4877.8223 -300.90656 500 1.8802813e-38
4825.3086 -312.83862 500 1.9267752e-38
5098.7329 -376.39401 540 2.0370855e-38
5056.0967 -389.89038 530 2.02812e-38
4962.5117 -405.44196 520 2.0738936e-38
4919.8755 -418.93835 510 2.0373019e-38
4916.7471 -438.69211 510 2.1017304e-38
4903.7412 -456.88153 510 2.0560657e-38
4910.4893 -478.19965 510 2.1112024e-38
4907.3604 -497.9534 510 1.9448911e-38
4894.3555 -516.14282 510 1.1519733e-38
4920.8574 -540.5896 510 1.1519366e-38
4996.7432 -572.85815 530 1.0412312e-38
5014.9326 -585.86377 530 7.4663761e-39
5715.6089 -828.46033 640 9.3999451e-39
5760.3003 -865.91272 650 9.3995878e-39
5834.6221 -908.05811 660 9.5836245e-39
6354.6929 -1587.7836 750 9.8580422e-39
6272.5488 -1595.0226 740 1.0043147e-38
6305.7993 -1640.7875 740 1.0133544e-38
5571.29 -1483.9541 630 1.1331721e-38
5492.2754 -1471.4395 620 1.0414082e-38
5525.5254 -1517.2043 630 1.0689944e-38
5522.3965 -1536.9581 630 1.0689945e-38
5461.5713 -1537.4489 620 1.1056215e-38
5390.8687 -1536.3754 610 8.2961017e-39
5283.7871 -1509.2906 590 5.2508083e-39
5234.4028 -1501.469 580 3.7778488e-39
4902.791 -1357.825 530 5.8241047e-39
4879.9082 -1374.4501 530 2.7644115e-39
4848.7134 -1379.6339 520 2.3034432e-39
4827.3955 -1386.3821 520 2.5789539e-39
4824.2666 -1406.1359 520 1.8442657e-39
4812.8252 -1414.4484 520 1.7520729e-39
4771.7539 -1418.0679 510 2.0265032e-39
4750.4355 -1424.8162 510 1.9368201e-39
4747.3066 -1444.5698 510 7.3727287e-39
4754.0547 -1465.8879 510 8.0141562e-39
4741.0493 -1484.0774 510 9.1233779e-39
4719.7314 -1490.8256 510 8.5709257e-39
4743.0127 -1727.38 520 1.3553076e-38
4721.6943 -1734.1282 510 1.3916828e-38
4655.6851 -1703.4241 500 1.2628605e-38
4644.2441 -1711.7366 500 1.2260187e-38
4631.2383 -1729.926 500 1.2350238e-38
4619.7969 -1738.2385 500 1.1339677e-38
4590.1665 -1733.5455 490 1.0413052e-38
4144.1714 564.51642 360 8.2900117e-39
4142.6069 554.63953 360 9.2116008e-39
4162.3608 551.51086 360 9.9473624e-39
4159.2324 531.75708 360 1.1051185e-38
4178.9858 528.62836 370 1.0867159e-38
4133.7119 434.55255 360 8.2921711e-39
4207.543 453.23285 370 7.9255535e-39
4332.3232 473.9682 390 6.085636e-39
4416.0312 491.08411 400 2.3509771e-38
4424.3438 479.64288 400 2.3509785e-38
4453.9746 474.94989 410 2.3509793e-38
4493.4819 468.6925 410 2.3509813e-38
4523.1123 463.99945 420 2.350981e-38
4531.4248 452.55823 420 2.3509809e-38
4551.1787 449.42957 420 2.3509811e-38
4579.2451 434.85962 430 2.3509813e-38
4618.7529 428.60223 430 2.3509817e-38
4658.2603 422.34485 440 2.3509814e-38
4697.7676 416.08752 440 2.3509793e-38
4737.2754 409.83014 450 2.3509796e-38
4788.2241 411.88525 460 2.350979e-38
4816.29 397.31537 460 2.3509786e-38
4886.9932 396.24182 470 2.3509795e-38
4936.377 388.4201 480 2.3509772e-38
4975.8848 382.16272 480 2.3509774e-38
4994.0742 369.15717 490 1.3179233e-38
