# .PCD v0.7 - Point Cloud Data file format
VERSION 0.7
FIELDS x y z rgb
SIZE 4 4 4 4
TYPE F F F F
COUNT 1 1 1 1
WIDTH 764
HEIGHT 1
VIEWPOINT 0 0 0 1 0 0 0
POINTS 764
DATA ascii
4209.1714 514.74756 240 2.2670666e-38
4195.8506 496.7879 240 2.2027095e-38
4205.6982 495.05145 240 2.1939921e-38
4202.2256 475.35529 240 2.2026366e-38
4200.4893 465.5072 240 2.2947959e-38
4102.603 371.07019 240 1.1524038e-38
4260.7432 404.11145 250 1.2073254e-38
4290.2871 398.90198 250 1.2255853e-38
4977.8926 440.12701 290 1.2074681e-38
4911.8579 411.15356 290 1.1704465e-38
4919.9697 399.56903 290 1.1521156e-38
4937.9292 386.24799 290 1.0599558e-38
4934.4561 366.55182 290 6.4554639e-39
4983.6963 357.86945 300 6.7284439e-39
4960.5273 341.64624 300 2.3501485e-38
4976.751 318.47711 300 2.350983e-38
4984.8623 306.89255 300 1.0503102e-38
4971.541 288.93286 300 1.5020972e-38
5009.1973 272.13885 300 2.35098e-38
5048.5894 265.19293 300 2.3509849e-38
4263.0986 129.53094 250 2.3509862e-38
4249.7773 111.57126 250 9.3952844e-39
4248.041 101.72318 250 1.3827158e-38
4246.3047 91.875122 250 9.5022497e-39
4232.9834 73.915436 250 1.2808653e-38
3895.2708 1.4578247 230 2.3509886e-38
3914.9668 -2.0151367 230 2.3509842e-38
3768.4114 -26.944794 220 2.3509828e-38
3766.6748 -36.792877 220 2.3509828e-38
3764.9385 -46.640945 220 2.3509817e-38
3763.2021 -56.489029 220 1.171064e-38
3761.4653 -66.337105 220 9.8580688e-39
3759.729 -76.185181 220 9.3077649e-39
3757.9927 -86.033257 220 8.9415089e-39
3756.2561 -95.88134 220 8.387259e-39
4951.917 -225.47446 300 3.5070072e-39
4950.1807 -235.32254 300 1.226091e-38
4956.5557 -256.75519 300 1.1797777e-38
4953.083 -276.45132 300 1.253713e-38
4939.7617 -294.41101 300 1.3829665e-38
4946.1367 -315.84363 300 1.5950156e-38
4932.8159 -333.80331 300 1.7609315e-38
4929.3428 -353.49945 300 1.7885174e-38
4815.8047 -363.94238 290 1.8162484e-38
4986.124 -434.59137 310 1.8991529e-38
4962.9551 -450.81458 300 1.9360658e-38
4939.7861 -467.03775 300 2.0278305e-38
4926.4648 -484.99744 300 1.9729802e-38
4922.9922 -504.6936 300 1.9453952e-38
4919.519 -524.38977 300 2.0004238e-38
4935.7422 -547.55884 300 1.6407546e-38
4942.1172 -568.99152 300 1.1148064e-38
4958.3403 -592.16064 310 1.0045323e-38
4994.2598 -618.80273 310 9.2152232e-39
5012.2197 -632.12378 310 8.2024992e-39
4989.0503 -648.34692 310 7.9226711e-39
6493.5952 -1675.2086 420 9.9491518e-39
6393.3779 -1667.6919 410 9.6754446e-39
6378.3203 -1695.4996 410 1.0134622e-38
6353.415 -1721.5709 410 1.0412285e-38
6281.0054 -1729.1117 400 1.0319015e-38
5608.4336 -1569.9022 360 7.7397189e-39
5603.2246 -1599.4464 360 8.0180925e-39
5552.2476 -1600.6121 350 8.5687551e-39
4892.9971 -1423.4429 310 7.465653e-39
4842.0205 -1424.6086 310 7.648968e-39
4810.7393 -1429.2472 310 8.5691251e-39
4809.0029 -1439.0953 310 8.1103077e-39
4805.5303 -1458.7915 310 7.8340866e-39
4774.2495 -1463.4301 300 7.5571326e-39
4752.8164 -1469.8052 300 6.9131995e-39
4757.4551 -1501.0859 300 7.0939866e-39
4753.9824 -1520.7821 300 9.8566227e-39
4750.5098 -1540.4783 300 8.3872309e-39
4738.9248 -1548.5898 300 9.215212e-39
4635.8057 -1499.9443 290 8.4783672e-39
4614.373 -1506.3195 290 1.5670679e-38
4592.9404 -1512.6946 290 1.585259e-38
4581.3555 -1520.8062 290 1.5852583e-38
4532.1152 -1512.1237 290 1.5392321e-38
4705.9316 -1735.7032 300 1.4194138e-38
4720.4185 -1768.7205 300 1.4193412e-38
4681.0264 -1761.7745 300 1.3455491e-38
4677.5532 -1781.4707 300 1.2812279e-38
4675.8164 -1791.3188 300 1.3085639e-38
4662.4956 -1809.2784 300 1.198288e-38
4209.1714 514.74756 230 2.2757451e-38
4195.8506 496.7879 230 2.2578103e-38
4205.6982 495.05145 230 2.2762126e-38
4192.3774 477.09174 230 2.2670642e-38
4188.9043 457.39557 230 2.1937053e-38
4187.168 447.54755 230 2.2760339e-38
4081.1704 364.69507 230 1.1891374e-38
4089.2822 353.11053 230 1.2717536e-38
4259.0068 394.26337 240 1.1889582e-38
4288.5508 389.05389 240 1.207253e-38
4296.6626 377.46936 240 1.1797741e-38
4337.791 380.37152 240 1.161263e-38
4377.1836 373.4256 240 1.2257631e-38
4375.4473 363.57751 240 1.1797375e-38
4363.8623 355.46594 240 1.1245649e-38
4413.103 346.78351 250 1.2072888e-38
4485.5127 354.32428 250 1.2350551e-38
4946.6113 435.48834 270 1.2166523e-38
4911.8579 411.15356 270 1.2072172e-38
4919.9697 399.56903 270 1.1613345e-38
4937.9292 386.24799 280 1.0873632e-38
4955.8887 372.92694 280 6.4536675e-39
4995.2812 365.98102 280 6.8184885e-39
4970.3755 339.90973 280 2.3499665e-38
4978.4873 328.3252 280 2.350982e-38
4984.8623 306.89255 280 8.9422362e-39
4971.541 288.93286 280 1.4003913e-38
4999.3486 273.87534 280 2.3509786e-38
5048.5894 265.19293 280 2.3509825e-38
4263.0986 129.53094 240 2.3509838e-38
4249.7773 111.57126 240 2.3509886e-38
4248.041 101.72318 240 2.350975e-38
4256.1523 90.138611 240 2.3509332e-38
4232.9834 73.915436 240 1.8900503e-38
3905.1189 -0.27865601 220 2.3509886e-38
3914.9668 -2.0151367 220 2.3509825e-38
3768.4114 -26.944794 210 2.3509842e-38
3766.6748 -36.792877 210 2.3509831e-38
3764.9385 -46.640945 210 2.3509823e-38
3763.2021 -56.489029 210 1.2535727e-38
3761.4653 -66.337105 210 9.6765502e-39
3759.729 -76.185181 210 9.2148588e-39
3757.9927 -86.033257 210 9.032264e-39
3756.2561 -95.88134 210 8.7542338e-39
4973.3496 -219.09933 280 4.2366676e-39
4969.877 -238.7955 280 4.1537976e-39
4966.4043 -258.49164 280 1.1155273e-38
4962.9307 -278.18781 280 1.2077967e-38
4949.6099 -296.14749 280 1.3462316e-38
4955.9854 -317.58014 280 1.5399138e-38
4942.6641 -335.53979 280 1.6874262e-38
4939.1914 -355.23596 280 1.8251073e-38
4796.1084 -360.46942 270 1.8343639e-38
4976.2764 -432.85489 290 1.8804988e-38
4962.9551 -450.81458 280 1.8989026e-38
4939.7861 -467.03775 280 1.9725501e-38
4926.4648 -484.99744 280 1.9730162e-38
4922.9922 -504.6936 280 1.972658e-38
4919.519 -524.38977 280 1.972621e-38
4935.7422 -547.55884 280 1.6132762e-38
4942.1172 -568.99152 280 1.1055152e-38
4958.3403 -592.16064 290 1.0137156e-38
5004.1079 -620.53918 290 9.398527e-39
5022.0674 -633.86023 290 8.477291e-39
4989.0503 -648.34692 290 7.9248263e-39
6541.0991 -1693.7391 390 9.1226394e-39
6431.0337 -1684.4858 380 9.4924855e-39
6396.2803 -1708.8207 380 1.0135697e-38
6363.2627 -1723.3074 380 1.0318656e-38
6282.7417 -1719.2637 370 1.1053699e-38
5570.7783 -1553.1082 330 7.8337545e-39
5575.417 -1584.3889 330 8.2046431e-39
5532.5513 -1597.1392 330 8.7535009e-39
4952.0859 -1433.8618 290 7.5560479e-39
4892.9971 -1423.4429 290 7.6482422e-39
4842.0205 -1424.6086 290 7.8326404e-39
4810.7393 -1429.2472 290 8.7549429e-39
4809.0029 -1439.0953 290 8.2946948e-39
4805.5303 -1458.7915 290 7.9244801e-39
4774.2495 -1463.4301 280 7.7400889e-39
4752.8164 -1469.8052 280 6.6366224e-39
4757.4551 -1501.0859 280 6.6355308e-39
4753.9824 -1520.7821 280 9.3070348e-39
4750.5098 -1540.4783 280 7.9262584e-39
4738.9248 -1548.5898 280 8.9393467e-39
4617.8457 -1486.6233 280 8.6613179e-39
4614.373 -1506.3195 280 1.5393386e-38
4602.7881 -1514.431 270 1.4841664e-38
4553.5479 -1505.7487 270 1.5394111e-38
4524.0039 -1500.5392 270 1.5300121e-38
4705.9316 -1735.7032 280 1.4101223e-38
4730.2666 -1770.457 280 1.3733158e-38
4690.874 -1763.5111 280 1.3274691e-38
4687.4014 -1783.2072 280 1.3363658e-38
4675.8164 -1791.3188 280 1.2628244e-38
4662.4956 -1809.2784 280 1.2533894e-38
4209.1714 514.74756 220 2.1933807e-38
4195.8506 496.7879 220 2.2393345e-38
4194.1138 486.93982 220 2.2670295e-38
4192.3774 477.09174 220 2.2396581e-38
4179.0566 459.13208 220 2.2486267e-38
4177.3198 449.284 220 2.2118203e-38
4197.0161 445.81104 220 1.0874358e-38
4170.374 409.89166 220 1.2533509e-38
4112.4512 369.33368 220 1.1890644e-38
4120.5625 357.74915 220 1.1889575e-38
4259.0068 394.26337 220 1.1705551e-38
4300.1357 397.16553 230 1.2255124e-38
4308.2471 385.58093 230 1.1429685e-38
4306.5107 375.73285 230 1.1614064e-38
4303.0376 356.03674 230 1.1337128e-38
4301.3013 346.18866 230 1.0969427e-38
4299.5645 336.34058 230 1.1705898e-38
4371.9741 343.88135 230 1.170698e-38
4432.7988 343.31055 230 1.1981047e-38
4936.7637 437.22485 260 1.2626777e-38
4911.8579 411.15356 260 1.2166519e-38
4910.1211 401.30548 260 1.1982119e-38
4937.9292 386.24799 260 1.1333172e-38
4955.8887 372.92694 260 6.8210109e-39
5005.1289 364.24451 260 6.8206395e-39
4980.2236 338.17328 260 2.248587e-38
4988.335 326.58871 260 2.3509779e-38
4994.7104 305.15607 260 9.397462e-39
4971.541 288.93286 260 1.3266363e-38
4999.3486 273.87534 260 2.350869e-38
5027.1567 258.81784 260 2.35098e-38
4263.0986 129.53094 230 2.3509813e-38
4239.9297 113.30774 230 1.8694721e-38
4248.041 101.72318 230 1.6312714e-38
3916.7034 7.8329315 210 2.3509886e-38
3934.6631 -5.4880981 210 2.3509828e-38
3768.4114 -26.944794 200 2.3509821e-38
3766.6748 -36.792877 200 2.3509849e-38
3764.9385 -46.640945 200 2.3509814e-38
3763.2021 -56.489029 200 1.179888e-38
3761.4653 -66.337105 200 9.491803e-39
3759.729 -76.185181 200 9.6747482e-39
3757.9927 -86.033257 200 9.1230233e-39
3756.2561 -95.88134 200 8.9386209e-39
4983.1982 -220.83582 260 6.1727688e-39
4969.877 -238.7955 260 5.2501062e-39
4966.4043 -258.49164 260 1.0696093e-38
4953.083 -276.45132 260 1.1249632e-38
4939.7617 -294.41101 260 1.2446742e-38
4936.2891 -314.10715 260 1.4936355e-38
4903.2715 -328.59387 260 1.5675363e-38
4919.4951 -351.763 260 1.7423487e-38
4876.6299 -364.51321 260 1.8068488e-38
4946.7319 -427.64545 260 1.8346883e-38
4962.9551 -450.81458 270 1.8989728e-38
4939.7861 -467.03775 260 1.9083355e-38
4926.4648 -484.99744 260 1.9541455e-38
4922.9922 -504.6936 260 1.9451777e-38
4929.3672 -526.12622 260 1.99106e-38
4935.7422 -547.55884 260 1.6867089e-38
4942.1172 -568.99152 270 1.0045322e-38
4968.1885 -593.89709 270 1.0413022e-38
5004.1079 -620.53918 270 9.1233863e-39
5012.2197 -632.12378 270 7.9273444e-39
4989.0503 -648.34692 270 7.6482422e-39
4947.9219 -651.24908 270 7.4642167e-39
6708.5166 -1723.2593 360 9.3992094e-39
6578.7549 -1710.5331 360 9.673295e-39
6496.4971 -1716.3374 350 1.0042429e-38
6473.3281 -1732.5607 350 1.0040633e-38
6428.7266 -1755.1589 350 1.0228973e-38
6320.3975 -1736.0576 340 1.0502686e-38
6230.0283 -1730.2773 340 1.0595955e-38
5570.7783 -1553.1082 300 8.1088546e-39
5593.376 -1597.71 310 8.4776343e-39
5552.2476 -1600.6121 300 8.5709061e-39
5547.0381 -1630.1564 300 8.4776343e-39
4914.4297 -1417.0677 270 7.4635006e-39
4892.9971 -1423.4429 270 7.4634992e-39
4842.0205 -1424.6086 270 7.5564165e-39
4820.5879 -1430.9836 270 8.1095945e-39
4809.0029 -1439.0953 270 7.9277073e-39
4805.5303 -1458.7915 270 8.2010698e-39
4774.2495 -1463.4301 260 7.9244773e-39
4752.8164 -1469.8052 260 7.1872766e-39
4757.4551 -1501.0859 260 7.0943411e-39
4753.9824 -1520.7821 260 9.4910716e-39
4750.5098 -1540.4783 260 7.8344173e-39
4738.9248 -1548.5898 260 8.7549583e-39
4653.7651 -1513.2654 260 8.9360999e-39
4632.3325 -1519.6405 260 1.4842015e-38
4705.9316 -1735.7032 260 1.4010105e-38
4720.4185 -1768.7205 260 1.3642046e-38
4681.0264 -1761.7745 260 1.3274331e-38
4677.5532 -1781.4707 260 1.2629323e-38
4675.8164 -1791.3188 260 1.2444569e-38
4662.4956 -1809.2784 260 1.2532099e-38
4209.1714 514.74756 210 2.2025639e-38
4186.0024 498.52441 210 2.1934525e-38
4194.1138 486.93982 210 2.2672086e-38
4180.793 468.98016 210 2.2579531e-38
4179.0566 459.13208 210 2.2212549e-38
4177.3198 449.284 210 2.1752285e-38
4185.4316 437.69946 210 1.050702e-38
4172.1104 419.73975 210 9.3070657e-39
4181.9585 418.0033 210 1.3641293e-38
4147.2051 393.66852 210 1.1614424e-38
4155.3164 382.08392 210 1.1705193e-38
4217.8779 391.36121 210 1.1982489e-38
4280.4395 400.63849 210 1.1889215e-38
4309.9834 395.42902 210 1.1889573e-38
4308.2471 385.58093 210 1.1888852e-38
4304.7739 365.88483 210 1.0877589e-38
4293.1895 357.77319 210 1.1244208e-38
4291.4531 347.92511 210 1.1520428e-38
4299.5645 336.34058 210 1.2071812e-38
4317.5244 323.01953 210 1.1520429e-38
4378.3491 322.44873 220 1.1797371e-38
4366.7646 314.33713 220 1.1982485e-38
4908.3848 391.4574 240 1.1980694e-38
4937.9292 386.24799 240 1.1152368e-38
4955.8887 372.92694 240 6.6398496e-39
5005.1289 364.24451 240 6.4543821e-39
4970.3755 339.90973 240 2.3509691e-38
4978.4873 328.3252 240 2.3509856e-38
4975.0142 308.62903 240 9.95277e-39
4959.957 280.82129 240 1.5481182e-38
4977.916 267.50024 240 2.3507623e-38
4976.1797 257.65216 240 2.35098e-38
4253.2505 131.26743 210 2.3509834e-38
4239.9297 113.30774 210 1.4106139e-38
3936.3994 4.3599701 200 2.3509869e-38
3934.6631 -5.4880981 200 2.3509831e-38
3768.4114 -26.944794 190 2.3509841e-38
3766.6748 -36.792877 190 2.3509831e-38
3764.9385 -46.640945 190 2.3509838e-38
3763.2021 -56.489029 190 1.1246069e-38
3761.4653 -66.337105 190 9.5865112e-39
3759.729 -76.185181 190 9.4003263e-39
3757.9927 -86.033257 190 8.8493091e-39
3756.2561 -95.88134 190 8.6631214e-39
5067.1919 -205.18344 250 7.0032413e-39
4973.3496 -219.09933 240 6.6369741e-39
4960.0288 -237.05902 240 7.2801883e-39
4956.5557 -256.75519 240 6.9099779e-39
4962.9307 -278.18781 240 5.8176419e-39
4939.7617 -294.41101 240 9.2285383e-39
4936.2891 -314.10715 240 1.1898596e-38
4903.2715 -328.59387 240 1.3648501e-38
4939.1914 -355.23596 240 1.7513142e-38
4866.7812 -362.77673 240 1.7792616e-38
4946.7319 -427.64545 250 1.8438707e-38
4962.9551 -450.81458 250 1.972298e-38
4939.7861 -467.03775 250 1.9083363e-38
4926.4648 -484.99744 240 1.94507e-38
4922.9922 -504.6936 240 1.9819108e-38
4929.3672 -526.12622 250 2.0002081e-38
4935.7422 -547.55884 250 1.5853659e-38
4942.1172 -568.99152 250 1.0319032e-38
4968.1885 -593.89709 250 1.0504495e-38
5004.1079 -620.53918 250 9.7644299e-39
5012.2197 -632.12378 250 8.4776469e-39
4989.0503 -648.34692 250 7.5564081e-39
4956.0332 -662.83362 250 7.5571368e-39
6733.4219 -1697.188 330 9.5803749e-39
6698.6685 -1721.5228 330 9.1229911e-39
6568.9067 -1708.7966 320 9.3992207e-39
6535.8896 -1723.2833 320 9.6750873e-39
6510.9844 -1749.3546 320 1.0042428e-38
6466.3823 -1771.9529 320 1.0135341e-38
6366.165 -1764.4362 310 1.032081e-38
6247.9883 -1743.5984 310 1.0228617e-38
5551.082 -1549.6353 280 8.2003328e-39
5565.5684 -1582.6525 280 8.7520576e-39
5524.4395 -1585.5546 280 8.2928941e-39
4868.6621 -1388.6892 250 7.8319132e-39
4873.3008 -1419.97 250 7.7393658e-39
4843.7568 -1414.7605 250 7.7408092e-39
4810.7393 -1429.2472 250 8.3858156e-39
4809.0029 -1439.0953 250 8.0191897e-39
4805.5303 -1458.7915 250 8.4772896e-39
4774.2495 -1463.4301 250 7.4645782e-39
4752.8164 -1469.8052 240 7.0039602e-39
4757.4551 -1501.0859 250 6.7259328e-39
4753.9824 -1520.7821 250 9.3974368e-39
4750.5098 -1540.4783 250 7.649317e-39
4738.9248 -1548.5898 240 9.1226506e-39
4643.917 -1511.5288 240 8.7542226e-39
4655.5254 -1676.0441 240 1.4839489e-38
4697.8203 -1724.1188 240 1.4194135e-38
4712.3066 -1757.136 250 1.3735299e-38
4681.0264 -1761.7745 240 1.3091019e-38
4677.5532 -1781.4707 240 1.2903749e-38
4665.9688 -1789.5823 240 1.2719012e-38
4662.4956 -1809.2784 240 1.2442059e-38
4209.1714 514.74756 200 2.1840181e-38
4186.0024 498.52441 200 2.1013655e-38
4184.2656 488.67633 200 2.1843052e-38
4190.6411 467.24365 200 2.2026006e-38
4179.0566 459.13208 200 2.0739964e-38
4177.3198 449.284 200 2.0834281e-38
4185.4316 437.69946 200 9.1269582e-39
4173.8467 429.58783 200 9.4935911e-39
4170.374 409.89166 200 1.2902641e-38
4157.0527 391.93201 190 1.1795946e-38
4166.9009 390.19556 200 1.1612993e-38
4229.4624 399.47278 200 1.1428602e-38
4290.2871 398.90198 200 1.2256922e-38
4309.9834 395.42902 200 1.1521507e-38
4308.2471 385.58093 200 1.1704109e-38
4294.9258 367.62128 200 1.1152733e-38
4293.1895 357.77319 200 1.1061617e-38
4291.4531 347.92511 200 1.1518275e-38
4297.8281 326.49249 200 1.1705532e-38
4307.6763 324.75601 200 1.1428245e-38
4368.501 324.18521 200 1.1612984e-38
4366.7646 314.33713 200 1.1982126e-38
4501.7354 331.15518 210 1.1617293e-38
4937.9292 386.24799 220 1.1334972e-38
4946.041 374.66339 220 6.2692818e-39
4995.2812 365.98102 220 6.8209996e-39
4970.3755 339.90973 220 2.350971e-38
4976.751 318.47711 220 2.3509873e-38
4963.4297 300.51743 220 9.9459527e-39
4950.1084 282.55777 220 1.6127297e-38
4958.2202 270.97321 220 2.3506164e-38
4923.4668 246.6384 220 2.3509796e-38
4241.666 123.15582 200 2.3509848e-38
4218.4971 106.93262 200 2.3509617e-38
3951.457 32.167725 190 2.3482713e-38
3947.9841 12.471573 190 2.3509886e-38
3946.2476 2.6234894 190 2.3509863e-38
3956.0957 0.88700867 190 2.3509839e-38
3768.4114 -26.944794 180 2.3509825e-38
3766.6748 -36.792877 180 2.350982e-38
3764.9385 -46.640945 180 2.3509817e-38
3763.2021 -56.489029 180 1.0971643e-38
3761.4653 -66.337105 180 9.5839987e-39
3759.729 -76.185181 180 9.0315508e-39
3757.9927 -86.033257 180 9.1233779e-39
3756.2561 -95.88134 180 8.7553212e-39
5035.9111 -209.82207 230 7.5571396e-39
4973.3496 -219.09933 230 6.9124834e-39
4960.0288 -237.05902 230 7.5560592e-39
4956.5557 -256.75519 230 8.2014286e-39
4953.083 -276.45132 230 7.0958027e-39
4939.7617 -294.41101 230 7.2823547e-39
4926.4409 -312.37067 220 9.2148616e-39
4852.2949 -329.75952 220 1.1983233e-38
4958.8872 -358.70892 230 1.7051832e-38
4946.7319 -427.64545 230 1.853018e-38
4962.9551 -450.81458 230 1.8990086e-38
4939.7861 -467.03775 230 1.9082993e-38
4926.4648 -484.99744 230 1.8992588e-38
4922.9922 -504.6936 230 1.9723686e-38
4929.3672 -526.12622 230 1.9359221e-38
4935.7422 -547.55884 230 1.5028927e-38
4942.1172 -568.99152 230 9.952763e-39
4968.1885 -593.89709 230 9.7687319e-39
5004.1079 -620.53918 230 9.120508e-39
5012.2197 -632.12378 230 8.4765679e-39
4989.0503 -648.34692 230 7.831909e-39
4947.9219 -651.24908 230 7.2798352e-39
6705.6143 -1682.1305 290 8.7545743e-39
6698.6685 -1721.5228 290 9.3055845e-39
6568.9067 -1708.7966 290 9.951307e-39
6545.7378 -1725.0198 290 9.8580366e-39
6528.9434 -1762.6757 290 9.8587527e-39
6486.0781 -1775.4259 290 1.0226829e-38
6376.0132 -1766.1727 280 1.0411562e-38
6275.7959 -1758.6559 280 1.0597391e-38
5560.9297 -1551.3717 250 7.7408007e-39
5565.5684 -1582.6525 250 8.2003342e-39
5524.4395 -1585.5546 250 8.2024837e-39
4876.7739 -1400.2738 230 7.8322691e-39
4873.3008 -1419.97 230 7.7393644e-39
4842.0205 -1424.6086 230 7.5571269e-39
4820.5879 -1430.9836 230 8.4769309e-39
4809.0029 -1439.0953 230 8.2010726e-39
4805.5303 -1458.7915 230 8.1081483e-39
4774.2495 -1463.4301 230 7.3727455e-39
4752.8164 -1469.8052 230 6.9110513e-39
4757.4551 -1501.0859 230 6.5415443e-39
4753.9824 -1520.7821 230 9.1240897e-39
4750.5098 -1540.4783 230 7.0061014e-39
4748.7729 -1550.3263 230 8.3865317e-39
4663.6372 -1687.6285 220 1.4838412e-38
4697.8203 -1724.1188 230 1.4283812e-38
4710.5703 -1766.984 230 1.3920058e-38
4681.0264 -1761.7745 230 1.327146e-38
4677.5532 -1781.4707 230 1.2812997e-38
4675.8164 -1791.3188 220 1.2903741e-38
4662.4956 -1809.2784 220 1.2533907e-38
4209.1714 514.74756 180 2.1008977e-38
4186.0024 498.52441 180 2.0179595e-38
4194.1138 486.93982 180 2.1193363e-38
4192.3774 477.09174 180 2.1374892e-38
4179.0566 459.13208 180 2.1745464e-38
4177.3198 449.284 180 2.1928412e-38
4197.0161 445.81104 180 5.5342559e-39
4193.543 426.11487 180 6.7237874e-39
4181.9585 418.0033 180 1.1062343e-38
4157.0527 391.93201 180 1.1061973e-38
4166.9009 390.19556 180 1.1886701e-38
4227.7261 389.62476 180 1.1244931e-38
4290.2871 398.90198 190 1.0969063e-38
4321.5684 403.54065 190 1.1611554e-38
4318.0952 383.84448 190 1.0877222e-38
4294.9258 367.62128 190 1.1060177e-38
4293.1895 357.77319 190 1.0967632e-38
4291.4531 347.92511 190 1.1061248e-38
4299.5645 336.34058 190 1.0969778e-38
4307.6763 324.75601 190 1.1520432e-38
4358.6533 325.92169 190 1.1337841e-38
4366.7646 314.33713 190 1.1431834e-38
4470.4551 326.51654 190 1.1981046e-38
4947.7773 384.51147 200 1.096906e-38
4946.041 374.66339 200 6.2682098e-39
5005.1289 364.24451 200 6.7302459e-39
4970.3755 339.90973 200 1.2025963e-38
4976.751 318.47711 200 2.3509831e-38
4963.4297 300.51743 200 8.5676859e-39
4958.2202 270.97321 200 2.3135599e-38
4241.666 123.15582 190 2.3509804e-38
4208.6484 108.6691 190 2.0005139e-38
4195.3276 90.709442 190 2.1375508e-38
3961.3052 30.431244 180 2.3493823e-38
3959.5688 20.58316 180 2.3509886e-38
3947.9841 12.471573 180 2.350988e-38
3758.5635 -25.208313 170 2.3509814e-38
3766.6748 -36.792877 180 2.3509817e-38
3764.9385 -46.640945 180 2.3509827e-38
3763.2021 -56.489029 180 1.0512453e-38
3761.4653 -66.337105 180 9.4921576e-39
3759.729 -76.185181 180 9.2170056e-39
3757.9927 -86.033257 180 9.033699e-39
3756.2561 -95.88134 180 8.8457246e-39
4968.7109 -187.81863 210 7.832646e-39
5016.2148 -206.34911 210 7.3734616e-39
4963.502 -217.36285 210 7.188713e-39
4950.1807 -235.32254 210 8.0173862e-39
4946.708 -255.01869 210 8.8467882e-39
4953.083 -276.45132 210 8.0188394e-39
4929.9141 -292.6745 210 9.4032046e-39
4916.5928 -310.63419 210 1.3823176e-38
4822.7505 -324.55011 200 1.6130946e-38
4980.3198 -352.3338 210 1.6592646e-38
4976.2764 -432.85489 210 1.7976661e-38
4962.9551 -450.81458 210 1.8894301e-38
4939.7861 -467.03775 210 1.9174111e-38
4926.4648 -484.99744 210 1.97237e-38
4922.9922 -504.6936 210 1.9450691e-38
4929.3672 -526.12622 210 1.8715288e-38
4935.7422 -547.55884 210 1.5302643e-38
4942.1172 -568.99152 210 9.4939442e-39
4968.1885 -593.89709 210 1.0595247e-38
5004.1079 -620.53918 210 8.9389852e-39
5012.2197 -632.12378 210 7.8344355e-39
4989.0503 -648.34692 210 7.740435e-39
4938.0732 -649.51257 210 7.2801925e-39
6733.4219 -1697.188 260 8.5694656e-39
6688.8203 -1719.7864 260 8.8467671e-39
6560.7949 -1697.212 250 9.1229967e-39
6545.7378 -1725.0198 250 9.4917736e-39
6528.9434 -1762.6757 250 9.8591156e-39
6466.3823 -1771.9529 250 9.9527462e-39
6376.0132 -1766.1727 250 1.0319375e-38
6285.6436 -1760.3925 250 1.0504478e-38
6205.123 -1756.3486 240 1.0593812e-38
5659.4106 -1568.7366 230 4.9814171e-39
5555.7207 -1580.9159 230 8.6602361e-39
5542.3994 -1598.8756 230 8.2939675e-39
4896.4702 -1403.7467 210 7.5564067e-39
4873.3008 -1419.97 210 7.5567696e-39
4842.0205 -1424.6086 210 7.6478933e-39
4820.5879 -1430.9836 210 8.8453462e-39
4809.0029 -1439.0953 210 8.0195526e-39
4805.5303 -1458.7915 210 8.0170401e-39
4774.2495 -1463.4301 210 7.2801869e-39
4752.8164 -1469.8052 210 6.9121289e-39
4757.4551 -1501.0859 210 6.3585922e-39
4753.9824 -1520.7821 210 9.3988787e-39
4750.5098 -1540.4783 210 6.6376832e-39
4748.7729 -1550.3263 210 8.7549485e-39
4673.4854 -1689.3651 210 1.4101589e-38
4697.8203 -1724.1188 210 1.4190546e-38
4710.5703 -1766.984 210 1.3916463e-38
4681.0264 -1761.7745 210 1.2907e-38
4677.5532 -1781.4707 210 1.2721884e-38
4675.8164 -1791.3188 210 1.2352382e-38
4662.4956 -1809.2784 210 1.2075437e-38
4209.1714 514.74756 170 2.1287725e-38
4186.0024 498.52441 170 2.1380984e-38
4194.1138 486.93982 170 2.147499e-38
4192.3774 477.09174 170 2.1656147e-38
4188.9043 457.39557 170 2.1009325e-38
4187.168 447.54755 170 2.1288794e-38
4197.0161 445.81104 170 3.5027039e-39
4193.543 426.11487 170 6.2595666e-39
4181.9585 418.0033 170 1.1521147e-38
4158.7896 401.78009 170 1.0875068e-38
4155.3164 382.08392 170 1.0876519e-38
4217.8779 391.36121 170 1.1428602e-38
4290.2871 398.90198 170 1.0966559e-38
4321.5684 403.54065 170 1.1060537e-38
4318.0952 383.84448 170 1.1517562e-38
4294.9258 367.62128 170 1.0692117e-38
4293.1895 357.77319 170 1.041698e-38
4291.4531 347.92511 170 1.0875791e-38
4299.5645 336.34058 170 1.1058736e-38
4317.5244 323.01953 170 1.142788e-38
4358.6533 325.92169 170 1.1154529e-38
4366.7646 314.33713 180 1.1153445e-38
4427.5898 313.76633 180 1.1797378e-38
4934.4561 366.55182 190 6.2660476e-39
4983.6963 357.86945 190 6.8220744e-39
4960.5273 341.64624 190 2.3509674e-38
4957.0547 321.95007 190 2.3509818e-38
4953.5815 302.25391 190 8.6605864e-39
4940.2607 284.29425 190 1.6218769e-38
4946.6357 262.8616 190 2.0929736e-38
4880.6016 233.88818 180 2.3509049e-38
4220.2334 116.7807 170 2.3509779e-38
4177.3682 104.03049 170 1.8890546e-38
4109.5972 65.208969 170 2.35096e-38
4119.4453 63.472488 170 1.56725e-38
3982.7378 36.806366 170 1.242908e-38
3969.4167 18.84668 170 2.3509877e-38
3758.5635 -25.208313 170 2.3509831e-38
3766.6748 -36.792877 170 2.350982e-38
3764.9385 -46.640945 170 2.3509821e-38
3763.2021 -56.489029 170 1.0786156e-38
3761.4653 -66.337105 170 9.2148546e-39
3759.729 -76.185181 170 9.2159378e-39
3757.9927 -86.033257 170 8.6634857e-39
3756.2561 -95.88134 170 9.3074062e-39
4968.7109 -187.81863 190 7.65041e-39
5026.0635 -208.08559 190 7.4642237e-39
4963.502 -217.36285 190 7.7397344e-39
4948.4443 -245.17061 190 7.9255535e-39
4946.708 -255.01869 190 8.8464336e-39
4943.2349 -274.71484 190 9.3992613e-39
4929.9141 -292.6745 190 1.2534962e-38
4916.5928 -310.63419 190 1.5853287e-38
4812.9023 -322.8136 180 1.6224933e-38
5029.5605 -361.0162 190 1.6868511e-38
4976.2764 -432.85489 190 1.825108e-38
4972.8032 -452.55106 190 1.8713482e-38
4939.7861 -467.03775 190 1.8989008e-38
4926.4648 -484.99744 190 1.8622735e-38
4922.9922 -504.6936 190 1.8897171e-38
4929.3672 -526.12622 190 1.889716e-38
4935.7422 -547.55884 190 1.5114667e-38
4951.9653 -570.72803 190 9.9513252e-39
4968.1885 -593.89709 190 9.8598485e-39
5013.9561 -622.27563 190 9.1233681e-39
5012.2197 -632.12378 190 7.741528e-39
4979.2021 -646.61047 190 7.8308328e-39
4938.0732 -649.51257 190 7.3713064e-39
6718.3643 -1724.9957 220 8.9371705e-39
6578.7549 -1710.5331 220 8.939676e-39
6553.8496 -1736.6044 220 9.5810938e-39
6538.792 -1764.4121 220 9.5836049e-39
6476.2305 -1773.6895 220 9.8594757e-39
6376.0132 -1766.1727 220 1.0227537e-38
6267.6846 -1747.0714 220 1.0596676e-38
5649.5625 -1567 200 7.0943453e-39
5570.7783 -1553.1082 200 7.8344257e-39
5555.7207 -1580.9159 200 8.2014061e-39
5542.3994 -1598.8756 200 8.5691125e-39
5501.2705 -1601.7777 200 8.3865149e-39
4960.1973 -1445.4464 190 7.3727343e-39
4883.1494 -1421.7064 190 7.4627789e-39
4842.0205 -1424.6086 190 7.5553333e-39
4820.5879 -1430.9836 190 8.6623913e-39
4809.0029 -1439.0953 190 8.2946962e-39
4805.5303 -1458.7915 190 7.5574927e-39
4774.2495 -1463.4301 190 7.0972418e-39
4752.8164 -1469.8052 190 6.7280936e-39
4757.4551 -1501.0859 190 6.3582306e-39
4753.9824 -1520.7821 190 9.3970711e-39
4750.5098 -1540.4783 190 7.0046664e-39
4748.7729 -1550.3263 190 9.304888e-39
4705.9316 -1735.7032 190 1.4745857e-38
4720.4185 -1768.7205 190 1.4192335e-38
4681.0264 -1761.7745 190 1.2996675e-38
4677.5532 -1781.4707 190 1.3272178e-38
4675.8164 -1791.3188 190 1.2534968e-38
4662.4956 -1809.2784 190 1.2440986e-38
4209.1714 514.74756 160 2.1745464e-38
4186.0024 498.52441 160 2.1287712e-38
4182.5293 478.82825 160 2.1381718e-38
4192.3774 477.09174 160 2.248482e-38
4179.0566 459.13208 160 2.1655424e-38
4177.3198 449.284 160 2.1565374e-38
4185.4316 437.69946 160 4.6980143e-39
4193.543 426.11487 160 5.617437e-39
4181.9585 418.0033 160 1.1892443e-38
4157.0527 391.93201 160 1.0876512e-38
4155.3164 382.08392 160 1.1152371e-38
4208.0298 393.09772 160 1.1060536e-38
4290.2871 398.90198 160 1.0783591e-38
4321.5684 403.54065 160 1.0418049e-38
4329.6797 391.95605 160 1.0508444e-38
4294.9258 367.62128 160 1.0599202e-38
4293.1895 357.77319 160 1.0781803e-38
4291.4531 347.92511 160 1.0507006e-38
4299.5645 336.34058 160 1.0599553e-38
4307.6763 324.75601 160 1.0967978e-38
4347.0684 317.81009 160 1.0968696e-38
4356.9165 316.07361 160 1.1242416e-38
4406.1572 307.3912 160 1.124457e-38
4924.6084 368.28833 170 5.8075904e-39
4973.8486 359.6059 170 5.5270434e-39
4948.9429 333.53464 170 1.9635026e-38
4945.4697 313.83847 170 2.2768953e-38
4941.9971 294.1423 170 9.8558842e-39
4930.4121 286.03073 170 1.5669172e-38
4936.7876 264.59808 170 1.8526556e-38
4870.7529 235.62466 170 2.0926131e-38
4179.1045 113.87854 160 2.350983e-38
4155.9355 97.655365 160 2.3509607e-38
4089.9009 68.681931 160 2.35096e-38
4088.1646 58.833862 160 1.7232611e-38
3992.5859 35.069885 160 9.1190843e-39
3979.2649 17.110199 160 2.350988e-38
3758.5635 -25.208313 160 2.350982e-38
3766.6748 -36.792877 160 2.3509806e-38
3764.9385 -46.640945 160 2.350981e-38
3763.2021 -56.489029 160 1.0876559e-38
3761.4653 -66.337105 160 9.5847133e-39
3759.729 -76.185181 160 8.9397097e-39
3757.9927 -86.033257 160 8.8464336e-39
3756.2561 -95.88134 160 8.5716516e-39
4958.8633 -186.08215 170 7.8333621e-39
5016.2148 -206.34911 170 7.5578542e-39
4963.502 -217.36285 170 7.7418839e-39
4948.4443 -245.17061 170 8.2010642e-39
4946.708 -255.01869 170 9.3070404e-39
4943.2349 -274.71484 170 1.0509175e-38
4929.9141 -292.6745 170 1.4470356e-38
4916.5928 -310.63419 170 1.558064e-38
4995.9722 -436.32785 170 1.8343637e-38
4972.8032 -452.55106 170 1.862023e-38
4939.7861 -467.03775 170 1.8713136e-38
4926.4648 -484.99744 170 1.9448188e-38
4922.9922 -504.6936 170 1.8806045e-38
4929.3672 -526.12622 170 1.9263061e-38
4935.7422 -547.55884 170 1.456257e-38
4951.9653 -570.72803 170 9.9513295e-39
4968.1885 -593.89709 170 9.7680116e-39
5013.9561 -622.27563 170 8.8457162e-39
5012.2197 -632.12378 170 7.7426e-39
4979.2021 -646.61047 170 7.7393616e-39
4938.0732 -649.51257 170 7.3716637e-39
6588.603 -1712.2697 190 9.2144693e-39
6553.8496 -1736.6044 190 9.1215576e-39
6538.792 -1764.4121 190 9.4917736e-39
6476.2305 -1773.6895 190 9.4928512e-39
5611.9067 -1550.2061 180 7.5549689e-39
5570.7783 -1553.1082 180 8.2003328e-39
5565.5684 -1582.6525 180 8.2928801e-39
5552.2476 -1600.6121 180 8.0177422e-39
5501.2705 -1601.7777 180 8.6616696e-39
4883.1494 -1421.7064 170 7.2798254e-39
4851.8682 -1426.3451 170 7.6478792e-39
4820.5879 -1430.9836 170 8.3847338e-39
4807.2666 -1448.9434 170 8.2932543e-39
4805.5303 -1458.7915 170 7.8333621e-39
4774.2495 -1463.4301 170 7.2809072e-39
4760.9287 -1481.3898 170 6.91141e-39
4757.4551 -1501.0859 170 6.4511423e-39
4753.9824 -1520.7821 170 9.1226422e-39
4760.3574 -1542.2147 170 6.7288012e-39
4756.8848 -1561.9109 170 8.4790832e-39
4673.4854 -1689.3651 170 1.456255e-38
4687.9722 -1722.3822 170 1.391683e-38
4710.5703 -1766.984 170 1.3457283e-38
4681.0264 -1761.7745 170 1.3182132e-38
4677.5532 -1781.4707 170 1.2904836e-38
4665.9688 -1789.5823 170 1.1985753e-38
4662.4956 -1809.2784 170 1.2534259e-38
