# .PCD v0.7 - Point Cloud Data file format
VERSION 0.7
FIELDS x y z rgb
SIZE 4 4 4 4
TYPE F F F F
COUNT 1 1 1 1
WIDTH 1232
HEIGHT 1
VIEWPOINT 0 0 0 1 0 0 0
POINTS 1232
DATA ascii
3867.0547 -215.24055 300 1.8343291e-38
3867.0547 -215.24055 300 1.6967907e-38
4492.5918 -134.59492 450 1.8251831e-38
4489.5015 -144.10548 450 1.7057947e-38
4508.5225 -150.28583 450 1.5493504e-38
4514.9429 -162.88655 450 1.7241621e-38
4973.5801 -175.21664 570 1.6502244e-38
4980.0005 -187.81737 570 1.7606106e-38
4995.9312 -203.50827 570 1.8255774e-38
4992.8408 -213.01884 570 2.0836163e-38
4999.2617 -225.61957 570 2.3509821e-38
4996.1714 -235.13014 580 2.3509853e-38
5021.6128 -253.91121 580 2.3509855e-38
5040.6338 -260.09155 590 2.3509818e-38
5002.832 -279.35272 580 2.3509845e-38
5568.9355 -284.54224 720 2.350987e-38
5534.2231 -294.29288 710 2.3509862e-38
5063.7056 -383.24878 600 2.3509886e-38
5028.9937 -392.99942 590 2.3509886e-38
5003.792 -405.84021 590 2.3509886e-38
4997.6118 -424.86133 590 2.3509886e-38
4994.5215 -434.37189 590 2.3509873e-38
4988.3413 -453.39304 590 1.7878714e-38
4975.7402 -459.81342 590 1.7510619e-38
4969.5601 -478.83456 590 1.7603892e-38
5017.1128 -494.2854 600 1.6403577e-38
5125.0596 -550.38855 630 1.0042806e-38
5121.9692 -559.89911 630 1.188598e-38
5125.2993 -582.01044 630 1.0873283e-38
5131.7197 -594.61115 640 1.4468898e-38
5730.165 -694.42621 790 1.3918958e-38
5632.2095 -704.65698 760 1.4747259e-38
5616.5186 -720.58789 760 1.3549099e-38
5660.9814 -745.54932 770 9.3124481e-39
5705.4438 -770.51074 790 4.8813069e-39
5727.7954 -798.80237 790 1.9625716e-38
5702.5938 -811.64319 790 1.9814415e-38
7890.2642 -1554.0039 1370 1.1888835e-38
7925.6963 -1639.1189 1390 1.29923e-38
7979.9097 -1698.7922 1400 1.585432e-38
7910.4854 -1718.2936 1390 1.6962099e-38
7898.1245 -1756.3358 1390 1.6683366e-38
7876.2534 -1791.2878 1390 1.5118916e-38
7778.2979 -1801.5187 1360 1.1889191e-38
7842.0215 -1864.2822 1380 1.4562863e-38
7813.73 -1886.6335 1380 1.9171565e-38
7836.5615 -1978.1689 1390 1.9542853e-38
7805.1797 -2010.0309 1390 2.0741398e-38
7767.3774 -2029.2921 1380 2.3504364e-38
7745.5063 -2064.2441 1380 2.3509768e-38
7704.6138 -2093.0161 1370 2.3509769e-38
7609.748 -2093.7361 1350 1.5942561e-38
7654.4507 -2150.3193 1360 1.4740776e-38
5949.2095 -1638.3115 910 1.3453282e-38
5879.5454 -1626.1909 900 9.308097e-39
5835.3228 -1632.8514 880 1.0597767e-38
5829.1426 -1651.8726 880 8.4797867e-39
5794.4307 -1661.6232 880 6.2681986e-39
5778.7393 -1677.5542 870 5.6228334e-39
5617.0601 -1625.0212 830 5.0689323e-39
5487.002 -1572.2483 800 3.226826e-39
5026.6846 -1338.5652 670 3.777846e-39
5020.5044 -1357.5863 670 3.6856588e-39
5007.9038 -1364.0067 670 3.4101523e-39
5001.7231 -1383.0278 660 2.6733131e-39
4960.5908 -1380.1777 660 2.8569813e-39
4922.5488 -1367.8171 640 2.8573387e-39
4890.9268 -1368.0571 640 2.6740264e-39
4878.3262 -1374.4775 630 2.6736663e-39
4872.1455 -1393.4987 630 3.4144571e-39
4859.5449 -1399.9191 630 1.0596336e-38
4843.854 -1415.85 630 1.3916069e-38
4840.7637 -1425.3606 630 1.1793806e-38
4834.5835 -1444.3817 630 1.3086312e-38
4831.4932 -1453.8923 630 1.3546219e-38
4799.8716 -1454.1323 620 1.3179959e-38
4771.3398 -1444.8618 620 1.3089909e-38
5026.4751 -1727.5382 700 2.3137811e-38
4953.481 -1693.3063 680 2.3415105e-38
4998.1836 -1749.8895 690 2.2124748e-38
5017.4448 -1787.6918 700 2.1847777e-38
4849.3447 -1722.5581 650 2.0188281e-38
4849.585 -1754.1799 660 2.0279732e-38
4805.1221 -1729.2185 640 1.8348685e-38
4808.4521 -1751.3298 650 1.8990789e-38
4795.8516 -1757.7502 640 1.7884814e-38
4783.251 -1764.1707 640 1.7696833e-38
4761.1396 -1767.5009 640 1.4569037e-38
4700.7461 -1726.8485 620 6.6337792e-39
4614.9111 -1667.4152 590 2.4899995e-39
4570.4482 -1642.4537 580 9.6801558e-39
4541.9165 -1633.1832 570 9.9581776e-39
4513.3848 -1623.9127 570 1.1610484e-38
4500.7842 -1630.3331 560 7.9266325e-39
4497.6938 -1639.8438 560 5.1597015e-39
4147.6011 -96.103149 350 1.7886644e-38
4147.6011 -96.103149 350 1.8442317e-38
4166.6221 -102.28348 360 1.8167888e-38
4188.7334 -98.953247 360 1.8533452e-38
4251.9775 -98.473114 380 2.0187568e-38
4270.9985 -104.65347 380 1.9643005e-38
3873.2351 -196.21944 300 2.0281213e-38
3879.6555 -208.82016 300 1.8350485e-38
3879.6555 -208.82016 300 1.9267397e-38
3876.5652 -218.33073 300 1.7237686e-38
3876.5652 -218.33073 300 1.779264e-38
4492.5918 -134.59492 440 1.8622386e-38
4489.5015 -144.10548 440 1.8251806e-38
4495.9219 -156.70622 440 1.6134551e-38
4514.9429 -162.88655 440 1.6317162e-38
4565.5859 -168.82684 460 1.6504788e-38
4606.7183 -171.67694 460 1.5583906e-38
4954.5586 -169.0363 550 1.6869251e-38
4973.5801 -175.21664 550 1.6960005e-38
4989.5107 -190.90755 560 1.7241616e-38
4995.9312 -203.50827 560 1.9818036e-38
4992.8408 -213.01884 560 2.2768676e-38
4999.2617 -225.61957 560 2.2683319e-38
4996.1714 -235.13014 560 2.3509859e-38
5012.1025 -250.82104 570 2.3509858e-38
5028.0332 -266.51196 570 2.3509817e-38
5002.832 -279.35272 570 2.3509859e-38
5559.4248 -281.45209 690 2.3509851e-38
5534.2231 -294.29288 690 2.350988e-38
5063.7056 -383.24878 590 2.3509884e-38
5028.9937 -392.99942 580 2.3509881e-38
5003.792 -405.84021 580 2.3509886e-38
5007.1221 -427.95151 580 2.3509886e-38
4994.5215 -434.37189 580 2.350988e-38
4988.3413 -453.39304 570 1.7235479e-38
4975.7402 -459.81342 570 1.6867046e-38
4960.0498 -475.74438 570 1.7051436e-38
5134.5698 -553.47876 620 1.0686012e-38
5140.9902 -566.07947 620 1.2162215e-38
5134.8101 -585.10059 620 1.1056583e-38
5122.2095 -591.521 620 1.474332e-38
5657.6514 -723.43799 750 1.2812258e-38
5699.0234 -757.91003 760 1.299771e-38
5743.4863 -782.8714 780 7.1004788e-39
5768.9277 -801.65247 780 9.0243201e-39
7890.2642 -1554.0039 1330 1.2440574e-38
7935.2065 -1642.209 1350 1.243806e-38
7960.8882 -1692.6119 1360 1.5398733e-38
7910.4854 -1718.2936 1350 1.7052496e-38
7888.6143 -1753.2456 1350 1.6870263e-38
7876.2534 -1791.2878 1350 1.447284e-38
7768.7871 -1798.4285 1320 1.1796638e-38
7832.5112 -1861.192 1340 1.4377741e-38
7813.73 -1886.6335 1340 1.9634354e-38
7855.5825 -1984.3494 1360 1.9908408e-38
7814.6899 -2013.1211 1350 1.9082213e-38
7776.8882 -2032.3822 1340 2.1469969e-38
7755.0166 -2067.3345 1340 1.9629299e-38
7714.1245 -2096.106 1330 2.0465147e-38
7600.2378 -2090.646 1310 1.6216295e-38
7663.9614 -2153.4097 1330 1.4192278e-38
5923.7681 -1619.5305 880 1.4190486e-38
5851.0137 -1616.9204 860 8.9403851e-39
5781.3496 -1604.7998 850 1.1426793e-38
5727.6162 -1608.3701 830 8.2989786e-39
5642.0215 -1580.5586 810 6.6351664e-39
5642.2617 -1612.1804 810 5.7157465e-39
5556.666 -1584.3689 790 4.7005254e-39
5433.0293 -1544.1968 760 3.2257498e-39
5026.6846 -1338.5652 650 3.5019766e-39
5020.5044 -1357.5863 650 3.9640309e-39
5007.9038 -1364.0067 650 3.4101481e-39
4992.2129 -1379.9377 650 2.9502475e-39
4970.1016 -1383.2679 640 2.5818322e-39
4922.5488 -1367.8171 630 2.7662136e-39
4900.4375 -1371.1472 620 2.6733033e-39
4878.3262 -1374.4775 620 2.8573359e-39
4872.1455 -1393.4987 620 4.6097563e-39
4859.5449 -1399.9191 620 1.0043885e-38
4843.854 -1415.85 610 1.3731322e-38
4840.7637 -1425.3606 620 1.170124e-38
4834.5835 -1444.3817 610 1.1798457e-38
4831.4932 -1453.8923 610 1.3362558e-38
4799.8716 -1454.1323 610 1.3638052e-38
4771.3398 -1444.8618 600 1.3731687e-38
5064.9976 -1803.1426 700 2.1941077e-38
5100.1899 -1856.6356 710 2.258355e-38
5128.9614 -1897.5281 720 2.1569407e-38
4849.3447 -1722.5581 640 2.0459456e-38
4849.585 -1754.1799 640 1.9912758e-38
4805.1221 -1729.2185 630 1.8990812e-38
4808.4521 -1751.3298 630 1.8711352e-38
4795.8516 -1757.7502 630 1.7885544e-38
4783.251 -1764.1707 630 1.7512093e-38
4770.6504 -1770.5911 620 1.5029279e-38
4684.8149 -1711.1577 600 7.7372583e-39
4598.98 -1651.7242 580 2.4889247e-39
4570.4482 -1642.4537 570 8.3004485e-39
4532.4062 -1630.0931 560 9.7737975e-39
4506.9644 -1611.312 550 1.1426836e-38
4503.874 -1620.8226 550 9.0297431e-39
4488.1836 -1636.7535 550 5.6192363e-39
4160.2017 -89.682739 350 1.7884852e-38
4157.1118 -99.193298 350 1.816394e-38
4166.6221 -102.28348 350 1.844088e-38
4176.1328 -105.37364 350 1.8075332e-38
4195.1538 -111.55399 360 1.8810392e-38
4217.2651 -108.22375 360 1.9273868e-38
4248.8872 -107.98369 370 2.0005336e-38
3879.6555 -208.82016 290 1.7598907e-38
3879.6555 -208.82016 290 1.7330944e-38
3876.5652 -218.33073 300 1.7979912e-38
4495.6816 -125.08435 430 1.7978832e-38
4502.1021 -137.68509 430 1.9266682e-38
4511.6128 -140.77525 430 1.7519301e-38
4518.0332 -153.37599 430 1.7423856e-38
4527.5435 -156.46616 440 1.6225671e-38
4565.5859 -168.82684 450 1.6046672e-38
4584.6069 -175.00717 450 1.5765776e-38
4973.5801 -175.21664 540 1.6961792e-38
4989.5107 -190.90755 540 1.8992237e-38
4995.9312 -203.50827 540 1.9910957e-38
4992.8408 -213.01884 550 2.1669518e-38
4999.2617 -225.61957 550 2.3509853e-38
4996.1714 -235.13014 550 2.3509872e-38
5012.1025 -250.82104 550 2.3509845e-38
5028.0332 -266.51196 560 2.350981e-38
5002.832 -279.35272 550 2.3509867e-38
5549.9141 -278.36191 680 2.3509876e-38
5534.2231 -294.29288 670 2.350988e-38
5063.7056 -383.24878 570 2.3509886e-38
5028.9937 -392.99942 570 2.3509884e-38
5003.792 -405.84021 560 2.3509886e-38
5007.1221 -427.95151 560 2.3509886e-38
4994.5215 -434.37189 560 2.3509866e-38
4988.3413 -453.39304 560 1.7324438e-38
4975.7402 -459.81342 560 1.6772695e-38
5147.1709 -547.05835 600 1.0136789e-38
5150.501 -569.16962 610 1.1429684e-38
5147.4106 -578.68018 610 1.0965472e-38
5112.6987 -588.43079 600 1.364128e-38
5128.6299 -604.1217 600 1.3824607e-38
5657.6514 -723.43799 730 1.4285211e-38
5730.6455 -757.66992 750 1.327071e-38
5775.1084 -782.63135 760 1.2624266e-38
5816.4805 -817.10333 780 5.5328056e-39
7880.7534 -1550.9137 1290 1.2530254e-38
7944.7173 -1645.2992 1310 1.2717145e-38
7941.8672 -1686.4316 1320 1.6042293e-38
7891.4644 -1712.1132 1310 1.8065212e-38
7879.1035 -1750.1555 1310 1.6687311e-38
7857.2324 -1785.1075 1300 1.484054e-38
7749.7661 -1792.2482 1280 1.216506e-38
7784.958 -1845.7412 1290 1.5203187e-38
7775.6875 -1874.2729 1290 1.9446343e-38
7865.0933 -1987.4395 1320 1.8345397e-38
7814.6899 -2013.1211 1310 1.9913066e-38
7786.3984 -2035.4724 1300 2.3509762e-38
7745.5063 -2064.2441 1300 2.3509762e-38
7714.1245 -2096.106 1290 2.3509774e-38
5822.2422 -1576.0281 830 1.4834769e-38
5743.0674 -1560.8173 810 8.9385956e-39
5663.8926 -1545.6066 790 1.1519004e-38
5638.6914 -1558.4473 790 8.8492755e-39
5597.5586 -1555.5972 780 5.8994147e-39
5562.8467 -1565.3478 770 5.6217418e-39
5547.1558 -1581.2788 770 4.5182823e-39
5442.5396 -1547.287 740 3.7789236e-39
5026.6846 -1338.5652 630 3.2264715e-39
5020.5044 -1357.5863 630 4.0558734e-39
5007.9038 -1364.0067 630 3.5016207e-39
4992.2129 -1379.9377 630 3.1335584e-39
4970.1016 -1383.2679 620 2.7658577e-39
4932.0591 -1370.9072 620 2.9491713e-39
4900.4375 -1371.1472 610 2.9480951e-39
4878.3262 -1374.4775 600 2.4889219e-39
4872.1455 -1393.4987 600 4.5164774e-39
4859.5449 -1399.9191 600 1.0412298e-38
4843.854 -1415.85 600 1.3455091e-38
4840.7637 -1425.3606 600 1.2162933e-38
4834.5835 -1444.3817 600 1.2532429e-38
4831.4932 -1453.8923 600 1.3730254e-38
4799.8716 -1454.1323 590 1.3728473e-38
4771.3398 -1444.8618 580 1.3089917e-38
4830.3237 -1716.3778 620 2.0281185e-38
4852.6748 -1744.6694 620 1.9819136e-38
4795.6113 -1726.1284 610 1.917305e-38
4808.4521 -1751.3298 620 1.8989005e-38
4786.3408 -1754.66 610 1.8070641e-38
4783.251 -1764.1707 610 1.723766e-38
4770.6504 -1770.5911 610 1.6222797e-38
4726.1875 -1745.6296 600 8.0170751e-39
4608.4902 -1654.8145 560 3.225052e-39
4560.9375 -1639.3636 550 7.6518435e-39
4541.9165 -1633.1832 550 1.0138617e-38
4506.9644 -1611.312 540 1.0876168e-38
4500.7842 -1630.3331 540 9.5829197e-39
4497.6938 -1639.8438 540 6.5401122e-39
4160.2017 -89.682739 340 1.7334883e-38
4169.7124 -92.772919 340 1.7246677e-38
4179.2227 -95.863068 350 1.853128e-38
4188.7334 -98.953247 350 1.899082e-38
4195.1538 -111.55399 350 1.8074257e-38
4217.2651 -108.22375 360 1.8438013e-38
4223.6855 -120.82449 360 1.8256488e-38
4245.7969 -117.49426 360 2.000461e-38
4476.6606 -118.90402 410 1.473902e-38
4495.6816 -125.08435 420 1.861735e-38
4495.6816 -125.08435 420 1.9085888e-38
4502.1021 -137.68509 420 1.9269917e-38
4511.6128 -140.77525 420 1.6964331e-38
4518.0332 -153.37599 420 1.6414751e-38
4537.0542 -159.55634 430 1.6685559e-38
4568.6758 -159.31627 440 1.5672531e-38
4584.6069 -175.00717 440 1.4571549e-38
4983.0903 -178.30681 530 1.7421329e-38
4989.5107 -190.90755 530 1.7516416e-38
4995.9312 -203.50827 530 2.1110229e-38
5002.3516 -216.10901 530 1.8717121e-38
4999.2617 -225.61957 530 2.3509827e-38
5005.6816 -238.22031 540 2.3509866e-38
5021.6128 -253.91121 540 2.3509845e-38
5028.0332 -266.51196 540 2.3509824e-38
5002.832 -279.35272 540 2.3509848e-38
5549.9141 -278.36191 660 2.350987e-38
5534.2231 -294.29288 660 2.3509862e-38
5063.7056 -383.24878 560 2.3509886e-38
5038.5039 -396.08957 550 2.3509886e-38
5003.792 -405.84021 550 2.3509873e-38
5007.1221 -427.95151 550 2.3509883e-38
4994.5215 -434.37189 550 2.3509863e-38
4988.3413 -453.39304 550 1.6592251e-38
4975.7402 -459.81342 550 1.8150942e-38
5156.6812 -550.1485 590 9.8605688e-39
5163.1016 -562.74927 590 1.1887429e-38
5147.4106 -578.68018 590 1.0320112e-38
5112.6987 -588.43079 580 1.3271439e-38
5106.5186 -607.45197 580 1.2813689e-38
5721.1348 -754.57977 730 1.4008266e-38
5822.6611 -798.08215 750 1.3359325e-38
5914.6768 -838.49445 780 1.1796677e-38
7874.0928 -1506.691 1250 1.2254739e-38
7880.7534 -1550.9137 1250 1.2072518e-38
7954.228 -1648.3894 1280 1.3359285e-38
7922.8462 -1680.2512 1270 1.5671738e-38
7900.9746 -1715.2034 1270 1.7149e-38
7879.1035 -1750.1555 1270 1.6134503e-38
7866.7427 -1788.1978 1270 1.4383512e-38
7730.7451 -1786.0677 1240 1.2714997e-38
7746.916 -1833.3806 1240 1.6219836e-38
7794.709 -1880.4532 1260 2.3508682e-38
7865.0933 -1987.4395 1280 2.3509771e-38
7805.1797 -2010.0309 1270 2.3509768e-38
7776.8882 -2032.3822 1260 2.3509769e-38
7735.9956 -2061.1541 1260 2.3509806e-38
7685.5928 -2086.8354 1250 2.3509768e-38
5749.2476 -1541.7961 790 1.4926959e-38
5679.5835 -1529.6755 770 8.573769e-39
5635.3608 -1536.3361 770 1.1981037e-38
5629.1807 -1555.3572 760 9.0325849e-39
5588.0479 -1552.5071 750 6.0841605e-39
5553.3359 -1562.2577 750 5.7146605e-39
5528.1348 -1575.0984 740 4.9774556e-39
5407.5874 -1525.4156 710 4.2388242e-39
5026.6846 -1338.5652 620 3.2253953e-39
5020.5044 -1357.5863 620 4.1455537e-39
5007.9038 -1364.0067 620 3.5023451e-39
4992.2129 -1379.9377 610 2.6733075e-39
4970.1016 -1383.2679 610 2.6740236e-39
4928.9688 -1380.4177 600 2.4899925e-39
4900.4375 -1371.1472 590 2.5803916e-39
4878.3262 -1374.4775 590 2.4889177e-39
4872.1455 -1393.4987 590 4.0558706e-39
4859.5449 -1399.9191 590 9.9531063e-39
4846.9443 -1406.3395 580 1.2903011e-38
4840.7637 -1425.3606 580 1.1886719e-38
4834.5835 -1444.3817 580 1.2347673e-38
4831.4932 -1453.8923 580 1.373026e-38
4799.8716 -1454.1323 580 1.3360752e-38
4761.8291 -1441.7716 570 1.3182117e-38
4830.3237 -1716.3778 600 1.9912039e-38
4843.1646 -1741.5792 610 1.9819476e-38
4795.6113 -1726.1284 600 1.8806064e-38
4808.4521 -1751.3298 600 1.8436569e-38
4786.3408 -1754.66 600 1.8525506e-38
4783.251 -1764.1707 600 1.751496e-38
4767.5601 -1780.1016 590 1.6592282e-38
4758.0493 -1777.0115 590 9.5815198e-39
4614.9111 -1667.4152 550 3.2257737e-39
4560.9375 -1639.3636 540 6.4565401e-39
4541.9165 -1633.1832 530 9.4982714e-39
4503.874 -1620.8226 530 1.0695006e-38
4500.7842 -1630.3331 520 9.5847217e-39
4497.6938 -1639.8438 520 7.0932845e-39
4169.7124 -92.772919 340 1.7057584e-38
4169.7124 -92.772919 340 1.7151591e-38
4179.2227 -95.863068 340 1.8349762e-38
4198.2441 -102.04341 340 1.8441961e-38
4207.7549 -105.13359 350 1.7890586e-38
4217.2651 -108.22375 350 1.6138515e-38
4226.7759 -111.31392 350 1.8528054e-38
4245.7969 -117.49426 360 1.7431403e-38
4255.3076 -120.58443 360 1.9822725e-38
4476.6606 -118.90402 400 1.2158998e-38
4486.1709 -121.99419 410 1.54791e-38
4495.6816 -125.08435 410 1.9265612e-38
4502.1021 -137.68509 410 1.8072828e-38
4511.6128 -140.77525 410 1.87128e-38
4518.0332 -153.37599 410 1.6691333e-38
4537.0542 -159.55634 420 1.632111e-38
4568.6758 -159.31627 430 1.6223876e-38
4597.208 -168.58678 430 1.5396995e-38
4983.0903 -178.30681 510 1.6590855e-38
4989.5107 -190.90755 520 1.705435e-38
4995.9312 -203.50827 520 1.9170185e-38
5002.3516 -216.10901 520 2.2491747e-38
5008.772 -228.70975 520 2.3509831e-38
5005.6816 -238.22031 520 2.3509863e-38
5021.6128 -253.91121 530 2.3509846e-38
5028.0332 -266.51196 530 2.3509834e-38
5002.832 -279.35272 530 2.3509849e-38
5559.4248 -281.45209 640 2.3509838e-38
5534.2231 -294.29288 640 2.3509846e-38
5063.7056 -383.24878 540 2.3509881e-38
5038.5039 -396.08957 540 2.3509879e-38
5013.3027 -408.93036 530 2.3509886e-38
5007.1221 -427.95151 530 2.3509886e-38
4994.5215 -434.37189 530 2.3509866e-38
4988.3413 -453.39304 530 1.6771989e-38
4975.7402 -459.81342 530 1.6313875e-38
5156.6812 -550.1485 580 1.0228264e-38
5163.1016 -562.74927 580 1.2348047e-38
5156.9214 -581.77039 580 9.9574293e-39
5112.6987 -588.43079 570 1.2996994e-38
5097.0078 -604.36182 570 1.2815837e-38
5141.4707 -629.32318 580 1.29988e-38
5651.4707 -742.45911 690 1.3549453e-38
5863.7935 -800.93231 740 1.3365767e-38
5974.8301 -847.5249 770 1.2445977e-38
7874.0928 -1506.691 1210 1.2623167e-38
7871.2427 -1547.8235 1210 1.244129e-38
8004.6309 -1622.7078 1250 1.2807198e-38
7954.228 -1648.3894 1240 1.2990519e-38
7913.3354 -1677.1611 1230 1.6683721e-38
7910.4854 -1718.2936 1230 1.6595841e-38
7898.1245 -1756.3358 1230 1.6870981e-38
7885.7642 -1794.3781 1230 1.4843774e-38
7730.7451 -1786.0677 1200 1.2255469e-38
7708.8735 -1821.0199 1200 1.5943262e-38
7747.1558 -1865.0024 1210 2.1935967e-38
5793.4702 -1535.1357 780 1.5202114e-38
5723.8062 -1523.0151 760 1.4467784e-38
5670.0732 -1526.5853 750 8.6641639e-39
5635.3608 -1536.3361 740 1.23484e-38
5629.1807 -1555.3572 740 9.1237114e-39
5588.0479 -1552.5071 730 5.9908858e-39
5543.8252 -1559.1675 730 5.4384365e-39
5521.7144 -1562.4977 720 4.6090402e-39
5363.125 -1500.4542 680 4.5161313e-39
5026.6846 -1338.5652 600 2.9491727e-39
5020.5044 -1357.5863 600 3.8696871e-39
5007.9038 -1364.0067 600 3.5938205e-39
4992.2129 -1379.9377 600 2.9509706e-39
4970.1016 -1383.2679 590 2.4003094e-39
4938.4795 -1383.5079 590 3.1310473e-39
4909.9478 -1374.2375 580 3.0402894e-39
4878.3262 -1374.4775 570 2.6729432e-39
4872.1455 -1393.4987 570 3.5970449e-39
4859.5449 -1399.9191 570 9.860573e-39
4843.854 -1415.85 570 1.3455084e-38
4840.7637 -1425.3606 570 1.2437373e-38
4834.5835 -1444.3817 570 1.2072158e-38
4831.4932 -1453.8923 570 1.4005405e-38
4799.8716 -1454.1323 560 1.3084531e-38
4761.8291 -1441.7716 550 1.3271436e-38
4830.3237 -1716.3778 590 1.9271716e-38
4843.1646 -1741.5792 590 2.0189345e-38
4795.6113 -1726.1284 580 1.9175201e-38
4808.4521 -1751.3298 580 1.8346884e-38
4786.3408 -1754.66 580 1.7794072e-38
4783.251 -1764.1707 580 1.7331299e-38
4767.5601 -1780.1016 580 1.6776682e-38
4754.9595 -1786.522 580 1.0689669e-38
4608.4902 -1654.8145 530 3.6845896e-39
4554.5171 -1626.7628 520 6.2714188e-39
4541.9165 -1633.1832 520 9.4017794e-39
4513.3848 -1623.9127 510 1.0878682e-38
4500.7842 -1630.3331 510 1.0969077e-38
4497.6938 -1639.8438 510 9.2339053e-39
4169.7124 -92.772919 330 1.7151585e-38
4169.7124 -92.772919 330 1.7152682e-38
4188.7334 -98.953247 330 1.8349767e-38
4198.2441 -102.04341 340 1.8627427e-38
4217.2651 -108.22375 340 1.816681e-38
4226.7759 -111.31392 340 1.8064905e-38
4239.3765 -104.89352 350 1.8440184e-38
4255.3076 -120.58443 350 1.6040208e-38
4267.9082 -114.16403 350 1.862564e-38
4286.9292 -120.34438 360 1.7610764e-38
4467.1499 -115.81384 390 1.1610838e-38
4486.1709 -121.99419 400 1.6306693e-38
4492.5918 -134.59492 400 1.8809633e-38
4514.7026 -131.26469 400 1.8989385e-38
4521.123 -143.86543 400 1.512508e-38
4530.6338 -146.9556 410 1.8989381e-38
4559.1655 -156.2261 410 1.6412243e-38
4578.1865 -162.40643 420 1.5858331e-38
4597.208 -168.58678 420 1.5945843e-38
4960.9795 -181.63704 500 1.6410412e-38
4980.0005 -187.81737 500 1.7057593e-38
4995.9312 -203.50827 510 1.8158889e-38
5002.3516 -216.10901 510 2.2495679e-38
5008.772 -228.70975 510 2.3509852e-38
5015.1924 -241.31049 510 2.3509865e-38
5021.6128 -253.91121 510 2.3509846e-38
5028.0332 -266.51196 520 2.3509834e-38
5002.832 -279.35272 510 2.3509845e-38
5559.4248 -281.45209 620 2.3509859e-38
5534.2231 -294.29288 620 2.3509877e-38
5063.7056 -383.24878 530 2.350988e-38
5038.5039 -396.08957 530 2.350987e-38
5013.3027 -408.93036 520 2.3509886e-38
5007.1221 -427.95151 520 2.3509886e-38
4994.5215 -434.37189 520 2.3509853e-38
4988.3413 -453.39304 520 1.612806e-38
4985.251 -462.90359 520 1.5851816e-38
5156.6812 -550.1485 560 1.0413019e-38
5160.0117 -572.25977 560 1.2624623e-38
5147.4106 -578.68018 560 1.0782154e-38
5112.6987 -588.43079 550 1.3362544e-38
5106.5186 -607.45197 550 1.3546223e-38
5131.96 -626.23303 560 1.272401e-38
5629.3594 -745.78937 670 1.4007915e-38
5882.8145 -807.11267 720 1.382568e-38
5984.3408 -850.61505 750 1.373098e-38
7874.0928 -1506.691 1170 1.2623879e-38
7880.7534 -1550.9137 1180 1.2807551e-38
7985.6099 -1616.5275 1200 1.262245e-38
7954.228 -1648.3894 1200 1.2810785e-38
7903.8247 -1674.0709 1190 1.6136288e-38
7910.4854 -1718.2936 1190 1.7607831e-38
7907.6353 -1759.4259 1190 1.6223834e-38
7895.2744 -1797.4683 1190 1.4291685e-38
7730.7451 -1786.0677 1160 1.2439132e-38
7376.7241 -1807.7296 1090 1.409866e-38
7364.3633 -1845.7719 1090 1.4467067e-38
7317.0508 -1861.9429 1080 1.4191922e-38
5714.2959 -1519.9249 740 1.5387225e-38
5660.5625 -1523.4952 720 8.2971779e-39
5635.3608 -1536.3361 720 1.2712511e-38
5619.6699 -1552.267 720 6.726639e-39
5578.5376 -1549.4169 710 5.9912516e-39
5543.8252 -1559.1675 700 5.6203097e-39
5502.6934 -1556.3174 700 4.4253734e-39
5369.5449 -1513.0551 670 4.0573098e-39
5347.4336 -1516.3853 660 3.4090635e-39
5020.5044 -1357.5863 580 4.6076095e-39
5007.9038 -1364.0067 580 3.134636e-39
4992.2129 -1379.9377 580 3.041011e-39
4970.1016 -1383.2679 580 2.6736691e-39
4938.4795 -1383.5079 570 2.3974451e-39
4906.8574 -1383.748 560 2.6725929e-39
4878.3262 -1374.4775 560 2.6715097e-39
4872.1455 -1393.4987 560 3.6867224e-39
4859.5449 -1399.9191 560 9.4021115e-39
4843.854 -1415.85 550 1.2902995e-38
4850.2744 -1428.4508 550 1.235128e-38
4834.5835 -1444.3817 550 1.1520799e-38
4831.4932 -1453.8923 550 1.3638779e-38
4799.8716 -1454.1323 550 1.3732043e-38
4761.8291 -1441.7716 540 1.3915369e-38
4830.3237 -1716.3778 570 1.9452867e-38
4843.1646 -1741.5792 580 1.9448931e-38
4795.6113 -1726.1284 560 1.9357436e-38
4808.4521 -1751.3298 570 1.8711704e-38
4786.3408 -1754.66 560 1.7606812e-38
4783.251 -1764.1707 560 1.7147984e-38
4770.6504 -1770.5911 560 1.6317856e-38
4758.0493 -1777.0115 560 1.2720098e-38
4589.4692 -1648.6342 520 3.9636834e-39
4564.0278 -1629.853 510 7.0990327e-39
4541.9165 -1633.1832 510 1.023655e-38
4513.3848 -1623.9127 500 1.7337057e-38
4500.7842 -1630.3331 500 1.9452141e-38
4497.6938 -1639.8438 500 2.0371215e-38
4182.313 -86.352509 330 1.7152297e-38
4191.8237 -89.442688 330 1.8071741e-38
4201.334 -92.532837 330 1.7706914e-38
4210.8447 -95.623016 330 1.8717107e-38
4220.3555 -98.713196 330 1.7798398e-38
4226.7759 -111.31392 340 1.9259131e-38
4248.8872 -107.98369 340 1.7245232e-38
4258.3975 -111.07387 340 1.668304e-38
4286.9292 -120.34438 350 1.7060121e-38
4296.4399 -123.43454 350 1.5854369e-38
4315.4609 -129.61487 350 1.7612189e-38
4476.6606 -118.90402 380 1.5113901e-38
4524.2134 -134.35486 400 1.8531987e-38
4533.7236 -137.44502 400 1.843799e-38
4540.1445 -150.04576 400 1.816251e-38
4568.6758 -159.31627 400 1.8436556e-38
4578.1865 -162.40643 410 1.6503706e-38
4587.6973 -165.49661 410 1.4936381e-38
4989.5107 -190.90755 490 1.6594094e-38
5008.5322 -197.08788 490 1.8528417e-38
5014.9521 -209.68861 490 2.1575158e-38
5008.772 -228.70975 500 2.3509837e-38
5027.793 -234.89008 500 2.350986e-38
5043.7241 -250.58099 500 2.3509845e-38
5081.7666 -262.94165 510 2.3509823e-38
5002.832 -279.35272 500 2.3509858e-38
5559.4248 -281.45209 600 2.3509853e-38
5063.7056 -383.24878 510 2.3509873e-38
5038.5039 -396.08957 510 2.3509886e-38
5013.3027 -408.93036 510 2.3509886e-38
5007.1221 -427.95151 510 2.3509867e-38
4994.5215 -434.37189 510 2.3509855e-38
4988.3413 -453.39304 500 1.5578831e-38
4985.251 -462.90359 500 1.658686e-38
5150.501 -569.16962 540 1.2164362e-38
5137.9004 -575.59003 540 1.050665e-38
5112.6987 -588.43079 540 1.2995201e-38
5106.5186 -607.45197 540 1.3362548e-38
5721.1348 -754.57977 670 1.364129e-38
5854.2827 -797.84216 690 1.4559279e-38
5955.8086 -841.34454 720 1.4281964e-38
6006.6919 -878.90668 730 1.3090998e-38
5994.3311 -916.94897 730 1.3641659e-38
7874.0928 -1506.691 1130 1.2345507e-38
7842.7109 -1538.553 1130 1.2255108e-38
7906.4351 -1601.3167 1140 1.2438061e-38
7944.7173 -1645.2992 1160 1.2624608e-38
7884.8037 -1667.8906 1150 1.6776993e-38
7910.4854 -1718.2936 1150 1.6967128e-38
7898.1245 -1756.3358 1150 1.6409649e-38
7885.7642 -1794.3781 1150 1.4474638e-38
7376.4839 -1776.1077 1050 1.3823135e-38
7395.7451 -1813.9099 1060 1.4831891e-38
7297.7896 -1824.1406 1040 1.3732383e-38
7326.561 -1865.033 1050 1.4742216e-38
5714.2959 -1519.9249 710 1.5203553e-38
5651.0518 -1520.405 700 8.6641639e-39
5635.3608 -1536.3361 700 1.290156e-38
5619.6699 -1552.267 700 6.6355252e-39
5578.5376 -1549.4169 690 5.8075722e-39
5543.8252 -1559.1675 680 5.0682093e-39
5474.1611 -1547.0469 670 4.7012372e-39
5369.5449 -1513.0551 650 4.9785374e-39
5363.3647 -1532.0762 650 4.238464e-39
5020.5044 -1357.5863 570 3.777846e-39
5007.9038 -1364.0067 570 3.5016221e-39
4992.2129 -1379.9377 570 2.948098e-39
4970.1016 -1383.2679 560 2.8566198e-39
4928.9688 -1380.4177 550 2.4885547e-39
4909.9478 -1374.2375 550 2.7644172e-39
4878.3262 -1374.4775 540 2.8555394e-39
4872.1455 -1393.4987 540 2.6729474e-39
4859.5449 -1399.9191 540 1.0043158e-38
4853.3647 -1418.9402 540 1.2901199e-38
4850.2744 -1428.4508 540 1.2441682e-38
4844.0942 -1447.4719 540 1.0966899e-38
4831.4932 -1453.8923 540 1.3638792e-38
4809.3818 -1457.2225 530 1.3548739e-38
4823.9033 -1703.777 550 2.0371589e-38
4843.1646 -1741.5792 560 1.9819135e-38
4795.6113 -1726.1284 550 1.8714952e-38
4808.4521 -1751.3298 550 1.8530908e-38
4786.3408 -1754.66 550 1.8894308e-38
4783.251 -1764.1707 550 1.742241e-38
4770.6504 -1770.5911 550 1.6684849e-38
4758.0493 -1777.0115 540 1.3825006e-38
4598.98 -1651.7242 510 4.2388354e-39
4570.4482 -1642.4537 500 6.9160735e-39
4551.4272 -1636.2734 490 1.9727288e-38
4522.8955 -1627.0029 490 2.0092127e-38
4510.2949 -1633.4233 490 1.990773e-38
4497.6938 -1639.8438 490 1.9545409e-38
4194.9141 -79.932129 320 1.8347959e-38
4204.4243 -83.022278 320 1.8441943e-38
4210.8447 -95.623016 320 1.8257939e-38
4220.3555 -98.713196 330 1.8991898e-38
4229.8662 -101.80336 330 1.8350478e-38
4239.3765 -104.89352 330 1.8345795e-38
4258.3975 -111.07387 330 1.5953426e-38
4277.4189 -117.2542 340 1.7971273e-38
4290.0195 -110.8338 340 1.6141389e-38
4309.0405 -117.01414 340 1.8154917e-38
4337.5723 -126.28465 350 1.6873566e-38
4347.083 -129.37482 350 1.5301919e-38
4356.5938 -132.46498 350 1.1618799e-38
4441.9482 -128.65465 370 9.4975484e-39
4448.3691 -141.25537 370 1.8069562e-38
4489.5015 -144.10548 380 1.8255762e-38
4521.123 -143.86543 390 1.4103039e-38
4540.1445 -150.04576 390 1.6316411e-38
4571.7661 -149.80571 400 1.8250004e-38
4578.1865 -162.40643 400 1.6966824e-38
4587.6973 -165.49661 400 1.6224243e-38
4999.0215 -193.99771 480 1.6504775e-38
5040.1538 -196.84782 490 1.8074993e-38
5046.5742 -209.44855 490 2.0182871e-38
5040.394 -228.46968 490 2.3509828e-38
5037.3037 -237.98026 490 2.3509841e-38
5075.3462 -250.34093 490 2.3507686e-38
5081.7666 -262.94165 500 2.3509828e-38
4930.0776 -276.74268 470 2.3509844e-38
4904.876 -289.5835 470 2.3509856e-38
5054.1948 -380.15863 500 2.3509873e-38
5038.5039 -396.08957 500 2.3509876e-38
5013.3027 -408.93036 490 2.3509886e-38
4997.6118 -424.86133 490 2.350987e-38
4994.5215 -434.37189 490 2.3509817e-38
4988.3413 -453.39304 490 1.6495021e-38
4985.251 -462.90359 490 1.6129475e-38
5137.6602 -543.96814 530 1.0597045e-38
5140.9902 -566.07947 530 1.1980691e-38
5125.2993 -582.01044 520 1.124277e-38
5112.6987 -588.43079 520 1.2717547e-38
5106.5186 -607.45197 520 1.3729872e-38
5759.1768 -766.94043 650 1.3457979e-38
5844.7725 -794.75195 670 1.4100102e-38
5936.7876 -835.16418 690 1.345654e-38
5978.1602 -869.63617 700 1.4192655e-38
5981.4902 -891.7475 700 1.4009343e-38
5965.7998 -907.67847 700 1.4194475e-38
6007.1719 -942.15045 710 1.6868157e-38
7801.5786 -1535.7029 1080 1.2806116e-38
7868.3926 -1588.9559 1100 1.1978889e-38
7935.2065 -1642.209 1120 1.3175262e-38
7884.8037 -1667.8906 1110 1.6502194e-38
7910.4854 -1718.2936 1110 1.7150802e-38
7917.146 -1762.5161 1120 1.6688744e-38
7904.7852 -1800.5583 1120 1.438316e-38
7317.0508 -1861.9429 1010 1.5203189e-38
5714.2959 -1519.9249 690 1.5848188e-38
5651.0518 -1520.405 680 9.121545e-39
5625.8506 -1533.2458 680 1.3360732e-38
5610.1592 -1549.1768 670 6.1752687e-39
5569.0273 -1546.3267 670 5.9001279e-39
5499.3628 -1534.2061 650 5.0692967e-39
5429.6987 -1522.0854 640 5.9008454e-39
5369.5449 -1513.0551 630 4.4239259e-39
5356.9443 -1519.4755 630 3.6852973e-39
5020.5044 -1357.5863 550 3.0417229e-39
5007.9038 -1364.0067 550 3.2250408e-39
4992.2129 -1379.9377 550 2.5814664e-39
4960.5908 -1380.1777 540 2.4885575e-39
4932.0591 -1370.9072 540 2.4885589e-39
4900.4375 -1371.1472 530 2.5807462e-39
4878.3262 -1374.4775 530 2.2137699e-39
4872.1455 -1393.4987 530 2.5814692e-39
4859.5449 -1399.9191 520 9.7712318e-39
4853.3647 -1418.9402 520 1.2716456e-38
4850.2744 -1428.4508 520 1.3176369e-38
4844.0942 -1447.4719 520 1.1335319e-38
4831.4932 -1453.8923 520 1.3273232e-38
4809.3818 -1457.2225 520 1.4006483e-38
4830.3237 -1716.3778 540 1.8904011e-38
4843.1646 -1741.5792 540 1.9820923e-38
4805.1221 -1729.2185 530 1.9454655e-38
4808.4521 -1751.3298 540 1.8623468e-38
4786.3408 -1754.66 530 1.8163208e-38
4783.251 -1764.1707 530 1.7974153e-38
4770.6504 -1770.5911 530 1.6502269e-38
4754.9595 -1786.522 530 1.4838801e-38
4605.4004 -1664.3251 490 3.7789362e-39
4579.959 -1645.5439 490 7.3752496e-39
4548.3369 -1645.7841 480 1.8985743e-38
4529.3159 -1639.6036 480 1.9447475e-38
4516.7148 -1646.024 480 2.0367264e-38
4507.2046 -1642.9338 470 1.9265954e-38
4217.0254 -76.601898 320 1.6596606e-38
4226.5356 -79.692047 320 1.8628852e-38
4223.4453 -89.202606 320 1.8533438e-38
4232.9561 -92.292786 320 1.7800542e-38
4251.9775 -98.473114 320 1.7891668e-38
4251.9775 -98.473114 330 1.8168233e-38
4270.9985 -104.65347 330 1.7060833e-38
4290.0195 -110.8338 330 1.7793724e-38
4309.0405 -117.01414 340 1.4758829e-38
4318.5513 -120.10431 340 1.9166934e-38
4350.1729 -119.86426 340 1.5586441e-38
4369.1943 -126.04459 350 1.566746e-38
4391.3057 -122.71436 350 1.4572272e-38
4432.438 -125.56447 360 1.6319302e-38
4438.8584 -138.16521 360 1.7700782e-38
4457.8794 -144.34555 360 1.7333811e-38
4476.9004 -150.52588 370 1.2638717e-38
4530.6338 -146.9556 380 1.2998813e-38
4568.6758 -159.31627 380 1.6779928e-38
4578.1865 -162.40643 390 1.7327326e-38
4584.6069 -175.00717 390 1.6135994e-38
4594.1177 -178.09734 390 1.7053295e-38
5002.1113 -184.48714 460 1.6962515e-38
5040.1538 -196.84782 470 1.7705479e-38
5046.5742 -209.44855 470 2.1207458e-38
5040.394 -228.46968 470 2.3509848e-38
5037.3037 -237.98026 470 2.3509869e-38
5053.2349 -253.67114 480 2.3509831e-38
5040.6338 -260.09155 480 2.3509835e-38
4930.0776 -276.74268 460 2.3509863e-38
4904.876 -289.5835 450 2.3509849e-38
5110.5381 -303.83405 490 2.3509859e-38
5054.1948 -380.15863 490 2.3509886e-38
5038.5039 -396.08957 480 2.3509886e-38
5003.792 -405.84021 480 2.3509876e-38
4997.6118 -424.86133 480 2.3509886e-38
4994.5215 -434.37189 480 2.3415483e-38
4988.3413 -453.39304 480 1.6955273e-38
4985.251 -462.90359 480 1.6680128e-38
4969.5601 -478.83456 480 1.6769817e-38
5125.0596 -550.38855 510 1.0965095e-38
5121.9692 -559.89911 510 1.2072175e-38
5115.7891 -578.92029 510 1.1149852e-38
5112.6987 -588.43079 510 1.2902648e-38
5749.6665 -763.85028 630 1.3270717e-38
5844.7725 -794.75195 650 1.3823886e-38
5927.2773 -832.07404 670 1.3366871e-38
5968.6494 -866.54602 680 1.4559994e-38
5962.4692 -885.56714 680 1.4469972e-38
5953.1987 -914.09888 680 1.3643458e-38
5988.1509 -935.97009 690 1.6133088e-38
7842.4712 -1506.9312 1050 1.2162549e-38
7814.1797 -1529.2825 1050 1.234586e-38
7868.3926 -1588.9559 1060 1.2346583e-38
7935.2065 -1642.209 1070 1.3268534e-38
7884.8037 -1667.8906 1070 1.613413e-38
7900.9746 -1715.2034 1070 1.6412165e-38
7907.6353 -1759.4259 1080 1.6135218e-38
7895.2744 -1797.4683 1080 1.3737792e-38
5802.9805 -1538.2258 690 1.6217342e-38
5714.2959 -1519.9249 670 1.6032225e-38
5641.541 -1517.3148 660 8.3883015e-39
5619.4297 -1520.6451 650 1.37288e-38
5603.7393 -1536.576 650 5.8046939e-39
5559.5166 -1543.2366 640 6.4536478e-39
5473.9214 -1515.425 630 9.1301643e-39
5413.7676 -1506.3945 610 2.1748748e-38
5369.5449 -1513.0551 610 3.7789292e-39
5363.3647 -1532.0762 610 3.4097922e-39
5030.0146 -1360.6765 540 3.0399278e-39
5007.9038 -1364.0067 530 2.7662248e-39
4992.2129 -1379.9377 530 2.5807532e-39
4954.1704 -1367.577 520 2.4889163e-39
4922.5488 -1367.8171 520 2.5807448e-39
4900.4375 -1371.1472 510 2.3970822e-39
4878.3262 -1374.4775 510 2.4892722e-39
4872.1455 -1393.4987 510 2.5814692e-39
4859.5449 -1399.9191 510 9.3099047e-39
4853.3647 -1418.9402 510 1.1798808e-38
4850.2744 -1428.4508 510 1.3085607e-38
4844.0942 -1447.4719 510 1.0506284e-38
4841.0039 -1456.9824 510 1.3821022e-38
4818.8926 -1460.3126 510 1.3364716e-38
4842.9243 -1709.9574 530 2.0651771e-38
4830.3237 -1716.3778 520 1.9820222e-38
4843.1646 -1741.5792 530 1.991133e-38
4795.6113 -1726.1284 520 1.9084097e-38
4798.9419 -1748.2397 520 1.9173036e-38
4786.3408 -1754.66 520 1.8343651e-38
4783.251 -1764.1707 520 1.7977027e-38
4770.6504 -1770.5911 510 1.6597674e-38
4758.0493 -1777.0115 510 1.5208291e-38
4614.9111 -1667.4152 480 3.3190343e-39
4586.3789 -1658.1447 480 5.9029922e-39
4557.8477 -1648.8741 470 1.4467831e-38
4538.8262 -1642.6938 470 1.9538922e-38
4516.7148 -1646.024 460 1.9725842e-38
4504.1143 -1652.4445 460 1.9173046e-38
4258.1577 -79.451996 320 5.0667856e-39
4258.1577 -79.451996 320 1.2707469e-38
4255.0674 -88.962555 320 1.7975956e-38
4264.5781 -92.052734 320 1.7798735e-38
4283.5991 -98.233063 320 1.8073531e-38
4293.1099 -101.32324 320 1.6604517e-38
4312.1309 -107.50357 330 1.7611837e-38
4321.6416 -110.59375 330 1.678387e-38
4340.6626 -116.77408 330 1.7423847e-38
4359.6836 -122.95442 340 1.3377707e-38
4381.7949 -119.62419 340 1.6314629e-38
4400.8159 -125.80453 340 1.4571905e-38
4432.438 -125.56447 350 1.5212242e-38
4438.8584 -138.16521 350 1.5586782e-38
4470.4805 -137.92514 360 1.6964663e-38
4489.5015 -144.10548 360 1.2815895e-38
4530.6338 -146.9556 370 1.3271803e-38
4549.6548 -153.13593 370 1.4472171e-38
4568.6758 -159.31627 380 1.5117864e-38
4584.6069 -175.00717 380 1.6223508e-38
4594.1177 -178.09734 380 1.6411856e-38
5011.6221 -187.57732 450 1.9082651e-38
5049.6646 -199.93799 460 1.927172e-38
5056.085 -212.53873 460 1.8351197e-38
5052.9946 -222.04929 460 2.3509828e-38
5046.8145 -241.07042 460 2.3509851e-38
5053.2349 -253.67114 460 2.3506956e-38
5040.6338 -260.09155 460 2.3509828e-38
4930.0776 -276.74268 440 2.3509849e-38
4904.876 -289.5835 440 2.3509855e-38
5110.5381 -303.83405 480 2.3509874e-38
5054.1948 -380.15863 470 2.3509874e-38
5038.5039 -396.08957 470 2.3509886e-38
5003.792 -405.84021 460 2.3509866e-38
4997.6118 -424.86133 460 2.350988e-38
4994.5215 -434.37189 460 2.1757404e-38
4978.8306 -450.30286 460 1.5853977e-38
4985.251 -462.90359 460 1.6584355e-38
4979.0708 -481.92474 460 1.6957797e-38
5026.6235 -497.37555 470 1.2257654e-38
5109.1284 -534.69763 490 1.5108108e-38
5115.5488 -547.2984 490 1.0966181e-38
5099.8579 -563.22937 490 1.2165796e-38
5096.7676 -572.73993 490 1.096906e-38
5112.6987 -588.43079 490 1.2718623e-38
5106.5186 -607.45197 490 1.2904081e-38
5768.6875 -770.03064 620 1.4007189e-38
5832.1714 -801.17236 630 1.4283772e-38
5886.1445 -829.22394 640 1.4100108e-38
5918.0068 -860.60571 650 1.4287379e-38
5930.8477 -885.80719 650 1.3917887e-38
5924.667 -904.82837 650 1.2076865e-38
5966.0396 -939.30029 660 1.5671748e-38
7874.0928 -1506.691 1020 1.2807554e-38
7852.2217 -1541.6432 1020 1.2532399e-38
7877.9033 -1592.0461 1020 1.1979238e-38
7935.2065 -1642.209 1040 1.2441648e-38
7862.6924 -1671.2208 1030 1.6687678e-38
7891.4644 -1712.1132 1030 1.7242657e-38
7888.6143 -1753.2456 1030 1.6874582e-38
7876.2534 -1791.2878 1030 1.4387112e-38
7702.2134 -1776.7972 1000 1.2810071e-38
6381.9248 -1568.6168 770 1.4468869e-38
5802.9805 -1538.2258 660 1.6127649e-38
5714.2959 -1519.9249 650 1.6402812e-38
5635.1211 -1504.7141 630 8.848558e-39
5600.4087 -1514.4647 630 1.3821358e-38
5584.7178 -1530.3958 630 5.43914e-39
5524.5645 -1521.3652 620 7.0972264e-39
5445.3896 -1506.1545 600 1.3832105e-38
5404.2573 -1503.3044 590 1.6587623e-38
5369.5449 -1513.0551 590 3.5941764e-39
5363.3647 -1532.0762 590 3.1339185e-39
5039.5254 -1363.7666 520 3.1332011e-39
5017.4141 -1367.0969 520 2.5811077e-39
4992.2129 -1379.9377 520 1.7520715e-39
4944.6602 -1364.4868 510 1.8435497e-39
4913.0381 -1364.7269 500 2.1190533e-39
4890.9268 -1368.0571 500 1.8431909e-39
4878.3262 -1374.4775 500 2.027578e-39
4872.1455 -1393.4987 500 2.3045208e-39
4859.5449 -1399.9191 490 9.8605617e-39
4843.854 -1415.85 490 1.1429317e-38
4850.2744 -1428.4508 490 1.308705e-38
4834.5835 -1444.3817 490 1.0782158e-38
4841.0039 -1456.9824 490 1.3637344e-38
4818.8926 -1460.3126 490 1.3638415e-38
4771.3398 -1444.8618 480 1.3088844e-38
4583.9785 -1341.926 440 2.3509816e-38
4852.4351 -1713.0475 510 2.1474333e-38
4830.3237 -1716.3778 510 2.0188996e-38
4852.6748 -1744.6694 510 2.0280464e-38
4795.6113 -1726.1284 500 1.8992964e-38
4798.9419 -1748.2397 500 1.8531634e-38
4786.3408 -1754.66 500 1.8255385e-38
4783.251 -1764.1707 500 1.8434046e-38
4770.6504 -1770.5911 500 1.7514977e-38
4758.0493 -1777.0115 500 1.4934588e-38
4621.3311 -1680.0159 470 3.5037843e-39
4592.7998 -1670.7454 460 5.6249788e-39
4564.2676 -1661.4749 460 1.3730623e-38
4554.7573 -1658.3848 460 1.9725484e-38
4532.646 -1661.715 450 1.9447101e-38
4520.0454 -1668.1354 450 2.0091401e-38
4236.0464 -82.782227 310 4.5154139e-39
4267.668 -82.542175 310 4.4232126e-39
4277.1787 -85.632324 310 4.3310198e-39
4286.6895 -88.722504 310 9.0218103e-39
4296.1997 -91.812683 320 1.6686617e-38
4315.2207 -97.993011 320 1.6693122e-38
4324.7314 -101.08318 320 1.8346161e-38
4334.2422 -104.17336 320 1.742674e-38
4353.2632 -110.35368 330 1.6786395e-38
4372.2842 -116.53403 330 1.6599129e-38
4391.3057 -122.71436 330 1.6316072e-38
4410.3267 -128.8947 340 1.548919e-38
4441.9482 -128.65465 340 1.5488106e-38
4473.5703 -128.41458 350 1.4567603e-38
4492.5918 -134.59492 350 1.2450343e-38
4521.123 -143.86543 360 1.3262069e-38
4540.1445 -150.04576 360 1.6134923e-38
4549.6548 -153.13593 360 1.1526239e-38
4568.6758 -159.31627 370 8.9389782e-39
4584.6069 -175.00717 370 1.3369416e-38
4594.1177 -178.09734 370 1.5948008e-38
5011.6221 -187.57732 440 1.9635106e-38
5049.6646 -199.93799 450 2.055815e-38
5046.5742 -209.44855 450 2.2955943e-38
5040.394 -228.46968 450 2.3509841e-38
5037.3037 -237.98026 450 2.3509856e-38
5034.2139 -247.49081 450 2.2683303e-38
5018.5225 -263.42178 440 2.3509832e-38
4930.0776 -276.74268 430 2.3509841e-38
4914.3867 -292.67365 430 2.3509858e-38
5120.0488 -306.92419 460 2.3509879e-38
5054.1948 -380.15863 460 2.3509886e-38
5038.5039 -396.08957 460 2.3509876e-38
5003.792 -405.84021 450 2.3509872e-38
4997.6118 -424.86133 450 2.350988e-38
4994.5215 -434.37189 450 2.1939991e-38
4978.8306 -450.30286 450 1.612553e-38
4985.251 -462.90359 450 1.5667806e-38
4982.1611 -472.41415 450 1.6311703e-38
5017.1128 -494.2854 460 1.2533882e-38
5064.666 -509.73627 470 1.4006467e-38
5090.1074 -528.51733 470 1.4095035e-38
5096.5278 -541.11804 470 1.1334963e-38
5090.3477 -560.13916 470 1.2624617e-38
5087.2573 -569.64978 470 1.1887414e-38
5112.6987 -588.43079 480 1.3181024e-38
5106.5186 -607.45197 480 1.3549444e-38
5781.2881 -763.61023 600 1.3641287e-38
5822.6611 -798.08215 600 1.3639485e-38
5857.6133 -819.95343 610 1.3640929e-38
5870.4541 -845.15491 610 1.3734548e-38
5883.2949 -870.35638 620 1.3642016e-38
5896.1357 -895.55786 620 1.170916e-38
5947.0186 -933.12 630 1.5763939e-38
7864.5825 -1503.601 980 1.1889918e-38
7852.2217 -1541.6432 980 1.2715719e-38
7877.9033 -1592.0461 990 1.1887048e-38
7944.7173 -1645.2992 1000 1.2811857e-38
7872.2031 -1674.311 990 1.7978762e-38
7900.9746 -1715.2034 990 1.770291e-38
7898.1245 -1756.3358 1000 1.8161717e-38
7866.7427 -1788.1978 990 1.4018706e-38
6378.5947 -1546.5056 740 1.5386862e-38
6435.8984 -1596.6685 750 1.465254e-38
6464.6699 -1637.5608 760 1.4835138e-38
5828.1826 -1525.3851 650 1.6677949e-38
5828.4224 -1557.007 650 1.5943632e-38
5768.2686 -1547.9766 640 1.6495718e-38
5597.0786 -1492.3535 600 9.1229841e-39
5571.877 -1505.1942 600 1.4191926e-38
5521.2344 -1499.254 590 5.438068e-39
5480.1016 -1496.4039 590 5.5288315e-39
5419.9482 -1487.3734 570 1.8896386e-38
5394.7466 -1500.2142 570 1.3543016e-38
5369.5449 -1513.0551 570 3.7796481e-39
5363.3647 -1532.0762 570 2.6729432e-39
5350.7642 -1538.4966 570 2.3059613e-39
5017.4141 -1367.0969 500 2.1201337e-39
4985.7925 -1367.3369 500 2.3038005e-39
4935.1494 -1361.3967 490 1.5684005e-39
4913.0381 -1364.7269 480 1.6598745e-39
4890.9268 -1368.0571 480 1.5676816e-39
4878.3262 -1374.4775 480 1.5680404e-39
4872.1455 -1393.4987 480 1.8449818e-39
4859.5449 -1399.9191 480 9.9524028e-39
4843.854 -1415.85 480 1.1889206e-38
4850.2744 -1428.4508 480 1.3635552e-38
4834.5835 -1444.3817 480 1.1056954e-38
4831.4932 -1453.8923 480 1.3549446e-38
4809.3818 -1457.2225 470 1.382281e-38
4771.3398 -1444.8618 470 1.3177435e-38
4596.5791 -1335.5056 430 2.2214399e-38
4599.9097 -1357.6169 430 2.3506244e-38
4603.2397 -1379.7283 440 2.3506225e-38
4826.9932 -1694.2665 490 2.0464515e-38
4830.3237 -1716.3778 490 2.0465216e-38
4843.1646 -1741.5792 490 1.9913484e-38
4795.6113 -1726.1284 490 2.0090692e-38
4798.9419 -1748.2397 490 1.8806408e-38
4786.3408 -1754.66 490 1.9259125e-38
4783.251 -1764.1707 490 1.8252497e-38
4770.6504 -1770.5911 480 1.7239813e-38
4754.9595 -1786.522 480 1.4935646e-38
4656.2832 -1701.8872 460 2.9498958e-39
4634.1719 -1705.2174 460 4.3360322e-39
4605.6406 -1695.9469 450 1.4281267e-38
4583.5293 -1699.2771 450 1.8712428e-38
4564.5078 -1693.0968 450 1.9077968e-38
4561.418 -1702.6073 450 1.9356346e-38
4548.8169 -1709.0277 440 1.8804632e-38
4539.5464 -1737.5594 440 2.1936742e-38
4542.877 -1759.6708 450 2.0280839e-38
4236.0464 -82.782227 300 4.9785444e-39
4245.5566 -85.872406 300 4.4264482e-39
4255.0674 -88.962555 300 4.5150509e-39
4264.5781 -92.052734 300 3.8718409e-39
4327.8218 -91.572601 310 3.8711262e-39
4337.332 -94.662781 310 6.5368696e-39
4346.8428 -97.75296 320 1.548088e-38
4365.8643 -103.93329 320 1.6418326e-38
4384.8853 -110.11363 320 1.6599127e-38
4394.3955 -113.2038 320 1.6136348e-38
4403.9062 -116.29396 330 1.6317504e-38
4432.438 -125.56447 330 1.5768276e-38
4451.459 -131.74481 330 1.6037693e-38
4483.0811 -131.50475 340 1.4753425e-38
4502.1021 -137.68509 340 1.5123644e-38
4533.7236 -137.44502 350 5.4449203e-39
4540.1445 -150.04576 350 1.1611197e-38
4559.1655 -156.2261 350 1.005434e-38
4578.1865 -162.40643 360 9.308118e-39
4587.6973 -165.49661 360 1.3369056e-38
4625.7393 -177.85728 360 1.539734e-38
4654.271 -187.12779 370 1.668735e-38
5030.6436 -193.75764 430 2.184635e-38
5037.0635 -206.35838 430 2.2771921e-38
5030.8833 -225.37952 430 2.3509841e-38
5027.793 -234.89008 430 2.3509872e-38
5021.6128 -253.91121 430 2.3507667e-38
5018.5225 -263.42178 430 2.3509835e-38
4949.0986 -282.92303 420 2.3509851e-38
4968.1196 -289.10336 420 2.3509852e-38
5123.1387 -297.41364 450 2.3509867e-38
5107.4482 -313.3446 450 2.3509862e-38
5051.105 -389.66919 440 2.3509883e-38
5038.5039 -396.08957 440 2.3509877e-38
5003.792 -405.84021 440 2.3509873e-38
4997.6118 -424.86133 440 2.3509886e-38
4994.5215 -434.37189 430 2.1018029e-38
4978.8306 -450.30286 430 1.5391917e-38
4985.251 -462.90359 430 1.5849658e-38
4982.1611 -472.41415 430 1.5574159e-38
5007.6025 -491.19525 440 1.1706272e-38
5055.1553 -506.64606 450 1.4281615e-38
5080.5967 -525.42712 450 1.2528806e-38
5083.9268 -547.53845 450 1.1240617e-38
5080.8369 -557.04901 450 1.2072888e-38
5087.2573 -569.64978 460 1.1705186e-38
5112.6987 -588.43079 460 1.2812967e-38
5106.5186 -607.45197 460 1.2994487e-38
5790.7988 -766.70038 580 1.3823886e-38
5832.1714 -801.17236 580 1.3550518e-38
5857.6133 -819.95343 590 1.4744031e-38
5860.9434 -842.0647 590 1.4099742e-38
5873.7842 -867.26624 600 1.4102612e-38
5896.1357 -895.55786 600 1.1892824e-38
5947.0186 -933.12 610 1.6130567e-38
7874.0928 -1506.691 940 1.2438061e-38
7861.7324 -1544.7334 940 1.2162197e-38
7915.9458 -1604.4069 950 1.1611539e-38
7944.7173 -1645.2992 960 1.3456515e-38
7872.2031 -1674.311 950 1.7427394e-38
7891.4644 -1712.1132 950 1.8253933e-38
7888.6143 -1753.2456 960 1.696821e-38
7857.2324 -1785.1075 950 1.4936702e-38
6530.5234 -1564.3264 730 1.5018433e-38
6445.1689 -1568.1367 720 1.5112068e-38
6410.457 -1577.8873 720 1.5019522e-38
6372.6543 -1597.1486 710 1.5479427e-38
6429.958 -1647.3114 720 1.5663449e-38
5809.1611 -1519.2047 620 1.6678313e-38
5783.96 -1532.0455 620 1.7139642e-38
5714.2959 -1519.9249 600 1.6492484e-38
5616.0996 -1498.5338 590 9.0329479e-39
5571.877 -1505.1942 580 1.419014e-38
5511.7236 -1496.1638 570 5.8986916e-39
5480.1016 -1496.4039 570 5.0689408e-39
5410.4375 -1484.2832 550 1.9158972e-38
5385.2363 -1497.124 550 4.8795174e-39
5369.5449 -1513.0551 550 2.3956346e-39
5372.8755 -1535.1663 550 4.1469901e-39
5360.2744 -1541.5867 550 3.7800054e-39
5017.4141 -1367.0969 490 1.9364628e-39
4976.2817 -1364.2468 480 1.9353866e-39
4925.6387 -1358.3065 470 1.6598787e-39
4903.5273 -1361.6367 470 1.9350222e-39
4890.9268 -1368.0571 470 1.8428294e-39
4878.3262 -1374.4775 470 1.5687592e-39
4872.1455 -1393.4987 470 1.9350264e-39
4859.5449 -1399.9191 460 9.5836189e-39
4843.854 -1415.85 460 1.1888143e-38
4850.2744 -1428.4508 460 1.3546578e-38
4834.5835 -1444.3817 460 1.050343e-38
4831.4932 -1453.8923 460 1.3455118e-38
4818.8926 -1460.3126 460 1.3362545e-38
4771.3398 -1444.8618 450 1.3360754e-38
4618.9307 -1363.7972 420 2.3323653e-38
4596.8193 -1367.1274 420 2.3505867e-38
4660.543 -1429.8911 430 2.3232166e-38
4606.5703 -1401.8395 420 2.3319329e-38
4766.3599 -1621.9923 460 2.1017323e-38
4795.1313 -1662.8846 470 2.1662669e-38
4823.9033 -1703.777 470 2.037231e-38
4843.1646 -1741.5792 480 2.0369778e-38
4795.6113 -1726.1284 470 1.9541104e-38
4792.5215 -1735.6389 470 1.9816249e-38
4786.3408 -1754.66 470 1.9264509e-38
4783.251 -1764.1707 470 1.7605732e-38
4767.5601 -1780.1016 470 1.7145812e-38
4754.9595 -1786.522 470 1.548882e-38
4688.1455 -1733.2689 450 2.8591323e-39
4650.103 -1720.9083 450 3.7814291e-39
4631.082 -1714.7279 440 1.7785775e-38
4618.4814 -1721.1483 440 1.8435107e-38
4596.3701 -1724.4786 440 1.8529466e-38
4567.8379 -1715.2081 430 1.8067052e-38
4555.2373 -1721.6284 430 1.788446e-38
4552.1475 -1731.139 430 1.7700081e-38
4549.0571 -1740.6497 430 2.1013729e-38
4568.3184 -1778.4518 440 2.0829343e-38
4258.1577 -79.451996 290 5.531721e-39
4267.668 -82.542175 300 5.4362982e-39
4286.6895 -88.722504 300 4.9763808e-39
4327.8218 -91.572601 300 4.3320974e-39
4372.0444 -84.91217 310 3.7789264e-39
4368.9541 -94.422729 310 3.6863791e-39
4387.9751 -100.60306 310 5.7103431e-39
4397.4858 -103.69324 320 1.4557839e-38
4416.5068 -109.87357 320 1.6503341e-38
4435.5283 -116.05391 320 1.5493857e-38
4445.0386 -119.14407 320 1.604703e-38
4476.6606 -118.90402 330 1.577188e-38
4495.6816 -125.08435 330 1.7793001e-38
4524.2134 -134.35486 340 1.8253953e-38
4533.7236 -137.44502 340 8.3955504e-39
4552.7451 -143.62537 340 7.466362e-39
4571.7661 -149.80571 350 8.8489686e-39
4587.6973 -165.49661 350 9.7719717e-39
4619.3188 -165.25655 350 1.3371221e-38
4647.8506 -174.52705 360 1.5393394e-38
4676.3823 -183.79756 360 1.5765778e-38
5018.0425 -200.17804 410 2.1015887e-38
5024.4629 -212.77878 410 2.240527e-38
5021.373 -222.28935 420 2.3509851e-38
5027.793 -234.89008 420 2.3509874e-38
5021.6128 -253.91121 420 2.3506619e-38
5009.0122 -260.3316 410 2.3509837e-38
4939.5879 -279.83286 410 2.3509856e-38
4977.6304 -292.19354 410 2.3509849e-38
5120.0488 -306.92419 430 2.3509862e-38
5107.4482 -313.3446 430 2.3509851e-38
5051.105 -389.66919 430 2.3509874e-38
5048.0146 -399.17975 430 2.3509874e-38
5003.792 -405.84021 420 2.3509853e-38
