# .PCD v0.7 - Point Cloud Data file format
VERSION 0.7
FIELDS x y z rgb
SIZE 4 4 4 4
TYPE F F F F
COUNT 1 1 1 1
WIDTH 1237
HEIGHT 1
VIEWPOINT 0 0 0 1 0 0 0
POINTS 1237
DATA ascii
5380.4043 -1502.1233 370 1.3456177e-38
5322.0928 -1484.8091 370 1.2165797e-38
5088.4067 -1370.8325 340 1.2534608e-38
5070.6514 -1384.4248 340 1.1891029e-38
4971.7837 -1336.2039 330 1.1248178e-38
4958.4121 -1340.8081 320 1.1886713e-38
4940.6567 -1354.4004 320 1.0782887e-38
4936.2729 -1363.3882 320 1.0504859e-38
4931.8896 -1372.3762 320 9.2162825e-39
4923.1221 -1390.3521 320 1.0411576e-38
4909.7505 -1394.9563 320 1.4559644e-38
4896.3789 -1399.5605 320 1.0507359e-38
4896.5991 -1421.9202 320 1.0969406e-38
4883.2275 -1426.5244 320 1.4283424e-38
4878.8438 -1435.5123 320 1.3454378e-38
4865.4722 -1440.1165 320 1.354406e-38
4834.1245 -1435.9534 320 1.779473e-38
4910.853 -1506.7543 330 2.3509817e-38
4938.0371 -1542.265 330 2.350983e-38
4915.6777 -1542.4855 330 2.3509842e-38
4947.4663 -1591.3679 340 2.3508759e-38
4943.0825 -1600.3558 340 2.3509797e-38
4894.2002 -1632.1444 330 2.2494248e-38
4862.8525 -1627.9812 330 2.2771526e-38
4858.4688 -1636.9691 330 2.2399177e-38
4867.6772 -1663.7125 330 2.1942126e-38
4881.4902 -1703.8274 330 2.3134576e-38
4886.0942 -1717.1991 340 2.2581758e-38
4854.7471 -1713.0359 330 2.0097884e-38
4854.9673 -1735.3955 330 2.0098247e-38
4832.6079 -1735.616 330 2.0371962e-38
4828.2241 -1744.6039 330 2.0281182e-38
4823.8403 -1753.5919 330 1.8438352e-38
4792.4927 -1749.4287 330 1.7604295e-38
4774.5166 -1740.6613 330 1.5857969e-38
4702.3926 -1683.2321 320 1.1336443e-38
4680.0332 -1683.4525 310 3.0435292e-39
4675.6494 -1692.4404 310 5.3512562e-39
4662.2778 -1697.0447 310 9.4971896e-39
4648.9062 -1701.6489 310 9.0340689e-39
4630.9302 -1692.8815 310 1.0135369e-38
4608.5708 -1693.1021 310 6.5340053e-39
4595.1992 -1697.7063 310 3.6820659e-39
4581.8276 -1702.3104 310 4.7073637e-39
4563.8516 -1693.5431 300 4.7116825e-39
4550.48 -1698.1473 300 5.8951477e-39
4541.4922 -1693.7635 300 6.6302044e-39
4528.1201 -1698.3678 300 8.2911579e-39
4514.7485 -1702.972 300 1.8417588e-39
4465.2046 -1667.6819 290 1.658085e-39
4447.229 -1658.9144 290 1.0145135e-39
4447.229 -1658.9144 290 1.0148638e-39
4433.8574 -1663.5187 290 1.2903745e-39
4420.4854 -1668.1229 290 1.0145107e-39
4416.1021 -1677.1108 290 1.2006998e-39
4402.7305 -1681.7151 290 2.3970794e-39
4912.978 -361.81085 270 2.3138521e-38
4953.3135 -370.35773 270 2.3417603e-38
5087.4712 -369.03461 280 2.3508745e-38
5060.7275 -378.24307 280 2.3509824e-38
5065.332 -391.61472 280 2.350981e-38
5047.5767 -405.20691 280 2.3509834e-38
5034.2051 -409.81113 280 2.3509841e-38
5029.8213 -418.79907 280 2.3509832e-38
5025.4375 -427.78702 280 2.35098e-38
5021.0537 -436.77496 280 1.2996285e-38
5034.646 -454.5303 280 1.3178516e-38
5043.6338 -458.91403 280 1.4003606e-38
4113.519 -472.5596 200 9.7691018e-39
4113.519 -472.5596 200 1.0783221e-38
4109.1353 -481.54755 200 1.0226487e-38
4109.1353 -481.54755 200 1.8069521e-38
4109.1353 -481.54755 200 9.2141133e-39
4104.7515 -490.53549 200 1.0596325e-38
5232.3809 -550.97192 300 1.0045682e-38
5169.9062 -565.00513 300 9.2141259e-39
5156.5347 -569.60938 300 8.2946948e-39
5138.7793 -583.20154 290 8.8439099e-39
6178.0723 -756.31799 390 8.8489265e-39
6151.3291 -765.52649 390 9.3999479e-39
6182.8975 -792.04926 390 9.4921281e-39
6178.9546 -845.75641 400 1.0321897e-38
6179.1748 -868.11597 400 1.0873263e-38
6201.7549 -890.25507 400 1.1336044e-38
7985.9453 -1315.4215 570 1.5112811e-38
7950.4346 -1342.6058 570 8.2965039e-39
7946.271 -1373.9534 570 1.0320789e-38
7901.7725 -1396.754 570 1.1333869e-38
7955.9209 -1445.4159 580 1.1513222e-38
7809.0532 -1518.422 570 1.2164699e-38
7845.2251 -1558.3164 570 1.253134e-38
7809.7148 -1585.5007 570 1.3083421e-38
6704.8862 -1569.563 470 1.5205341e-38
6655.7832 -1578.9919 470 1.6215894e-38
6557.3569 -1575.4904 460 1.5757446e-38
6526.23 -1593.6868 460 1.6677223e-38
6508.4746 -1607.2789 460 1.1331722e-38
6450.3838 -1612.3242 450 1.0876498e-38
6428.2446 -1634.9043 450 1.1611176e-38
5854.1191 -1466.1448 400 1.3085237e-38
5840.9678 -1493.1086 400 1.2717895e-38
5796.249 -1493.5498 390 1.2626781e-38
5769.5054 -1502.7582 390 1.3088464e-38
5751.75 -1516.3503 390 1.0322245e-38
5725.0068 -1525.5588 390 1.0969059e-38
5716.2393 -1543.5347 390 1.0601364e-38
5662.5322 -1539.592 380 1.0783594e-38
5433.4502 -1438.9873 360 1.1244921e-38
5424.6826 -1456.9631 360 1.0785029e-38
5420.2988 -1465.951 360 1.1612628e-38
5411.5312 -1483.927 360 1.1706257e-38
5407.1475 -1492.9148 360 1.1888152e-38
5362.4287 -1493.356 350 1.2628586e-38
5313.105 -1480.4253 350 1.1890296e-38
5115.3701 -1383.9836 330 1.1890676e-38
5097.6152 -1397.5759 330 1.2259443e-38
4971.7837 -1336.2039 310 1.1705196e-38
4958.4121 -1340.8081 310 1.1060913e-38
4940.6567 -1354.4004 310 1.0506305e-38
4927.2852 -1359.0046 310 1.0231504e-38
4931.8896 -1372.3762 310 9.2166357e-39
4923.1221 -1390.3521 310 1.013786e-38
4909.7505 -1394.9563 310 1.4011865e-38
4896.3789 -1399.5605 310 1.0321177e-38
4896.5991 -1421.9202 310 1.1058022e-38
4883.2275 -1426.5244 310 1.3180319e-38
4878.8438 -1435.5123 310 1.3361839e-38
4865.4722 -1440.1165 310 1.2993781e-38
4834.1245 -1435.9534 300 1.8067359e-38
4910.853 -1506.7543 310 2.3509824e-38
4920.0615 -1533.4976 320 2.3324365e-38
4849.7017 -1654.9451 320 2.1851724e-38
4881.4902 -1703.8274 320 2.1754518e-38
4886.0942 -1717.1991 320 2.138573e-38
4854.7471 -1713.0359 320 2.0652118e-38
4854.9673 -1735.3955 320 2.0743225e-38
4832.6079 -1735.616 320 1.981842e-38
4828.2241 -1744.6039 320 1.9361372e-38
4823.8403 -1753.5919 320 1.9726558e-38
4792.4927 -1749.4287 310 1.7331315e-38
4774.5166 -1740.6613 310 1.6042346e-38
4698.0093 -1692.22 300 1.1061299e-38
4680.0332 -1683.4525 300 3.225761e-39
4675.6494 -1692.4404 300 5.2558207e-39
4662.2778 -1697.0447 300 8.2057502e-39
4648.9062 -1701.6489 300 8.7567547e-39
4630.9302 -1692.8815 300 1.0413743e-38
4608.5708 -1693.1021 300 6.7220007e-39
4595.1992 -1697.7063 290 4.7876861e-39
4581.8276 -1702.3104 290 4.6072788e-39
4554.8638 -1689.1593 290 5.074389e-39
4536.8877 -1680.392 290 4.7913239e-39
4532.5039 -1689.3799 290 4.8828007e-39
4519.1323 -1693.9841 290 6.1753247e-39
4501.1562 -1685.2167 290 1.842835e-39
4465.2046 -1667.6819 280 1.4736895e-39
4447.229 -1658.9144 280 1.3814995e-39
4447.229 -1658.9144 280 1.1067007e-39
4433.8574 -1663.5187 280 1.9393354e-39
4420.4854 -1668.1229 280 2.0293759e-39
4416.1021 -1677.1108 280 2.393485e-39
4402.7305 -1681.7151 280 4.1415909e-39
4957.6973 -361.36978 260 2.3139948e-38
4966.6851 -365.75351 260 2.2861565e-38
5078.4834 -364.65088 270 2.3509823e-38
5060.7275 -378.24307 270 2.3509823e-38
5065.332 -391.61472 270 2.3509807e-38
5047.5767 -405.20691 270 2.3509821e-38
5034.2051 -409.81113 270 2.350982e-38
5029.8213 -418.79907 270 2.35098e-38
5025.4375 -427.78702 270 2.3506583e-38
5021.0537 -436.77496 270 1.3731326e-38
5034.646 -454.5303 270 1.345617e-38
5034.646 -454.5303 270 1.3272136e-38
4113.519 -472.5596 200 8.9411432e-39
4113.519 -472.5596 200 1.1424646e-38
4109.1353 -481.54755 200 1.0319741e-38
4109.1353 -481.54755 200 1.6596926e-38
4109.1353 -481.54755 200 8.846421e-39
4104.7515 -490.53549 200 1.0689592e-38
5232.3809 -550.97192 290 9.6772579e-39
5169.9062 -565.00513 280 8.5709173e-39
5156.5347 -569.60938 280 8.5709229e-39
5138.7793 -583.20154 280 8.4787105e-39
6137.7373 -747.77112 370 9.8576849e-39
6137.9575 -770.13074 370 9.6740153e-39
5945.9297 -798.8587 360 1.0780709e-38
6178.9546 -845.75641 380 9.9538322e-39
6170.1875 -863.7323 380 1.0230059e-38
6188.3838 -894.85925 380 1.1242056e-38
8012.4678 -1283.8535 540 1.50224e-38
7976.957 -1311.0378 540 1.3918949e-38
7932.4585 -1333.8384 540 8.1102993e-39
7923.9116 -1374.1738 540 1.059702e-38
7888.4009 -1401.3583 540 1.0321889e-38
7795.9019 -1545.3859 530 1.2349094e-38
6713.874 -1573.9468 450 1.5571967e-38
6682.7471 -1592.1432 450 1.5480859e-38
6566.3447 -1579.8741 440 1.640029e-38
6535.2178 -1598.0704 430 1.6031153e-38
6517.4624 -1611.6627 430 1.1886336e-38
6450.3838 -1612.3242 430 1.1981033e-38
6428.2446 -1634.9043 430 1.2165092e-38
5881.083 -1479.2959 380 1.2902282e-38
5854.3398 -1488.5044 380 1.3360738e-38
5796.249 -1493.5498 370 1.23509e-38
5778.4932 -1507.1418 370 1.2349826e-38
5760.7383 -1520.734 370 9.7705143e-39
5733.9946 -1529.9425 370 1.0786107e-38
5725.2275 -1547.9185 370 1.0690687e-38
5662.5322 -1539.592 360 1.1334956e-38
5424.4619 -1434.6035 340 1.1151652e-38
5424.6826 -1456.9631 340 1.1335686e-38
5420.2988 -1465.951 340 1.1887062e-38
5402.5435 -1479.5432 340 1.234445e-38
5398.1597 -1488.5312 340 1.1425741e-38
5353.4404 -1488.9722 340 1.2807586e-38
5322.0928 -1484.8091 330 1.2257991e-38
5124.3584 -1388.3674 310 1.1800616e-38
5124.5791 -1410.7271 310 1.188959e-38
4971.7837 -1336.2039 300 1.1519373e-38
4958.4121 -1340.8081 300 1.087616e-38
4940.6567 -1354.4004 300 1.0416614e-38
4927.2852 -1359.0046 300 9.8630883e-39
4931.8896 -1372.3762 300 9.0315354e-39
4923.1221 -1390.3521 300 1.032153e-38
4909.7505 -1394.9563 300 1.5109576e-38
4896.3789 -1399.5605 290 1.0413015e-38
4887.6113 -1417.5364 300 1.1058375e-38
4883.2275 -1426.5244 300 1.3730972e-38
4878.8438 -1435.5123 300 1.3179953e-38
4865.4722 -1440.1165 290 1.3177089e-38
4834.1245 -1435.9534 290 1.7242283e-38
4910.853 -1506.7543 300 2.3509823e-38
4911.0732 -1529.1139 300 2.3509818e-38
4881.4902 -1703.8274 310 2.1022686e-38
4886.0942 -1717.1991 310 2.1569055e-38
4854.7471 -1713.0359 300 2.0740725e-38
4854.9673 -1735.3955 300 2.0189004e-38
4841.5957 -1739.9998 300 1.9821647e-38
4828.2241 -1744.6039 300 1.9542536e-38
4823.8403 -1753.5919 300 1.8348327e-38
4796.8765 -1740.4408 300 1.7977746e-38
4779.1211 -1754.033 300 1.6685931e-38
4706.9971 -1696.6036 290 1.1429356e-38
4680.0332 -1683.4525 290 3.2275547e-39
4666.6616 -1688.0568 290 4.1530773e-39
4662.2778 -1697.0447 290 8.4819839e-39
4648.9062 -1701.6489 290 8.7567617e-39
4630.9302 -1692.8815 280 1.087221e-38
4608.5708 -1693.1021 280 8.1928218e-39
4586.2109 -1693.3225 280 1.3247364e-38
4577.2231 -1688.9388 280 4.4221686e-39
4550.2593 -1675.7877 280 4.7916714e-39
4536.8877 -1680.392 280 8.1978553e-39
4523.5161 -1684.9962 280 5.4341738e-39
4519.1323 -1693.9841 280 5.3434117e-39
4501.1562 -1685.2167 270 2.027585e-39
4474.1929 -1672.0656 270 1.5658838e-39
4447.229 -1658.9144 270 1.2903745e-39
4438.2412 -1654.5308 270 1.0152337e-39
4433.8574 -1663.5187 270 1.0148708e-39
4420.4854 -1668.1229 270 1.1067105e-39
4416.1021 -1677.1108 270 1.7499135e-39
4402.7305 -1681.7151 270 4.8802223e-39
4971.0688 -356.76556 250 2.2219794e-38
5127.5859 -355.22192 260 2.2588928e-38
5087.4712 -369.03461 260 2.3509806e-38
5060.7275 -378.24307 260 2.3509806e-38
5065.332 -391.61472 260 2.350981e-38
5047.5767 -405.20691 260 2.3509844e-38
5034.2051 -409.81113 260 2.3509807e-38
5029.8213 -418.79907 260 2.3509832e-38
5025.4375 -427.78702 260 2.3050618e-38
5021.0537 -436.77496 260 1.3545858e-38
5034.646 -454.5303 260 1.3085965e-38
5034.646 -454.5303 260 1.3821365e-38
4117.9028 -463.57169 190 1.3087769e-38
4113.519 -472.5596 190 9.0319123e-39
4113.519 -472.5596 190 1.0967625e-38
4109.1353 -481.54755 190 1.1056583e-38
4109.1353 -481.54755 190 1.604339e-38
4109.1353 -481.54755 190 8.8492853e-39
4104.7515 -490.53549 190 1.0505565e-38
5232.3809 -550.97192 280 8.8503839e-39
5169.9062 -565.00513 270 8.8471371e-39
5156.5347 -569.60938 270 8.4797923e-39
5147.7671 -587.58527 270 8.5680363e-39
6151.1084 -743.16687 350 9.3981445e-39
6097.6221 -761.58386 350 9.4914163e-39
5936.9414 -794.47498 340 1.004422e-38
6165.583 -850.3606 350 1.0227532e-38
6170.1875 -863.7323 360 1.0595969e-38
6188.3838 -894.85925 360 1.1059081e-38
7985.9453 -1315.4215 500 1.4471398e-38
7932.4585 -1333.8384 500 8.2925382e-39
7923.9116 -1374.1738 500 1.105584e-38
7879.4131 -1396.9746 500 1.0052844e-38
6839.2642 -1590.5995 430 1.4745808e-38
6731.8496 -1582.7141 420 1.5479778e-38
6691.7354 -1596.5269 420 1.557305e-38
6575.333 -1584.2578 410 1.5758519e-38
6535.2178 -1598.0704 410 1.6859835e-38
6508.4746 -1607.2789 410 2.0440332e-38
6441.3955 -1607.9406 400 1.8611926e-38
6401.2808 -1621.7532 400 1.2160753e-38
5863.3271 -1492.8882 360 1.2717166e-38
5805.2363 -1497.9333 350 1.308451e-38
5769.5054 -1502.7582 350 1.2350912e-38
5751.75 -1516.3503 350 1.0320459e-38
5733.9946 -1529.9425 350 1.1794861e-38
5725.2275 -1547.9185 350 9.9549238e-39
5662.5322 -1539.592 340 1.2160046e-38
5424.4619 -1434.6035 320 1.151828e-38
5415.6943 -1452.5793 320 1.1612266e-38
5420.2988 -1465.951 320 1.1703394e-38
5402.5435 -1479.5432 320 1.1885987e-38
5398.1597 -1488.5312 320 1.1336411e-38
5344.4526 -1484.5885 320 1.216761e-38
5331.0811 -1489.1927 320 1.2532786e-38
5115.3701 -1383.9836 300 1.2259815e-38
5124.5791 -1410.7271 300 1.22555e-38
4971.7837 -1336.2039 280 1.1888155e-38
4958.4121 -1340.8081 280 1.1795948e-38
4940.6567 -1354.4004 280 1.0140027e-38
4927.2852 -1359.0046 280 1.0320831e-38
4922.9014 -1367.9924 280 9.3081054e-39
4923.1221 -1390.3521 280 1.0136793e-38
4909.7505 -1394.9563 280 1.3915709e-38
4896.3789 -1399.5605 280 1.0413371e-38
4887.6113 -1417.5364 280 1.0507715e-38
4883.2275 -1426.5244 280 1.3087049e-38
4878.8438 -1435.5123 280 1.2996993e-38
4865.4722 -1440.1165 280 1.2809367e-38
4834.1245 -1435.9534 280 1.7882257e-38
4910.853 -1506.7543 290 2.3509811e-38
4938.0371 -1542.265 290 2.3509828e-38
4915.6777 -1542.4855 290 2.350983e-38
4890.478 -1708.2112 290 2.175415e-38
4886.0942 -1717.1991 290 2.2304095e-38
4854.7471 -1713.0359 290 2.1202419e-38
4854.9673 -1735.3955 290 2.0556701e-38
4841.5957 -1739.9998 290 2.0188267e-38
4828.2241 -1744.6039 290 1.9359942e-38
4823.8403 -1753.5919 290 1.8438004e-38
4792.4927 -1749.4287 290 1.8160682e-38
4779.1211 -1754.033 290 1.6777749e-38
4715.9849 -1700.9873 280 1.2072929e-38
4680.0332 -1683.4525 280 3.4112257e-39
4666.6616 -1688.0568 280 4.0601656e-39
4662.2778 -1697.0447 270 8.114265e-39
4639.9185 -1697.2653 270 9.0333416e-39
4621.9424 -1688.4978 270 1.1146641e-38
4608.5708 -1693.1021 270 8.7499346e-39
4590.5947 -1684.3346 270 1.878478e-38
4577.2231 -1688.9388 270 2.7662192e-39
4550.2593 -1675.7877 270 4.8813545e-39
4536.8877 -1680.392 270 7.6504408e-39
4523.5161 -1684.9962 260 1.1225234e-38
4510.1445 -1689.6003 260 5.1575953e-39
4501.1562 -1685.2167 260 1.7509953e-39
4474.1929 -1672.0656 260 2.7611802e-39
4447.229 -1658.9144 260 1.7499247e-39
4438.2412 -1654.5308 260 1.381854e-39
4433.8574 -1663.5187 260 1.2896584e-39
4420.4854 -1668.1229 260 1.290736e-39
4416.1021 -1677.1108 260 6.8109215e-39
4402.7305 -1681.7151 260 5.6170657e-39
4980.0566 -361.14926 240 2.2126169e-38
5127.5859 -355.22192 250 2.3506936e-38
5087.4712 -369.03461 250 2.3507303e-38
5060.7275 -378.24307 250 2.3509809e-38
5065.332 -391.61472 250 2.3325431e-38
5047.5767 -405.20691 250 2.3509465e-38
5034.2051 -409.81113 250 2.277515e-38
5029.8213 -418.79907 250 2.3509796e-38
5025.4375 -427.78702 250 2.185137e-38
5021.0537 -436.77496 250 1.2903369e-38
5034.646 -454.5303 250 1.2810458e-38
5034.646 -454.5303 250 1.3087749e-38
4117.9028 -463.57169 190 1.3177079e-38
4113.519 -472.5596 190 8.9396985e-39
4113.519 -472.5596 190 1.0783959e-38
4109.1353 -481.54755 190 1.1058731e-38
4109.1353 -481.54755 190 1.5119655e-38
4104.7515 -490.53549 190 9.3977857e-39
4104.7515 -490.53549 190 1.0322989e-38
5232.3809 -550.97192 260 9.4921646e-39
5169.9062 -565.00513 260 8.4797979e-39
5156.5347 -569.60938 260 8.8453392e-39
5152.1509 -578.59729 260 8.7545771e-39
6137.7373 -747.77112 330 9.2159112e-39
6097.6221 -761.58386 330 9.5807491e-39
6057.5068 -775.39648 320 9.4013731e-39
5959.3013 -794.25452 320 9.8587611e-39
6165.583 -850.3606 330 1.0135701e-38
6156.8154 -868.33655 330 9.9509735e-39
6188.3838 -894.85925 340 1.0965462e-38
4114.4014 -561.99799 190 1.6406397e-38
4110.0176 -570.9859 190 1.5577743e-38
7985.9453 -1315.4215 470 1.3824594e-38
7941.4463 -1338.2222 470 7.9262668e-39
7928.2954 -1365.186 470 1.0504828e-38
7879.4131 -1396.9746 470 8.9389768e-39
6848.252 -1594.9832 400 1.5018793e-38
6749.8262 -1591.4816 400 1.474581e-38
6718.6987 -1609.678 400 1.5389383e-38
6615.668 -1592.8047 390 1.5665246e-38
6566.5654 -1602.2336 380 1.6494638e-38
6517.4624 -1611.6627 380 2.3509781e-38
6428.0244 -1612.5448 380 1.8252076e-38
6401.2808 -1621.7532 370 1.1704466e-38
6230.9512 -1583.1819 360 1.1980695e-38
6195.2197 -1588.0067 360 1.2349101e-38
5872.3154 -1497.2719 340 1.2901553e-38
5796.249 -1493.5498 330 1.2900477e-38
5760.5176 -1498.3745 330 1.2164717e-38
5751.75 -1516.3503 330 7.4703095e-39
5733.9946 -1529.9425 330 1.2253687e-38
5725.2275 -1547.9185 330 1.0045689e-38
5671.52 -1543.9757 320 1.0964388e-38
5424.4619 -1434.6035 300 1.1152363e-38
5415.6943 -1452.5793 300 1.1427878e-38
5420.2988 -1465.951 300 1.1611194e-38
5402.5435 -1479.5432 300 1.1336045e-38
5398.1597 -1488.5312 300 1.1427889e-38
5335.4648 -1480.2048 300 1.262571e-38
5331.0811 -1489.1927 300 1.1890673e-38
5128.9624 -1401.739 280 1.2075767e-38
4971.7837 -1336.2039 270 1.1704848e-38
4958.4121 -1340.8081 270 1.1059118e-38
4940.6567 -1354.4004 270 1.0597776e-38
4936.2729 -1363.3882 270 9.8609331e-39
4931.8896 -1372.3762 270 9.6747412e-39
4923.1221 -1390.3521 270 9.7687389e-39
4909.7505 -1394.9563 270 1.4007911e-38
4896.3789 -1399.5605 270 1.0597044e-38
4896.5991 -1421.9202 270 1.0231137e-38
4883.2275 -1426.5244 270 1.2994847e-38
4887.832 -1439.896 270 1.327143e-38
4865.4722 -1440.1165 270 1.3636262e-38
4834.1245 -1435.9534 270 1.7976971e-38
4901.8652 -1502.3706 270 2.3509814e-38
4920.0615 -1533.4976 270 2.3509464e-38
4920.2822 -1555.8572 270 2.3509825e-38
4881.4902 -1703.8274 280 2.1297123e-38
4886.0942 -1717.1991 280 2.1568686e-38
4854.7471 -1713.0359 280 2.129389e-38
4854.9673 -1735.3955 280 2.0738567e-38
4832.6079 -1735.616 280 1.9730532e-38
4828.2241 -1744.6039 270 1.9631861e-38
4814.8525 -1749.2081 270 1.9173401e-38
4796.8765 -1740.4408 270 1.8160687e-38
4779.1211 -1754.033 270 1.7053982e-38
4724.9727 -1705.3711 270 1.1522285e-38
4680.0332 -1683.4525 260 3.2261184e-39
4666.6616 -1688.0568 260 3.876496e-39
4662.2778 -1697.0447 260 8.3897743e-39
4639.9185 -1697.2653 260 9.1251813e-39
4630.9302 -1692.8815 260 1.1330314e-38
4608.5708 -1693.1021 260 9.3942194e-39
4590.5947 -1684.3346 260 1.5844576e-38
4568.2354 -1684.5552 260 2.3023754e-39
4550.2593 -1675.7877 250 4.5132867e-39
4527.8999 -1676.0082 250 6.366197e-39
4523.5161 -1684.9962 250 8.1982532e-39
4510.1445 -1689.6003 250 5.158303e-39
4501.1562 -1685.2167 250 2.0279451e-39
4483.1807 -1676.4492 250 1.3829373e-39
4447.229 -1658.9144 250 8.8306606e-39
4438.2412 -1654.5308 250 5.3559379e-39
4424.8691 -1659.1349 250 2.9538573e-39
4420.4854 -1668.1229 250 7.2726185e-39
4416.1021 -1677.1108 250 6.9045577e-39
4402.7305 -1681.7151 240 5.616344e-39
5002.1958 -338.56915 230 2.1755585e-38
4975.4526 -347.77762 230 2.2949801e-38
4980.0566 -361.14926 230 2.3137797e-38
5002.4165 -360.92874 230 2.2677181e-38
5078.4834 -364.65088 240 2.2862662e-38
5060.7275 -378.24307 240 2.3509803e-38
5065.332 -391.61472 240 2.3509818e-38
5047.5767 -405.20691 240 2.3509809e-38
5034.2051 -409.81113 230 2.3326138e-38
5029.8213 -418.79907 230 2.3509828e-38
5025.4375 -427.78702 230 2.3133483e-38
5021.0537 -436.77496 230 1.2992326e-38
5034.646 -454.5303 240 1.2904797e-38
4117.9028 -463.57169 180 1.308668e-38
4113.519 -472.5596 180 9.0301018e-39
4113.519 -472.5596 180 1.1425729e-38
4100.1475 -477.16385 180 1.1794497e-38
4109.1353 -481.54755 180 1.4472856e-38
4095.7637 -486.15179 180 9.3077467e-39
4095.7637 -486.15179 180 1.0689601e-38
5232.3809 -550.97192 250 8.6624011e-39
5169.9062 -565.00513 250 8.5698341e-39
5156.5347 -569.60938 250 8.1113685e-39
5152.1509 -578.59729 250 8.8460595e-39
6128.749 -743.38745 310 9.1222806e-39
6097.6221 -761.58386 310 9.2144791e-39
5945.9297 -798.8587 300 9.8612792e-39
6165.583 -850.3606 310 1.0042792e-38
6147.8276 -863.95276 310 9.5829001e-39
4114.4014 -561.99799 180 1.6037981e-38
4110.0176 -570.9859 180 1.6126962e-38
4096.6455 -575.59015 180 1.4563233e-38
4096.6455 -575.59015 180 1.3733839e-38
7941.4463 -1338.2222 430 7.3723714e-39
7928.2954 -1365.186 430 1.0505194e-38
7879.4131 -1396.9746 430 9.3063048e-39
7946.9326 -1441.0322 440 8.8478391e-39
6870.6118 -1594.7627 380 1.5202827e-38
6772.1855 -1591.261 370 1.4927328e-38
6741.0586 -1609.4574 370 1.621625e-38
6700.9434 -1623.2701 370 1.5942899e-38
6629.481 -1632.9197 360 1.7876111e-38
6562.4023 -1633.5812 360 2.350834e-38
6441.3955 -1607.9406 350 1.0329801e-38
6419.2568 -1630.5206 350 1.2072523e-38
6213.1953 -1596.774 340 1.2074315e-38
5872.3154 -1497.2719 320 1.2166871e-38
5787.2607 -1489.166 310 1.3087384e-38
5760.5176 -1498.3745 310 1.2812239e-38
5742.7622 -1511.9667 310 1.2073599e-38
5725.0068 -1525.5588 310 1.1423562e-38
5716.2393 -1543.5347 310 1.0505223e-38
5653.5439 -1535.2084 300 1.1887777e-38
5424.4619 -1434.6035 290 1.2068944e-38
5424.6826 -1456.9631 290 1.1427529e-38
5420.2988 -1465.951 290 1.1520443e-38
5402.5435 -1479.5432 290 1.1887417e-38
5398.1597 -1488.5312 290 1.1703757e-38
5335.4648 -1480.2048 280 1.290444e-38
5331.0811 -1489.1927 280 1.2441318e-38
5088.4067 -1370.8325 270 1.2166529e-38
4971.7837 -1336.2039 260 1.1705197e-38
4958.4121 -1340.8081 260 1.0325504e-38
4940.6567 -1354.4004 260 9.8630897e-39
4927.2852 -1359.0046 260 9.7701836e-39
4922.9014 -1367.9924 260 8.480158e-39
4923.1221 -1390.3521 260 1.0137498e-38
4909.7505 -1394.9563 260 1.4651125e-38
4896.3789 -1399.5605 250 1.0137512e-38
4896.5991 -1421.9202 260 1.1333155e-38
4883.2275 -1426.5244 260 1.3454389e-38
4887.832 -1439.896 260 1.327035e-38
4874.46 -1444.5002 250 1.2533526e-38
4834.1245 -1435.9534 250 1.7517436e-38
4883.8892 -1493.6031 260 2.3509802e-38
4870.5176 -1498.2074 260 2.3509828e-38
4876.8857 -1690.4558 260 2.1295325e-38
4886.0942 -1717.1991 260 2.0928335e-38
4854.7471 -1713.0359 260 2.0744317e-38
4854.9673 -1735.3955 260 1.9915627e-38
4836.9912 -1726.6281 260 2.0556667e-38
4828.2241 -1744.6039 260 1.9636903e-38
4814.8525 -1749.2081 260 1.8991152e-38
4792.4927 -1749.4287 260 1.8251813e-38
4788.1089 -1758.4166 260 1.7699338e-38
4729.5771 -1718.7427 250 1.1797785e-38
4680.0332 -1683.4525 250 3.3179567e-39
4666.6616 -1688.0568 250 3.5066345e-39
4653.29 -1692.661 250 8.8482329e-39
4639.9185 -1697.2653 250 9.033343e-39
4626.5469 -1701.8694 250 1.0872924e-38
4608.5708 -1693.1021 250 1.0316533e-38
4590.5947 -1684.3346 240 8.2957247e-39
4568.2354 -1684.5552 240 3.0388615e-39
4541.2715 -1671.4039 240 4.8817147e-39
4527.8999 -1676.0082 240 5.255518e-39
4523.5161 -1684.9962 240 1.1804967e-38
4510.1445 -1689.6003 240 5.7118369e-39
4492.1685 -1680.833 240 2.6682895e-39
4483.1807 -1676.4492 240 1.5669656e-39
4447.229 -1658.9144 240 1.750638e-39
4438.2412 -1654.5308 240 1.6595255e-39
4424.8691 -1659.1349 230 5.7993424e-39
4420.4854 -1668.1229 230 6.9963988e-39
4416.1021 -1677.1108 230 6.6276162e-39
4402.7305 -1681.7151 230 5.6141944e-39
5042.3105 -324.75647 220 2.1844557e-38
5024.5557 -338.34863 220 2.2031814e-38
5006.7998 -351.9408 220 2.194321e-38
4984.4404 -352.16132 220 2.2220157e-38
5011.4043 -365.31247 220 2.3502998e-38
5074.0996 -373.63885 220 2.2865157e-38
5060.7275 -378.24307 220 2.3508018e-38
5065.332 -391.61472 220 2.3509468e-38
5047.5767 -405.20691 220 2.3509828e-38
5034.2051 -409.81113 220 2.3417988e-38
5029.8213 -418.79907 220 2.3509807e-38
5025.4375 -427.78702 220 2.0930843e-38
5021.0537 -436.77496 220 1.3176e-38
5034.646 -454.5303 220 1.3179239e-38
4117.9028 -463.57169 180 1.2902296e-38
4113.519 -472.5596 180 8.5701943e-39
4113.519 -472.5596 180 1.1240981e-38
4100.1475 -477.16385 180 1.2807558e-38
4100.1475 -477.16385 180 1.2998475e-38
4095.7637 -486.15179 180 8.481579e-39
4095.7637 -486.15179 180 1.0414457e-38
5232.3809 -550.97192 240 8.2939829e-39
5169.9062 -565.00513 230 8.3847296e-39
5156.5347 -569.60938 230 8.5680377e-39
5138.7793 -583.20154 230 8.3883071e-39
5989.9873 -731.33887 280 9.0308039e-39
5994.5918 -744.71057 280 9.3985018e-39
5945.9297 -798.8587 280 9.4932057e-39
6156.5947 -845.97693 290 9.309176e-39
6147.8276 -863.95276 290 9.5836105e-39
4101.0293 -566.60223 180 1.5668846e-38
4101.0293 -566.60223 180 1.5669919e-38
4096.6455 -575.59015 180 1.5022406e-38
4096.6455 -575.59015 180 1.3550168e-38
4092.262 -584.57812 180 7.5571213e-39
7937.2832 -1369.5697 400 1.1146249e-38
7892.7847 -1392.3704 400 1.0962583e-38
6763.1973 -1586.8773 340 1.5110987e-38
6741.0586 -1609.4574 340 1.5939668e-38
6718.9194 -1632.0376 340 1.5849643e-38
6678.8047 -1645.8502 340 1.8252088e-38
6450.3838 -1612.3242 330 1.0598854e-38
6410.2686 -1626.137 330 1.0968337e-38
6222.1836 -1601.1578 320 1.2074669e-38
5872.3154 -1497.2719 290 1.2903359e-38
5787.2607 -1489.166 290 1.2993403e-38
5751.5293 -1493.9907 290 1.2534222e-38
5733.7744 -1507.583 290 1.1889935e-38
5725.0068 -1525.5588 290 1.1151301e-38
5707.2515 -1539.151 290 1.0688184e-38
5644.5566 -1530.8246 280 1.1980331e-38
5433.4502 -1438.9873 270 1.0692465e-38
5424.6826 -1456.9631 270 1.2069656e-38
5420.2988 -1465.951 270 1.1610477e-38
5411.5312 -1483.927 270 1.1887075e-38
5407.1475 -1492.9148 270 1.0692846e-38
5344.4526 -1484.5885 270 1.2718276e-38
5349.0566 -1497.9602 270 1.2258364e-38
5097.3945 -1375.2163 250 1.2442044e-38
5133.5669 -1415.1107 250 1.1250335e-38
4971.7837 -1336.2039 240 1.1981779e-38
4958.4121 -1340.8081 240 1.0784326e-38
4940.6567 -1354.4004 240 1.0505945e-38
4927.2852 -1359.0046 240 9.5857825e-39
4922.9014 -1367.9924 240 9.3992291e-39
4923.1221 -1390.3521 240 1.041265e-38
4909.7505 -1394.9563 240 1.4651479e-38
4896.3789 -1399.5605 240 1.0413744e-38
4887.6113 -1417.5364 240 1.1700862e-38
4883.2275 -1426.5244 240 1.3180311e-38
4878.8438 -1435.5123 240 1.3178162e-38
4865.4722 -1440.1165 240 1.2810811e-38
4834.1245 -1435.9534 240 1.7976972e-38
4903.8496 -1703.6069 250 2.1569411e-38
4881.4902 -1703.8274 250 2.1567961e-38
4886.0942 -1717.1991 250 2.1754857e-38
4854.7471 -1713.0359 250 1.9916348e-38
4854.9673 -1735.3955 250 1.963797e-38
4836.9912 -1726.6281 250 1.9640123e-38
4819.2363 -1740.2202 250 1.9360655e-38
4814.8525 -1749.2081 250 1.8807127e-38
4792.4927 -1749.4287 240 1.8162836e-38
4788.1089 -1758.4166 240 1.7145115e-38
4720.5894 -1714.359 240 1.253283e-38
4680.0332 -1683.4525 240 2.5821853e-39
4666.6616 -1688.0568 240 3.4147976e-39
4653.29 -1692.661 240 8.7564002e-39
4639.9185 -1697.2653 240 8.7563974e-39
4626.5469 -1701.8694 240 1.1146629e-38
4608.5708 -1693.1021 230 1.0592408e-38
4590.5947 -1684.3346 230 5.8900638e-39
4568.2354 -1684.5552 230 4.2345292e-39
4541.2715 -1671.4039 230 4.7891617e-39
4536.8877 -1680.392 230 4.8820748e-39
4523.5161 -1684.9962 230 9.1388958e-39
4519.1323 -1693.9841 230 5.8929925e-39
4501.1562 -1685.2167 230 5.2458281e-39
4483.1807 -1676.4492 230 1.382933e-39
4447.229 -1658.9144 220 1.3829302e-39
4438.2412 -1654.5308 220 2.0268563e-39
4424.8691 -1659.1349 220 6.7226845e-39
4420.4854 -1668.1229 220 6.7198133e-39
4416.1021 -1677.1108 220 6.0787585e-39
4411.7183 -1686.0988 220 6.535422e-39
5037.9272 -333.74438 210 2.2308038e-38
5006.7998 -351.9408 210 2.2400958e-38
4971.0688 -356.76556 210 2.2218703e-38
4989.0449 -365.53299 210 2.3505514e-38
5074.0996 -373.63885 210 2.3504785e-38
5060.7275 -378.24307 210 2.3505871e-38
5065.332 -391.61472 210 2.3140311e-38
5047.5767 -405.20691 210 2.3509803e-38
5034.2051 -409.81113 210 2.3509437e-38
5029.8213 -418.79907 210 2.3509806e-38
5025.4375 -427.78702 210 2.0746822e-38
5021.0537 -436.77496 210 1.2533505e-38
5034.646 -454.5303 210 1.2532074e-38
4117.9028 -463.57169 170 1.2626417e-38
4113.519 -472.5596 170 8.5687663e-39
4104.5312 -468.1759 170 1.1610122e-38
4100.1475 -477.16385 170 1.2994822e-38
4100.1475 -477.16385 170 1.1986839e-38
4095.7637 -486.15179 170 9.3059572e-39
4095.7637 -486.15179 170 1.0414453e-38
5223.3926 -546.5882 220 7.283075e-39
5160.918 -560.62146 220 7.6507547e-39
5156.5347 -569.60938 220 8.2943291e-39
5120.8032 -574.43414 220 8.3857988e-39
5058.3286 -588.46735 220 8.3865135e-39
6034.7065 -730.89783 260 8.8467742e-39
6034.9268 -753.25745 270 8.4780028e-39
5985.8242 -762.6864 260 9.3070278e-39
6008.4043 -784.8255 260 9.3084572e-39
5959.3013 -794.25452 260 9.8605561e-39
6147.6074 -841.5932 270 9.9498721e-39
6147.8276 -863.95276 270 9.859124e-39
4114.4014 -561.99799 170 1.6310989e-38
4110.0176 -570.9859 170 1.5484467e-38
4096.6455 -575.59015 170 1.4378481e-38
4096.6455 -575.59015 170 1.2353791e-38
4096.6455 -575.59015 170 7.4631264e-39
7937.2832 -1369.5697 360 1.0228973e-38
6763.1973 -1586.8773 320 1.4743297e-38
6750.0464 -1613.8412 320 1.5938956e-38
6727.9072 -1636.4213 310 1.6583597e-38
6696.7803 -1654.6177 310 1.5300418e-38
6629.7012 -1655.2793 310 1.5948686e-38
6459.3716 -1616.7079 300 7.8376641e-39
6419.2568 -1630.5206 300 1.2164364e-38
5872.3154 -1497.2719 270 1.2810075e-38
5778.2725 -1484.7822 270 1.3083812e-38
5742.5415 -1489.6071 270 1.2443109e-38
5724.7861 -1503.1992 270 1.2349107e-38
5716.0186 -1521.175 270 1.1704465e-38
5707.2515 -1539.151 270 1.0319759e-38
5433.4502 -1438.9873 250 1.0325134e-38
5424.6826 -1456.9631 250 1.1246366e-38
5420.2988 -1465.951 250 1.1796662e-38
5402.5435 -1479.5432 250 1.1520796e-38
5398.1597 -1488.5312 250 1.069392e-38
5344.4526 -1484.5885 250 1.2811542e-38
5340.0688 -1493.5764 250 1.1982486e-38
5088.4067 -1370.8325 240 1.2074696e-38
5106.603 -1401.9596 240 1.1889591e-38
4971.7837 -1336.2039 230 1.1154186e-38
4958.4121 -1340.8081 230 1.0692482e-38
4940.6567 -1354.4004 230 1.0320829e-38
4927.2852 -1359.0046 230 9.7708828e-39
4922.9014 -1367.9924 230 9.4910618e-39
4923.1221 -1390.3521 230 9.7672829e-39
4909.7505 -1394.9563 230 1.4191929e-38
4896.3789 -1399.5605 230 9.7687262e-39
4887.6113 -1417.5364 230 1.1150217e-38
4883.2275 -1426.5244 230 1.3453669e-38
4878.8438 -1435.5123 230 1.317815e-38
4874.46 -1444.5002 230 1.3177092e-38
4843.1123 -1440.337 230 1.8163158e-38
4881.4902 -1703.8274 230 2.1019094e-38
4886.0942 -1717.1991 230 2.074431e-38
4854.7471 -1713.0359 230 2.120062e-38
4854.9673 -1735.3955 230 1.972909e-38
4836.9912 -1726.6281 230 1.991096e-38
4819.2363 -1740.2202 230 2.0003503e-38
4814.8525 -1749.2081 230 1.899259e-38
4792.4927 -1749.4287 230 1.7975953e-38
4788.1089 -1758.4166 230 1.714546e-38
4720.5894 -1714.359 230 1.2073631e-38
4689.0215 -1687.8362 220 2.767657e-39
4666.6616 -1688.0568 220 2.9541866e-39
4653.29 -1692.661 220 8.7564114e-39
4639.9185 -1697.2653 220 8.5741642e-39
4626.5469 -1701.8694 220 1.123955e-38
4617.5586 -1697.4857 220 1.1234172e-38
4590.5947 -1684.3346 220 6.4421614e-39
4559.2471 -1680.1714 220 5.3379775e-39
4541.2715 -1671.4039 220 4.2377774e-39
4536.8877 -1680.392 220 4.7898848e-39
4523.5161 -1684.9962 220 7.4639014e-39
4519.1323 -1693.9841 220 5.8025864e-39
4492.1685 -1680.833 220 6.7231189e-39
4483.1807 -1676.4492 220 1.475486e-39
4456.2168 -1663.2981 210 1.9346705e-39
4438.2412 -1654.5308 210 8.8367044e-39
4424.8691 -1659.1349 210 7.823993e-39
4420.4854 -1668.1229 210 1.0031281e-38
4416.1021 -1677.1108 210 1.1777954e-38
4411.7183 -1686.0988 210 1.659151e-38
4975.4526 -347.77762 200 2.2398428e-38
4957.6973 -361.36978 200 2.2306968e-38
4975.6729 -370.13721 200 2.2679699e-38
5065.1113 -369.25513 200 2.350909e-38
5060.7275 -378.24307 200 2.3137432e-38
5065.332 -391.61472 200 2.3508004e-38
5047.5767 -405.20691 200 2.3509814e-38
5034.2051 -409.81113 200 2.3507656e-38
5029.8213 -418.79907 200 2.3508378e-38
5025.4375 -427.78702 200 1.991312e-38
5021.0537 -436.77496 200 1.2626061e-38
5034.646 -454.5303 200 1.2715382e-38
4117.9028 -463.57169 170 1.2809376e-38
4113.519 -472.5596 170 8.4779944e-39
4104.5312 -468.1759 170 1.1611913e-38
4100.1475 -477.16385 170 1.3728067e-38
4100.1475 -477.16385 170 1.0606788e-38
4095.7637 -486.15179 170 8.9407677e-39
4095.7637 -486.15179 170 1.0598844e-38
4104.7515 -490.53549 170 7.4652971e-39
5160.918 -560.62146 210 8.0159443e-39
5129.791 -578.81787 210 7.7426e-39
5067.3164 -592.85107 210 8.5683894e-39
5986.2651 -807.40564 240 9.2144735e-39
6165.583 -850.3606 250 9.3995752e-39
6147.8276 -863.95276 250 1.0043505e-38
4105.4131 -557.61426 170 1.6312067e-38
4101.0293 -566.60223 170 1.5211473e-38
4096.6455 -575.59015 170 1.4469975e-38
4096.6455 -575.59015 170 1.3179227e-38
4096.6455 -575.59015 170 7.4649257e-39
6781.1733 -1595.6448 290 1.4653964e-38
6759.0342 -1618.2249 290 1.5112059e-38
6727.9072 -1636.4213 290 1.5480864e-38
6705.7686 -1659.0013 290 1.5110637e-38
6638.6895 -1659.663 280 1.3823882e-38
6468.3594 -1621.0917 280 1.0232954e-38
6446.2207 -1643.6718 280 1.2438428e-38
5890.0708 -1483.6797 250 1.2256558e-38
5872.3154 -1497.2719 250 1.3362531e-38
5769.2852 -1480.3987 250 1.26282e-38
5751.5293 -1493.9907 250 1.2719326e-38
5724.7861 -1503.1992 250 1.2073963e-38
5716.0186 -1521.175 250 1.1889573e-38
5698.2637 -1534.7673 250 1.0045683e-38
5433.4502 -1438.9873 240 1.0599934e-38
5415.6943 -1452.5793 240 1.1426088e-38
5411.311 -1461.5674 240 1.0967268e-38
5402.5435 -1479.5432 240 1.069105e-38
5398.1597 -1488.5312 240 1.1334974e-38
5344.4526 -1484.5885 230 1.2534597e-38
5349.0566 -1497.9602 230 1.2258729e-38
4975.9473 -1304.8564 220 1.2532797e-38
4976.1675 -1327.2161 220 1.2167609e-38
4971.7837 -1336.2039 220 1.1704111e-38
4958.4121 -1340.8081 220 1.0692492e-38
4940.6567 -1354.4004 220 1.004748e-38
4927.2852 -1359.0046 220 1.0044248e-38
4922.9014 -1367.9924 220 9.2166301e-39
4923.1221 -1390.3521 220 9.7694465e-39
4909.7505 -1394.9563 220 1.4282691e-38
4896.3789 -1399.5605 210 1.0226846e-38
4887.6113 -1417.5364 210 1.1519695e-38
4883.2275 -1426.5244 210 1.2720426e-38
4878.8438 -1435.5123 210 1.3452953e-38
4874.46 -1444.5002 210 1.280973e-38
4843.1123 -1440.337 210 1.7884066e-38
4767.4868 -1481.3341 210 2.33222e-38
4754.1152 -1485.9384 210 2.3231073e-38
4754.3359 -1508.298 210 2.3320744e-38
4876.8857 -1690.4558 220 2.1568677e-38
4886.0942 -1717.1991 220 2.0925467e-38
4854.7471 -1713.0359 220 2.0374472e-38
4854.9673 -1735.3955 220 1.9638331e-38
4836.9912 -1726.6281 220 1.9085885e-38
4819.2363 -1740.2202 220 1.9636163e-38
4814.8525 -1749.2081 220 1.8992227e-38
4792.4927 -1749.4287 220 1.7427439e-38
4788.1089 -1758.4166 220 1.687033e-38
4720.5894 -1714.359 210 1.2255514e-38
4689.0215 -1687.8362 210 2.9491713e-39
4666.6616 -1688.0568 210 3.2286113e-39
4653.29 -1692.661 210 8.7581995e-39
4639.9185 -1697.2653 210 8.7546066e-39
4626.5469 -1701.8694 210 1.068853e-38
4617.5586 -1697.4857 210 1.0868619e-38
4586.2109 -1693.3225 210 7.550325e-39
4559.2471 -1680.1714 210 1.1867664e-38
4541.2715 -1671.4039 210 2.121933e-39
4536.8877 -1680.392 210 4.8827909e-39
4523.5161 -1684.9962 210 6.9114422e-39
4519.1323 -1693.9841 210 5.6196412e-39
4492.1685 -1680.833 200 5.9891398e-39
4483.1807 -1676.4492 200 1.9346705e-39
4456.2168 -1663.2981 200 5.6368001e-39
4438.2412 -1654.5308 200 1.4289943e-38
4424.8691 -1659.1349 200 1.3834e-38
4420.4854 -1668.1229 200 1.6131336e-38
4416.1021 -1677.1108 200 1.5396279e-38
4411.7183 -1686.0988 200 1.5858709e-38
4962.0811 -352.38184 190 2.1759538e-38
4957.6973 -361.36978 190 2.1942504e-38
5065.1113 -369.25513 190 2.2589666e-38
5060.7275 -378.24307 190 2.350873e-38
5065.332 -391.61472 190 2.2866946e-38
5047.5767 -405.20691 190 2.3509095e-38
5034.2051 -409.81113 190 2.3509444e-38
5029.8213 -418.79907 190 2.3507639e-38
5025.4375 -427.78702 190 1.9270261e-38
5016.6699 -445.76288 190 1.280865e-38
5034.646 -454.5303 190 1.2348036e-38
4117.9028 -463.57169 160 1.2810446e-38
4113.519 -472.5596 160 8.3861688e-39
4104.5312 -468.1759 160 1.1335686e-38
4100.1475 -477.16385 160 1.3728424e-38
4100.1475 -477.16385 160 1.0233684e-38
4095.7637 -486.15179 160 9.1244513e-39
4095.7637 -486.15179 160 1.0691396e-38
5223.3926 -546.5882 200 7.835153e-39
5160.918 -560.62146 200 7.7411567e-39
5129.791 -578.81787 200 7.5585619e-39
5103.0479 -588.02631 200 7.9255437e-39
6017.6128 -811.56879 230 9.0311682e-39
6156.5947 -845.97693 230 9.3981445e-39
6147.8276 -863.95276 230 1.0045299e-38
4101.0293 -566.60223 170 1.5667052e-38
4101.0293 -566.60223 170 1.4658299e-38
4096.6455 -575.59015 170 1.4745836e-38
4096.6455 -575.59015 170 1.3732759e-38
4096.6455 -575.59015 170 7.5564025e-39
6781.1733 -1595.6448 260 1.5294301e-38
6759.0342 -1618.2249 260 1.5573759e-38
6727.9072 -1636.4213 260 1.5481568e-38
6705.7686 -1659.0013 260 1.5481935e-38
6629.7012 -1655.2793 260 1.0503039e-38
6468.3594 -1621.0917 250 1.0319372e-38
6455.2085 -1648.0554 250 1.179701e-38
5872.0947 -1474.9124 230 1.2257641e-38
5863.3271 -1492.8882 230 1.2535639e-38
5769.2852 -1480.3987 230 1.317779e-38
5751.5293 -1493.9907 230 1.2718967e-38
5733.7744 -1507.583 230 1.2442024e-38
5716.0186 -1521.175 230 1.17016e-38
5698.2637 -1534.7673 230 9.215212e-39
5509.7373 -1465.069 220 1.1704463e-38
5433.4502 -1438.9873 220 1.0693196e-38
5415.6943 -1452.5793 220 1.0873999e-38
5411.311 -1461.5674 220 1.1607966e-38
5402.5435 -1479.5432 220 1.1152735e-38
5407.1475 -1492.9148 220 1.1337485e-38
5344.4526 -1484.5885 220 1.336004e-38
5353.6611 -1511.3318 220 1.2168321e-38
4966.959 -1300.4727 200 1.1616602e-38
4976.1675 -1327.2161 200 1.1887432e-38
4971.7837 -1336.2039 200 1.1885999e-38
4958.4121 -1340.8081 200 1.0691418e-38
4940.6567 -1354.4004 200 1.0508453e-38
4927.2852 -1359.0046 200 9.4053499e-39
4922.9014 -1367.9924 200 9.1230023e-39
4923.1221 -1390.3521 200 1.0044233e-38
4909.7505 -1394.9563 200 1.465004e-38
4896.3789 -1399.5605 200 1.0043517e-38
4887.6113 -1417.5364 200 1.0967606e-38
4883.2275 -1426.5244 200 1.2628575e-38
4878.8438 -1435.5123 200 1.2809379e-38
4870.0762 -1453.4883 200 1.2900847e-38
4843.1123 -1440.337 200 1.8715246e-38
4790.0669 -1503.4731 200 2.2769388e-38
4776.6953 -1508.0774 200 2.2679357e-38
4794.8916 -1539.2045 200 2.1942858e-38
4876.8857 -1690.4558 210 2.1847415e-38
4886.0942 -1717.1991 210 2.0468095e-38
4854.7471 -1713.0359 200 2.1015174e-38
4854.9673 -1735.3955 210 2.0004964e-38
4836.9912 -1726.6281 200 1.9634383e-38
4819.2363 -1740.2202 200 2.0094272e-38
4814.8525 -1749.2081 200 1.834365e-38
4792.4927 -1749.4287 200 1.825254e-38
4788.1089 -1758.4166 200 1.6043435e-38
4720.5894 -1714.359 200 1.1796711e-38
4689.0215 -1687.8362 200 2.4899939e-39
4666.6616 -1688.0568 200 3.1367842e-39
4653.29 -1692.661 200 8.2053844e-39
4639.9185 -1697.2653 200 8.3897855e-39
4626.5469 -1701.8694 200 1.0966209e-38
4617.5586 -1697.4857 200 1.0870431e-38
4586.2109 -1693.3225 200 6.2631806e-39
4559.2471 -1680.1714 200 1.7311809e-38
4541.2715 -1671.4039 190 2.1169122e-39
4536.8877 -1680.392 190 5.0675465e-39
4523.5161 -1684.9962 190 1.0155161e-38
4519.1323 -1693.9841 190 5.7114669e-39
4492.1685 -1680.833 190 5.3430558e-39
4483.1807 -1676.4492 190 2.119073e-39
4465.2046 -1667.6819 190 7.7566284e-39
4447.229 -1658.9144 190 1.5397706e-38
4424.8691 -1659.1349 190 1.5300848e-38
4420.4854 -1668.1229 190 1.6597696e-38
4416.1021 -1677.1108 190 1.6040927e-38
4411.7183 -1686.0988 190 1.6409014e-38
4975.4526 -347.77762 180 2.1847056e-38
5065.1113 -369.25513 180 2.2496738e-38
5060.7275 -378.24307 180 2.2769383e-38
5065.332 -391.61472 180 2.35098e-38
5047.5767 -405.20691 180 2.3326139e-38
5034.2051 -409.81113 180 2.3508016e-38
5029.8213 -418.79907 180 2.3509439e-38
5025.4375 -427.78702 180 1.8714565e-38
5016.6699 -445.76288 180 1.2164011e-38
5034.646 -454.5303 180 1.2992674e-38
5030.2622 -463.51825 180 1.2717888e-38
4117.9028 -463.57169 160 1.2626054e-38
4113.519 -472.5596 160 8.6620312e-39
4104.5312 -468.1759 160 1.1243137e-38
4100.1475 -477.16385 160 1.4375945e-38
4100.1475 -477.16385 160 1.023154e-38
4095.7637 -486.15179 160 9.8598387e-39
4095.7637 -486.15179 160 1.0873625e-38
4104.7515 -490.53549 160 7.6482534e-39
5160.918 -560.62146 180 7.7411679e-39
5107.4316 -579.03833 180 8.2910977e-39
6156.5947 -845.97693 210 9.4906946e-39
6147.8276 -863.95276 210 9.2162559e-39
4101.0293 -566.60223 160 1.5488762e-38
4101.0293 -566.60223 160 1.5208243e-38
4096.6455 -575.59015 160 1.4378859e-38
4096.6455 -575.59015 160 1.3456177e-38
4096.6455 -575.59015 160 6.9128393e-39
6781.1733 -1595.6448 230 1.4653244e-38
6750.0464 -1613.8412 230 1.5205335e-38
6718.9194 -1632.0376 230 1.5479427e-38
6696.7803 -1654.6177 230 1.529683e-38
6629.7012 -1655.2793 230 1.0689591e-38
6486.3354 -1629.859 230 1.0875063e-38
6464.1963 -1652.4392 230 1.2162564e-38
5872.0947 -1474.9124 210 1.2439147e-38
5849.9561 -1497.4924 210 1.2533499e-38
5769.2852 -1480.3987 210 1.2719683e-38
5751.5293 -1493.9907 210 1.3268543e-38
5733.7744 -1507.583 210 1.2348748e-38
5716.0186 -1521.175 210 1.1428235e-38
5707.2515 -1539.151 210 9.6768978e-39
5518.7251 -1469.4526 200 1.1334244e-38
5433.4502 -1438.9873 200 1.1152723e-38
5424.6826 -1456.9631 200 1.1610115e-38
5420.2988 -1465.951 200 1.1702664e-38
5411.5312 -1483.927 200 1.1337483e-38
5407.1475 -1492.9148 200 1.0876157e-38
5344.4526 -1484.5885 200 1.2811165e-38
5371.6367 -1520.0992 200 1.0971228e-38
4975.9473 -1304.8564 190 1.1708427e-38
4976.1675 -1327.2161 190 1.1889231e-38
4971.7837 -1336.2039 190 1.1245649e-38
4958.4121 -1340.8081 190 1.0966563e-38
4940.6567 -1354.4004 190 1.0138236e-38
4936.2729 -1363.3882 190 9.3095516e-39
4922.9014 -1367.9924 190 8.9418509e-39
4923.1221 -1390.3521 190 9.8602044e-39
4909.7505 -1394.9563 190 1.4189784e-38
4896.3789 -1399.5605 190 9.7687319e-39
4887.6113 -1417.5364 190 1.1242761e-38
4883.2275 -1426.5244 190 1.3454738e-38
4878.8438 -1435.5123 190 1.3086317e-38
4870.0762 -1453.4883 190 1.2902294e-38
4776.4746 -1485.7178 190 2.3504786e-38
4881.4902 -1703.8274 190 2.1199903e-38
4886.0942 -1717.1991 190 2.0922615e-38
4854.7471 -1713.0359 190 2.0096435e-38
4854.9673 -1735.3955 190 2.0096426e-38
4836.9912 -1726.6281 190 1.9911685e-38
4819.2363 -1740.2202 190 1.9174833e-38
4814.8525 -1749.2081 190 1.8252889e-38
4792.4927 -1749.4287 190 1.8251089e-38
4788.1089 -1758.4166 190 1.7328759e-38
4729.5771 -1718.7427 190 1.1889977e-38
4684.6377 -1696.8242 190 2.8573316e-39
4666.6616 -1688.0568 190 2.7701471e-39
4653.29 -1692.661 190 8.7567561e-39
4639.9185 -1697.2653 190 8.8489588e-39
4626.5469 -1701.8694 190 1.0600283e-38
4617.5586 -1697.4857 180 1.0689988e-38
4595.1992 -1697.7063 180 6.8167019e-39
4559.2471 -1680.1714 180 1.6028252e-38
4541.2715 -1671.4039 180 2.3030957e-39
4527.8999 -1676.0082 180 4.8835069e-39
4523.5161 -1684.9962 180 9.3077999e-39
4519.1323 -1693.9841 180 6.1713759e-39
4492.1685 -1680.833 180 5.0653983e-39
4483.1807 -1676.4492 180 2.303446e-39
4460.8213 -1676.6698 180 6.0984859e-39
4442.8452 -1667.9023 180 1.5120058e-38
4433.8574 -1663.5187 180 1.484669e-38
4420.4854 -1668.1229 180 1.4759166e-38
4416.1021 -1677.1108 180 1.4845642e-38
4411.7183 -1686.0988 180 1.5954855e-38
5065.1113 -369.25513 170 2.2591435e-38
5060.7275 -378.24307 170 2.3509085e-38
5065.332 -391.61472 170 2.3507307e-38
5047.5767 -405.20691 170 2.3506574e-38
5034.2051 -409.81113 170 2.3509806e-38
5029.8213 -418.79907 170 2.3234295e-38
5025.4375 -427.78702 170 1.760897e-38
5007.6821 -441.37918 170 1.1889938e-38
5025.6582 -450.14661 170 1.2348754e-38
5030.2622 -463.51825 170 1.2256198e-38
4117.9028 -463.57169 150 1.2258357e-38
4113.519 -472.5596 150 8.1106623e-39
4104.5312 -468.1759 150 1.0140027e-38
4100.1475 -477.16385 150 1.5479055e-38
4100.1475 -477.16385 150 9.7716227e-39
4095.7637 -486.15179 150 9.4899758e-39
4095.7637 -486.15179 150 1.0414453e-38
5219.0088 -555.57617 170 7.7422301e-39
5160.918 -560.62146 170 7.5585591e-39
5129.791 -578.81787 170 7.6507575e-39
6165.583 -850.3606 190 9.2159014e-39
6156.8154 -868.33655 190 9.493217e-39
4101.0293 -566.60223 160 1.5208608e-38
4101.0293 -566.60223 160 1.4100819e-38
4096.6455 -575.59015 160 1.3640194e-38
4096.6455 -575.59015 160 7.0943593e-39
6772.1855 -1591.261 210 1.5385419e-38
6741.0586 -1609.4574 210 1.4653968e-38
6709.9316 -1627.6538 210 1.612335e-38
6687.792 -1650.234 210 1.4653619e-38
6473.1846 -1656.8229 200 1.2439146e-38
6419.4775 -1652.8802 200 1.1797731e-38
5813.7832 -1457.5979 190 1.2256557e-38
5831.98 -1488.725 190 1.2259429e-38
5769.2852 -1480.3987 190 1.2443459e-38
5751.5293 -1493.9907 190 1.2807581e-38
5742.7622 -1511.9667 190 1.2348035e-38
5725.0068 -1525.5588 190 1.2070369e-38
5716.2393 -1543.5347 190 9.9516924e-39
5473.7852 -1447.5342 180 1.1336052e-38
5433.4502 -1438.9873 180 1.0782878e-38
5415.6943 -1452.5793 180 1.1334254e-38
5411.311 -1461.5674 180 1.1244927e-38
5402.5435 -1479.5432 180 1.1517918e-38
5407.1475 -1492.9148 180 1.1151301e-38
5353.4404 -1488.9722 180 1.2170131e-38
5398.6006 -1533.2504 180 1.2166883e-38
4975.9473 -1304.8564 180 1.2536023e-38
4976.1675 -1327.2161 180 1.1614452e-38
4971.7837 -1336.2039 180 1.1338925e-38
4958.4121 -1340.8081 180 1.0782521e-38
4940.6567 -1354.4004 170 1.0229355e-38
4936.2729 -1363.3882 170 9.8598485e-39
4922.9014 -1367.9924 170 8.8485734e-39
4923.1221 -1390.3521 180 9.8605659e-39
4909.7505 -1394.9563 170 1.4283416e-38
4896.3789 -1399.5605 170 9.7705213e-39
4896.5991 -1421.9202 170 1.1061602e-38
4883.2275 -1426.5244 170 1.3272494e-38
4878.8438 -1435.5123 170 1.2535308e-38
4870.0762 -1453.4883 170 1.2899418e-38
4821.1943 -1485.2769 170 2.3506234e-38
4812.4268 -1503.2527 170 2.3504425e-38
4808.043 -1512.2406 170 2.3229993e-38
4817.2515 -1538.9839 170 2.277081e-38
4812.8677 -1547.9718 170 2.276867e-38
4881.4902 -1703.8274 180 2.019295e-38
4886.0942 -1717.1991 180 2.0465214e-38
4854.7471 -1713.0359 180 2.0190417e-38
4854.9673 -1735.3955 180 2.0282627e-38
4836.9912 -1726.6281 180 2.0279399e-38
4819.2363 -1740.2202 180 1.9085147e-38
4814.8525 -1749.2081 180 1.8895756e-38
4792.4927 -1749.4287 180 1.7882296e-38
4788.1089 -1758.4166 180 1.6594443e-38
4738.5654 -1723.1265 170 1.1891045e-38
4693.6255 -1701.2079 170 2.4899953e-39
4675.6494 -1692.4404 170 2.5861201e-39
4653.29 -1692.661 170 8.8489546e-39
4639.9185 -1697.2653 170 9.2163022e-39
4626.5469 -1701.8694 170 1.0781806e-38
4617.5586 -1697.4857 170 1.1148085e-38
4595.1992 -1697.7063 170 7.0014533e-39
4559.2471 -1680.1714 170 1.0234683e-38
4541.2715 -1671.4039 170 3.3129414e-39
4527.8999 -1676.0082 170 4.7916658e-39
4523.5161 -1684.9962 170 6.1807043e-39
4519.1323 -1693.9841 170 1.003639e-38
4492.1685 -1680.833 170 5.5256463e-39
4478.7969 -1685.4373 170 1.6595199e-39
4469.8091 -1681.0535 170 7.2948978e-39
4442.8452 -1667.9023 170 1.4752353e-38
4433.8574 -1663.5187 170 1.5034322e-38
4420.4854 -1668.1229 170 1.6043793e-38
4416.1021 -1677.1108 170 1.5312725e-38
4402.7305 -1681.7151 170 1.7052945e-38
5074.0996 -373.63885 160 2.2957341e-38
5060.7275 -378.24307 160 2.2770811e-38
5056.3438 -387.23102 160 2.3048126e-38
5047.5767 -405.20691 160 2.3507285e-38
5034.2051 -409.81113 160 2.3506586e-38
5029.8213 -418.79907 160 2.3508731e-38
5025.4375 -427.78702 160 1.6874985e-38
5007.6821 -441.37918 160 1.253171e-38
5025.6582 -450.14661 160 1.2165085e-38
5030.2622 -463.51825 160 1.2623908e-38
4117.9028 -463.57169 150 1.2349105e-38
4113.519 -472.5596 150 8.3875939e-39
4104.5312 -468.1759 150 1.0598483e-38
4100.1475 -477.16385 150 1.5114943e-38
4100.1475 -477.16385 150 8.9407971e-39
4095.7637 -486.15179 150 9.0318871e-39
4095.7637 -486.15179 150 1.0688523e-38
4104.7515 -490.53549 150 7.9233913e-39
5160.918 -560.62146 160 7.2826981e-39
5129.791 -578.81787 160 8.0159415e-39
4101.0293 -566.60223 150 1.5114959e-38
4101.0293 -566.60223 150 1.4468877e-38
4096.6455 -575.59015 150 1.2998793e-38
4096.6455 -575.59015 150 7.4641998e-39
6772.1855 -1591.261 180 1.4928404e-38
6741.0586 -1609.4574 180 1.4837269e-38
6700.9434 -1623.2701 180 1.557448e-38
6669.8164 -1641.4666 180 1.5663447e-38
5777.832 -1440.0631 170 1.1890641e-38
5831.98 -1488.725 170 1.2258354e-38
5778.2725 -1484.7822 170 1.2349458e-38
5760.5176 -1498.3745 170 1.235127e-38
5751.75 -1516.3503 170 1.2072527e-38
5742.9824 -1534.3263 170 1.1061617e-38
5725.2275 -1547.9185 170 9.3981599e-39
5473.7852 -1447.5342 170 1.1517919e-38
5433.4502 -1438.9873 170 1.0875061e-38
5415.6943 -1452.5793 170 1.1333168e-38
5411.311 -1461.5674 170 1.1333172e-38
5402.5435 -1479.5432 170 1.0966552e-38
5398.1597 -1488.5312 170 1.1059113e-38
5344.4526 -1484.5885 170 1.2627152e-38
5416.5767 -1542.0178 170 1.1706992e-38
4966.959 -1300.4727 160 1.1981431e-38
4976.1675 -1327.2161 160 1.1980705e-38
4971.7837 -1336.2039 160 1.1059843e-38
4958.4121 -1340.8081 160 1.0783598e-38
4940.6567 -1354.4004 160 1.050451e-38
4927.2852 -1359.0046 160 9.3077579e-39
4922.9014 -1367.9924 160 9.6729321e-39
4923.1221 -1390.3521 160 9.953479e-39
4909.7505 -1394.9563 160 1.363983e-38
4896.3789 -1399.5605 160 9.6761775e-39
4896.5991 -1421.9202 160 1.0785028e-38
4883.2275 -1426.5244 160 1.2809733e-38
4878.8438 -1435.5123 160 1.2718621e-38
4874.46 -1444.5002 160 1.3085963e-38
4884.3301 -1538.3224 160 2.3503344e-38
