# .PCD v0.7 - Point Cloud Data file format
VERSION 0.7
FIELDS x y z rgb
SIZE 4 4 4 4
TYPE F F F F
COUNT 1 1 1 1
WIDTH 1227
HEIGHT 1
VIEWPOINT 0 0 0 1 0 0 0
POINTS 1227
DATA ascii
5160.5229 -590.92932 650 6.4479165e-39
5133.4746 -599.19885 640 9.5836287e-39
5361.146 -618.32257 720 9.7676767e-39
5432.3418 -633.52661 750 1.1426454e-38
5467.6597 -652.30542 770 1.0047477e-38
5476.4893 -657.00018 770 5.8997986e-39
5489.4531 -675.21906 780 8.0105297e-39
5493.5879 -688.74329 780 1.7976632e-38
5497.7227 -702.26746 780 1.8983975e-38
5506.5522 -706.96216 790 1.8526226e-38
5510.687 -720.48633 790 1.8989714e-38
5523.6514 -738.70526 800 1.9355973e-38
5541.3105 -748.09473 810 2.0096032e-38
5567.7988 -762.17883 820 2.0186799e-38
5914.9482 -833.50433 950 2.2121821e-38
5941.4365 -847.5885 960 2.3504384e-38
5954.4009 -865.80737 970 2.11988e-38
5953.8408 -888.16107 970 2.3134151e-38
5957.9756 -901.68524 980 2.350979e-38
5948.5859 -919.34424 980 2.3509782e-38
8033.937 -1427.8824 1780 1.6961046e-38
8042.2065 -1454.9309 1790 1.7603156e-38
7974.5859 -1475.6047 1770 1.7697515e-38
7866.9521 -1486.3291 1740 1.7604941e-38
7884.0513 -1518.0723 1750 1.7235464e-38
8087.689 -1603.697 1830 1.8249598e-38
8082.4346 -1634.8801 1840 1.7603159e-38
8054.8262 -1665.5033 1830 1.7790057e-38
8031.9126 -1687.297 1830 1.8523294e-38
8173.1841 -1762.4125 1890 1.7974818e-38
8229.1758 -1848.8123 1930 1.8340364e-38
7946.5029 -2060.9348 1870 1.7328716e-38
7901.2354 -2082.1685 1860 1.6407856e-38
7887.1514 -2108.657 1860 1.6958863e-38
7841.8843 -2129.8906 1840 1.6591887e-38
7831.9346 -2169.9033 1850 1.6404253e-38
7884.3516 -2220.4253 1880 1.6774819e-38
7949.7329 -2289.166 1910 1.5575589e-38
7876.8574 -2341.0232 1900 1.5394778e-38
7813.9312 -2352.8674 1870 1.5208969e-38
5961.291 -1662.2699 1120 1.5853236e-38
5907.7539 -1656.4553 1100 9.3056251e-39
5845.3877 -1645.9459 1080 1.1705186e-38
5747.7036 -1616.6577 1040 7.7422399e-39
5711.8257 -1620.2325 1030 5.9923334e-39
5096.2173 -1372.1877 770 3.3193916e-39
5100.3521 -1385.7119 770 3.593103e-39
5077.9985 -1385.1521 770 3.4094292e-39
5064.4741 -1389.2869 760 2.9498874e-39
5033.291 -1384.0321 750 2.9495357e-39
5010.9375 -1383.4722 740 3.0424432e-39
4997.4131 -1387.6069 740 3.4087132e-39
4966.23 -1382.3523 730 1.2534587e-38
4952.7061 -1386.4871 720 1.2901944e-38
4943.3164 -1404.146 720 1.7233321e-38
4938.6216 -1412.9755 720 1.5387287e-38
4925.0977 -1417.1102 720 1.317924e-38
4920.4028 -1425.9397 720 1.6036221e-38
4915.708 -1434.7692 720 1.6035147e-38
4911.0137 -1443.5986 720 1.6311714e-38
4906.3188 -1452.4281 720 1.6402482e-38
4888.0996 -1465.3923 720 2.3509786e-38
4826.2935 -1432.5293 690 2.3509886e-38
4944.6514 -1529.4385 740 2.3509886e-38
5071.2793 -1653.396 810 2.3509886e-38
5250.8833 -1805.5219 900 2.3509886e-38
5465.2456 -1998.7802 1010 2.3509867e-38
4903.7339 -1734.1963 770 2.2489935e-38
4894.3447 -1751.8552 770 2.2402753e-38
4880.8203 -1755.99 770 2.0926906e-38
4867.2964 -1760.1248 760 2.0192603e-38
4862.6016 -1768.9542 760 1.8166093e-38
4849.0771 -1773.089 760 1.6504774e-38
4831.4185 -1763.6996 750 1.5121838e-38
4809.0645 -1763.1396 740 1.4107337e-38
4773.7471 -1744.3608 730 1.3183241e-38
4756.0879 -1734.9714 720 6.0845584e-39
4742.5635 -1739.1062 720 1.1250357e-38
4729.0396 -1743.2408 710 1.0697549e-38
4711.3804 -1733.8514 700 1.2073269e-38
4697.8564 -1737.9862 700 9.1248268e-39
4693.1616 -1746.8157 700 3.9629701e-39
4688.4668 -1755.6451 700 2.9499014e-39
4666.1133 -1755.0852 690 2.6740292e-39
4661.4185 -1763.9147 690 2.5821951e-39
4647.8945 -1768.0494 690 6.2703594e-39
4647.8945 -1768.0494 690 7.3741944e-39
4634.3701 -1772.1842 690 7.2805625e-39
4681.5322 -1853.8893 720 7.4627761e-39
4680.9727 -1876.243 720 5.8947343e-39
4680.4126 -1898.5967 720 5.7117934e-39
4675.7178 -1907.4261 720 5.5281112e-39
4671.0229 -1916.2556 720 5.986937e-39
4657.499 -1920.3904 720 5.5274008e-39
4657.499 -1920.3904 720 5.621753e-39
4635.145 -1919.8304 710 5.3448186e-39
5196.9609 -565.00085 650 1.4008283e-38
5192.2661 -573.83032 650 8.2968612e-39
5187.5713 -582.65979 650 2.6725859e-39
5160.5229 -590.92932 640 7.0035832e-39
5111.1211 -598.63892 630 1.022971e-38
5334.0977 -626.5921 700 9.8598541e-39
5432.3418 -633.52661 740 1.0693209e-38
5481.1836 -648.17072 760 1.0509174e-38
5494.1479 -666.38959 760 9.7709025e-39
5502.9775 -671.08429 770 4.7019603e-39
5515.9419 -689.30322 780 1.1140131e-38
5533.6006 -698.69263 780 1.8343986e-38
5537.7354 -712.2168 790 1.8528373e-38
5541.8701 -725.74103 790 1.9541093e-38
5546.0049 -739.2652 800 1.9361738e-38
5558.9692 -757.48413 800 1.9545032e-38
5576.6284 -766.87354 810 1.9911295e-38
5603.1167 -780.9577 820 2.129421e-38
5927.9121 -851.72327 940 2.3501879e-38
5954.4009 -865.80737 950 2.3509057e-38
5953.8408 -888.16107 960 2.3503285e-38
5957.9756 -901.68524 960 2.3509825e-38
5970.9399 -919.90417 970 2.3509786e-38
8049.1411 -1356.6868 1740 1.6962106e-38
7967.9961 -1381.4954 1720 1.7788266e-38
8087.4741 -1433.697 1770 1.7236534e-38
8073.3896 -1460.1855 1770 1.7053589e-38
7965.7563 -1470.9099 1740 1.7148655e-38
7866.9521 -1486.3291 1700 1.8523298e-38
7844.0386 -1508.1228 1700 1.7790053e-38
7865.2725 -1553.3901 1720 1.8713794e-38
7882.3716 -1585.1332 1730 1.8249955e-38
8004.3042 -1717.9202 1790 1.8709839e-38
8197.9922 -1843.5576 1880 1.8343232e-38
7946.5029 -2060.9348 1830 1.6319612e-38
7892.4062 -2077.4739 1820 1.7598483e-38
7887.1514 -2108.657 1820 1.6589724e-38
7841.8843 -2129.8906 1810 1.613055e-38
7831.9346 -2169.9033 1820 1.6222388e-38
7884.3516 -2220.4253 1840 1.6037641e-38
7949.7329 -2289.166 1870 1.6495742e-38
7859.1982 -2331.6338 1850 1.5484819e-38
7813.9312 -2352.8674 1840 1.465865e-38
7680.3691 -2327.1541 1790 1.5116406e-38
5898.9248 -1651.7606 1080 4.516853e-39
5836.5586 -1641.2512 1050 1.0505574e-38
5765.3623 -1626.0472 1030 6.9117687e-39
5096.2173 -1372.1877 760 3.6867336e-39
5100.3521 -1385.7119 760 3.7778572e-39
5077.9985 -1385.1521 750 2.9516853e-39
5064.4741 -1389.2869 750 3.3179651e-39
5033.291 -1384.0321 740 3.4094278e-39
5010.9375 -1383.4722 730 2.8573457e-39
4997.4131 -1387.6069 730 3.3193818e-39
4966.23 -1382.3523 710 1.1889933e-38
4952.7061 -1386.4871 710 1.3269991e-38
4943.3164 -1404.146 710 1.6776659e-38
4938.6216 -1412.9755 710 1.4561129e-38
4925.0977 -1417.1102 710 1.3272511e-38
4920.4028 -1425.9397 710 1.6309573e-38
4915.708 -1434.7692 710 1.5484829e-38
4911.0137 -1443.5986 710 1.5118927e-38
4906.3188 -1452.4281 710 1.6587942e-38
4888.0996 -1465.3923 700 2.3509814e-38
4826.2935 -1432.5293 680 2.350988e-38
4944.6514 -1529.4385 730 2.3509876e-38
5071.2793 -1653.396 800 2.3509886e-38
5250.8833 -1805.5219 880 2.3509886e-38
5465.2456 -1998.7802 990 2.3509867e-38
4903.7339 -1734.1963 760 2.1851031e-38
4885.5151 -1747.1605 750 2.1850321e-38
4880.8203 -1755.99 750 2.2305533e-38
4876.126 -1764.8195 750 2.0651402e-38
4862.6016 -1768.9542 750 1.963653e-38
4857.9067 -1777.7838 750 1.7333457e-38
4835.5532 -1777.2238 740 1.6040564e-38
4822.0288 -1781.3585 740 1.4476131e-38
4782.5762 -1749.0555 720 1.3461243e-38
4747.2583 -1730.2766 700 1.2262363e-38
4742.5635 -1739.1062 700 8.021698e-39
4720.21 -1738.5461 700 1.0974845e-38
4711.3804 -1733.8514 690 1.1613384e-38
4697.8564 -1737.9862 690 1.0503088e-38
4693.1616 -1746.8157 690 4.5165055e-39
4670.8081 -1746.2557 680 3.7832424e-39
4605.4268 -1677.5149 640 7.5632478e-39
4600.7319 -1686.3444 650 8.7549639e-39
4591.9023 -1681.6497 640 8.9368384e-39
4578.3784 -1685.7844 640 6.9110513e-39
4573.6836 -1694.6139 640 5.7125039e-39
4560.1597 -1698.7487 630 5.5263218e-39
4555.4648 -1707.5781 630 5.8025401e-39
4559.5996 -1721.1023 640 5.343364e-39
4662.7534 -1889.2073 700 5.2529691e-39
4666.8882 -1902.7314 710 5.4355695e-39
4666.3281 -1925.0851 710 5.1597001e-39
4661.6338 -1933.9146 710 5.158984e-39
4643.9746 -1924.5251 710 4.9785388e-39
5196.9609 -565.00085 640 1.2721863e-38
5192.2661 -573.83032 640 7.2812771e-39
5187.5713 -582.65979 640 2.856617e-39
5160.5229 -590.92932 630 7.9273248e-39
5111.1211 -598.63892 610 1.032226e-38
5311.7441 -626.0321 680 1.0322259e-38
5409.9883 -632.96661 720 1.1247099e-38
5481.1836 -648.17072 750 1.1614445e-38
5516.502 -666.94952 760 1.1246013e-38
5542.9902 -681.03369 770 9.4046269e-39
5551.8198 -685.72839 770 3.7796509e-39
5564.7842 -703.94733 780 1.5470411e-38
5568.9189 -717.4715 780 1.9081907e-38
5564.2241 -726.30096 790 1.9819472e-38
5568.3589 -739.8252 790 1.9545771e-38
5572.4937 -753.34937 790 2.0926872e-38
5590.1523 -762.73877 800 2.1753756e-38
5611.9463 -785.6524 810 2.1386417e-38
5910.2534 -842.3338 920 2.3502965e-38
5940.877 -869.94214 930 2.3507624e-38
5958.5356 -879.33154 940 2.3509779e-38
5980.3291 -902.24524 950 2.3509802e-38
8097.9834 -1371.3308 1730 1.7698222e-38
8012.7036 -1382.6152 1700 1.7971939e-38
8109.8276 -1434.2571 1740 1.7696072e-38
8082.2192 -1464.8802 1740 1.7878688e-38
7974.5859 -1475.6047 1710 1.8340357e-38
7898.1353 -1491.5837 1680 1.8157031e-38
7950.5522 -1542.1057 1710 1.8433269e-38
8118.8721 -1608.9517 1780 1.8614428e-38
8153.6304 -1650.0841 1800 1.8342519e-38
8166.0347 -1690.6567 1800 1.8343223e-38
8120.7671 -1711.8905 1800 1.9076473e-38
8142.001 -1757.1577 1810 1.9352698e-38
8163.2349 -1802.425 1820 1.8525824e-38
8157.98 -1833.6082 1830 1.8433271e-38
7946.5029 -2060.9348 1800 1.7234741e-38
7883.5767 -2072.7793 1780 1.7329092e-38
7873.6274 -2112.7917 1780 1.6315674e-38
7841.8843 -2129.8906 1780 1.6313139e-38
7831.9346 -2169.9033 1780 1.5671372e-38
7853.1685 -2215.1707 1790 1.5672809e-38
7892.061 -2269.8274 1820 1.6129112e-38
7922.1245 -2319.7896 1830 1.6128752e-38
7841.5391 -2322.2441 1810 1.6221655e-38
7805.1016 -2348.1729 1800 1.4842695e-38
7724.5161 -2350.6277 1780 1.4471759e-38
7661.5898 -2362.4722 1760 1.4747618e-38
5917.1436 -1638.7964 1060 1.4562162e-38
5890.0952 -1647.0658 1050 1.1338552e-38
5845.3877 -1645.9459 1040 9.7680298e-39
5774.1924 -1630.7419 1010 7.2816219e-39
5096.2173 -1372.1877 750 3.1353619e-39
5100.3521 -1385.7119 750 3.1346402e-39
5077.9985 -1385.1521 740 3.5930974e-39
5064.4741 -1389.2869 740 2.8584233e-39
5033.291 -1384.0321 730 2.8577016e-39
5010.9375 -1383.4722 720 2.8584149e-39
4988.584 -1382.9122 710 3.0428089e-39
4966.23 -1382.3523 700 1.207324e-38
4952.7061 -1386.4871 700 1.290372e-38
4943.3164 -1404.146 700 1.7873667e-38
4938.6216 -1412.9755 700 1.5664966e-38
4925.0977 -1417.1102 700 1.3363624e-38
4920.4028 -1425.9397 700 1.5486296e-38
4915.708 -1434.7692 700 1.5485552e-38
4911.0137 -1443.5986 700 1.566743e-38
4906.3188 -1452.4281 700 1.5574154e-38
4888.0996 -1465.3923 690 2.3509809e-38
4826.2935 -1432.5293 670 2.3509886e-38
4944.6514 -1529.4385 720 2.3509886e-38
5071.2793 -1653.396 790 2.3509886e-38
5250.8833 -1805.5219 870 2.3509883e-38
5465.2456 -1998.7802 980 2.3509877e-38
4903.7339 -1734.1963 740 2.2128682e-38
4885.5151 -1747.1605 740 2.16652e-38
4880.8203 -1755.99 740 2.1112034e-38
4867.2964 -1760.1248 740 2.0464524e-38
4862.6016 -1768.9542 740 1.9176662e-38
4857.9067 -1777.7838 730 1.7244143e-38
4835.5532 -1777.2238 730 1.5953405e-38
4830.8584 -1786.0532 730 1.5122552e-38
4808.5049 -1785.4933 720 1.3555236e-38
4738.4287 -1725.5819 690 1.2264879e-38
4724.9048 -1729.7167 690 6.6373819e-39
4724.9048 -1729.7167 680 1.0881936e-38
4702.5508 -1729.1567 680 1.189031e-38
4689.0269 -1733.2915 670 1.0598501e-38
4588.8877 -1623.4181 620 9.4046381e-39
4584.1929 -1632.2477 620 9.953856e-39
4579.498 -1641.0771 620 9.7655187e-39
4565.9741 -1645.2119 620 6.5375898e-39
4552.4502 -1649.3467 620 4.7887595e-39
4547.7554 -1658.1761 610 4.8820342e-39
4543.0605 -1667.0056 620 4.5139719e-39
4543.0605 -1667.0056 610 4.6987205e-39
4533.6709 -1684.6646 620 4.5154096e-39
4537.8057 -1698.1887 620 5.066424e-39
4533.1113 -1707.0182 620 4.9749515e-39
4528.4165 -1715.8477 620 4.7898399e-39
4519.5869 -1711.153 610 4.9753088e-39
4566.749 -1792.858 640 4.6072521e-39
4553.2251 -1796.9928 640 5.1579008e-39
5192.2661 -573.83032 630 6.1763701e-39
5111.1211 -598.63892 610 1.0597407e-38
5294.085 -616.6427 670 1.0967973e-38
5387.6343 -632.40668 700 1.2350571e-38
5458.8301 -647.61072 720 1.2719694e-38
5561.209 -668.06946 760 1.2076488e-38
5565.3438 -681.59363 760 1.1523328e-38
5574.1733 -686.28833 770 7.5650499e-39
5578.3081 -699.81256 770 3.7771299e-39
5582.4429 -713.33673 780 1.8339592e-38
5586.5776 -726.86096 780 2.0466279e-38
5590.7124 -740.38513 780 2.1938853e-38
5594.8472 -753.9093 790 2.1939952e-38
5621.3354 -767.99347 800 2.1848111e-38
5634.2998 -786.21234 800 2.2032146e-38
5923.2178 -860.55273 910 2.3509779e-38
5953.8408 -888.16107 920 2.3509786e-38
5989.1587 -906.93994 940 2.3509788e-38
8129.1665 -1376.5854 1700 1.843363e-38
8043.8867 -1387.8699 1680 1.8158117e-38
8136.3159 -1448.3412 1720 1.7789005e-38
8104.5732 -1465.4402 1710 1.7604939e-38
7965.7563 -1470.9099 1670 1.7604598e-38
7938.1479 -1501.5332 1660 1.8249236e-38
8035.272 -1553.175 1700 1.7881893e-38
8198.8975 -1628.8503 1770 1.9351262e-38
8202.4727 -1664.7283 1780 1.8248527e-38
8237.2305 -1705.8607 1800 1.7974084e-38
8218.4512 -1741.1787 1790 1.8893871e-38
8110.8179 -1751.9031 1760 1.8431838e-38
8087.9043 -1773.6968 1760 1.8801699e-38
8051.4663 -1799.6252 1750 1.8707336e-38
7957.3569 -1806.215 1720 1.7699289e-38
8134.7217 -2047.7555 1820 1.7700007e-38
8107.1133 -2078.3787 1820 1.7879035e-38
7937.6733 -2056.2402 1760 1.7603515e-38
7883.5767 -2072.7793 1740 1.6865944e-38
7864.7979 -2108.0972 1750 1.6681564e-38
7841.8843 -2129.8906 1740 1.6314941e-38
7831.9346 -2169.9033 1750 1.5763212e-38
7853.1685 -2215.1707 1760 1.6496814e-38
7892.061 -2269.8274 1780 1.6407127e-38
7913.2949 -2315.0947 1800 1.6130195e-38
7841.5391 -2322.2441 1770 1.5579178e-38
7787.4424 -2338.7832 1760 1.6125163e-38
7733.3457 -2355.3223 1750 1.511497e-38
7661.5898 -2362.4722 1720 1.4655074e-38
5908.314 -1634.1016 1040 1.2165468e-38
5898.9248 -1651.7606 1030 1.2993414e-38
5863.0469 -1655.3353 1030 8.6620466e-39
5791.8511 -1640.1313 1000 6.5454974e-39
5105.0469 -1376.8826 730 3.4112327e-39
5100.3521 -1385.7119 730 3.41159e-39
5077.9985 -1385.1521 730 3.1339269e-39
5064.4741 -1389.2869 720 2.8591379e-39
5033.291 -1384.0321 710 2.6740264e-39
5010.9375 -1383.4722 700 2.6740306e-39
4988.584 -1382.9122 700 2.9524055e-39
4966.23 -1382.3523 690 1.1979963e-38
4952.7061 -1386.4871 690 1.2349828e-38
4943.3164 -1404.146 690 1.6591555e-38
4938.6216 -1412.9755 690 1.5482696e-38
4925.0977 -1417.1102 680 1.2994849e-38
4920.4028 -1425.9397 680 1.59469e-38
4915.708 -1434.7692 680 1.6034781e-38
4911.0137 -1443.5986 680 1.5852189e-38
4901.624 -1461.2576 680 1.5482689e-38
4888.0996 -1465.3923 680 2.3509809e-38
4826.2935 -1432.5293 660 2.3509886e-38
4944.6514 -1529.4385 710 2.3509879e-38
5071.2793 -1653.396 770 2.3509874e-38
5250.8833 -1805.5219 850 2.3509886e-38
5465.2456 -1998.7802 960 2.3509862e-38
4917.2583 -1730.0615 730 2.3505546e-38
4899.0391 -1743.0258 730 2.1759927e-38
4885.5151 -1747.1605 730 2.2770101e-38
4880.8203 -1755.99 730 2.1755594e-38
4876.126 -1764.8195 730 2.1203501e-38
4862.6016 -1768.9542 720 1.95447e-38
4857.9067 -1777.7838 720 1.9083739e-38
4835.5532 -1777.2238 720 1.6596626e-38
4839.688 -1790.748 720 1.4664818e-38
4817.334 -1790.188 710 1.3554897e-38
4738.4287 -1725.5819 680 1.254002e-38
4729.5996 -1720.8872 670 1.170846e-38
4716.0752 -1725.022 670 5.8104476e-39
4689.5869 -1710.9379 660 1.2715056e-38
4615.376 -1637.5023 620 1.1612656e-38
4588.8877 -1623.4181 610 8.4754917e-39
4584.1929 -1632.2477 610 5.2508181e-39
4570.6689 -1636.3823 610 4.3303065e-39
4565.9741 -1645.2119 610 3.133564e-39
4557.1445 -1640.5171 600 3.4090719e-39
4552.4502 -1649.3467 600 3.4087146e-39
4551.8901 -1671.7003 610 3.4097866e-39
4547.1953 -1680.5298 610 3.5956127e-39
4542.5005 -1689.3593 610 4.2373822e-39
4537.8057 -1698.1887 610 4.3285031e-39
4533.1113 -1707.0182 610 3.7796453e-39
4528.4165 -1715.8477 610 4.4235742e-39
4532.5513 -1729.3718 610 4.1466243e-39
4531.9912 -1751.7256 620 4.6050913e-39
4544.3955 -1792.2981 630 4.2381053e-39
5124.645 -594.50415 600 1.1517199e-38
5289.3901 -625.47217 650 1.1982475e-38
5374.1104 -636.54144 680 1.2996287e-38
5405.2935 -641.79614 690 1.3734919e-38
5530.0259 -662.81476 740 1.2813695e-38
5578.8682 -677.45886 750 1.336399e-38
5583.0029 -690.98303 760 1.2903732e-38
5600.6616 -700.3725 770 5.905181e-39
5613.626 -718.59143 770 4.0544231e-39
5626.5903 -736.8103 780 2.1565763e-38
5635.4199 -741.505 780 2.3046664e-38
5639.5547 -755.02917 790 2.2494911e-38
5643.6895 -768.55341 790 2.249635e-38
5656.6533 -786.77234 800 2.3136695e-38
5678.4473 -809.68591 810 2.3507606e-38
5727.2891 -824.33002 820 2.3503648e-38
5953.8408 -888.16107 910 2.350981e-38
5989.1587 -906.93994 920 2.3509783e-38
8160.3496 -1381.8401 1680 1.7148635e-38
8075.0698 -1393.1245 1660 1.8429321e-38
8149.8403 -1444.2064 1690 1.7880463e-38
8113.4023 -1470.1349 1680 1.7606388e-38
7965.7563 -1470.9099 1640 1.4464575e-38
7978.1606 -1511.4825 1640 1.4369841e-38
8066.4556 -1558.4297 1680 1.4096132e-38
8150.0552 -1614.2063 1720 1.4555326e-38
8171.2891 -1659.4735 1730 1.4742929e-38
8197.2178 -1695.9114 1740 1.5842813e-38
8187.2681 -1735.924 1750 1.4562497e-38
8061.9756 -1737.259 1710 1.6031869e-38
8056.7212 -1768.4421 1710 1.7320084e-38
8020.2832 -1794.3706 1700 1.7413716e-38
7935.0034 -1805.655 1680 1.7784298e-38
8134.7217 -2047.7555 1780 1.8060178e-38
8107.1133 -2078.3787 1780 1.7603874e-38
7928.8438 -2051.5454 1720 1.7419118e-38
7874.7471 -2068.0845 1710 1.6868842e-38
7855.9683 -2103.4023 1710 1.6501469e-38
7828.3599 -2134.0254 1700 1.7598484e-38
7823.1055 -2165.2085 1710 1.7048901e-38
7844.3389 -2210.4761 1720 1.6406058e-38
7892.061 -2269.8274 1740 1.649644e-38
7913.2949 -2315.0947 1760 1.5759629e-38
7841.5391 -2322.2441 1740 1.6040152e-38
7787.4424 -2338.7832 1720 1.6129098e-38
7724.5161 -2350.6277 1710 1.4746194e-38
7643.9312 -2353.0825 1680 1.5022048e-38
5908.314 -1634.1016 1020 7.4674481e-39
5898.9248 -1651.7606 1020 1.0692133e-38
5863.0469 -1655.3353 1010 8.3850883e-39
5800.6807 -1644.826 990 6.4507892e-39
5738.3145 -1634.3168 970 5.5291986e-39
5105.0469 -1376.8826 720 3.4126704e-39
5100.3521 -1385.7119 720 3.4105082e-39
5086.8281 -1389.8467 720 2.6754711e-39
5073.3037 -1393.9814 710 2.9498916e-39
5033.291 -1384.0321 700 2.9498944e-39
5002.1079 -1378.7775 690 2.7658605e-39
4979.7544 -1378.2175 680 3.2254023e-39
4966.23 -1382.3523 680 1.1981765e-38
4952.7061 -1386.4871 680 1.2626061e-38
4943.3164 -1404.146 680 1.7418091e-38
4938.6216 -1412.9755 670 1.4473583e-38
4925.0977 -1417.1102 670 1.3271426e-38
4920.4028 -1425.9397 670 1.6128061e-38
4915.708 -1434.7692 670 1.6125889e-38
4911.0137 -1443.5986 670 1.6680481e-38
4901.624 -1461.2576 670 1.5480175e-38
4888.0996 -1465.3923 670 2.3509789e-38
4826.2935 -1432.5293 640 2.3509886e-38
4944.6514 -1529.4385 700 2.3509886e-38
5071.2793 -1653.396 760 2.350988e-38
5250.8833 -1805.5219 840 2.3509863e-38
5465.2456 -1998.7802 940 2.3509886e-38
4917.2583 -1730.0615 720 2.3416199e-38
4899.0391 -1743.0258 720 2.3230715e-38
4890.21 -1738.3311 710 2.2035055e-38
4880.8203 -1755.99 710 2.185066e-38
4876.126 -1764.8195 710 2.102306e-38
4862.6016 -1768.9542 710 2.0648891e-38
4857.9067 -1777.7838 710 1.9543631e-38
4835.5532 -1777.2238 700 1.7607888e-38
4839.688 -1790.748 710 1.5211536e-38
4817.334 -1790.188 700 1.4014065e-38
4747.2583 -1730.2766 670 1.3276514e-38
4711.9404 -1711.4978 660 1.2078674e-38
4703.1108 -1706.8031 650 7.4714558e-39
4633.0352 -1646.8917 620 1.1892478e-38
4615.376 -1637.5023 610 1.1890324e-38
4588.8877 -1623.4181 600 6.9124918e-39
4584.1929 -1632.2477 600 3.5005501e-39
4570.6689 -1636.3823 600 3.2261184e-39
4565.9741 -1645.2119 600 3.9611667e-39
4557.1445 -1640.5171 590 4.6072493e-39
4552.4502 -1649.3467 590 4.6072437e-39
4551.8901 -1671.7003 600 3.408716e-39
4547.1953 -1680.5298 600 3.5923814e-39
4542.5005 -1689.3593 600 2.9491727e-39
4546.6353 -1702.8834 600 3.5005389e-39
4541.9404 -1711.7129 600 3.4087076e-39
4532.5513 -1729.3718 600 3.4090649e-39
4536.686 -1742.896 600 3.6860049e-39
4544.9556 -1769.9445 610 3.6842126e-39
4544.3955 -1792.2981 620 3.500906e-39
5124.645 -594.50415 590 1.2161488e-38
5387.6343 -632.40668 670 1.3824616e-38
5414.123 -646.49084 680 1.5210048e-38
5494.1479 -666.38959 710 1.4929885e-38
5578.8682 -677.45886 740 1.4565405e-38
5605.3564 -691.54303 750 1.4015115e-38
5640.6743 -710.3219 760 1.3368662e-38
5644.8091 -723.84607 770 5.0718344e-39
5653.6387 -728.54077 770 6.7208881e-39
5666.6025 -746.7597 780 2.3509789e-38
5670.7373 -760.28387 780 2.350798e-38
5661.3481 -777.94281 780 2.350656e-38
5679.0068 -787.33228 790 2.3507984e-38
5705.4956 -801.41638 800 2.3504751e-38
5736.1191 -829.02472 810 2.3509775e-38
5824.9736 -853.61816 840 2.3508686e-38
5922.6577 -882.90637 880 2.3509778e-38
5980.3291 -902.24524 900 2.3509788e-38
8169.1792 -1386.5349 1650 1.806449e-38
8106.2529 -1398.3792 1630 1.7975883e-38
8167.499 -1453.5958 1660 1.7602795e-38
8131.0615 -1479.5244 1650 1.7508804e-38
7983.415 -1480.2993 1610 1.299195e-38
8031.6973 -1517.2971 1630 1.2990878e-38
8106.4678 -1568.379 1660 1.2165063e-38
8136.5312 -1618.3411 1680 1.3544397e-38
8153.6304 -1650.0841 1690 1.3087015e-38
8166.0347 -1690.6567 1700 1.400789e-38
8147.2559 -1725.9746 1700 1.4559265e-38
8021.9629 -1727.3096 1660 1.474437e-38
8016.7085 -1758.4928 1660 1.5206066e-38
7971.4414 -1779.7266 1650 1.6217687e-38
7903.8203 -1800.4004 1640 1.7142156e-38
8103.5386 -2042.5007 1740 1.8615856e-38
8098.2837 -2073.6841 1740 1.7328713e-38
7920.0146 -2046.8506 1680 1.7419097e-38
7865.9175 -2063.3896 1670 1.6954911e-38
7855.9683 -2103.4023 1670 1.511497e-38
7819.5303 -2129.3308 1670 1.5944341e-38
7831.9346 -2169.9033 1670 2.0290484e-38
7861.998 -2219.8652 1690 1.9552544e-38
7914.415 -2270.3872 1720 1.7984877e-38
7922.1245 -2319.7896 1730 1.5678198e-38
7841.5391 -2322.2441 1700 1.5489119e-38
7787.4424 -2338.7832 1690 1.3921439e-38
7733.3457 -2355.3223 1680 1.455676e-38
5925.9731 -1643.4911 1000 6.3600327e-39
5898.9248 -1651.7606 1000 1.0046045e-38
5880.7061 -1664.7249 990 7.8333565e-39
5835.9985 -1663.6049 980 6.1752883e-39
5782.4619 -1657.7903 960 5.2551271e-39
5215.6953 -1424.3896 750 4.789477e-39
5105.0469 -1376.8826 710 3.3179637e-39
5100.3521 -1385.7119 710 3.0424432e-39
5086.8281 -1389.8467 710 2.8580603e-39
5073.3037 -1393.9814 700 3.1335682e-39
5033.291 -1384.0321 690 2.76515e-39
5002.1079 -1378.7775 680 2.9495315e-39
4979.7544 -1378.2175 670 2.7672926e-39
4957.4004 -1377.6575 670 1.1054796e-38
4952.7061 -1386.4871 660 1.26275e-38
4943.3164 -1404.146 660 1.7235472e-38
4938.6216 -1412.9755 660 1.539265e-38
4925.0977 -1417.1102 660 1.3547657e-38
4920.4028 -1425.9397 660 1.6405738e-38
4915.708 -1434.7692 660 1.6586503e-38
4911.0137 -1443.5986 660 1.6037648e-38
4906.3188 -1452.4281 660 1.6126612e-38
4888.0996 -1465.3923 660 2.3507978e-38
4826.2935 -1432.5293 630 2.3509886e-38
4944.6514 -1529.4385 680 2.3509884e-38
5071.2793 -1653.396 740 2.3509881e-38
5250.8833 -1805.5219 820 2.3509883e-38
5465.2456 -1998.7802 920 2.3509877e-38
4912.5635 -1738.891 710 2.3506601e-38
4907.8687 -1747.7205 710 2.3135281e-38
4890.21 -1738.3311 700 2.2951985e-38
4880.8203 -1755.99 700 2.1021991e-38
4876.126 -1764.8195 700 2.1479023e-38
4862.6016 -1768.9542 700 1.991888e-38
4849.0771 -1773.089 700 1.9636891e-38
4835.5532 -1777.2238 690 1.8069222e-38
4830.8584 -1786.0532 690 1.6592653e-38
4808.5049 -1785.4933 690 1.4106255e-38
4738.4287 -1725.5819 650 1.3183227e-38
4698.9761 -1693.2789 640 1.152838e-38
4672.4878 -1679.1947 630 1.1800295e-38
4633.0352 -1646.8917 610 8.4837482e-39
4615.376 -1637.5023 600 1.2718636e-38
4588.8877 -1623.4181 590 7.7411693e-39
4575.3638 -1627.5529 590 4.4228679e-39
4570.6689 -1636.3823 590 3.8689738e-39
4557.1445 -1640.5171 590 3.5027039e-39
4557.1445 -1640.5171 580 3.2272016e-39
4552.4502 -1649.3467 580 3.1353577e-39
4551.8901 -1671.7003 590 3.4079943e-39
4547.1953 -1680.5298 590 3.9611597e-39
4542.5005 -1689.3593 590 3.8700486e-39
4537.8057 -1698.1887 590 3.04209e-39
4541.9404 -1711.7129 590 2.3059641e-39
4532.5513 -1729.3718 590 2.4874813e-39
4536.686 -1742.896 590 2.3038061e-39
4536.126 -1765.2498 600 2.0279367e-39
4544.3955 -1792.2981 610 2.4907071e-39
5124.645 -594.50415 580 1.1336053e-38
5387.6343 -632.40668 660 1.5117497e-38
5422.9521 -651.18555 670 1.6219885e-38
5494.1479 -666.38959 700 1.6500417e-38
5641.2344 -687.9682 750 1.6041608e-38
5663.0283 -710.88184 760 1.5676071e-38
5667.1631 -724.40601 760 1.3647425e-38
5671.2979 -737.93018 760 4.0587615e-39
5688.9565 -747.31964 770 1.0222481e-38
5693.0913 -760.84381 780 2.3509799e-38
5706.0557 -779.06274 780 2.3509782e-38
5719.0195 -797.28162 790 2.3509785e-38
5745.5083 -811.36578 800 2.3509429e-38
5771.9966 -825.44995 810 2.3509775e-38
5816.144 -848.92346 830 2.3509067e-38
5900.3037 -882.34644 850 2.3509786e-38
5949.1465 -896.99054 870 2.3509775e-38
8151.52 -1377.1455 1610 1.7237266e-38
8123.9116 -1407.7686 1610 1.6040504e-38
8167.499 -1453.5958 1630 1.7325486e-38
8122.2319 -1474.8296 1620 1.7047834e-38
7992.2446 -1484.9941 1580 1.1611903e-38
8058.186 -1531.3813 1600 1.1983911e-38
8092.9438 -1572.5138 1620 1.2808284e-38
8118.8721 -1608.9517 1640 1.3362157e-38
8140.106 -1654.2189 1650 1.3915335e-38
8166.0347 -1690.6567 1660 1.4005736e-38
8138.4263 -1721.2799 1660 1.4375587e-38
8035.4873 -1723.1748 1630 1.46511e-38
8007.8789 -1753.7981 1630 1.6217338e-38
7980.2705 -1784.4213 1620 1.7140356e-38
7935.0034 -1805.655 1610 1.760171e-38
7840.894 -1812.2446 1580 1.824707e-38
7982.1655 -1887.3601 1640 1.9351604e-38
8094.709 -2037.806 1700 1.9167222e-38
8089.4541 -2068.9893 1700 1.806555e-38
7928.8438 -2051.5454 1650 1.7690313e-38
7874.7471 -2068.0845 1640 1.7138923e-38
7855.9683 -2103.4023 1640 1.6311677e-38
7841.8843 -2129.8906 1640 1.5391537e-38
7840.7642 -2174.5981 1640 2.350979e-38
7884.3516 -2220.4253 1660 2.3509792e-38
7923.2441 -2275.082 1680 2.3509793e-38
7922.1245 -2319.7896 1690 2.3509782e-38
7841.5391 -2322.2441 1670 2.3509776e-38
7787.4424 -2338.7832 1650 2.3509767e-38
7764.5288 -2360.5771 1650 2.3509767e-38
5925.9731 -1643.4911 980 7.8351362e-39
5907.7539 -1656.4553 980 1.0044605e-38
5889.5352 -1669.4196 980 7.2819806e-39
5853.6572 -1672.9944 970 5.8079463e-39
5826.6089 -1681.2639 960 5.1607735e-39
5215.6953 -1424.3896 740 3.5956198e-39
5105.0469 -1376.8826 700 3.5034185e-39
5100.3521 -1385.7119 690 2.6758215e-39
5095.6572 -1394.5415 690 2.7662234e-39
5082.1333 -1398.6763 690 2.9502503e-39
5033.291 -1384.0321 670 2.8573443e-39
4993.2783 -1374.0828 660 2.6743669e-39
4970.9248 -1373.5227 660 2.7655074e-39
4957.4004 -1377.6575 650 9.9531287e-39
4952.7061 -1386.4871 650 1.1246012e-38
4943.3164 -1404.146 650 1.7876524e-38
4938.6216 -1412.9755 650 1.6030832e-38
4925.0977 -1417.1102 650 1.3362544e-38
4920.4028 -1425.9397 650 1.6310666e-38
4915.708 -1434.7692 650 1.5757827e-38
4911.0137 -1443.5986 650 1.5761064e-38
4906.3188 -1452.4281 650 1.5943654e-38
4888.0996 -1465.3923 650 2.3137412e-38
4826.2935 -1432.5293 620 2.3509863e-38
4944.6514 -1529.4385 670 2.3509876e-38
5071.2793 -1653.396 730 2.3509884e-38
5250.8833 -1805.5219 810 2.3509856e-38
5465.2456 -1998.7802 900 2.3509853e-38
4912.5635 -1738.891 700 2.304276e-38
4907.8687 -1747.7205 690 2.3320772e-38
4890.21 -1738.3311 690 2.1943595e-38
4871.9912 -1751.2953 690 2.2310188e-38
4876.126 -1764.8195 690 2.1665547e-38
4862.6016 -1768.9542 690 2.0649254e-38
4849.0771 -1773.089 680 1.8717819e-38
4826.7236 -1772.5291 680 1.7610746e-38
4822.0288 -1781.3585 680 1.5478056e-38
4726.0244 -1685.0094 630 8.1938728e-39
4703.6709 -1684.4495 630 1.309248e-38
4677.1826 -1670.3652 620 1.2630059e-38
4646.5596 -1642.757 600 1.0881935e-38
4633.0352 -1646.8917 600 1.0972685e-38
4606.5469 -1632.8076 590 1.3634491e-38
4588.8877 -1623.4181 580 8.2939913e-39
4575.3638 -1627.5529 580 5.8032842e-39
4570.6689 -1636.3823 580 4.7916476e-39
4557.1445 -1640.5171 570 4.7909231e-39
4557.1445 -1640.5171 570 4.1466313e-39
4552.4502 -1649.3467 570 3.7785677e-39
4543.0605 -1667.0056 570 3.7767726e-39
4538.3657 -1675.8351 580 3.4097824e-39
4542.5005 -1689.3593 580 3.0406453e-39
4537.8057 -1698.1887 580 2.7647759e-39
4541.9404 -1711.7129 580 3.9593646e-39
4532.5513 -1729.3718 580 3.5938163e-39
4536.686 -1742.896 580 2.7644228e-39
4536.126 -1765.2498 590 3.5019794e-39
4544.3955 -1792.2981 590 3.7753363e-39
5192.2661 -573.83032 580 9.3073894e-39
5124.645 -594.50415 570 1.2073609e-38
5374.1104 -636.54144 650 1.5029244e-38
5485.3184 -661.69489 680 1.8064154e-38
5698.9062 -707.30701 750 1.8807446e-38
5689.5166 -724.96594 750 1.7421291e-38
5716.0049 -739.05011 760 1.3375142e-38
5728.9692 -757.26904 770 3.8736374e-39
5746.6279 -766.65845 780 1.8320194e-38
5759.5923 -784.87732 780 2.3509809e-38
5763.7271 -798.40155 790 2.3507987e-38
5776.6914 -816.62042 790 2.3509778e-38
5803.1797 -830.70459 800 2.350979e-38
5838.498 -849.48346 820 2.3509786e-38
5882.645 -872.95703 830 2.3509793e-38
8120.3369 -1371.8907 1570 1.8158466e-38
8132.7412 -1412.4634 1570 1.705035e-38
8158.6699 -1448.9011 1590 1.5396941e-38
8113.4023 -1470.1349 1580 1.1520422e-38
7992.2446 -1484.9941 1540 1.2805404e-38
8071.71 -1527.2466 1570 1.3544752e-38
8084.1143 -1567.8191 1590 1.3086659e-38
8096.5186 -1608.3916 1590 1.3822058e-38
8113.6177 -1640.1348 1610 1.3913895e-38
8157.2051 -1685.962 1620 1.4467068e-38
8129.5967 -1716.5852 1620 1.5020954e-38
8035.4873 -1723.1748 1600 1.5111706e-38
8007.8789 -1753.7981 1590 1.5573049e-38
7971.4414 -1779.7266 1590 1.6678675e-38
7935.0034 -1805.655 1580 1.7508782e-38
7840.894 -1812.2446 1550 1.8612963e-38
7950.9824 -1882.1055 1600 1.8248513e-38
7879.2266 -1889.2551 1580 1.898319e-38
8015.8037 -1973.2 1630 1.8432545e-38
8094.709 -2037.806 1660 1.8801664e-38
8049.4419 -2059.0398 1650 1.7509868e-38
7920.0146 -2046.8506 1610 1.8153071e-38
7883.5767 -2072.7793 1600 1.7141781e-38
7855.9683 -2103.4023 1600 1.7138203e-38
7833.0547 -2125.196 1600 1.5945073e-38
7823.1055 -2165.2085 1600 2.3509785e-38
7893.1812 -2225.1201 1630 2.3509779e-38
7932.0737 -2279.7769 1650 2.3509781e-38
7913.2949 -2315.0947 1650 2.3509789e-38
7850.3687 -2326.939 1630 2.3509786e-38
7778.6133 -2334.0886 1620 2.3509785e-38
7773.3584 -2365.2717 1620 2.3509778e-38
5934.8027 -1648.1858 970 1.3000172e-38
5916.5835 -1661.15 970 8.5673132e-39
5907.1943 -1678.809 970 6.6373272e-39
5871.3164 -1682.3838 960 5.5320727e-39
5861.9268 -1700.0427 950 4.3324589e-39
5551.7754 -1580.4351 840 3.9622317e-39
5224.5244 -1429.0842 730 3.3201119e-39
5105.0469 -1376.8826 680 3.2264743e-39
5091.5225 -1381.0173 680 2.9516867e-39
5095.6572 -1394.5415 680 3.2257568e-39
5090.9629 -1403.3708 680 3.1339199e-39
5024.4619 -1379.3374 660 2.9498818e-39
4993.2783 -1374.0828 650 2.9495259e-39
4970.9248 -1373.5227 640 3.225045e-39
4957.4004 -1377.6575 640 9.5893783e-39
4952.7061 -1386.4871 640 1.2533143e-38
4943.3164 -1404.146 640 1.668303e-38
4929.792 -1408.2808 640 1.6402847e-38
4925.0977 -1417.1102 640 1.2810449e-38
4920.4028 -1425.9397 640 1.7138247e-38
4915.708 -1434.7692 640 1.6219164e-38
4911.0137 -1443.5986 640 1.6219881e-38
4906.3188 -1452.4281 640 1.5666714e-38
4888.0996 -1465.3923 630 2.3044507e-38
4826.2935 -1432.5293 610 2.3509869e-38
4944.6514 -1529.4385 660 2.3509884e-38
5071.2793 -1653.396 720 2.3509867e-38
5250.8833 -1805.5219 790 2.3509886e-38
5465.2456 -1998.7802 890 2.3509874e-38
4912.5635 -1738.891 680 2.3234312e-38
4907.8687 -1747.7205 680 2.3412966e-38
4890.21 -1738.3311 680 2.2951992e-38
4871.9912 -1751.2953 670 2.1574805e-38
4876.126 -1764.8195 680 2.0656426e-38
4862.6016 -1768.9542 670 2.1016247e-38
4849.0771 -1773.089 670 1.8901148e-38
4826.7236 -1772.5291 660 1.7333821e-38
4822.0288 -1781.3585 660 5.9891412e-39
4704.231 -1662.0957 610 3.2250436e-39
4690.7065 -1666.2305 610 1.2723304e-38
4664.2183 -1652.1464 600 1.2170527e-38
4646.5596 -1642.757 590 1.0883725e-38
4633.0352 -1646.8917 590 1.1156351e-38
4606.5469 -1632.8076 580 1.2903383e-38
4588.8877 -1623.4181 570 9.1248254e-39
4575.3638 -1627.5529 570 6.7248706e-39
4561.8394 -1631.6876 570 5.4391652e-39
4561.8394 -1631.6876 560 5.3451689e-39
4557.1445 -1640.5171 560 5.1597043e-39
4552.4502 -1649.3467 560 4.9760305e-39
4543.0605 -1667.0056 570 4.1455565e-39
4547.1953 -1680.5298 570 4.4228483e-39
4542.5005 -1689.3593 570 3.9611639e-39
4546.6353 -1702.8834 570 3.3172392e-39
4541.9404 -1711.7129 570 3.1339199e-39
4532.5513 -1729.3718 570 3.0402908e-39
4536.686 -1742.896 570 3.0399334e-39
4523.1616 -1747.0308 570 3.0420957e-39
4536.126 -1765.2498 580 2.8587792e-39
5192.2661 -573.83032 570 9.8627141e-39
5160.5229 -590.92932 570 1.041517e-38
5133.4746 -599.19885 560 1.1889572e-38
5489.4531 -675.21906 670 2.037406e-38
5778.9312 -727.20581 760 1.9818746e-38
5760.7124 -740.17004 760 1.687388e-38
5764.8467 -753.69421 770 1.0612549e-38
5777.8115 -771.91309 770 3.6878042e-39
5781.9463 -785.43732 770 2.2024527e-38
5786.0811 -798.96149 780 2.3509781e-38
5807.8745 -821.87512 790 2.3509792e-38
5825.5332 -831.26453 790 2.3509789e-38
5856.1567 -858.87286 800 2.3508711e-38
5882.645 -872.95703 820 2.3509785e-38
5904.4385 -895.87061 830 2.3509793e-38
8129.1665 -1376.5854 1530 1.8799188e-38
8155.0952 -1413.0232 1550 1.7053228e-38
8172.1938 -1444.7664 1560 1.6131271e-38
8113.4023 -1470.1349 1540 1.0688883e-38
7996.9395 -1476.1646 1510 1.2623536e-38
8062.8804 -1522.5518 1540 1.308593e-38
8084.1143 -1567.8191 1550 1.3819195e-38
8078.8599 -1599.0022 1560 1.4096496e-38
8104.7881 -1635.4401 1570 1.4096838e-38
8143.6807 -1690.0968 1590 1.3548355e-38
8120.7671 -1711.8905 1580 1.464931e-38
8044.3169 -1727.8696 1560 1.4742213e-38
8007.8789 -1753.7981 1560 1.6862343e-38
7980.2705 -1784.4213 1550 1.732582e-38
7943.833 -1810.3497 1550 1.8890282e-38
7849.7236 -1816.9395 1520 1.7141812e-38
7959.812 -1886.8002 1560 1.8798091e-38
7839.2144 -1879.3057 1530 1.8064476e-38
7998.1445 -1963.8105 1590 1.9075027e-38
8085.8794 -2033.1113 1620 1.8615132e-38
8000.5996 -2044.3958 1600 1.7788607e-38
7906.4902 -2050.9854 1570 1.7507712e-38
7883.5767 -2072.7793 1570 1.6866309e-38
7855.9683 -2103.4023 1570 1.7324029e-38
7819.5303 -2129.3308 1560 1.6676508e-38
7787.7876 -2146.4297 1550 2.3509783e-38
7919.6694 -2239.2041 1600 2.0105006e-38
7967.3916 -2298.5557 1630 2.3505805e-38
7953.3076 -2325.0439 1630 1.6962453e-38
7876.8574 -2341.0232 1610 2.3506139e-38
7805.1016 -2348.1729 1590 1.759305e-38
7791.0176 -2374.6611 1590 2.1751612e-38
5943.6318 -1652.8805 950 1.5760303e-38
5925.4131 -1665.8447 950 7.1879759e-39
5916.0234 -1683.5037 950 6.5454889e-39
5897.8047 -1696.4679 940 5.439161e-39
5879.5859 -1709.4321 940 4.1462726e-39
5852.5371 -1717.7017 940 3.3190301e-39
5233.3545 -1433.7791 720 3.2297169e-39
5105.0469 -1376.8826 670 2.767301e-39
5091.5225 -1381.0173 670 3.1339241e-39
5095.6572 -1394.5415 670 3.1335696e-39
5090.9629 -1403.3708 670 3.0413754e-39
5024.4619 -1379.3374 650 3.041374e-39
4993.2783 -1374.0828 640 2.9502503e-39
4970.9248 -1373.5227 630 3.3183056e-39
4957.4004 -1377.6575 630 1.0783966e-38
4952.7061 -1386.4871 630 1.1981051e-38
4943.3164 -1404.146 630 1.7602809e-38
4929.792 -1408.2808 630 1.520684e-38
4925.0977 -1417.1102 620 1.2810802e-38
4920.4028 -1425.9397 630 1.6588308e-38
4915.708 -1434.7692 630 1.6128409e-38
4911.0137 -1443.5986 620 1.6402113e-38
4906.3188 -1452.4281 620 1.5481963e-38
4888.0996 -1465.3923 620 2.2581339e-38
4826.2935 -1432.5293 600 2.350988e-38
4944.6514 -1529.4385 650 2.3509876e-38
5071.2793 -1653.396 700 2.3509869e-38
5250.8833 -1805.5219 780 2.3509886e-38
4912.5635 -1738.891 670 2.3508034e-38
4907.8687 -1747.7205 670 2.3415493e-38
4890.21 -1738.3311 660 2.2675763e-38
4880.8203 -1755.99 660 2.120494e-38
4876.126 -1764.8195 660 2.2032883e-38
4862.6016 -1768.9542 660 2.0651776e-38
4857.9067 -1777.7838 660 1.8256855e-38
4831.4185 -1763.6996 650 1.75182e-38
4813.1992 -1776.6638 650 4.6097871e-39
4695.4014 -1657.401 600 3.96298e-39
4681.877 -1661.5358 590 8.8518118e-39
4664.2183 -1652.1464 590 1.2171222e-38
4646.5596 -1642.757 580 1.0790466e-38
4633.0352 -1646.8917 580 1.078866e-38
4615.376 -1637.5023 570 1.3545884e-38
4588.8877 -1623.4181 560 1.0780374e-38
4575.3638 -1627.5529 560 8.0138115e-39
4561.8394 -1631.6876 550 6.8184871e-39
4561.8394 -1631.6876 550 6.5422674e-39
4557.1445 -1640.5171 550 5.805431e-39
4552.4502 -1649.3467 550 5.6203209e-39
4543.0605 -1667.0056 550 4.7919951e-39
4547.1953 -1680.5298 560 4.6998065e-39
4551.3301 -1694.054 560 4.0551658e-39
4546.6353 -1702.8834 560 4.3306625e-39
4541.9404 -1711.7129 560 3.7792907e-39
4537.2461 -1720.5424 560 3.3186741e-39
4523.7217 -1724.6771 560 4.0533539e-39
4501.9277 -1701.7635 550 3.7792921e-39
4518.4668 -1755.8604 560 3.5974148e-39
4669.3022 -556.25671 420 1.1426794e-38
5192.2661 -573.83032 560 1.0048902e-38
5187.5713 -582.65979 560 9.0297305e-39
5174.0469 -586.79456 560 1.096582e-38
5146.999 -595.06409 550 1.2440233e-38
5462.4053 -683.48859 650 2.0190037e-38
5734.2236 -726.08588 740 2.0187162e-38
5791.8955 -745.42468 750 1.8343615e-38
5787.2007 -754.25415 760 1.9358849e-38
5791.3354 -767.77832 760 8.3973483e-39
5813.1289 -790.69196 770 4.6061563e-39
5826.0938 -808.91089 770 2.3315652e-38
5852.582 -822.995 780 2.3413277e-38
5856.7168 -836.51923 790 2.3507973e-38
5869.6807 -854.7381 790 2.3509774e-38
5891.4746 -877.65173 800 2.350942e-38
5904.4385 -895.87061 810 2.3509781e-38
8129.1665 -1376.5854 1500 1.9078988e-38
8163.9243 -1417.718 1510 1.760602e-38
8158.6699 -1448.9011 1520 1.6956706e-38
8104.5732 -1465.4402 1510 1.041481e-38
7996.9395 -1476.1646 1480 1.2810784e-38
8071.71 -1527.2466 1510 1.2626754e-38
8092.9438 -1572.5138 1520 1.3545837e-38
8087.689 -1603.697 1520 1.3543684e-38
8104.7881 -1635.4401 1530 1.4007162e-38
8143.6807 -1690.0968 1550 8.4787147e-39
8098.4136 -1711.3306 1540 8.6623759e-39
8053.1465 -1732.5643 1530 8.845691e-39
8007.8789 -1753.7981 1520 8.2921528e-39
7971.4414 -1779.7266 1520 8.4754721e-39
7952.6621 -1815.0444 1510 1.7785723e-38
7872.0771 -1817.4994 1490 1.7326198e-38
7959.812 -1886.8002 1530 1.8893859e-38
7856.873 -1888.6951 1500 1.9077901e-38
8006.9741 -1968.5052 1550 1.8615486e-38
8059.3911 -2019.0272 1580 1.8799157e-38
7965.2817 -2025.6168 1550 1.8431452e-38
7897.6606 -2046.2906 1530 1.723184e-38
7874.7471 -2068.0845 1530 1.7601337e-38
7855.9683 -2103.4023 1530 1.6498594e-38
7819.5303 -2129.3308 1530 1.7051754e-38
7765.4336 -2145.8699 1510 2.3509789e-38
7937.3286 -2248.5938 1580 2.3509774e-38
8016.2339 -2313.1997 1610 2.3509788e-38
7970.9668 -2334.4336 1600 2.3509811e-38
7916.8696 -2350.9727 1580 2.3509772e-38
7813.9312 -2352.8674 1560 2.3509785e-38
7808.6763 -2384.0508 1560 2.3509783e-38
5952.4614 -1657.5752 930 1.2995592e-38
5925.4131 -1665.8447 930 6.8181228e-39
5924.853 -1688.1984 930 7.0043161e-39
5897.8047 -1696.4679 930 5.7135885e-39
5888.415 -1714.1268 920 3.9640309e-39
5852.5371 -1717.7017 920 3.9643897e-39
5215.6953 -1424.3896 690 3.593466e-39
5105.0469 -1376.8826 660 3.0428033e-39
5091.5225 -1381.0173 660 2.8584177e-39
5095.6572 -1394.5415 660 2.7672996e-39
5082.1333 -1398.6763 660 2.766578e-39
5024.4619 -1379.3374 640 2.582907e-39
4993.2783 -1374.0828 620 2.5811189e-39
4970.9248 -1373.5227 620 2.4914302e-39
4957.4004 -1377.6575 620 8.6641934e-39
4952.7061 -1386.4871 620 1.2164359e-38
4943.3164 -1404.146 620 1.7416255e-38
4929.792 -1408.2808 610 1.5481618e-38
4925.0977 -1417.1102 610 1.3359684e-38
4920.4028 -1425.9397 610 1.6494314e-38
4915.708 -1434.7692 610 1.5579549e-38
4911.0137 -1443.5986 610 1.5667426e-38
4906.3188 -1452.4281 610 1.6035479e-38
4888.0996 -1465.3923 610 2.2217235e-38
4826.2935 -1432.5293 590 2.3509883e-38
4944.6514 -1529.4385 630 2.3509853e-38
5071.2793 -1653.396 690 2.350987e-38
5250.8833 -1805.5219 760 2.3509863e-38
4912.5635 -1738.891 660 2.3509814e-38
4907.8687 -1747.7205 660 2.3504785e-38
4890.21 -1738.3311 650 2.2400622e-38
4880.8203 -1755.99 650 2.2219782e-38
4876.126 -1764.8195 650 2.1477933e-38
4862.6016 -1768.9542 650 2.0652127e-38
4857.9067 -1777.7838 650 1.9635119e-38
4826.7236 -1772.5291 640 1.7978811e-38
4695.4014 -1657.401 580 4.2392095e-39
4681.877 -1661.5358 580 5.6285633e-39
4664.2183 -1652.1464 570 1.0880858e-38
4641.8647 -1651.5864 570 1.1155653e-38
4633.0352 -1646.8917 570 1.0877989e-38
4597.7173 -1628.1129 550 1.3454406e-38
4580.0581 -1618.7234 550 1.0873999e-38
4566.5342 -1622.8582 550 9.2130624e-39
4566.5342 -1622.8582 540 7.097232e-39
4561.8394 -1631.6876 540 6.9096107e-39
4557.1445 -1640.5171 540 6.8192158e-39
4552.4502 -1649.3467 540 6.2642526e-39
4543.0605 -1667.0056 540 5.3451689e-39
4538.3657 -1675.8351 550 5.1600602e-39
4542.5005 -1689.3593 550 4.6998037e-39
4533.6709 -1684.6646 540 4.5150537e-39
4528.9766 -1693.494 540 4.6994352e-39
4515.4521 -1697.6288 540 4.1473516e-39
4497.793 -1688.2394 530 3.9622485e-39
4484.269 -1692.3741 530 4.7909217e-39
4488.4038 -1705.8983 530 4.8831216e-39
4678.6914 -538.59778 410 1.5760695e-38
4669.3022 -556.25671 410 1.2622814e-38
5192.2661 -573.83032 550 1.1059821e-38
5187.5713 -582.65979 550 9.3977913e-39
5174.0469 -586.79456 550 1.0782159e-38
5146.999 -595.06409 540 1.2439157e-38
5720.6997 -730.22064 720 2.0559523e-38
5791.8955 -745.42468 740 1.9174087e-38
5818.3838 -759.50879 750 1.8989339e-38
5862.5312 -782.98242 760 1.7884793e-38
5866.666 -796.50659 770 6.7353018e-39
5879.6299 -814.72546 770 8.0994897e-39
5883.7646 -828.24969 780 2.1941737e-38
5887.8994 -841.77386 780 2.3500777e-38
5878.5103 -859.43286 780 2.3414332e-38
5891.4746 -877.65173 790 2.3507614e-38
5904.4385 -895.87061 790 2.3509762e-38
8129.1665 -1376.5854 1470 1.8157399e-38
8155.0952 -1413.0232 1480 1.7510242e-38
8149.8403 -1444.2064 1480 1.6499697e-38
8091.0488 -1469.575 1470 1.0138218e-38
7983.415 -1480.2993 1440 1.2901915e-38
8058.186 -1531.3813 1470 1.2811139e-38
8084.1143 -1567.8191 1480 1.3544035e-38
8078.8599 -1599.0022 1480 1.3272132e-38
8091.2642 -1639.5748 1490 1.3181004e-38
8134.8516 -1685.4021 1510 1.4385999e-38
8089.584 -1706.6359 1500 1.6778792e-38
8070.8052 -1741.9537 1500 1.6689117e-38
8007.8789 -1753.7981 1490 1.567676e-38
7980.2705 -1784.4213 1480 1.3002012e-38
7957.3569 -1806.215 1480 1.7326174e-38
7880.9067 -1822.1941 1460 1.741946e-38
7950.9824 -1882.1055 1490 1.8800581e-38
7865.7026 -1893.3898 1470 1.8616916e-38
7989.3154 -1959.1158 1510 1.8524735e-38
8054.6963 -2027.8567 1540 1.8891352e-38
7925.269 -2015.6675 1500 1.9624957e-38
7888.8311 -2041.5959 1500 1.8061249e-38
7874.7471 -2068.0845 1500 1.705355e-38
7847.1387 -2098.7075 1490 1.6864879e-38
7810.7012 -2124.6362 1490 1.8802365e-38
7979.7959 -2339.1282 1570 2.3509783e-38
7961.0171 -2374.446 1560 2.3509811e-38
7845.1143 -2358.1221 1530 2.3509806e-38
7826.3354 -2393.4399 1530 2.3509806e-38
5952.4614 -1657.5752 920 1.1887452e-38
5934.2427 -1670.5394 910 6.2667483e-39
5916.0234 -1683.5037 910 6.0855982e-39
5888.9756 -1691.7732 900 5.989088e-39
5870.7563 -1704.7374 900 3.872201e-39
5834.8784 -1708.3123 890 4.147339e-39
5542.9458 -1575.7404 790 3.8718353e-39
5538.251 -1584.5698 790 4.3324491e-39
5233.3545 -1433.7791 690 3.4112243e-39
5105.0469 -1376.8826 640 3.3179511e-39
5091.5225 -1381.0173 640 3.3175909e-39
5086.8281 -1389.8467 640 2.7658633e-39
5073.3037 -1393.9814 640 2.8577044e-39
5024.4619 -1379.3374 620 2.8576974e-39
4993.2783 -1374.0828 610 2.9488126e-39
4970.9248 -1373.5227 610 3.0417285e-39
4957.4004 -1377.6575 610 8.111035e-39
4952.7061 -1386.4871 600 1.207289e-38
4943.3164 -1404.146 600 1.67745e-38
4929.792 -1408.2808 600 1.5757846e-38
4925.0977 -1417.1102 600 1.2442754e-38
4920.4028 -1425.9397 600 1.6678352e-38
4915.708 -1434.7692 600 1.5393372e-38
4911.0137 -1443.5986 600 1.5666703e-38
4906.3188 -1452.4281 600 1.5203943e-38
4888.0996 -1465.3923 600 2.2210764e-38
4826.2935 -1432.5293 580 2.3509883e-38
4944.6514 -1529.4385 620 2.3509877e-38
5071.2793 -1653.396 680 2.3509876e-38
5250.8833 -1805.5219 740 2.3509866e-38
4912.5635 -1738.891 640 2.3509807e-38
4907.8687 -1747.7205 640 2.3507309e-38
4890.21 -1738.3311 640 2.2308056e-38
4871.9912 -1751.2953 640 2.2034352e-38
4876.126 -1764.8195 640 2.1207086e-38
4862.6016 -1768.9542 640 2.0466291e-38
4857.9067 -1777.7838 640 2.0003882e-38
4835.5532 -1777.2238 630 1.7796966e-38
4686.5718 -1652.7063 570 4.058414e-39
4677.7422 -1648.0116 570 4.5193585e-39
4664.2183 -1652.1464 570 1.1798863e-38
4650.6943 -1656.2811 560 1.1343274e-38
4637.1699 -1660.4159 560 1.1065961e-38
4593.5825 -1614.5886 540 1.3822812e-38
4580.0581 -1618.7234 540 1.1149527e-38
4566.5342 -1622.8582 530 9.9509777e-39
4566.5342 -1622.8582 530 8.1981818e-39
4561.8394 -1631.6876 530 7.7422469e-39
4557.1445 -1640.5171 530 6.9132121e-39
4552.4502 -1649.3467 530 1.0616133e-38
4543.0605 -1667.0056 540 6.5494588e-39
4538.3657 -1675.8351 530 5.5310077e-39
4533.6709 -1684.6646 530 5.6213915e-39
4533.6709 -1684.6646 530 4.9763864e-39
4520.147 -1688.7993 530 4.5150593e-39
4506.6226 -1692.9341 530 3.873643e-39
4497.793 -1688.2394 520 4.8838348e-39
4488.9639 -1683.5447 520 5.0682275e-39
4484.269 -1692.3741 520 5.5284798e-39
4674.5566 -525.07355 400 1.6034417e-38
4678.6914 -538.59778 400 1.5853258e-38
4678.6914 -538.59778 400 1.6310996e-38
4682.8262 -552.12195 400 9.4021115e-39
4669.3022 -556.25671 400 1.2625713e-38
5192.2661 -573.83032 540 1.0506644e-38
5187.5713 -582.65979 540 9.4896254e-39
5174.0469 -586.79456 540 1.1334244e-38
5146.999 -595.06409 530 1.2257641e-38
5747.748 -721.95111 710 1.9539992e-38
5805.4199 -741.28992 730 2.000168e-38
5827.2134 -764.20355 740 1.9446351e-38
5907.2383 -784.10229 760 1.7884799e-38
5911.373 -797.62646 760 1.7053254e-38
5901.9839 -815.28546 760 5.2612536e-39
5914.9482 -833.50433 770 1.5095507e-38
5905.5586 -851.16333 770 2.3041245e-38
5900.8643 -859.9928 770 2.2953011e-38
5904.999 -873.51697 770 2.3509761e-38
5917.9629 -891.73584 780 2.3506188e-38
8120.3369 -1371.8907 1430 1.8434703e-38
8137.436 -1403.6338 1440 1.7419842e-38
8141.0107 -1439.5117 1440 1.5577735e-38
8082.2192 -1464.8802 1430 9.9549084e-39
7983.415 -1480.2993 1410 1.336216e-38
8058.186 -1531.3813 1430 1.3637672e-38
8092.9438 -1572.5138 1450 1.3178851e-38
8087.689 -1603.697 1450 1.3916409e-38
8100.0933 -1644.2695 1460 1.4189401e-38
8134.8516 -1685.4021 1480 1.6960294e-38
8098.4136 -1711.3306 1470 1.8071308e-38
8093.1587 -1742.5137 1470 1.7888008e-38
8007.8789 -1753.7981 1450 1.7702173e-38
7980.2705 -1784.4213 1450 1.4749416e-38
7952.6621 -1815.0444 1450 1.732403e-38
7889.7358 -1826.8888 1430 1.7600258e-38
7942.1528 -1877.4108 1450 1.8338897e-38
7856.873 -1888.6951 1430 1.9353409e-38
8006.9741 -1968.5052 1480 1.9077185e-38
8068.2207 -2023.7219 1510 1.8434325e-38
7925.269 -2015.6675 1470 1.8340341e-38
7888.8311 -2041.5959 1460 1.8798799e-38
7865.9175 -2063.3896 1460 1.7696771e-38
7838.3091 -2094.0129 1460 1.8335295e-38
7793.042 -2115.2466 1450 1.7597023e-38
7993.8804 -2312.6396 1530 1.7962211e-38
7979.7959 -2339.1282 1530 1.9154623e-38
7969.8467 -2379.1406 1530 2.2098772e-38
7845.1143 -2358.1221 1490 2.3485675e-38
7817.5059 -2388.7454 1490 2.3502562e-38
5952.4614 -1657.5752 900 1.0874361e-38
5943.0723 -1675.2341 900 6.8163305e-39
5924.853 -1688.1984 890 6.6362623e-39
5888.9756 -1691.7732 880 5.5302762e-39
5879.5859 -1709.4321 880 4.1484292e-39
5542.9458 -1575.7404 780 3.8707591e-39
5529.4219 -1579.8751 770 4.1466299e-39
5312.8193 -1476.0315 700 3.5952624e-39
5096.2173 -1372.1877 630 3.226124e-39
5091.5225 -1381.0173 630 2.9495301e-39
5077.9985 -1385.1521 630 2.8580589e-39
5073.3037 -1393.9814 630 2.8580491e-39
5033.291 -1384.0321 610 2.6736747e-39
5002.1079 -1378.7775 600 2.5818238e-39
4979.7544 -1378.2175 600 2.7665794e-39
4957.4004 -1377.6575 590 8.1085267e-39
4952.7061 -1386.4871 590 1.244023e-38
4943.3164 -1404.146 590 1.8153833e-38
4929.792 -1408.2808 590 1.6307045e-38
4925.0977 -1417.1102 590 1.2993407e-38
4920.4028 -1425.9397 590 1.6954581e-38
4915.708 -1434.7692 590 1.5300087e-38
4911.0137 -1443.5986 590 1.5664922e-38
4906.3188 -1452.4281 590 1.5667063e-38
4888.0996 -1465.3923 590 2.1204876e-38
4826.2935 -1432.5293 570 2.3509877e-38
4944.6514 -1529.4385 610 2.3509858e-38
5071.2793 -1653.396 660 2.350988e-38
5250.8833 -1805.5219 730 2.3509865e-38
4917.2583 -1730.0615 630 2.3415829e-38
4899.0391 -1743.0258 630 2.3230004e-38
4890.21 -1738.3311 620 2.332256e-38
4871.9912 -1751.2953 620 2.2306966e-38
4876.126 -1764.8195 620 2.1023426e-38
4862.6016 -1768.9542 620 2.1021987e-38
4862.0415 -1791.308 620 2.0369792e-38
4844.3828 -1781.9186 620 1.8346887e-38
4686.5718 -1652.7063 560 4.9785528e-39
4677.7422 -1648.0116 560 3.6885258e-39
4664.2183 -1652.1464 550 1.115564e-38
4650.6943 -1656.2811 550 1.0975209e-38
4645.9995 -1665.1106 550 1.1062716e-38
