# .PCD v0.7 - Point Cloud Data file format
VERSION 0.7
FIELDS x y z rgb
SIZE 4 4 4 4
TYPE F F F F
COUNT 1 1 1 1
WIDTH 1229
HEIGHT 1
VIEWPOINT 0 0 0 1 0 0 0
POINTS 1229
DATA ascii
5440.6968 -669.96265 -20 7.6475149e-39
5444.5947 -683.55695 -20 7.9248221e-39
5426.1523 -696.20123 -20 7.4656488e-39
5430.0508 -709.79553 -20 7.9223095e-39
5461.1372 -715.59363 -20 8.0184414e-39
5554.3975 -732.98785 -30 7.3748769e-39
5558.2954 -746.58215 -30 8.4776245e-39
5584.5342 -761.12646 -40 8.3847114e-39
5597.1787 -779.56885 -40 8.2928857e-39
5614.6709 -789.26501 -40 8.2932515e-39
5814.7852 -820.1554 -60 9.4892499e-39
5925.5376 -847.24585 -70 9.2162671e-39
5982.8633 -867.58826 -80 9.8587485e-39
6057.6807 -897.62683 -90 9.1237142e-39
6039.2383 -910.27112 -90 9.6729335e-39
6020.7959 -922.91541 -90 1.0043147e-38
6033.4404 -941.35779 -90 1.5943642e-38
6068.4248 -960.75018 -90 1.5022411e-38
6067.4751 -983.0907 -100 1.5210023e-38
6102.46 -1002.483 -100 1.557881e-38
8074.5156 -1363.8644 -320 1.5114963e-38
8037.6309 -1389.153 -310 1.3734563e-38
8031.8325 -1420.2396 -310 1.2444195e-38
8119.2944 -1468.7206 -330 7.0957859e-39
8130.9888 -1509.5034 -330 9.9527223e-39
8008.6401 -1544.5864 -320 1.0229679e-38
6790.4609 -1349.5477 -190 1.0779983e-38
6740.9321 -1356.3939 -180 1.1515024e-38
6796.3574 -1421.4172 -190 1.1797366e-38
6741.9805 -1437.0098 -190 1.2254023e-38
6741.0303 -1459.3502 -190 1.2255099e-38
6804.252 -1551.5621 -200 1.2070712e-38
6748.9248 -1589.4951 -200 1.2721818e-38
6818.8945 -1628.2798 -210 1.3913902e-38
6795.6035 -1649.6703 -200 1.3915324e-38
6772.3135 -1671.0608 -200 1.4926956e-38
6753.8711 -1683.7051 -200 1.3825653e-38
6756.8193 -1719.6399 -200 1.4837279e-38
6729.6304 -1727.436 -200 1.1427149e-38
6697.5938 -1743.9785 -200 1.1517921e-38
6665.5571 -1760.5209 -200 1.1336042e-38
6624.7744 -1772.2152 -190 1.1794492e-38
6549.0068 -1764.5171 -190 1.1704826e-38
6266.2783 -1676.3995 -150 1.170338e-38
6089.4541 -1624.1187 -130 1.2163634e-38
6018.5347 -1607.6743 -130 1.1796296e-38
5960.2598 -1609.6726 -120 1.2072165e-38
5823.2686 -1568.0378 -100 1.1702679e-38
5787.3335 -1570.9858 -100 1.1610467e-38
5764.9932 -1570.0359 -100 1.1335693e-38
5755.2969 -1587.5283 -100 1.1151281e-38
5701.8696 -1580.7803 -90 1.0875777e-38
5468.6704 -1485.8164 -60 1.087507e-38
5455.0762 -1489.7146 -60 1.1243135e-38
5436.6338 -1502.3589 -60 1.115308e-38
5431.7856 -1511.105 -60 1.0600283e-38
5422.0898 -1528.5974 -60 1.1060178e-38
5408.4951 -1532.4956 -60 1.4099392e-38
5363.8145 -1530.5956 -60 9.3074076e-39
5397.8491 -1572.3284 -60 1.3365777e-38
5314.2852 -1537.4418 -50 1.290553e-38
4980.9795 -1375.5547 -10 1.0781457e-38
4971.2837 -1393.0471 -10 1.0321188e-38
4966.4355 -1401.7932 -10 9.2191426e-39
4952.8408 -1405.6914 -10 9.7672829e-39
4947.9932 -1414.4375 -10 1.2348382e-38
4943.145 -1423.1838 -10 1.5390098e-38
4938.2969 -1431.9299 -10 1.0320097e-38
4933.4487 -1440.6761 -10 1.0137866e-38
4923.7524 -1458.1686 -10 1.2995552e-38
4918.9043 -1466.9148 -10 1.3086679e-38
4723.54 -1324.3219 10 1.262677e-38
4709.9458 -1328.22 10 1.2442383e-38
4696.3516 -1332.1182 10 1.9363525e-38
4652.6206 -1307.8777 20 2.2774438e-38
4647.7725 -1316.6238 20 2.259074e-38
4634.1782 -1320.522 20 2.350372e-38
4616.6855 -1310.8257 20 2.2774769e-38
4555.4624 -1276.8892 30 2.2403113e-38
4550.6143 -1285.6353 30 4.6047438e-39
4541.8682 -1280.7871 30 2.7651374e-39
4528.2734 -1284.6853 30 1.4747685e-39
4510.7812 -1274.989 30 2.30236e-39
4488.4409 -1274.0391 30 3.8707535e-39
4479.6943 -1269.191 30 5.3440969e-39
4483.5928 -1282.7854 30 4.0551784e-39
4478.7446 -1291.5315 30 3.041011e-39
4473.8965 -1300.2777 30 2.3981626e-39
4465.1504 -1295.4297 30 2.6729544e-39
4460.3022 -1304.1758 40 2.8580687e-39
4455.4541 -1312.922 40 3.8732828e-39
4455.4541 -1312.922 40 3.5941904e-39
4450.606 -1321.6682 40 7.0900714e-39
4445.7578 -1330.4144 40 3.9629715e-39
4432.1636 -1334.3125 40 3.5052234e-39
4432.1636 -1334.3125 40 3.9604604e-39
4427.3154 -1343.0587 40 3.144347e-39
4422.4673 -1351.8049 40 3.1375241e-39
4422.4673 -1351.8049 40 5.3498563e-39
4417.6191 -1360.551 40 3.4148396e-39
4412.7715 -1369.2974 40 1.0953628e-38
4404.0249 -1364.4492 40 7.183332e-39
4390.4307 -1368.3473 40 5.7982451e-39
4394.3291 -1381.9417 40 4.1448293e-39
4394.3291 -1381.9417 40 4.4210616e-39
4380.7344 -1385.8397 40 4.4185491e-39
5193.9033 -578.89697 0 5.8954532e-39
5193.9033 -578.89697 0 7.4649341e-39
5197.8013 -592.49127 0 9.308474e-39
5192.9531 -601.23743 0 6.9160749e-39
5157.0186 -604.18555 0 6.9135708e-39
5192.0034 -623.57794 0 7.0068328e-39
5223.0898 -629.37604 0 7.5578346e-39
5343.5386 -638.97406 -20 7.554606e-39
5396.9658 -645.72217 -20 7.8308384e-39
5423.2046 -660.26642 -30 7.4652929e-39
5427.1025 -673.86072 -30 7.004672e-39
5444.5947 -683.55695 -30 7.4649285e-39
5439.7471 -692.3031 -30 7.6485967e-39
5443.645 -705.8974 -30 7.556764e-39
5461.1372 -715.59363 -30 7.9244647e-39
5540.8032 -736.88599 -40 7.9259011e-39
5558.2954 -746.58215 -50 8.4776217e-39
5584.5342 -761.12646 -50 8.3843597e-39
5579.686 -769.87262 -50 7.8354921e-39
5601.0767 -793.16309 -50 8.2935976e-39
5770.1045 -818.25543 -70 8.8467657e-39
5849.77 -839.54779 -80 8.7556505e-39
5978.0146 -876.33447 -100 9.3988535e-39
6057.6807 -897.62683 -110 8.7570925e-39
6039.2383 -910.27112 -110 9.5839608e-39
6020.7959 -922.91541 -110 9.2144721e-39
6024.6943 -936.5097 -110 1.4742597e-38
6023.7441 -958.85022 -110 1.4743682e-38
6027.6421 -972.44446 -110 1.5204275e-38
6093.7139 -997.63495 -120 1.4653632e-38
6123.8506 -1025.7736 -120 1.5020964e-38
6771.8223 -1156.2795 -200 1.373168e-38
6691.3047 -1260.2839 -200 1.0779254e-38
6681.6089 -1277.7764 -200 1.0598097e-38
6689.4053 -1304.9648 -200 1.1056563e-38
6648.6221 -1316.6592 -200 1.0230753e-38
6630.1797 -1329.3035 -190 1.133279e-38
6615.6357 -1355.5421 -190 1.0873618e-38
6716.6914 -1400.125 -210 1.1334941e-38
6693.4014 -1421.5154 -210 1.1793764e-38
6701.1973 -1448.7041 -210 1.1978508e-38
6788.6592 -1497.1851 -220 1.2255468e-38
6805.2021 -1529.2217 -220 1.1885609e-38
6698.3477 -1515.7255 -210 1.243841e-38
6657.5645 -1527.4198 -210 1.2533831e-38
6634.2744 -1548.8103 -210 1.253421e-38
6650.8164 -1580.8469 -210 1.3361445e-38
6672.207 -1604.1375 -210 1.4005013e-38
6737.3286 -1651.6685 -220 1.4096845e-38
6740.2764 -1687.6031 -230 1.4833331e-38
6739.3267 -1709.9437 -230 1.4285174e-38
6707.29 -1726.4861 -230 1.0876142e-38
6675.2529 -1743.0284 -220 1.0784658e-38
6648.0645 -1750.8247 -220 1.1150569e-38
6598.5356 -1757.6709 -220 1.1426432e-38
6522.7681 -1749.9729 -210 1.1150573e-38
6358.5884 -1716.1343 -190 1.161226e-38
6129.2871 -1634.7649 -160 1.1061615e-38
6009.7886 -1602.8263 -140 1.151935e-38
5951.5132 -1604.8245 -140 1.170266e-38
5828.1162 -1559.2915 -120 1.1426797e-38
5787.3335 -1570.9858 -120 1.1609755e-38
5764.9932 -1570.0359 -120 1.133497e-38
5737.8047 -1577.832 -110 1.0599186e-38
5693.1235 -1575.9321 -110 1.0784668e-38
5468.6704 -1485.8164 -80 1.1152731e-38
5455.0762 -1489.7146 -80 1.1151652e-38
5436.6338 -1502.3589 -80 1.1058743e-38
5431.7856 -1511.105 -80 1.0781802e-38
5422.0898 -1528.5974 -80 1.1152377e-38
5408.4951 -1532.4956 -80 1.4008278e-38
5363.8145 -1530.5956 -70 8.8457148e-39
5350.2197 -1534.4937 -70 1.3545146e-38
5305.5391 -1532.5938 -70 1.3272143e-38
4980.9795 -1375.5547 -20 1.0876154e-38
4971.2837 -1393.0471 -20 1.0047841e-38
4966.4355 -1401.7932 -20 9.9509651e-39
4952.8408 -1405.6914 -20 9.6743782e-39
4947.9932 -1414.4375 -20 1.2810797e-38
4943.145 -1423.1838 -20 1.493094e-38
4929.5508 -1427.0819 -20 1.041195e-38
4933.4487 -1440.6761 -20 1.041444e-38
4923.7524 -1458.1686 -20 1.2537105e-38
4918.9043 -1466.9148 -20 1.3269981e-38
4723.54 -1324.3219 0 1.2901569e-38
4718.6919 -1333.0681 0 1.2441678e-38
4705.0977 -1336.9662 0 2.046769e-38
4700.2495 -1345.7124 0 2.3507663e-38
4647.7725 -1316.6238 10 2.2498546e-38
4625.4316 -1315.6738 10 2.2954852e-38
4616.6855 -1310.8257 10 2.3506567e-38
4564.2085 -1281.7372 20 2.2216938e-38
4550.6143 -1285.6353 20 2.949907e-39
4541.8682 -1280.7871 20 1.9371844e-39
4528.2734 -1284.6853 20 1.3840064e-39
4502.0352 -1270.141 30 1.0152295e-39
4484.5425 -1260.4448 30 4.4278845e-39
4479.6943 -1269.191 30 3.6889014e-39
4483.5928 -1282.7854 30 2.3045278e-39
4487.4907 -1296.3796 30 2.2134098e-39
4473.8965 -1300.2777 30 2.2130482e-39
4473.8965 -1300.2777 30 2.4878415e-39
4460.3022 -1304.1758 30 2.1212198e-39
4455.4541 -1312.922 30 2.3052467e-39
4455.4541 -1312.922 30 2.7651472e-39
4441.8599 -1316.8201 30 2.4907127e-39
4437.0117 -1325.5663 30 2.8587876e-39
4432.1636 -1334.3125 30 3.50415e-39
4432.1636 -1334.3125 30 5.5292155e-39
4427.3154 -1343.0587 30 3.8736458e-39
4422.4673 -1351.8049 30 6.1778205e-39
4422.4673 -1351.8049 30 3.5920254e-39
4417.6191 -1360.551 30 2.1183443e-39
4412.7715 -1369.2974 30 1.7517128e-39
4404.0249 -1364.4492 30 1.7520743e-39
4399.1768 -1373.1953 30 1.7517212e-39
4394.3291 -1381.9417 30 1.9375488e-39
4389.481 -1390.6877 30 2.0279409e-39
4380.7344 -1385.8397 30 1.6598801e-39
4644.4629 -1920.7671 -20 2.4925162e-39
5185.1572 -574.04889 -10 4.5128775e-39
5193.9033 -578.89697 -10 7.7415126e-39
5197.8013 -592.49127 -10 9.9491686e-39
5192.9531 -601.23743 -10 1.069031e-38
5165.7646 -609.03363 -10 6.7284775e-39
5205.5977 -619.67981 -10 7.2801799e-39
5236.6846 -625.47791 -20 7.556771e-39
5343.5386 -638.97406 -30 7.2801743e-39
5374.6255 -644.77216 -30 7.3716567e-39
5400.8638 -659.31647 -40 7.1894192e-39
5404.7622 -672.91077 -40 7.8322663e-39
5422.2544 -682.60693 -40 7.3727329e-39
5426.1523 -696.20123 -40 7.5556808e-39
5434.8989 -701.04932 -40 7.6475233e-39
5447.543 -719.4917 -40 8.0155701e-39
5442.6948 -728.23792 -40 7.5567654e-39
5544.7012 -750.48022 -60 7.924099e-39
5562.1934 -760.17645 -60 7.7415224e-39
5535.0049 -767.97266 -60 8.6609382e-39
5583.584 -783.46692 -60 8.2925242e-39
5783.6982 -814.35736 -90 8.7552904e-39
6192.6738 -880.98627 -140 8.2943122e-39
6045.0361 -879.18445 -120 9.4914093e-39
6088.7676 -903.42493 -130 9.0293633e-39
6047.9844 -915.1192 -120 8.6648814e-39
6029.542 -927.76349 -120 9.3992123e-39
6011.0996 -940.40784 -120 3.6867308e-39
6006.252 -949.15399 -120 3.9615128e-39
5974.2148 -965.69641 -120 3.8703962e-39
5955.7725 -978.3407 -120 3.9604366e-39
5968.417 -996.78308 -120 3.3201007e-39
6074.3213 -1032.6198 -140 3.7774845e-39
6757.2783 -1182.5181 -220 3.3179427e-39
6725.2417 -1199.0605 -220 2.5807378e-39
6684.459 -1210.7549 -210 9.6754236e-39
6661.168 -1232.1453 -210 9.7654794e-39
6620.3857 -1243.8396 -210 9.6768767e-39
6619.4355 -1266.1802 -210 1.0042788e-38
6649.5723 -1294.3187 -220 1.0780691e-38
6577.7026 -1300.2148 -210 1.03208e-38
6590.3467 -1318.6573 -210 1.0412644e-38
6567.0566 -1340.0479 -210 1.1334946e-38
6637.0259 -1378.8325 -220 1.1609734e-38
6565.1562 -1384.7288 -210 1.0506279e-38
6572.9526 -1411.9174 -210 1.2436969e-38
6603.0894 -1440.0559 -220 1.2528815e-38
6562.3066 -1451.7502 -220 1.1795204e-38
6552.6104 -1469.2427 -220 1.2252587e-38
6538.0659 -1495.4812 -220 1.2716421e-38
6550.71 -1513.9236 -220 1.2717519e-38
6558.5063 -1541.1123 -220 1.2899755e-38
6583.7949 -1577.9971 -230 1.2625318e-38
6666.4092 -1635.2241 -240 1.1981029e-38
6722.7842 -1677.907 -250 1.327033e-38
6730.5806 -1705.0956 -250 1.3452566e-38
6698.5439 -1721.6381 -250 1.1148404e-38
6657.7607 -1733.3323 -240 1.0691736e-38
6616.978 -1745.0266 -240 1.0324418e-38
6549.9565 -1742.1766 -230 1.0966541e-38
6474.189 -1734.4786 -220 1.1243126e-38
6323.6035 -1696.7419 -200 1.1518994e-38
6155.5259 -1649.3091 -180 1.0966541e-38
6044.7734 -1622.2188 -170 1.1240612e-38
5973.8535 -1605.7744 -160 1.0785019e-38
5863.1016 -1578.684 -150 1.1151645e-38
5787.3335 -1570.9858 -140 1.1333168e-38
5756.2471 -1565.1877 -130 1.0781802e-38
5729.0586 -1572.984 -130 1.0967609e-38
5684.3774 -1571.084 -120 1.1148775e-38
5630.9502 -1564.3359 -120 1.0691406e-38
5455.0762 -1489.7146 -90 1.0600999e-38
5436.6338 -1502.3589 -90 1.142644e-38
5431.7856 -1511.105 -90 1.0782162e-38
5422.0898 -1528.5974 -90 1.12435e-38
5408.4951 -1532.4956 -90 1.4007566e-38
5363.8145 -1530.5956 -90 9.1230121e-39
5350.2197 -1534.4937 -80 1.3916088e-38
5314.2852 -1537.4418 -80 1.2997011e-38
4980.9795 -1375.5547 -30 1.1060184e-38
4971.2837 -1393.0471 -30 9.4053513e-39
4966.4355 -1401.7932 -30 9.4917764e-39
4952.8408 -1405.6914 -30 9.7647858e-39
4947.9932 -1414.4375 -30 1.2445963e-38
4943.145 -1423.1838 -30 1.5020981e-38
4929.5508 -1427.0819 -30 1.0597408e-38
4933.4487 -1440.6761 -30 1.0597402e-38
4923.7524 -1458.1686 -30 1.2443111e-38
4918.9043 -1466.9148 -30 1.2442031e-38
4723.54 -1324.3219 0 1.2625706e-38
4718.6919 -1333.0681 0 1.2899419e-38
4713.8438 -1341.8143 0 2.0649575e-38
4700.2495 -1345.7124 0 2.3324703e-38
4665.2646 -1326.3201 0 2.2771885e-38
4642.9243 -1325.3701 0 2.2955926e-38
4620.584 -1324.42 0 2.3321468e-38
4572.9546 -1286.5852 10 2.2030012e-38
4550.6143 -1285.6353 10 1.2427403e-38
4541.8682 -1280.7871 10 2.5839832e-39
4519.5273 -1279.8372 10 1.2911004e-39
4493.2891 -1265.293 20 2.7672898e-39
4488.4409 -1274.0391 20 4.4268196e-39
4488.4409 -1274.0391 20 5.0739616e-39
4483.5928 -1282.7854 20 2.0293843e-39
4487.4907 -1296.3796 20 2.490354e-39
4473.8965 -1300.2777 20 2.5800385e-39
4473.8965 -1300.2777 20 2.5818266e-39
4469.0483 -1309.0239 20 2.4889275e-39
4455.4541 -1312.922 20 2.3967206e-39
4455.4541 -1312.922 20 2.2123434e-39
4441.8599 -1316.8201 20 2.4878457e-39
4437.0117 -1325.5663 20 2.4892792e-39
4432.1636 -1334.3125 20 3.4983977e-39
4432.1636 -1334.3125 20 3.0399405e-39
4427.3154 -1343.0587 20 2.3970906e-39
4422.4673 -1351.8049 20 2.5818392e-39
4422.4673 -1351.8049 20 2.8587778e-39
4417.6191 -1360.551 20 3.0442565e-39
4412.7715 -1369.2974 20 2.1212141e-39
4407.9233 -1378.0435 20 2.2144972e-39
4399.1768 -1373.1953 20 2.2130538e-39
4394.3291 -1381.9417 20 2.1215757e-39
4389.481 -1390.6877 20 1.843914e-39
4389.481 -1390.6877 20 1.568762e-39
4724.1289 -1942.0594 -40 1.5676788e-39
4701.7881 -1941.1095 -40 3.5034325e-39
4650.2612 -1889.6804 -30 3.8696885e-39
4670.7017 -1935.3114 -30 4.0565965e-39
4653.209 -1925.6151 -30 3.6871035e-39
4635.7168 -1915.9189 -30 3.5016305e-39
5185.1572 -574.04889 -20 4.6047144e-39
5189.0552 -587.64319 -20 7.8301195e-39
5197.8013 -592.49127 -20 9.8598415e-39
5192.9531 -601.23743 -20 1.0414082e-38
5165.7646 -609.03363 -20 6.4522437e-39
5205.5977 -619.67981 -20 7.1894178e-39
5259.0249 -626.42792 -30 7.8322621e-39
5334.7925 -634.12598 -40 7.6475247e-39
5369.7773 -653.51837 -40 7.2787464e-39
5387.2695 -663.21454 -50 7.5563941e-39
5396.0156 -668.06262 -50 7.3734475e-39
5408.6602 -686.505 -50 7.7411399e-39
5426.1523 -696.20123 -50 7.5567556e-39
5430.0508 -709.79553 -50 8.0155828e-39
5461.1372 -715.59363 -60 7.9248179e-39
5429.1006 -732.13599 -60 7.46456e-39
5527.209 -740.78406 -70 7.7397091e-39
5531.1069 -754.37836 -70 8.1088434e-39
5512.6646 -767.02264 -70 8.01881e-39
5569.9897 -787.36505 -80 8.2003229e-39
6224.71 -864.44385 -160 8.0166604e-39
6259.6953 -883.83624 -170 8.1102853e-39
6120.8037 -886.88245 -150 8.5716236e-39
6102.3613 -899.52679 -150 9.1208373e-39
6061.5791 -911.22107 -140 9.1215506e-39
6043.1367 -923.86536 -140 8.8456895e-39
6033.4404 -941.35779 -140 3.3190217e-39
6014.998 -954.00208 -140 3.2271876e-39
5982.9609 -970.54449 -140 3.0420886e-39
5955.7725 -978.3407 -140 3.2268288e-39
6051.9805 -1031.6697 -150 3.2264743e-39
6726.1914 -1176.72 -240 2.9491615e-39
6716.4951 -1194.2124 -240 2.3037921e-39
6684.459 -1210.7549 -240 9.9484288e-39
6666.0166 -1223.3992 -240 9.8555199e-39
6602.8931 -1234.1434 -230 9.949149e-39
6633.0298 -1262.282 -230 9.2176909e-39
6663.1665 -1290.4207 -240 9.4906876e-39
6591.2969 -1296.3169 -230 1.0226086e-38
6528.1738 -1307.0612 -230 1.1055839e-38
6518.4775 -1324.5535 -220 1.0687425e-38
6446.6074 -1330.4497 -220 1.1239158e-38
6428.165 -1343.094 -220 1.0962946e-38
6404.875 -1364.4846 -220 1.1146239e-38
6505.9312 -1409.0674 -230 1.1148384e-38
6473.8945 -1425.6099 -230 1.1243108e-38
6521.5234 -1463.4446 -230 1.1794848e-38
6529.3198 -1490.6332 -240 1.1978151e-38
6537.1162 -1517.8218 -240 1.2344433e-38
6536.166 -1540.1622 -240 1.216471e-38
6557.5566 -1563.4526 -250 1.3268525e-38
6648.9165 -1625.528 -260 1.4003576e-38
6705.292 -1668.2108 -270 1.3728073e-38
6713.0879 -1695.3994 -270 1.3638031e-38
6681.0513 -1711.9418 -270 1.0597394e-38
6640.2686 -1723.6361 -270 1.0596686e-38
6573.2471 -1720.7861 -260 1.0415519e-38
6492.6313 -1721.8342 -250 1.0872906e-38
6434.356 -1723.8324 -240 1.1518989e-38
6266.2783 -1676.3995 -220 1.0874694e-38
6181.7646 -1663.8534 -210 1.0596682e-38
6093.3525 -1637.7129 -200 1.0965829e-38
5982.5996 -1610.6226 -180 1.0873996e-38
5906.832 -1602.9244 -170 1.1242412e-38
5800.9277 -1567.0879 -160 1.179198e-38
5751.3989 -1573.9341 -150 1.050664e-38
5711.5659 -1563.2878 -150 1.0598474e-38
5635.7983 -1555.5898 -140 1.1058736e-38
5595.9653 -1544.9436 -130 1.0508085e-38
5463.8223 -1494.5627 -110 1.0139664e-38
5445.3799 -1507.207 -110 1.0414104e-38
5440.5322 -1515.9531 -110 1.0232934e-38
5422.0898 -1528.5974 -110 1.0966911e-38
5408.4951 -1532.4956 -110 1.3365059e-38
5363.8145 -1530.5956 -100 9.2137686e-39
5341.4736 -1529.6455 -100 1.3639142e-38
5314.2852 -1537.4418 -90 1.3179951e-38
4971.2837 -1393.0471 -40 9.9524169e-39
4966.4355 -1401.7932 -40 9.1230107e-39
4952.8408 -1405.6914 -40 9.6740237e-39
4947.9932 -1414.4375 -40 1.3270327e-38
4951.8911 -1428.0319 -40 1.5847849e-38
4929.5508 -1427.0819 -40 1.0138232e-38
4933.4487 -1440.6761 -40 1.0689246e-38
4923.7524 -1458.1686 -40 1.3360375e-38
4918.9043 -1466.9148 -40 1.2165447e-38
4727.438 -1337.9163 -10 1.2257271e-38
4727.438 -1337.9163 -10 1.2994119e-38
4713.8438 -1341.8143 -10 2.0191841e-38
4700.2495 -1345.7124 -10 2.2678617e-38
4669.1631 -1339.9143 -10 2.268258e-38
4651.6704 -1330.2181 0 2.2587859e-38
4638.0762 -1334.1162 0 2.1758459e-38
4641.9741 -1347.7104 0 2.1391118e-38
4645.8721 -1361.3048 0 3.8679089e-39
4533.1216 -1275.9391 10 3.7792964e-39
4480.6445 -1246.8506 10 1.474407e-39
4493.2891 -1265.293 10 2.5803902e-39
4497.187 -1278.8872 10 4.4257476e-39
4479.6943 -1269.191 10 5.4345213e-39
4483.5928 -1282.7854 10 1.9353866e-39
4487.4907 -1296.3796 10 2.5821867e-39
4482.6426 -1305.1257 10 2.5807644e-39
4473.8965 -1300.2777 10 1.938269e-39
4469.0483 -1309.0239 10 2.5811063e-39
4464.2002 -1317.77 10 2.3041663e-39
4455.4541 -1312.922 10 2.2123322e-39
4441.8599 -1316.8201 10 2.0283081e-39
4437.0117 -1325.5663 10 2.3041677e-39
4440.9097 -1339.1606 10 2.0290171e-39
4440.9097 -1339.1606 10 2.4889149e-39
4436.0615 -1347.9067 10 1.7517226e-39
4422.4673 -1351.8049 10 1.9364586e-39
4422.4673 -1351.8049 10 2.1219344e-39
4417.6191 -1360.551 10 2.2116133e-39
4412.7715 -1369.2974 10 2.3974395e-39
4407.9233 -1378.0435 10 2.5811147e-39
4399.1768 -1373.1953 10 2.5796854e-39
4394.3291 -1381.9417 20 1.7517226e-39
4389.481 -1390.6877 10 1.7509967e-39
4393.3789 -1404.2821 10 1.5680418e-39
4388.5308 -1413.0283 10 1.5673285e-39
4720.2305 -1928.4651 -50 5.437373e-39
4740.6714 -1974.0961 -60 6.2667721e-39
4723.1787 -1964.3999 -50 6.6380671e-39
4628.8706 -1866.3899 -40 5.0722114e-39
4658.0571 -1916.869 -40 3.8743632e-39
4649.311 -1912.0209 -40 3.6892545e-39
4631.8188 -1902.3247 -40 2.8577044e-39
5185.1572 -574.04889 -30 5.8032576e-39
5193.9033 -578.89697 -30 8.1992453e-39
5197.8013 -592.49127 -30 8.5748662e-39
5192.9531 -601.23743 -30 7.468897e-39
5165.7646 -609.03363 -30 6.8213752e-39
5219.1919 -615.78174 -30 7.0039532e-39
5259.0249 -626.42792 -40 7.2801757e-39
5321.1982 -638.02411 -50 7.0053881e-39
5361.0312 -648.67029 -50 7.3727301e-39
5387.2695 -663.21454 -60 6.9139169e-39
5396.0156 -668.06262 -60 7.2816177e-39
5399.9141 -681.65692 -60 7.8311929e-39
5417.4062 -691.35315 -60 7.9240962e-39
5430.0508 -709.79553 -70 7.9222997e-39
5492.2241 -721.39166 -70 8.0155786e-39
5513.6143 -744.68219 -80 7.9248207e-39
5531.1069 -754.37836 -80 7.5581989e-39
5512.6646 -767.02264 -80 7.9244591e-39
6251.8989 -856.64764 -180 7.8326362e-39
6242.2026 -874.14001 -180 8.2006747e-39
6129.5503 -891.73059 -170 8.7534897e-39
6111.1079 -904.37488 -170 9.1201226e-39
6079.0713 -920.9173 -160 8.8453364e-39
6060.6289 -933.56158 -160 9.0279298e-39
6042.1865 -946.20587 -160 3.9640309e-39
6023.7441 -958.85022 -160 3.6885258e-39
5987.8091 -961.79834 -160 3.7807117e-39
5964.5186 -983.18884 -150 3.3211797e-39
5959.6709 -991.935 -150 3.594538e-39
6020.894 -1025.8717 -160 2.9523999e-39
6708.6992 -1167.0239 -260 3.2257554e-39
6694.1553 -1193.2625 -260 2.3034418e-39
6662.1182 -1209.8049 -260 8.1077616e-39
6643.6758 -1222.4492 -260 8.2917997e-39
6580.5527 -1233.1935 -250 9.5810756e-39
6610.6895 -1261.332 -250 1.0130658e-38
6640.8262 -1289.4707 -260 9.5814469e-39
6498.0371 -1278.9226 -240 9.4002828e-39
6417.4209 -1279.9707 -230 9.6747089e-39
6398.9785 -1292.615 -230 9.8587415e-39
6375.6885 -1314.0055 -230 1.0318285e-38
6388.3325 -1332.4479 -230 9.8598233e-39
6378.6362 -1349.9403 -230 1.0777815e-38
6426.2656 -1387.775 -240 1.0321169e-38
6465.1484 -1420.7617 -250 1.1422464e-38
6504.0312 -1453.7484 -250 1.1426776e-38
6520.5732 -1485.7852 -260 1.1610094e-38
6528.3701 -1512.9736 -260 1.2068197e-38
6536.166 -1540.1622 -260 1.1791981e-38
6552.7085 -1572.199 -270 1.2621358e-38
6609.084 -1614.8818 -280 1.2625677e-38
6665.459 -1657.5647 -290 1.2896874e-38
6673.2549 -1684.7532 -290 1.335892e-38
6641.2188 -1701.2957 -290 9.6761635e-39
6574.1973 -1698.4457 -280 1.0321171e-38
6515.9219 -1700.4437 -270 1.0873629e-38
6448.9004 -1697.5938 -270 1.0137506e-38
6373.1328 -1689.8958 -250 1.096582e-38
6231.2935 -1657.0072 -230 1.1056577e-38
6164.272 -1654.1572 -230 1.1056936e-38
6093.3525 -1637.7129 -220 1.0322612e-38
6008.8389 -1625.1667 -200 1.0414453e-38
5933.0708 -1617.4688 -190 1.0044953e-38
5827.1665 -1581.6321 -180 1.0689245e-38
5764.9932 -1570.0359 -170 1.0781806e-38
5706.7178 -1572.0341 -160 1.041337e-38
5627.0522 -1550.7417 -150 1.0232207e-38
5587.2192 -1540.0955 -140 1.1149856e-38
5472.5684 -1499.4108 -130 1.0875075e-38
5445.3799 -1507.207 -120 1.0505574e-38
5440.5322 -1515.9531 -120 1.0691389e-38
5422.0898 -1528.5974 -120 1.1059106e-38
5408.4951 -1532.4956 -120 1.4006477e-38
5363.8145 -1530.5956 -120 9.3988633e-39
5332.7275 -1524.7975 -110 1.2997368e-38
5305.5391 -1532.5938 -110 1.2626085e-38
5288.0469 -1522.8975 -100 1.2993782e-38
5239.4678 -1507.4033 -100 1.1797039e-38
4971.2837 -1393.0471 -60 1.0229716e-38
4957.6895 -1396.9452 -60 8.753145e-39
4952.8408 -1405.6914 -60 9.7676388e-39
4947.9932 -1414.4375 -60 1.2718597e-38
4951.8911 -1428.0319 -60 1.4839455e-38
4929.5508 -1427.0819 -50 1.0504135e-38
4933.4487 -1440.6761 -50 1.0967964e-38
4923.7524 -1458.1686 -60 1.2901193e-38
4918.9043 -1466.9148 -60 1.2167243e-38
4723.54 -1324.3219 -20 1.1705559e-38
4727.438 -1337.9163 -20 1.2349101e-38
4705.0977 -1336.9662 -20 2.0557727e-38
4691.5034 -1340.8643 -20 2.3135991e-38
4665.2646 -1326.3201 -10 2.2953396e-38
4651.6704 -1330.2181 -10 2.221943e-38
4646.8223 -1338.9644 -10 2.1483667e-38
4650.7207 -1352.5586 -10 2.1111296e-38
4637.126 -1356.4568 -10 2.1215757e-39
4515.6294 -1266.2429 0 1.4744056e-39
4502.0352 -1270.141 0 2.48711e-39
4505.9331 -1283.7354 0 4.0587699e-39
4497.187 -1278.8872 0 2.674025e-39
4492.3389 -1287.6334 0 1.8442755e-39
4487.4907 -1296.3796 0 2.3974451e-39
4482.6426 -1305.1257 0 2.5807504e-39
4473.8965 -1300.2777 0 2.39565e-39
4469.0483 -1309.0239 0 2.4885505e-39
4464.2002 -1317.77 0 2.1215715e-39
4455.4541 -1312.922 0 1.8442685e-39
4450.606 -1321.6682 10 2.1201422e-39
4445.7578 -1330.4144 10 1.8446315e-39
4440.9097 -1339.1606 10 2.3988814e-39
4440.9097 -1339.1606 10 1.936467e-39
4436.0615 -1347.9067 10 2.2123364e-39
4422.4673 -1351.8049 10 2.8576932e-39
4422.4673 -1351.8049 10 2.3038131e-39
4417.6191 -1360.551 10 2.3063313e-39
4412.7715 -1369.2974 10 2.7629948e-39
4412.7715 -1369.2974 10 2.0279381e-39
4399.1768 -1373.1953 10 1.8446287e-39
4394.3291 -1381.9417 10 1.842835e-39
4394.3291 -1381.9417 10 2.3070445e-39
4380.7344 -1385.8397 10 1.5676816e-39
4711.4844 -1923.6171 -60 1.5662439e-39
4753.3154 -1992.5385 -70 1.6591584e-39
4748.4673 -2001.2847 -70 2.5789483e-39
4627.9209 -1888.7303 -50 3.2250324e-39
4610.4282 -1879.0342 -40 4.8795202e-39
5185.1572 -574.04889 -40 5.4362729e-39
5202.6494 -583.74506 -40 7.7411413e-39
5211.3955 -588.59314 -40 9.3992235e-39
5201.6992 -606.08557 -40 1.0319743e-38
5174.5107 -613.88177 -40 8.2035866e-39
5219.1919 -615.78174 -40 7.0057468e-39
5245.4307 -630.32599 -50 7.7379253e-39
5285.2637 -640.97217 -50 7.3723714e-39
5307.604 -641.92218 -60 7.1879801e-39
5311.502 -655.51648 -60 7.1876158e-39
5306.6538 -664.2627 -60 7.3727301e-39
5408.6602 -686.505 -70 7.6485981e-39
5448.4932 -697.15125 -80 7.8308328e-39
5452.3911 -710.74548 -80 8.0159387e-39
5504.8682 -739.83411 -90 7.834067e-39
5495.1719 -757.32648 -90 8.1088448e-39
5512.6646 -767.02264 -90 8.0159443e-39
6243.1523 -851.79956 -200 8.1999642e-39
6211.1162 -868.34198 -190 8.0198777e-39
6143.1445 -887.83252 -190 8.9378908e-39
6111.1079 -904.37488 -180 7.9255297e-39
6070.3252 -916.06921 -180 9.030071e-39
6051.8828 -928.7135 -180 7.9269759e-39
6042.1865 -946.20587 -180 7.2819512e-39
6032.4902 -963.69824 -180 7.2826686e-39
6005.3018 -971.49451 -170 6.5444001e-39
5995.6055 -988.98688 -170 6.0834374e-39
6008.25 -1007.4293 -180 6.6337259e-39
6034.4883 -1021.9735 -180 6.7284285e-39
6530.9253 -1137.0835 -260 6.8209716e-39
6512.4829 -1149.7278 -260 4.6147869e-39
6511.5332 -1172.0682 -260 4.1527382e-39
6528.0752 -1204.105 -260 3.5106072e-39
6531.9736 -1217.6992 -260 3.4184045e-39
6517.4292 -1243.9377 -260 3.3265592e-39
6547.5659 -1272.0764 -270 3.2347279e-39
6449.458 -1263.4282 -260 3.5105904e-39
6386.334 -1274.1726 -250 4.339635e-39
6376.6382 -1291.665 -250 4.0626922e-39
6366.9419 -1309.1575 -250 3.5113134e-39
6365.9922 -1331.4979 -250 3.0510556e-39
6338.8037 -1339.2942 -250 3.1432526e-39
6355.3457 -1371.3308 -250 3.2354496e-39
6394.2285 -1404.3174 -260 3.235451e-39
6455.4521 -1438.2542 -270 3.234379e-39
6520.5732 -1485.7852 -280 2.9574278e-39
6528.3701 -1512.9736 -290 3.0510626e-39
6527.4199 -1535.3142 -290 3.2343706e-39
6517.7236 -1552.8065 -290 3.2350923e-39
6582.8447 -1600.3375 -300 3.1432638e-39
6625.626 -1646.9185 -310 3.6953474e-39
6598.4375 -1654.7147 -300 3.4191234e-39
6575.147 -1676.1052 -300 1.041084e-38
6516.8721 -1678.1033 -300 1.0136057e-38
6467.3428 -1684.9495 -290 1.0688871e-38
6409.0674 -1686.9476 -280 1.059776e-38
6324.5537 -1674.4015 -270 1.0873974e-38
6222.5474 -1652.1591 -250 1.0783583e-38
6146.7793 -1644.4611 -240 1.0689591e-38
6071.0117 -1636.7629 -230 1.0413367e-38
6000.0923 -1620.3187 -220 1.0504493e-38
5941.8174 -1622.3169 -210 1.0965823e-38
5870.8975 -1605.8726 -200 1.0873992e-38
5773.7393 -1574.884 -190 1.0965111e-38
5729.0586 -1572.984 -180 1.0505193e-38
5635.7983 -1555.5898 -170 1.0782867e-38
5595.9653 -1544.9436 -160 1.0322978e-38
5472.5684 -1499.4108 -140 1.0597035e-38
5454.126 -1512.0551 -140 1.0780717e-38
5440.5322 -1515.9531 -140 9.8663225e-39
5430.8359 -1533.4456 -140 1.105839e-38
5408.4951 -1532.4956 -140 1.4099387e-38
5363.8145 -1530.5956 -130 8.7588861e-39
5332.7275 -1524.7975 -130 1.3641643e-38
5305.5391 -1532.5938 -120 1.327144e-38
5279.3003 -1518.0494 -120 1.2349486e-38
5248.2139 -1512.2513 -110 1.1797387e-38
4980.9795 -1375.5547 -70 1.0965837e-38
4971.2837 -1393.0471 -70 1.0045327e-38
4957.6895 -1396.9452 -70 8.6623857e-39
4952.8408 -1405.6914 -70 9.7672815e-39
4947.9932 -1414.4375 -70 1.3271762e-38
4951.8911 -1428.0319 -70 1.538795e-38
4929.5508 -1427.0819 -70 1.0688872e-38
4933.4487 -1440.6761 -70 1.1149497e-38
4928.6006 -1449.4224 -70 1.2808291e-38
4918.9043 -1466.9148 -70 1.2533854e-38
4914.0566 -1475.6609 -70 1.2165083e-38
4727.438 -1337.9163 -30 1.2258354e-38
4696.3516 -1332.1182 -30 2.0649935e-38
4674.0107 -1331.1681 -20 2.2861907e-38
4665.2646 -1326.3201 -20 2.25857e-38
4651.6704 -1330.2181 -20 2.2127946e-38
4646.8223 -1338.9644 -20 2.1575501e-38
4650.7207 -1352.5586 -20 2.0558126e-38
4637.126 -1356.4568 -20 3.780011e-39
4589.4971 -1318.6219 -10 3.7796705e-39
4515.6294 -1266.2429 0 2.119066e-39
4502.0352 -1270.141 0 2.6733061e-39
4505.9331 -1283.7354 0 5.4402498e-39
4492.3389 -1287.6334 0 2.3052509e-39
4492.3389 -1287.6334 0 2.3967178e-39
4487.4907 -1296.3796 0 2.1201408e-39
4482.6426 -1305.1257 0 2.2116133e-39
4477.7944 -1313.8721 0 1.7520729e-39
4469.0483 -1309.0239 0 2.0286612e-39
4464.2002 -1317.77 0 2.0283011e-39
4455.4541 -1312.922 0 2.0279451e-39
4450.606 -1321.6682 0 1.9375474e-39
4445.7578 -1330.4144 0 2.0268675e-39
4440.9097 -1339.1606 0 2.212342e-39
4440.9097 -1339.1606 0 2.2116161e-39
4436.0615 -1347.9067 0 2.3063201e-39
4422.4673 -1351.8049 0 2.3967304e-39
4422.4673 -1351.8049 0 2.0290185e-39
4417.6191 -1360.551 0 2.1197792e-39
4412.7715 -1369.2974 0 2.0282997e-39
4404.0249 -1364.4492 0 2.2116175e-39
4399.1768 -1373.1953 0 1.9357481e-39
4394.3291 -1381.9417 0 2.2152118e-39
4394.3291 -1381.9417 0 3.1332137e-39
4334.0557 -1325.6644 10 1.6591654e-39
4337.9536 -1339.2588 10 1.5676872e-39
4345.75 -1366.4473 10 1.5684019e-39
4711.4844 -1923.6171 -70 1.7506408e-39
4740.6714 -1974.0961 -80 1.1070734e-39
4748.4673 -2001.2847 -80 1.2903829e-39
5185.1572 -574.04889 -50 4.9738627e-39
5202.6494 -583.74506 -50 7.8326264e-39
5211.3955 -588.59314 -50 9.3055803e-39
5206.5479 -597.33936 -50 9.9545496e-39
5179.3589 -605.13556 -50 8.4790818e-39
5219.1919 -615.78174 -50 7.097225e-39
5236.6846 -625.47791 -60 7.3727357e-39
5262.9229 -640.02222 -60 7.2798198e-39
5258.0747 -648.76843 -60 7.554613e-39
5266.8213 -653.61652 -60 7.371298e-39
5418.3564 -669.01263 -90 7.9223067e-39
5444.5947 -683.55695 -90 7.0043119e-39
5462.0874 -693.25311 -90 7.3723699e-39
5457.2393 -701.99933 -90 7.6464387e-39
5482.5278 -738.88409 -100 7.8322621e-39
5472.8315 -756.37646 -100 8.1095707e-39
5499.0703 -770.92078 -100 8.109935e-39
5997.4072 -841.34967 -180 8.3847114e-39
6112.0576 -882.03442 -200 8.1106398e-39
6111.1079 -904.37488 -200 8.5683782e-39
6079.0713 -920.9173 -200 8.4765581e-39
6060.6289 -933.56158 -200 8.2957486e-39
6055.7808 -942.30774 -200 9.0289836e-39
6046.0845 -959.80017 -200 9.3048418e-39
6014.0479 -976.34259 -190 9.1197345e-39
6088.8652 -1006.3811 -210 9.2119287e-39
6092.7637 -1019.9755 -210 8.6612913e-39
6145.2407 -1049.064 -220 9.1251211e-39
6126.7983 -1061.7083 -220 8.4815677e-39
6223.9565 -1092.6969 -230 8.4797755e-39
6418.2729 -1154.674 -260 8.7552778e-39
6439.6631 -1177.9644 -270 8.9385886e-39
6461.0537 -1201.2549 -270 9.7665388e-39
6446.5098 -1227.4935 -270 9.6747201e-39
6436.8135 -1244.9858 -270 9.1258498e-39
6427.1172 -1262.4783 -270 9.765471e-39
6368.8418 -1264.4764 -270 9.5828804e-39
6367.8916 -1286.8169 -270 9.950584e-39
6366.9419 -1309.1575 -270 1.0317922e-38
6357.2461 -1326.6498 -270 9.8583869e-39
6347.5498 -1344.1422 -270 1.0502312e-38
6329.1074 -1356.7865 -270 1.049981e-38
6354.3955 -1393.6713 -270 9.6739943e-39
6367.04 -1412.1136 -280 9.7697814e-39
6405.9229 -1445.1003 -280 1.087109e-38
6404.9727 -1467.4408 -290 1.0411917e-38
6447.7539 -1514.0217 -300 1.1240961e-38
6469.1445 -1537.3123 -300 1.0594516e-38
6525.5195 -1579.9951 -310 1.1790183e-38
6542.0625 -1612.0317 -320 1.1699058e-38
6541.1123 -1634.3723 -320 1.1424271e-38
6526.5679 -1660.6108 -320 1.0875767e-38
6459.5464 -1657.7609 -310 9.8612568e-39
6401.2715 -1659.759 -300 1.0321176e-38
6356.5898 -1657.859 -290 1.0321889e-38
6258.4819 -1649.2109 -280 1.0873269e-38
6196.3086 -1637.6147 -270 1.0689592e-38
6146.7793 -1644.4611 -260 1.1148045e-38
6071.0117 -1636.7629 -250 1.0690687e-38
5991.3462 -1615.4706 -240 1.0599562e-38
5941.8174 -1622.3169 -230 1.0690318e-38
5888.3896 -1615.5687 -230 1.0873263e-38
5799.978 -1589.4282 -210 1.1057659e-38
5746.5508 -1582.6802 -200 1.08747e-38
5658.1387 -1556.5398 -190 1.0964386e-38
5604.7114 -1549.7917 -180 1.0689241e-38
5490.061 -1509.1069 -160 1.1423207e-38
5454.126 -1512.0551 -160 1.0507e-38
5440.5322 -1515.9531 -160 1.0231135e-38
5430.8359 -1533.4456 -160 1.0598843e-38
5417.2412 -1537.3436 -150 1.3087754e-38
5372.5605 -1535.4436 -150 8.756368e-39
5332.7275 -1524.7975 -140 1.2906238e-38
5305.5391 -1532.5938 -140 1.2535671e-38
5279.3003 -1518.0494 -130 1.244096e-38
5256.96 -1517.0994 -130 1.188781e-38
4972.2334 -1370.7065 -80 1.0138963e-38
4971.2837 -1393.0471 -80 9.8620065e-39
4957.6895 -1396.9452 -80 9.2141245e-39
4952.8408 -1405.6914 -80 9.307395e-39
4947.9932 -1414.4375 -80 1.2904424e-38
4951.8911 -1428.0319 -80 1.5663833e-38
4929.5508 -1427.0819 -80 9.7694507e-39
4933.4487 -1440.6761 -80 1.068959e-38
4928.6006 -1449.4224 -80 1.2625701e-38
4918.9043 -1466.9148 -80 1.21658e-38
4914.0566 -1475.6609 -80 1.2533487e-38
4909.208 -1484.4072 -80 1.1886708e-38
4678.8589 -1322.4219 -30 2.0007451e-38
4670.1128 -1317.5739 -30 2.1760278e-38
4656.5186 -1321.4719 -30 2.2309828e-38
4651.6704 -1330.2181 -30 2.1295313e-38
4646.8223 -1338.9644 -30 2.0832545e-38
4641.9741 -1347.7104 -30 1.9913471e-38
4637.126 -1356.4568 -30 3.777137e-39
4580.751 -1313.7739 -20 2.7651514e-39
4567.1567 -1317.6719 -20 5.2508055e-39
4523.4258 -1293.4315 -10 6.3665081e-39
4514.6792 -1288.5834 -10 3.6838637e-39
4509.8311 -1297.3296 -10 2.3048879e-39
4496.2368 -1301.2278 -10 2.2108902e-39
4496.2368 -1301.2278 0 1.6591598e-39
4482.6426 -1305.1257 0 1.8424819e-39
4477.7944 -1313.8721 0 1.5658852e-39
4469.0483 -1309.0239 0 1.6605947e-39
4472.9463 -1322.6182 0 1.7531519e-39
4459.3521 -1326.5164 0 1.936104e-39
4459.3521 -1326.5164 0 2.2116091e-39
4445.7578 -1330.4144 0 2.0290255e-39
4440.9097 -1339.1606 0 2.3960046e-39
4440.9097 -1339.1606 0 2.3967234e-39
4436.0615 -1347.9067 0 2.7633452e-39
4422.4673 -1351.8049 0 2.0282983e-39
4422.4673 -1351.8049 0 2.3056068e-39
4417.6191 -1360.551 0 2.672953e-39
4412.7715 -1369.2974 0 1.7524372e-39
4407.9233 -1378.0435 0 1.8453517e-39
4399.1768 -1373.1953 0 2.4928735e-39
4394.3291 -1381.9417 0 3.9640604e-39
4385.5825 -1377.0935 0 1.7524414e-39
4342.8018 -1330.5125 0 1.4751329e-39
4337.9536 -1339.2588 0 1.5673299e-39
4358.394 -1384.8896 0 1.8435539e-39
4669.6533 -1854.6956 -70 2.0265046e-39
4702.7383 -1918.7689 -80 1.5655264e-39
5198.7515 -570.15076 -60 3.6831379e-39
5202.6494 -583.74506 -60 7.0954229e-39
5211.3955 -588.59314 -60 7.2826897e-39
5201.6992 -606.08557 -60 9.9520315e-39
5174.5107 -613.88177 -60 8.5734383e-39
5219.1919 -615.78174 -60 6.8209996e-39
5245.4307 -630.32599 -70 7.0053909e-39
5262.9229 -640.02222 -70 7.3712881e-39
5271.6689 -644.8703 -70 7.1883514e-39
5275.5674 -658.4646 -80 7.2783835e-39
5284.3135 -663.31268 -80 7.1894206e-39
5435.8486 -678.7088 -100 7.003593e-39
5479.5796 -702.94928 -110 7.1876242e-39
5465.9854 -706.84741 -110 7.4642125e-39
5461.1372 -715.59363 -110 7.8326264e-39
5487.376 -730.13788 -110 7.9255437e-39
5482.5278 -738.88409 -110 8.4769112e-39
5495.1719 -757.32648 -120 7.8326264e-39
6117.856 -850.94769 -220 8.3832737e-39
6139.2461 -874.23816 -220 8.9368048e-39
6112.0576 -882.03442 -220 8.5691013e-39
6111.1079 -904.37488 -220 8.2939535e-39
6079.0713 -920.9173 -220 8.3872281e-39
6074.2231 -929.66345 -210 8.6609382e-39
6055.7808 -942.30774 -210 9.0300668e-39
6046.0845 -959.80017 -210 9.764392e-39
6014.0479 -976.34259 -210 9.2119427e-39
6000.4536 -980.24072 -210 8.9350083e-39
6030.5898 -1008.3793 -220 8.0173792e-39
6314.2686 -1074.1564 -260 8.9375236e-39
6295.8262 -1086.8007 -260 8.6648982e-39
6286.1299 -1104.293 -260 9.4957043e-39
6285.1797 -1126.6335 -260 9.9548789e-39
6284.23 -1148.974 -260 1.0319706e-38
6265.7876 -1161.6183 -260 1.0224656e-38
6247.3452 -1174.2627 -260 1.0224308e-38
6255.1416 -1201.4512 -260 1.0502682e-38
6267.7856 -1219.8936 -270 9.4910562e-39
6249.3433 -1232.5378 -270 9.6772341e-39
6257.1396 -1259.7264 -270 1.1147678e-38
6296.0225 -1292.7131 -280 1.0781766e-38
6308.667 -1311.1555 -280 1.0779626e-38
6307.7168 -1333.4961 -280 1.0871819e-38
6275.6797 -1350.0385 -280 1.1883447e-38
6270.832 -1358.7847 -280 1.1697981e-38
6256.2876 -1385.0232 -280 1.0872166e-38
6220.3525 -1387.9713 -270 1.1242393e-38
6285.4746 -1435.5022 -290 1.124204e-38
6275.7783 -1452.9946 -290 1.1518977e-38
6323.4072 -1490.8295 -300 1.1701209e-38
6503.1792 -1579.0452 -330 1.1796996e-38
6510.9756 -1606.2336 -340 1.1705172e-38
6483.7871 -1614.0299 -330 1.2441655e-38
6500.3291 -1646.0667 -340 1.326889e-38
6415.8154 -1633.5205 -320 1.3177786e-38
6357.54 -1635.5186 -310 1.2903717e-38
6281.7725 -1627.8206 -300 1.013857e-38
6223.4971 -1629.8186 -290 1.1057659e-38
6173.9683 -1636.6648 -290 1.0597048e-38
6129.2871 -1634.7649 -280 1.1058376e-38
6036.0273 -1617.3706 -270 1.1149133e-38
5982.5996 -1610.6226 -260 1.0781789e-38
5924.3247 -1612.6206 -250 1.0506647e-38
5870.8975 -1605.8726 -240 1.0598488e-38
5791.2314 -1584.5802 -230 1.1240977e-38
5746.5508 -1582.6802 -220 1.0045317e-38
5675.6309 -1566.236 -210 1.0781079e-38
5613.458 -1554.6398 -200 9.5861399e-39
5542.5381 -1538.1956 -190 1.0138589e-38
5462.8726 -1516.9031 -170 1.078215e-38
5458.0244 -1525.6494 -170 1.0412662e-38
5439.582 -1538.2937 -170 1.0875071e-38
5412.3936 -1546.0898 -170 1.2812254e-38
5372.5605 -1535.4436 -160 9.3063034e-39
5332.7275 -1524.7975 -150 1.3453309e-38
5305.5391 -1532.5938 -150 1.2815494e-38
5288.0469 -1522.8975 -150 1.2164739e-38
5265.7061 -1521.9475 -150 1.2163669e-38
4972.2334 -1370.7065 -90 1.0505221e-38
4971.2837 -1393.0471 -90 9.4925149e-39
4957.6895 -1396.9452 -90 8.7560121e-39
4952.8408 -1405.6914 -90 9.8598373e-39
4947.9932 -1414.4375 -90 1.3638745e-38
4951.8911 -1428.0319 -90 1.5113881e-38
4929.5508 -1427.0819 -90 1.0046033e-38
4933.4487 -1440.6761 -90 1.0783945e-38
4928.6006 -1449.4224 -90 1.2073247e-38
4910.1582 -1462.0667 -90 1.2349111e-38
4914.0566 -1475.6609 -90 1.1703395e-38
4900.4619 -1479.5591 -90 1.2164357e-38
4670.1128 -1317.5739 -40 2.009533e-38
4670.1128 -1317.5739 -40 2.1574045e-38
4665.2646 -1326.3201 -40 2.102125e-38
4660.4165 -1335.0662 -40 2.1385003e-38
4655.5684 -1343.8125 -40 2.0556332e-38
4650.7207 -1352.5586 -40 9.8498362e-39
4637.126 -1356.4568 -40 2.1212099e-39
4593.395 -1332.2163 -30 3.5934646e-39
4567.1567 -1317.6719 -30 3.5041542e-39
4540.918 -1303.1277 -20 3.9633247e-39
4523.4258 -1293.4315 -20 1.8428364e-39
4509.8311 -1297.3296 -20 2.0265004e-39
4504.9834 -1306.0758 -10 1.4758489e-39
4496.2368 -1301.2278 -10 1.8428322e-39
4491.3887 -1309.9739 -10 1.475486e-39
4486.541 -1318.7201 -10 1.6595171e-39
4477.7944 -1313.8721 -10 1.5680474e-39
4472.9463 -1322.6182 -10 1.9357397e-39
4468.0986 -1331.3644 -10 1.7520757e-39
4454.5039 -1335.2625 -10 1.8431895e-39
4454.5039 -1335.2625 -10 2.3052453e-39
4440.9097 -1339.1606 -10 2.0283011e-39
4440.9097 -1339.1606 -10 2.212328e-39
4436.0615 -1347.9067 -10 2.1190646e-39
4422.4673 -1351.8049 -10 2.2123294e-39
4422.4673 -1351.8049 -10 2.3970836e-39
4417.6191 -1360.551 -10 2.2116175e-39
4412.7715 -1369.2974 -10 2.6736705e-39
4404.0249 -1364.4492 -10 3.2275589e-39
4399.1768 -1373.1953 0 3.1339396e-39
4390.4307 -1368.3473 0 3.5906017e-39
4385.5825 -1377.0935 0 1.8431923e-39
4342.8018 -1330.5125 0 1.5669712e-39
4337.9536 -1339.2588 0 1.8446287e-39
4460.4985 -1510.0884 -30 1.1985488e-39
4464.3965 -1523.6826 -30 1.2903801e-39
4631.7207 -1799.3684 -70 1.1067119e-39
4648.2632 -1831.4052 -80 1.1992593e-39
5212.3457 -566.25269 -70 5.8068617e-39
5207.4976 -574.99884 -70 4.7948636e-39
5211.3955 -588.59314 -70 7.3698532e-39
5211.3955 -588.59314 -70 8.8471455e-39
5201.6992 -606.08557 -70 1.0778196e-38
5179.3589 -605.13556 -70 8.7553128e-39
5205.5977 -619.67981 -70 7.2798254e-39
5245.4307 -630.32599 -80 7.1879731e-39
5285.2637 -640.97217 -90 7.2787422e-39
5280.415 -649.71838 -90 7.0965005e-39
5297.9077 -659.41461 -90 7.6482394e-39
5293.0596 -668.16077 -90 7.6482338e-39
5422.2544 -682.60693 -110 7.7400721e-39
5470.8335 -698.1012 -120 8.2950367e-39
5457.2393 -701.99933 -120 8.3854457e-39
5461.1372 -715.59363 -120 7.7400707e-39
5509.7163 -731.08789 -130 7.5567612e-39
5504.8682 -739.83411 -130 7.4649131e-39
5989.6113 -814.16107 -210 7.5585493e-39
5971.1689 -826.80536 -210 7.7400693e-39
5975.0664 -840.39966 -210 8.1077686e-39
5978.9648 -853.99396 -210 8.8453308e-39
6013.9497 -873.38635 -220 8.2921542e-39
6048.9346 -892.77869 -230 8.5683852e-39
6030.4922 -905.42297 -220 8.2928773e-39
6020.7959 -922.91541 -220 8.9375222e-39
6019.8457 -945.25586 -230 9.4942721e-39
6023.7441 -958.85022 -230 1.0044919e-38
6005.3018 -971.49451 -230 9.3052286e-39
6017.9458 -989.93689 -230 9.1240827e-39
6021.8438 -1003.5311 -230 1.0230408e-38
6323.0146 -1079.0044 -280 1.1056902e-38
6303.6221 -1113.9893 -290 9.9480911e-39
6307.5205 -1127.5835 -290 1.0966178e-38
6297.8242 -1145.0759 -290 1.1240953e-38
6274.5337 -1166.4664 -290 1.0778545e-38
6256.0913 -1179.1107 -280 1.0228616e-38
6255.1416 -1201.4512 -280 9.9570622e-39
6227.9531 -1209.2473 -280 1.1977068e-38
6227.0029 -1231.5879 -280 1.1146254e-38
6217.3066 -1249.0803 -280 1.1423929e-38
6269.7837 -1278.1689 -290 1.1335667e-38
6189.168 -1279.217 -280 1.1886671e-38
6210.5586 -1302.5074 -290 1.1609026e-38
6161.0293 -1309.3538 -280 1.2805427e-38
6062.9214 -1300.7056 -260 1.1890993e-38
6044.479 -1313.3499 -260 1.2535634e-38
5869.6533 -1319.3442 -230 1.3361797e-38
5807.4795 -1307.748 -220 1.4373791e-38
5815.2759 -1334.9368 -230 1.4190842e-38
5854.1587 -1367.9233 -240 1.5296102e-38
6548.9082 -1661.5609 -370 1.4010052e-38
6217.6011 -1557.949 -310 1.5480853e-38
6234.1436 -1589.9857 -320 1.4652895e-38
6198.209 -1592.9338 -310 8.7545757e-39
6174.918 -1614.3243 -310 7.4631292e-39
6130.2373 -1612.4243 -300 1.0964011e-38
6080.708 -1619.2705 -290 1.0966535e-38
6009.7886 -1602.8263 -280 1.1609393e-38
5960.2598 -1609.6726 -270 1.1704451e-38
5906.832 -1602.9244 -270 1.0692106e-38
5844.6592 -1591.3282 -250 1.0691031e-38
5782.4854 -1579.7322 -240 1.1242759e-38
5746.5508 -1582.6802 -240 9.9549056e-39
5693.1235 -1575.9321 -230 1.0781428e-38
5630.9502 -1564.3359 -220 1.0781438e-38
5595.0156 -1567.2841 -210 1.0780003e-38
5524.0957 -1550.8398 -200 1.0598125e-38
5475.5166 -1535.3455 -190 1.0874351e-38
5448.3281 -1543.1417 -190 1.0875427e-38
5421.1396 -1550.938 -190 1.3824593e-38
5372.5605 -1535.4436 -180 9.5857615e-39
5323.9814 -1519.9495 -170 1.31796e-38
5296.793 -1527.7456 -160 1.2447067e-38
5288.0469 -1522.8975 -160 1.2350193e-38
5269.6045 -1535.5417 -160 1.1520812e-38
4980.9795 -1375.5547 -100 9.4964582e-39
4971.2837 -1393.0471 -100 9.9498945e-39
4966.4355 -1401.7932 -100 8.5716306e-39
4952.8408 -1405.6914 -100 9.4921338e-39
4947.9932 -1414.4375 -100 1.3179938e-38
4951.8911 -1428.0319 -100 1.5022395e-38
4929.5508 -1427.0819 -100 1.0227537e-38
4933.4487 -1440.6761 -100 1.1244191e-38
4928.6006 -1449.4224 -100 1.2439514e-38
4918.9043 -1466.9148 -100 1.1887059e-38
4914.0566 -1475.6609 -100 1.1334251e-38
4900.4619 -1479.5591 -100 1.1059476e-38
4670.1128 -1317.5739 -50 2.0279367e-38
4665.2646 -1326.3201 -50 2.1751983e-38
4665.2646 -1326.3201 -50 2.1115239e-38
4660.4165 -1335.0662 -50 1.954828e-38
4655.5684 -1343.8125 -50 1.7862525e-38
4650.7207 -1352.5586 -50 2.1201351e-39
4637.126 -1356.4568 -50 2.3041677e-39
4593.395 -1332.2163 -40 2.1208596e-39
4567.1567 -1317.6719 -30 2.0283053e-39
4549.6641 -1307.9758 -30 2.4874757e-39
4527.3237 -1307.0258 -30 1.6591556e-39
4518.5776 -1302.1777 -30 1.4747657e-39
4504.9834 -1306.0758 -20 1.6591598e-39
4496.2368 -1301.2278 -20 1.8424707e-39
4491.3887 -1309.9739 -20 1.6588039e-39
4477.7944 -1313.8721 -20 1.6591612e-39
4477.7944 -1313.8721 -20 1.4751273e-39
4472.9463 -1322.6182 -20 1.6584451e-39
4468.0986 -1331.3644 -20 1.7509911e-39
4454.5039 -1335.2625 -20 1.8424707e-39
4454.5039 -1335.2625 -20 1.9346719e-39
4440.9097 -1339.1606 -20 2.4885491e-39
4440.9097 -1339.1606 -20 2.3041677e-39
4436.0615 -1347.9067 -20 1.476935e-39
4422.4673 -1351.8049 -10 1.7524372e-39
4422.4673 -1351.8049 -10 1.9361124e-39
4417.6191 -1360.551 -10 2.4896365e-39
4404.0249 -1364.4492 -10 2.9495525e-39
4395.2788 -1359.6011 -10 3.8718493e-39
4386.5327 -1354.7529 -10 3.4076426e-39
4372.9385 -1358.6511 -10 1.8457091e-39
4355.4458 -1348.955 0 1.7520757e-39
4346.6997 -1344.1068 0 1.8431965e-39
4359.3442 -1362.5492 0 1.9357481e-39
4460.4985 -1510.0884 -30 1.4747741e-39
4464.3965 -1523.6826 -30 1.0148694e-39
4472.1929 -1550.8712 -40 1.2900242e-39
4636.5688 -1790.6222 -80 1.0148694e-39
4631.7207 -1799.3684 -90 1.0134415e-39
4657.0093 -1836.2532 -90 1.1978229e-39
5440.9561 -2979.6812 -310 1.0145121e-39
5412.8174 -3009.8179 -310 2.119775e-39
5230.7881 -553.60834 -80 9.0344094e-39
5212.3457 -566.25269 -80 5.9901698e-39
5207.4976 -574.99884 -80 6.1731065e-39
5216.2437 -579.84692 -80 6.8174081e-39
5211.3955 -588.59314 -80 8.8471371e-39
5201.6992 -606.08557 -80 9.5864902e-39
5174.5107 -613.88177 -80 9.0344052e-39
5196.8516 -614.83173 -80 7.187627e-39
5223.0898 -629.37604 -90 7.005744e-39
5298.8574 -637.0741 -100 7.3723685e-39
5302.7559 -650.6684 -100 7.4638495e-39
5311.502 -655.51648 -100 8.5694838e-39
5315.4004 -669.11078 -100 8.4765525e-39
5413.5083 -677.75885 -120 7.3734504e-39
5448.4932 -697.15125 -130 7.923027e-39
5457.2393 -701.99933 -130 7.1876242e-39
5438.7969 -714.64362 -130 7.4649271e-39
5487.376 -730.13788 -140 8.0155673e-39
5500.0205 -748.58026 -140 8.0162946e-39
5932.2856 -793.81873 -210 8.0170023e-39
5891.5029 -805.513 -210 7.6529015e-39
5864.3145 -813.3092 -210 8.2003299e-39
5890.5527 -827.85352 -210 7.4659893e-39
5925.5376 -847.24585 -220 8.10777e-39
5946.9282 -870.53638 -230 8.6605752e-39
5973.167 -885.08063 -230 8.4779832e-39
5963.4707 -902.573 -230 9.2137406e-39
5967.3687 -916.16736 -230 9.1219107e-39
5980.0127 -934.60974 -240 9.9531105e-39
6001.4033 -957.90021 -240 1.1978502e-38
5996.5557 -966.64636 -240 1.0869666e-38
5799.5854 -1177.6033 -230 1.3361092e-38
6002.6479 -1244.4285 -270 1.4557099e-38
5767.5488 -1194.1458 -220 1.5104904e-38
5974.5093 -1274.5652 -270 1.5019516e-38
5964.8135 -1292.0576 -270 1.5387569e-38
6003.6963 -1325.0442 -270 1.5755281e-38
5755.9521 -1256.3191 -230 1.5117094e-38
5843.4146 -1304.8 -250 1.474509e-38
5785.1392 -1306.7981 -240 1.594219e-38
5806.5298 -1330.0886 -240 1.5573057e-38
5770.5947 -1333.0367 -240 1.6220578e-38
5791.9854 -1356.3271 -240 1.6312765e-38
5791.0352 -1378.6677 -240 1.7043141e-38
6018.4365 -1504.7181 -290 1.5757439e-38
6092.3042 -1557.0972 -310 9.2137658e-39
6122.4409 -1585.2358 -320 7.834067e-39
6055.4194 -1582.3857 -310 7.5563941e-39
6019.4844 -1585.334 -300 7.7379113e-39
5978.7021 -1597.0282 -290 1.1334942e-38
5951.5132 -1604.8245 -290 1.0782867e-38
5889.3398 -1593.2283 -280 1.0692109e-38
5818.4204 -1576.7839 -270 1.1059447e-38
5773.7393 -1574.884 -260 1.0782511e-38
5737.8047 -1577.832 -250 1.1148775e-38
5675.6309 -1566.236 -240 1.1332456e-38
5630.9502 -1564.3359 -240 1.1058382e-38
5603.7617 -1572.1321 -230 1.0600274e-38
5585.3193 -1584.7765 -230 1.041482e-38
5562.9785 -1583.8264 -230 1.105731e-38
5535.79 -1591.6227 -220 1.0781433e-38
5438.6318 -1560.6342 -200 1.3269987e-38
5390.0527 -1545.1399 -200 9.9523818e-39
5323.9814 -1519.9495 -180 1.336363e-38
5296.793 -1527.7456 -180 1.2350914e-38
5279.3003 -1518.0494 -180 1.1798106e-38
5269.6045 -1535.5417 -170 1.1149884e-38
4989.7261 -1380.4028 -120 1.013644e-38
4971.2837 -1393.0471 -110 8.6645591e-39
4966.4355 -1401.7932 -110 8.664185e-39
4944.0947 -1400.8433 -110 9.5839707e-39
4947.9932 -1414.4375 -110 1.3272501e-38
4951.8911 -1428.0319 -110 1.5296114e-38
4929.5508 -1427.0819 -110 1.0044589e-38
4933.4487 -1440.6761 -110 1.1245273e-38
4928.6006 -1449.4224 -110 1.1889215e-38
4918.9043 -1466.9148 -110 1.1888847e-38
4914.0566 -1475.6609 -110 1.1427882e-38
4909.208 -1484.4072 -110 1.1243133e-38
4670.1128 -1317.5739 -60 1.9636519e-38
4674.0107 -1331.1681 -60 2.1107354e-38
4665.2646 -1326.3201 -60 2.028259e-38
4660.4165 -1335.0662 -60 1.0499177e-38
4655.5684 -1343.8125 -60 3.1314102e-39
4650.7207 -1352.5586 -60 2.3034404e-39
4637.126 -1356.4568 -60 1.750275e-39
4593.395 -1332.2163 -50 2.8562597e-39
4567.1567 -1317.6719 -40 2.3949074e-39
4549.6641 -1307.9758 -40 2.2108846e-39
4527.3237 -1307.0258 -40 1.842828e-39
4518.5776 -1302.1777 -30 1.3825757e-39
4513.7295 -1310.9238 -30 1.8424721e-39
4500.1353 -1314.822 -30 1.6591528e-39
4500.1353 -1314.822 -30 1.7506352e-39
4486.541 -1318.7201 -30 1.5669642e-39
4481.6929 -1327.4663 -30 1.8431825e-39
4481.6929 -1327.4663 -30 1.4758545e-39
4468.0986 -1331.3644 -30 2.0275864e-39
4463.2505 -1340.1106 -30 1.9353838e-39
4454.5039 -1335.2625 -30 1.8435581e-39
4449.6562 -1344.0087 -20 2.2119664e-39
4436.0615 -1347.9067 -20 2.5793154e-39
4436.0615 -1347.9067 -20 1.7520799e-39
4422.4673 -1351.8049 -20 1.8446273e-39
4422.4673 -1351.8049 -20 1.5684103e-39
4408.873 -1355.703 -20 1.6591598e-39
4400.127 -1350.855 -20 1.4729707e-39
4386.5327 -1354.7529 -20 1.4736867e-39
4377.7866 -1349.9049 -10 1.0148694e-39
