# .PCD v0.7 - Point Cloud Data file format
VERSION 0.7
FIELDS x y z rgb
SIZE 4 4 4 4
TYPE F F F F
COUNT 1 1 1 1
WIDTH 178
HEIGHT 1
VIEWPOINT 0 0 0 1 0 0 0
POINTS 178
DATA ascii
4574.0547 -1333.2662 -260 3.0392048e-39
4560.4604 -1337.1643 -260 2.210886e-39
4551.7144 -1332.3163 -260 1.5666026e-39
4546.8662 -1341.0625 -250 1.1067063e-39
4542.0181 -1349.8086 -250 1.1981789e-39
4528.4238 -1353.7068 -250 1.0137932e-39
4528.4238 -1353.7068 -250 1.1974558e-39
4514.8296 -1357.6049 -250 1.1059762e-39
4509.9814 -1366.3511 -240 9.2231223e-40
4501.2354 -1361.5029 -240 1.2893011e-39
4496.3872 -1370.2491 -240 1.1974628e-39
4491.5391 -1378.9954 -240 1.1978215e-39
4486.6909 -1387.7416 -240 1.1063476e-39
4477.9448 -1382.8936 -240 1.0141505e-39
4469.1982 -1378.0454 -230 1.1974614e-39
4464.3506 -1386.7915 -230 1.1978257e-39
4450.7559 -1390.6897 -230 8.2975506e-40
4445.9082 -1399.4358 -230 8.2975787e-40
4441.0601 -1408.1821 -230 9.208801e-40
4432.3135 -1403.334 -230 8.29039e-40
4436.2119 -1416.9282 -230 8.2868307e-40
4440.1099 -1430.5226 -230 6.4501348e-40
4435.2617 -1439.2688 -230 5.5281785e-40
4443.0581 -1466.4573 -240 4.6098235e-40
4455.7021 -1484.8997 -250 6.4536941e-40
4454.7524 -1507.2402 -250 5.5281645e-40
4454.7524 -1507.2402 -260 5.5281505e-40
4458.6504 -1520.8345 -260 6.4572674e-40
4570.1567 -1319.6719 -270 3.5034241e-39
4565.3086 -1328.4182 -270 3.131406e-39
4556.5625 -1323.5701 -260 1.8442559e-39
4551.7144 -1332.3163 -260 1.565881e-39
4546.8662 -1341.0625 -260 1.2892983e-39
4533.272 -1344.9606 -260 1.1988907e-39
4533.272 -1344.9606 -260 1.1971097e-39
4519.6777 -1348.8586 -250 1.0134289e-39
4514.8296 -1357.6049 -250 8.3047953e-40
4509.9814 -1366.3511 -250 1.1974586e-39
4501.2354 -1361.5029 -250 1.1070608e-39
4496.3872 -1370.2491 -250 1.198176e-39
4491.5391 -1378.9954 -250 1.2907374e-39
4486.6909 -1387.7416 -250 1.2892927e-39
4477.9448 -1382.8936 -250 1.0134317e-39
4473.0967 -1391.6396 -250 1.1056287e-39
4459.5024 -1395.5378 -240 1.1063434e-39
4459.5024 -1395.5378 -240 1.0137834e-39
4454.6543 -1404.2839 -240 9.2087169e-40
4449.8062 -1413.0302 -240 8.2975927e-40
4444.958 -1421.7764 -240 1.0127156e-39
4444.958 -1421.7764 -240 5.5424998e-40
4440.1099 -1430.5226 -240 6.4501208e-40
4435.2617 -1439.2688 -240 8.2832574e-40
4447.9062 -1457.7112 -250 7.3684898e-40
4446.9561 -1480.0516 -250 7.3720771e-40
4450.854 -1493.646 -260 8.2832574e-40
4454.7524 -1507.2402 -260 7.372021e-40
4449.9043 -1515.9865 -260 7.3755943e-40
4448.9541 -1538.3269 -270 9.2123463e-40
4435.3599 -1542.2251 -260 1.6598717e-39
4561.4102 -1314.8239 -270 3.3197447e-39
4561.4102 -1314.8239 -270 3.4994613e-39
4547.8159 -1318.7219 -270 1.7506352e-39
4542.9678 -1327.4683 -270 1.5662411e-39
4538.1201 -1336.2144 -260 1.6573563e-39
4529.3735 -1331.3662 -260 1.5655222e-39
4524.5254 -1340.1125 -260 1.6573535e-39
4510.9312 -1344.0105 -260 1.1985404e-39
4506.083 -1352.7568 -260 1.2900157e-39
4506.083 -1352.7568 -260 1.0141491e-39
4501.2354 -1361.5029 -260 1.1056287e-39
4496.3872 -1370.2491 -260 1.3811296e-39
4482.793 -1374.1472 -260 1.1056245e-39
4491.5391 -1378.9954 -260 1.2892997e-39
4477.9448 -1382.8936 -260 1.1981789e-39
4473.0967 -1391.6396 -250 1.1970984e-39
4468.2485 -1400.3859 -250 1.0137876e-39
4468.2485 -1400.3859 -250 1.0141477e-39
4454.6543 -1404.2839 -250 9.219577e-40
4449.8062 -1413.0302 -250 7.3685318e-40
4444.958 -1421.7764 -250 8.30118e-40
4440.1099 -1430.5226 -250 6.4608687e-40
4448.856 -1435.3706 -250 9.208759e-40
4444.0078 -1444.1169 -250 6.4465194e-40
4447.9062 -1457.7112 -260 7.3684057e-40
4438.21 -1475.2036 -260 6.4537361e-40
4442.1079 -1488.7979 -260 8.2939493e-40
4446.0059 -1502.3921 -270 6.4500787e-40
4441.1582 -1511.1383 -270 7.3684477e-40
4448.9541 -1538.3269 -270 1.1967453e-39
4418.8174 -1510.1884 -260 1.8406728e-39
4426.6138 -1537.377 -270 1.1992621e-39
4539.0698 -1313.8739 -270 2.0265018e-39
4534.2217 -1322.6201 -270 2.30236e-39
4534.2217 -1322.6201 -270 3.2232345e-39
4529.3735 -1331.3662 -270 3.3154287e-39
4515.7793 -1335.2644 -270 3.5912982e-39
4510.9312 -1344.0105 -270 3.2225212e-39
4510.9312 -1344.0105 -260 3.4987424e-39
4497.3369 -1347.9087 -260 1.4736895e-39
4492.4888 -1356.6549 -260 1.4729651e-39
4487.6406 -1365.4011 -260 1.1056287e-39
4487.6406 -1365.4011 -260 1.198176e-39
4482.793 -1374.1472 -260 1.2892927e-39
4477.9448 -1382.8936 -260 1.1067007e-39
4473.0967 -1391.6396 -260 1.1056273e-39
4464.3506 -1386.7915 -260 1.2892955e-39
4459.5024 -1395.5378 -260 1.2892983e-39
4454.6543 -1404.2839 -260 9.2123603e-40
4449.8062 -1413.0302 -260 1.012717e-39
4449.8062 -1413.0302 -260 9.2339263e-40
4444.958 -1421.7764 -260 7.3720771e-40
4440.1099 -1430.5226 -260 8.2940194e-40
4444.0078 -1444.1169 -260 6.4537081e-40
4439.1597 -1452.863 -260 6.4465194e-40
4443.0581 -1466.4573 -270 7.3684477e-40
4438.21 -1475.2036 -270 5.5246052e-40
4433.3618 -1483.9497 -270 6.4536521e-40
4428.5137 -1492.6959 -270 5.5317658e-40
4414.9194 -1496.594 -260 1.2903787e-39
4410.0713 -1505.3403 -260 1.751354e-39
4503.1353 -1316.822 -270 3.0388418e-39
4489.541 -1320.7201 -260 2.855175e-39
4484.6929 -1329.4663 -260 3.0388502e-39
4479.8447 -1338.2124 -260 3.499457e-39
4488.5908 -1343.0605 -260 3.8675179e-39
4483.7427 -1351.8068 -270 1.6580752e-39
4478.8945 -1360.553 -270 1.3814869e-39
4474.0464 -1369.2992 -270 1.0137918e-39
4469.1982 -1378.0454 -270 1.0137918e-39
4469.1982 -1378.0454 -260 1.1978229e-39
4464.3506 -1386.7915 -260 1.0141449e-39
4450.7559 -1390.6897 -260 8.2832154e-40
4445.9082 -1399.4358 -260 9.219549e-40
4445.9082 -1399.4358 -260 7.3721051e-40
4441.0601 -1408.1821 -260 8.301152e-40
4436.2119 -1416.9282 -260 9.2159336e-40
4431.3638 -1425.6746 -260 5.5424858e-40
4435.2617 -1439.2688 -260 6.4501208e-40
4430.4136 -1448.0149 -270 5.5317378e-40
4434.3115 -1461.6093 -270 4.6098235e-40
4429.4639 -1470.3555 -270 9.2051717e-40
4424.6157 -1479.1016 -270 5.5317518e-40
4419.7676 -1487.8479 -270 1.0123513e-39
4406.1733 -1491.746 -270 1.4751245e-39
4410.0713 -1505.3403 -270 2.0279311e-39
4475.9463 -1324.6182 -270 3.1317563e-39
4471.0986 -1333.3644 -270 3.316156e-39
4474.9966 -1346.9587 -270 3.7756908e-39
4470.1484 -1355.7048 -270 3.0381272e-39
4465.3003 -1364.4512 -270 1.2900143e-39
4465.3003 -1364.4512 -270 1.1971027e-39
4451.7061 -1368.3491 -270 1.1049056e-39
4455.604 -1381.9435 -270 9.2159336e-40
4450.7559 -1390.6897 -270 1.0127072e-39
4442.0098 -1385.8416 -270 6.4536661e-40
4437.1616 -1394.5878 -270 1.0127156e-39
4423.5674 -1398.4858 -260 6.4537221e-40
4427.4658 -1412.0802 -270 8.2868447e-40
4422.6172 -1420.8264 -270 6.4500928e-40
4422.6172 -1420.8264 -270 6.4465335e-40
4426.5156 -1434.4207 -270 6.4500928e-40
4421.6675 -1443.1669 -270 6.4500928e-40
4416.8193 -1451.9131 -270 5.5317378e-40
4411.9712 -1460.6592 -270 7.372021e-40
4402.2749 -1478.1516 -270 1.381847e-39
4406.1733 -1491.746 -270 1.7506352e-39
4415.7715 -1371.2974 -260 8.2976347e-40
4419.6694 -1384.8916 -260 1.0130673e-39
4414.8213 -1393.6378 -260 8.2939493e-40
4409.9731 -1402.384 -270 7.3684617e-40
4409.9731 -1402.384 -270 5.5317238e-40
4413.8711 -1415.9783 -270 7.3756224e-40
4400.2769 -1419.8765 -270 4.6169842e-40
4415.7715 -1371.2974 -270 1.4718917e-39
4410.9233 -1380.0435 -270 8.2904741e-40
4414.8213 -1393.6378 -270 7.3684757e-40
4409.9731 -1402.384 -270 7.3720771e-40
4409.9731 -1402.384 -270 9.2051576e-40
