# .PCD v0.7 - Point Cloud Data file format
VERSION 0.7
FIELDS x y z rgb
SIZE 4 4 4 4
TYPE F F F F
COUNT 1 1 1 1
WIDTH 1227
HEIGHT 1
VIEWPOINT 0 0 0 1 0 0 0
POINTS 1227
DATA ascii
5576.4219 -777.78717 820 1.9636152e-38
5932.4009 -853.80737 950 2.129531e-38
5963.0239 -881.41571 970 2.2214734e-38
5967.1587 -894.93994 970 2.0741059e-38
5971.2935 -908.46411 980 2.3042314e-38
5970.7334 -930.81775 980 2.3509799e-38
5952.5146 -943.78198 980 2.3509778e-38
7879.71 -1515.4617 1720 1.7234734e-38
8060.4346 -1622.8801 1800 1.7789705e-38
8135.2051 -1673.962 1840 1.7054305e-38
8165.2681 -1723.924 1860 1.7694985e-38
8151.1841 -1750.4125 1860 1.7881191e-38
7963.3955 -2103.5916 1860 1.6958492e-38
7918.1284 -2124.8252 1850 1.6312793e-38
7904.0439 -2151.3137 1850 1.5854683e-38
7876.436 -2181.937 1840 1.5669573e-38
7804.6802 -2189.0864 1820 1.6588651e-38
7945.3916 -2286.5557 1880 1.6313492e-38
7921.3584 -2353.0566 1890 1.46576e-38
7893.75 -2383.6797 1880 1.4380638e-38
7830.8237 -2395.5242 1870 1.5023126e-38
5974.0488 -1691.4025 1120 1.5025295e-38
5911.6826 -1680.8931 1090 6.8184969e-39
5840.4868 -1665.6891 1070 1.0507007e-38
5769.291 -1650.485 1040 7.3731056e-39
5751.0723 -1663.4492 1040 5.7146689e-39
5706.3647 -1662.3293 1020 4.7909175e-39
5657.5225 -1647.6853 1000 4.7030393e-39
5113.6699 -1392.4908 780 3.1342899e-39
5108.9756 -1401.3203 780 3.0435222e-39
5095.4512 -1405.4551 770 3.2254065e-39
5081.9268 -1409.5898 770 2.8580533e-39
5054.8784 -1417.8594 760 2.7662248e-39
5041.3545 -1421.9941 750 3.134629e-39
4992.5122 -1407.3501 740 5.4402148e-39
4978.9883 -1411.4849 730 1.3175639e-38
4974.2935 -1420.3142 730 1.5027065e-38
4969.5986 -1429.1438 730 1.6681571e-38
4956.0742 -1433.2786 730 1.2994853e-38
4941.9902 -1459.7668 730 1.4931313e-38
4937.2954 -1468.5964 730 1.5022795e-38
4923.7715 -1472.7312 730 1.5851823e-38
4919.0767 -1481.5607 720 2.2035004e-38
4861.4053 -1462.2219 700 2.3509876e-38
4983.8979 -1572.6552 760 2.3509874e-38
5141.7085 -1701.8673 840 2.3509873e-38
5329.5825 -1881.0415 940 2.3509884e-38
4930.0161 -1759.1941 780 2.2495309e-38
4938.2856 -1786.2424 790 2.1386816e-38
4902.9678 -1767.4636 770 2.1847426e-38
4902.4077 -1789.8173 770 2.0280127e-38
4888.8838 -1793.952 770 1.8162501e-38
4880.0542 -1789.2573 770 1.632255e-38
4848.8711 -1784.0027 760 1.5213319e-38
4822.3828 -1769.9186 750 1.3922595e-38
4800.0288 -1769.3585 740 1.2451053e-38
4786.5049 -1773.4933 730 3.8711445e-39
4772.9805 -1777.6281 730 1.0235499e-38
4746.4922 -1763.5439 720 8.5763207e-39
4737.6626 -1758.8492 710 1.1887083e-38
4724.1387 -1762.984 710 8.2032348e-39
4719.4438 -1771.8135 710 3.7778544e-39
4705.9194 -1775.9482 710 2.2137713e-39
4692.3955 -1780.083 710 2.0279409e-39
4687.7007 -1788.9125 700 1.8431937e-39
4674.1768 -1793.0472 700 2.4860408e-39
4678.3115 -1806.5714 700 4.0544343e-39
4664.7871 -1810.7062 700 4.6097647e-39
4686.0205 -1855.9735 720 7.1897934e-39
4707.2544 -1901.2407 730 8.386903e-39
4693.7305 -1905.3755 730 8.6566586e-39
4693.1704 -1927.7292 730 5.896542e-39
4679.6465 -1931.864 730 5.5292014e-39
4670.8169 -1927.1692 720 5.4387967e-39
4648.4629 -1926.6093 720 5.6199537e-39
4643.7686 -1935.4387 720 5.4355695e-39
4634.939 -1930.744 710 5.4373673e-39
6350.6606 -407.9837 1000 2.3509869e-38
5096.0557 -488.39474 600 2.3509873e-38
5100.1904 -501.91895 600 2.3509884e-38
5104.3252 -515.44312 610 2.3509884e-38
4571.4116 -537.88214 440 2.3509853e-38
5223.2432 -589.9986 660 1.0324428e-38
5218.5483 -598.82806 660 5.0710833e-39
5222.6831 -612.35229 660 7.0968747e-39
5209.1587 -616.48706 660 9.6797676e-39
5235.6475 -630.57117 670 1.1611203e-38
5396.2578 -648.01501 730 9.3099243e-39
5445.0996 -662.65912 750 1.1153817e-38
5493.9419 -677.30322 760 1.0785745e-38
5511.6006 -686.69263 770 4.4271769e-39
5524.5649 -704.91156 780 1.2153925e-38
5528.6997 -718.43573 780 1.9174096e-38
5537.5293 -723.13043 780 1.9267731e-38
5536.9692 -745.48413 790 1.871315e-38
5545.7988 -750.17883 790 1.9726555e-38
5549.9336 -763.703 800 2.0186087e-38
5585.2515 -782.48187 810 2.0099986e-38
5945.3652 -872.02631 950 2.2401272e-38
5967.1587 -894.93994 960 2.0833993e-38
5980.123 -913.15881 960 2.3142429e-38
5984.2578 -926.68298 970 2.3509795e-38
8025.4614 -1411.7477 1720 1.7051782e-38
7980.1943 -1432.9814 1710 1.7234013e-38
8018.5269 -1509.9919 1730 1.7238327e-38
7879.71 -1515.4617 1690 1.7788991e-38
8158.1187 -1652.1683 1800 1.7422005e-38
8224.0596 -1698.5554 1830 1.7974443e-38
8039.8462 -2087.6123 1840 1.7234738e-38
7936.9072 -2089.5073 1810 1.6407857e-38
7891.6396 -2110.7412 1800 1.539515e-38
7886.3853 -2141.9243 1800 1.6130906e-38
7849.9473 -2167.8528 1790 1.5855755e-38
7870.061 -2257.8274 1820 1.5210757e-38
7903.6992 -2343.6672 1840 1.5210742e-38
7867.2617 -2369.5957 1840 1.5025294e-38
7839.6533 -2400.2188 1830 1.5116394e-38
7741.4092 -2393.2844 1800 1.4008264e-38
5965.2197 -1686.7078 1090 1.5300439e-38
5894.0234 -1671.5037 1070 5.7182352e-39
5840.4868 -1665.6891 1050 9.8598583e-39
5769.291 -1650.485 1020 6.8220842e-39
5751.0723 -1663.4492 1020 5.6224761e-39
5697.5352 -1657.6346 1000 4.5172047e-39
5113.6699 -1392.4908 760 3.3183112e-39
5108.9756 -1401.3203 760 3.3186699e-39
5095.4512 -1405.4551 760 2.7673066e-39
5073.0977 -1404.8951 750 2.6750956e-39
5054.8784 -1417.8594 750 3.0417257e-39
5032.5249 -1417.2993 740 3.132485e-39
4992.5122 -1407.3501 720 6.0848597e-39
4978.9883 -1411.4849 720 1.2166887e-38
4974.2935 -1420.3142 720 1.4836936e-38
4969.5986 -1429.1438 720 1.7416254e-38
4956.0742 -1433.2786 720 1.3269276e-38
4946.6851 -1450.9375 720 1.7785751e-38
4941.9902 -1459.7668 720 1.5021712e-38
4937.2954 -1468.5964 720 1.5574522e-38
4923.7715 -1472.7312 720 1.4838384e-38
4919.0767 -1481.5607 710 2.2491321e-38
4861.4053 -1462.2219 690 2.3509874e-38
4983.8979 -1572.6552 750 2.3509873e-38
5141.7085 -1701.8673 820 2.3509879e-38
5329.5825 -1881.0415 920 2.3509863e-38
4921.1865 -1754.4994 760 2.2585726e-38
4938.2856 -1786.2424 770 2.11149e-38
4902.9678 -1767.4636 760 2.0193675e-38
4902.4077 -1789.8173 760 1.9636203e-38
4888.8838 -1793.952 760 1.880644e-38
4884.189 -1802.7815 760 1.6689896e-38
4861.8354 -1802.2216 750 1.5491364e-38
4835.3467 -1788.1375 740 1.4568675e-38
4800.0288 -1769.3585 720 1.3094256e-38
4791.1992 -1764.6638 720 1.0880149e-38
4777.6753 -1768.7986 720 1.0697528e-38
4755.3218 -1768.2386 710 1.1064901e-38
4737.6626 -1758.8492 700 1.1705922e-38
4724.1387 -1762.984 700 9.2166665e-39
4723.5786 -1785.3376 700 4.4232266e-39
4710.0542 -1789.4724 700 3.1321305e-39
4701.2246 -1784.7777 700 2.7637025e-39
4691.8354 -1802.4366 700 2.5829098e-39
4687.1406 -1811.2661 700 6.0866912e-39
4682.4463 -1820.0956 690 7.3738259e-39
4677.7515 -1828.925 700 7.1880053e-39
4711.9492 -1892.4113 720 7.0000197e-39
4711.3892 -1914.765 720 5.9872943e-39
4702.5596 -1910.0702 720 5.5277525e-39
4693.1704 -1927.7292 720 5.6210341e-39
4688.4756 -1936.5587 720 5.8043492e-39
4679.6465 -1931.864 710 5.6213873e-39
4653.1577 -1917.7798 700 5.9865769e-39
4652.5977 -1940.1335 710 5.068582e-39
4639.0737 -1944.2682 700 5.3440913e-39
6350.6606 -407.9837 980 2.3509877e-38
5096.0557 -488.39474 590 2.3509886e-38
5100.1904 -501.91895 590 2.3509886e-38
5104.3252 -515.44312 600 2.3509876e-38
4571.4116 -537.88214 430 2.2131585e-38
5232.6323 -572.33966 650 1.3454036e-38
5223.2432 -589.9986 650 1.0135735e-38
5227.3779 -603.52277 650 4.6987163e-39
5222.6831 -612.35229 650 7.7418741e-39
5209.1587 -616.48706 650 9.7723248e-39
5213.2935 -630.01123 650 1.1795951e-38
5436.2705 -657.96442 730 1.1066292e-38
5507.4658 -673.16846 750 1.1152382e-38
5533.9546 -687.25256 760 9.9549378e-39
5538.0894 -700.77679 770 3.6874623e-39
5551.0537 -718.99567 770 1.6305565e-38
5555.1885 -732.5199 780 1.8716715e-38
5559.3232 -746.04407 780 1.9727984e-38
5563.458 -759.56824 790 2.0280442e-38
5581.1167 -768.9577 790 2.018967e-38
5607.605 -783.04181 800 2.0559534e-38
5620.5693 -801.26074 810 2.074069e-38
5914.1816 -866.77161 910 2.1757349e-38
5958.3291 -890.24524 930 2.3509771e-38
5980.123 -913.15881 940 2.3138113e-38
5984.2578 -926.68298 950 2.3509781e-38
8034.291 -1416.4424 1690 1.7790769e-38
7997.853 -1442.3708 1680 1.7142901e-38
8103.8066 -1498.7075 1730 1.6685159e-38
7987.3438 -1504.7372 1690 1.760531e-38
7910.8931 -1520.7163 1670 1.8522236e-38
7936.8218 -1557.1541 1680 1.7881185e-38
8171.6431 -1648.0336 1770 1.7881909e-38
8144.0347 -1678.6567 1770 1.7974095e-38
8138.7798 -1709.8398 1770 1.8432208e-38
8128.8306 -1749.8525 1780 1.7697145e-38
8065.9043 -1761.6968 1760 1.7240119e-38
8078.3086 -1802.2694 1770 1.7973004e-38
7970.6748 -1812.9938 1740 1.7698215e-38
8058.625 -2052.2944 1810 1.7053228e-38
8022.187 -2078.2231 1800 1.6314233e-38
7928.0776 -2084.8125 1770 1.6132353e-38
7882.8105 -2106.0464 1760 1.6219524e-38
7872.8608 -2146.0591 1760 1.6222028e-38
7849.9473 -2167.8528 1760 1.5393362e-38
7795.8506 -2184.3918 1750 1.511605e-38
7892.415 -2258.3872 1790 1.5852885e-38
7931.3076 -2313.0439 1810 1.6034411e-38
7894.8696 -2338.9727 1800 1.4657581e-38
7858.4321 -2364.9009 1790 1.4932368e-38
7830.8237 -2395.5242 1790 1.4657585e-38
7767.8975 -2407.3687 1770 1.3918583e-38
5947.5605 -1677.3182 1070 1.0965498e-38
5894.0234 -1671.5037 1050 1.2165807e-38
5849.3164 -1670.3838 1030 8.4808881e-39
5778.1206 -1655.1797 1010 6.544424e-39
5742.2427 -1658.7545 1000 5.2536809e-39
5679.8765 -1648.2452 980 4.7033952e-39
5515.6914 -1594.9235 910 4.3328233e-39
5153.6826 -1402.4402 770 3.5945464e-39
5113.6699 -1392.4908 750 2.9509706e-39
5108.9756 -1401.3203 750 3.2261184e-39
5095.4512 -1405.4551 750 3.2261114e-39
5073.0977 -1404.8951 740 2.7654919e-39
5054.8784 -1417.8594 730 2.8573302e-39
5032.5249 -1417.2993 730 3.0420886e-39
4992.5122 -1407.3501 710 5.9905145e-39
4978.9883 -1411.4849 710 1.1979261e-38
4974.2935 -1420.3142 710 1.4929503e-38
4969.5986 -1429.1438 710 1.6776284e-38
4956.0742 -1433.2786 710 1.2350912e-38
4946.6851 -1450.9375 710 1.6498253e-38
4941.9902 -1459.7668 710 1.5572355e-38
4937.2954 -1468.5964 710 1.5207905e-38
4923.7715 -1472.7312 700 1.584932e-38
4919.0767 -1481.5607 700 2.1669461e-38
4861.4053 -1462.2219 680 2.3509867e-38
4983.8979 -1572.6552 740 2.3509873e-38
5141.7085 -1701.8673 810 2.3509876e-38
5329.5825 -1881.0415 900 2.350988e-38
4930.0161 -1759.1941 750 2.2770458e-38
4938.2856 -1786.2424 760 2.1206721e-38
4911.7974 -1772.1583 750 2.0745035e-38
4902.4077 -1789.8173 750 1.9551541e-38
4888.8838 -1793.952 750 1.9545084e-38
4884.189 -1802.7815 750 1.7609697e-38
4870.665 -1806.9163 740 1.567466e-38
4848.311 -1806.3563 740 1.4753439e-38
4800.0288 -1769.3585 710 1.3186834e-38
4782.3701 -1759.9691 710 1.2079755e-38
4768.8457 -1764.1039 700 3.5956296e-39
4755.3218 -1768.2386 700 1.0791172e-38
4732.9678 -1767.6787 690 1.2254432e-38
4724.1387 -1762.984 690 1.0322292e-38
4714.749 -1780.6429 690 5.4355807e-39
4705.9194 -1775.9482 680 4.2460142e-39
4631.709 -1702.5127 650 8.1110336e-39
4596.3911 -1683.7338 630 8.5720076e-39
4587.5615 -1679.0391 630 9.2130554e-39
4574.0371 -1683.1738 630 6.6326581e-39
4573.4775 -1705.5276 630 5.6195908e-39
4568.7827 -1714.3571 630 5.1593357e-39
4681.3262 -1864.803 690 4.7934273e-39
4684.9009 -1900.6808 700 5.6181545e-39
4693.1704 -1927.7292 710 5.0671373e-39
4688.4756 -1936.5587 710 5.2508097e-39
4674.9517 -1940.6935 700 5.5284714e-39
4653.1577 -1917.7798 690 5.5252526e-39
4652.5977 -1940.1335 700 5.0685876e-39
4639.0737 -1944.2682 690 5.0664226e-39
6350.6606 -407.9837 960 2.3509858e-38
5096.0557 -488.39474 580 2.3509867e-38
5100.1904 -501.91895 580 2.3509879e-38
5104.3252 -515.44312 590 2.350987e-38
4571.4116 -537.88214 420 1.9456478e-38
5236.7671 -585.86383 640 9.2166455e-39
5232.0723 -594.6933 640 3.5023451e-39
5227.3779 -603.52277 640 7.9248291e-39
5209.1587 -616.48706 640 1.0599206e-38
5159.7568 -624.19659 620 1.1797017e-38
5391.563 -656.84448 700 1.2349135e-38
5516.2954 -677.86316 740 1.253532e-38
5551.6133 -696.64203 760 1.1435431e-38
5569.2725 -706.03143 760 7.4728585e-39
5573.4072 -719.55566 770 3.3197531e-39
5599.8955 -733.63977 780 1.9075761e-38
5604.0303 -747.16394 780 2.1662276e-38
5608.165 -760.68817 780 2.1203107e-38
5612.2998 -774.21234 790 2.2029281e-38
5625.2642 -792.43127 800 2.2490595e-38
5629.3989 -805.95544 800 2.2307284e-38
5935.9756 -889.68524 910 2.3506552e-38
5971.2935 -908.46411 920 2.3509788e-38
8056.6445 -1417.0024 1660 1.7973023e-38
8029.0361 -1447.6255 1660 1.7696778e-38
8126.1606 -1499.2673 1700 1.7513121e-38
8005.0029 -1514.1267 1660 1.7514911e-38
7990.9185 -1540.615 1660 1.7606022e-38
8088.043 -1592.2568 1700 1.7239403e-38
8171.6431 -1648.0336 1740 1.769823e-38
8175.2178 -1683.9114 1750 1.8338911e-38
8196.4512 -1729.1787 1760 1.7972652e-38
8160.0137 -1755.1072 1750 1.8067713e-38
8065.9043 -1761.6968 1730 1.7973016e-38
8078.3086 -1802.2694 1730 1.8066289e-38
8010.6875 -1822.9432 1720 1.7604953e-38
7916.5781 -1829.5328 1690 1.7422352e-38
8023.8667 -2011.162 1750 1.7787193e-38
8027.4419 -2047.0398 1760 1.7048567e-38
8008.6631 -2082.3579 1760 1.6318528e-38
7919.248 -2080.1179 1730 1.548483e-38
7882.8105 -2106.0464 1720 1.6682628e-38
7864.0317 -2141.3643 1730 1.5857545e-38
7841.1177 -2163.1582 1720 1.649968e-38
7778.1919 -2175.0024 1700 1.548555e-38
7870.061 -2257.8274 1750 1.5853611e-38
7908.9541 -2312.4841 1770 1.5300443e-38
7886.0405 -2334.2778 1760 1.5116409e-38
7840.7729 -2355.5117 1750 1.5668858e-38
7830.8237 -2395.5242 1760 1.529936e-38
7767.8975 -2407.3687 1740 1.4103693e-38
5947.5605 -1677.3182 1040 6.4529528e-39
5902.853 -1676.1984 1030 1.1703747e-38
5858.1455 -1675.0785 1020 7.1904996e-39
5795.7793 -1664.5691 990 6.3585908e-39
5733.4131 -1654.0598 970 4.7930741e-39
5662.2178 -1638.8557 950 5.5299063e-39
5524.5205 -1599.6182 900 4.2406318e-39
5153.6826 -1402.4402 750 3.5959785e-39
5122.4995 -1397.1855 740 3.2261212e-39
5117.8047 -1406.015 740 3.1350003e-39
5095.4512 -1405.4551 730 2.8569785e-39
5073.0977 -1404.8951 730 3.1339199e-39
5054.8784 -1417.8594 720 2.8584191e-39
5032.5249 -1417.2993 710 3.0413684e-39
4992.5122 -1407.3501 700 5.6235312e-39
4978.9883 -1411.4849 700 1.1612992e-38
4974.2935 -1420.3142 700 1.4746169e-38
4969.5986 -1429.1438 700 1.6039444e-38
4956.0742 -1433.2786 690 1.2809377e-38
4946.6851 -1450.9375 690 1.6683355e-38
4941.9902 -1459.7668 690 1.4839476e-38
4937.2954 -1468.5964 690 1.5207884e-38
4923.7715 -1472.7312 690 1.539228e-38
4919.0767 -1481.5607 690 2.2035347e-38
4861.4053 -1462.2219 670 2.3509867e-38
4983.8979 -1572.6552 730 2.350987e-38
5141.7085 -1701.8673 800 2.3509873e-38
5329.5825 -1881.0415 890 2.3509881e-38
4930.0161 -1759.1941 740 2.1942165e-38
4938.2856 -1786.2424 750 2.1482252e-38
4911.7974 -1772.1583 740 2.0653931e-38
4902.4077 -1789.8173 740 1.9642641e-38
4888.8838 -1793.952 730 1.9820218e-38
4884.189 -1802.7815 730 1.8807868e-38
4870.665 -1806.9163 730 1.6690235e-38
4857.1406 -1811.051 730 1.5213319e-38
4817.688 -1778.748 710 1.3646367e-38
4782.3701 -1759.9691 690 1.2724393e-38
4760.0166 -1759.4092 690 1.1065974e-38
4746.4922 -1763.5439 680 1.0420575e-38
4737.6626 -1758.8492 680 1.1981803e-38
4715.3091 -1758.2893 670 1.060066e-38
4606.3403 -1643.7212 620 8.6656353e-39
4601.6455 -1652.5507 620 1.0136814e-38
4596.9512 -1661.3801 620 9.1179899e-39
4583.4268 -1665.5149 620 6.1691674e-39
4578.7319 -1674.3444 610 4.3295779e-39
4565.208 -1678.4791 610 4.054786e-39
4569.3428 -1692.0033 610 4.3299422e-39
4564.6479 -1700.8328 610 4.6047312e-39
4559.9531 -1709.6622 620 4.4239385e-39
4555.2583 -1718.4918 620 4.973155e-39
4550.564 -1727.3213 620 4.7894798e-39
4528.21 -1726.7614 610 4.6976429e-39
4567.103 -1781.418 630 4.69801e-39
4601.3008 -1844.9042 650 4.4253692e-39
4626.6694 -1903.6957 670 4.515411e-39
4596.0464 -1876.0874 650 4.6983618e-39
6359.4902 -412.67841 950 2.3509872e-38
5096.0557 -488.39474 570 2.3509886e-38
5100.1904 -501.91895 570 2.3509886e-38
5104.3252 -515.44312 580 2.3509886e-38
4571.4116 -537.88214 420 1.7609675e-38
5159.7568 -624.19659 610 1.2071814e-38
5369.209 -656.28455 680 1.3460495e-38
5485.1123 -672.60852 720 1.3183908e-38
5609.8447 -693.62714 760 1.3457972e-38
5613.9795 -707.15137 760 1.3088114e-38
5618.1143 -720.67554 770 6.4561856e-39
5622.249 -734.19971 770 4.7901805e-39
5626.3838 -747.72394 780 2.0925789e-38
5630.5186 -761.24811 780 2.1854589e-38
5634.6533 -774.77234 780 2.2862993e-38
5638.7881 -788.29651 790 2.3047373e-38
5651.7524 -806.51538 790 2.3412198e-38
5695.8999 -829.98895 810 2.2680021e-38
5904.7925 -884.43054 880 2.3507963e-38
5971.2935 -908.46411 910 2.3509782e-38
8065.4741 -1421.697 1630 1.7604592e-38
8051.3896 -1448.1855 1630 1.6592597e-38
8126.1606 -1499.2673 1660 1.6776271e-38
7996.1733 -1509.4319 1630 1.2440941e-38
8062.1143 -1555.8191 1650 1.1796282e-38
8145.7144 -1611.5957 1690 1.1521144e-38
8171.6431 -1648.0336 1700 1.2532411e-38
8184.0474 -1688.6061 1710 1.225798e-38
8178.7925 -1719.7892 1720 1.3545839e-38
8128.8306 -1749.8525 1710 1.3087375e-38
8017.062 -1747.0527 1670 1.336289e-38
8015.9424 -1791.76 1680 1.4282676e-38
7961.8457 -1808.2991 1670 1.5389382e-38
7885.395 -1824.2782 1640 1.5207506e-38
7997.3784 -1997.0779 1700 1.5943626e-38
8018.6123 -2042.3451 1720 1.5575225e-38
7999.8335 -2077.6631 1720 1.6125514e-38
7905.7241 -2084.2527 1690 1.6218424e-38
7865.1514 -2096.657 1680 1.511748e-38
7855.2021 -2136.6694 1680 1.5850366e-38
7818.7642 -2162.5981 1680 1.575926e-38
7852.4023 -2248.438 1700 1.6035844e-38
7900.1245 -2307.7896 1730 1.5300443e-38
7877.2109 -2329.583 1720 1.585288e-38
7840.7729 -2355.5117 1720 1.5302593e-38
7821.9941 -2390.8296 1720 1.4289164e-38
7759.0679 -2402.6738 1700 1.4563233e-38
5947.5605 -1677.3182 1020 6.4529472e-39
5911.6826 -1680.8931 1010 9.8627254e-39
5866.9756 -1679.7732 1000 7.648968e-39
5822.2676 -1678.6533 990 6.3582376e-39
5698.0952 -1635.281 940 4.7934273e-39
5644.5586 -1629.4663 920 5.1604161e-39
5524.5205 -1599.6182 880 4.5161257e-39
5153.6826 -1402.4402 740 3.4126648e-39
5131.3291 -1401.8802 730 3.3186699e-39
5117.8047 -1406.015 730 3.0428075e-39
5095.4512 -1405.4551 720 2.6747495e-39
5073.0977 -1404.8951 710 2.8598498e-39
5054.8784 -1417.8594 710 2.6747425e-39
5023.6953 -1412.6047 700 2.9498888e-39
4992.5122 -1407.3501 690 5.3465856e-39
4978.9883 -1411.4849 680 1.2530997e-38
4974.2935 -1420.3142 680 1.3827102e-38
4960.769 -1424.449 680 1.6403898e-38
4956.0742 -1433.2786 680 1.2532797e-38
4946.6851 -1450.9375 680 1.6407128e-38
4941.9902 -1459.7668 680 1.5485555e-38
4937.2954 -1468.5964 680 1.5205005e-38
4923.7715 -1472.7312 680 1.5113908e-38
4919.0767 -1481.5607 680 2.1294919e-38
4861.4053 -1462.2219 660 2.3509874e-38
4983.8979 -1572.6552 710 2.350987e-38
5141.7085 -1701.8673 780 2.3509873e-38
5329.5825 -1881.0415 870 2.3509862e-38
4930.0161 -1759.1941 730 2.2492802e-38
4929.4561 -1781.5477 730 2.1848501e-38
4911.7974 -1772.1583 720 2.2124364e-38
4902.4077 -1789.8173 720 2.0926557e-38
4888.8838 -1793.952 720 1.9452524e-38
4884.189 -1802.7815 720 1.8257925e-38
4870.665 -1806.9163 720 1.7517132e-38
4857.1406 -1811.051 710 1.5029666e-38
4852.4458 -1819.8805 710 1.4656918e-38
4782.3701 -1759.9691 680 1.2266315e-38
4760.0166 -1759.4092 670 1.1988282e-38
4742.3574 -1750.0198 670 3.964782e-39
4715.8691 -1735.9357 660 1.1891396e-38
4623.9995 -1653.1106 620 1.2161519e-38
4606.3403 -1643.7212 610 6.9975072e-39
4601.6455 -1652.5507 610 4.6058074e-39
4596.9512 -1661.3801 610 4.70051e-39
4583.4268 -1665.5149 610 3.1346444e-39
4578.7319 -1674.3444 600 3.1328409e-39
4574.0371 -1683.1738 600 3.4094306e-39
4578.1719 -1696.698 610 3.2239646e-39
4568.7827 -1714.3571 610 3.5941806e-39
4564.0879 -1723.1865 610 3.5023479e-39
4559.3931 -1732.016 610 3.9618813e-39
4554.6987 -1740.8455 610 3.6860133e-39
4558.8335 -1754.3696 610 3.9618813e-39
4558.2734 -1776.7233 610 4.5139719e-39
4566.543 -1803.7717 620 4.1466243e-39
4574.8125 -1830.8201 630 4.3285073e-39
4578.9473 -1844.3442 630 3.8686123e-39
6373.0142 -408.54364 930 2.3509886e-38
5096.0557 -488.39474 560 2.350987e-38
4567.2769 -524.35797 410 2.3509873e-38
4562.582 -533.18744 410 2.3509881e-38
4562.582 -533.18744 410 1.7141147e-38
5159.7568 -624.19659 600 1.2073966e-38
5346.8555 -655.72461 660 1.5023147e-38
5462.7588 -672.04852 700 1.4751948e-38
5632.1987 -694.18713 750 1.5118941e-38
5627.5039 -703.0166 750 1.4660103e-38
5640.4683 -721.23547 760 1.3827136e-38
5644.6025 -734.7597 760 4.8885138e-39
5648.7373 -748.28387 770 7.641757e-39
5661.7021 -766.50281 770 2.3509779e-38
5665.8369 -780.02698 780 2.3509786e-38
5669.9717 -793.55115 780 2.3050604e-38
5682.9355 -811.77008 790 2.350835e-38
5718.2539 -830.54895 800 2.3412193e-38
5767.0957 -845.19299 820 2.1941746e-38
5873.6094 -879.1759 860 2.3506527e-38
5948.9399 -907.90417 880 2.3509769e-38
8065.4741 -1421.697 1600 1.7051786e-38
8069.0488 -1457.575 1610 1.6589004e-38
8126.1606 -1499.2673 1630 1.5396223e-38
7987.3438 -1504.7372 1590 1.142645e-38
8053.2847 -1551.1244 1620 1.2532761e-38
8119.2261 -1597.5116 1640 1.2162913e-38
8131.6304 -1638.0841 1650 1.2901906e-38
8135.2051 -1673.962 1660 1.3912814e-38
8147.6094 -1714.5345 1670 1.3728426e-38
8111.1714 -1740.463 1660 1.3269973e-38
7994.7085 -1746.4928 1630 1.4929112e-38
7998.2832 -1782.3706 1640 1.5298619e-38
7944.1865 -1798.9097 1620 1.6312403e-38
7890.0898 -1815.4487 1610 1.6865593e-38
7960.9404 -2023.0063 1660 1.8341413e-38
7982.1743 -2068.2734 1680 1.6497163e-38
7888.0649 -2074.8633 1650 1.6401735e-38
7865.1514 -2096.657 1650 1.5759597e-38
7855.2021 -2136.6694 1650 1.6493197e-38
7832.2886 -2158.4634 1650 1.7785357e-38
7755.8379 -2174.4424 1630 2.3509764e-38
7892.415 -2258.3872 1680 2.3509759e-38
7931.3076 -2313.0439 1700 2.3509761e-38
7886.0405 -2334.2778 1690 2.2499572e-38
7840.7729 -2355.5117 1680 2.1118821e-38
7821.9941 -2390.8296 1680 1.9189535e-38
7767.8975 -2407.3687 1670 1.7436746e-38
5947.5605 -1677.3182 1000 9.0322304e-39
5902.853 -1676.1984 990 9.2187867e-39
5866.9756 -1679.7732 980 7.1887018e-39
5831.0977 -1683.348 970 5.5327916e-39
5733.4131 -1654.0598 940 4.7934357e-39
5626.8994 -1620.0769 900 4.2384584e-39
5613.3755 -1624.2117 900 3.318307e-39
5542.1797 -1609.0076 870 3.8722038e-39
5153.6826 -1402.4402 720 3.6881573e-39
5140.1582 -1406.575 720 3.3186713e-39
5117.8047 -1406.015 710 3.1335612e-39
5104.2803 -1410.1498 710 2.8580575e-39
5073.0977 -1404.8951 700 3.0410124e-39
5046.0488 -1413.1646 690 2.8566184e-39
5023.6953 -1412.6047 690 2.7651458e-39
4983.6826 -1402.6553 670 5.2540285e-39
4978.9883 -1411.4849 670 1.1428601e-38
4974.2935 -1420.3142 670 1.3915715e-38
4960.769 -1424.449 670 1.7233318e-38
4956.0742 -1433.2786 670 1.1890296e-38
4946.6851 -1450.9375 670 1.6041207e-38
4941.9902 -1459.7668 670 1.5850377e-38
4937.2954 -1468.5964 670 1.5391925e-38
4923.7715 -1472.7312 670 1.4929524e-38
4919.0767 -1481.5607 670 2.0468736e-38
4861.4053 -1462.2219 650 2.3509863e-38
4983.8979 -1572.6552 700 2.3509862e-38
5141.7085 -1701.8673 770 2.3509865e-38
5329.5825 -1881.0415 850 2.3509865e-38
4930.0161 -1759.1941 710 2.2953427e-38
4929.4561 -1781.5477 720 2.1300021e-38
4911.7974 -1772.1583 710 2.1297141e-38
4911.2373 -1794.512 710 2.009896e-38
4888.8838 -1793.952 710 1.9914193e-38
4884.189 -1802.7815 710 1.8810031e-38
4870.665 -1806.9163 700 1.761255e-38
4857.1406 -1811.051 700 1.5951244e-38
4852.4458 -1819.8805 700 1.4748753e-38
4786.5049 -1773.4933 670 1.2909878e-38
4747.0522 -1741.1903 650 1.1066697e-38
4720.5635 -1727.1062 650 1.0511009e-38
4659.3174 -1671.8895 620 8.1146013e-39
4623.9995 -1653.1106 610 1.1798483e-38
4606.3403 -1643.7212 600 7.0046874e-39
4601.6455 -1652.5507 600 3.6852973e-39
4596.9512 -1661.3801 600 3.5923856e-39
4583.4268 -1665.5149 600 3.4083586e-39
4578.7319 -1674.3444 590 4.1448307e-39
4574.0371 -1683.1738 590 4.6065291e-39
4578.1719 -1696.698 600 3.870406e-39
4568.7827 -1714.3571 600 3.1332039e-39
4572.9175 -1727.8812 600 3.1339255e-39
4559.3931 -1732.016 600 3.4076328e-39
4563.5278 -1745.5402 600 2.8576988e-39
4562.9683 -1767.8938 600 3.3179539e-39
4567.103 -1781.418 610 3.4998326e-39
4566.543 -1803.7717 610 2.8566184e-39
4561.8481 -1812.6012 610 2.5785938e-39
4557.1533 -1821.4307 610 2.1208526e-39
6395.3682 -409.10358 920 2.3509884e-38
5096.0557 -488.39474 550 2.3509879e-38
4567.2769 -524.35797 400 2.3509886e-38
4562.582 -533.18744 400 2.3509866e-38
4562.582 -533.18744 400 1.5855422e-38
5232.0723 -594.6933 610 3.4090705e-39
5209.1587 -616.48706 600 1.1887061e-38
5159.7568 -624.19659 590 1.0878318e-38
5324.502 -655.16467 640 1.6407137e-38
5462.7588 -672.04852 690 1.66848e-38
5556.3081 -687.81256 720 1.723655e-38
5636.3335 -707.7113 740 1.6323928e-38
5649.2979 -725.93018 750 1.6225642e-38
5666.9565 -735.31964 760 1.4203474e-38
5679.9209 -753.53857 760 4.4239427e-39
5692.8848 -771.75745 770 1.399385e-38
5710.5439 -781.14685 780 2.3509793e-38
5723.5083 -799.36578 780 2.350979e-38
5727.6431 -812.88995 790 2.3324677e-38
5749.4365 -835.80359 790 2.32314e-38
5798.2788 -850.44769 810 2.3509785e-38
5864.7798 -874.4812 840 2.295551e-38
5917.7568 -902.64948 850 2.3509781e-38
8074.3037 -1426.3918 1570 1.5856858e-38
8109.0615 -1467.5244 1580 1.5393704e-38
8126.1606 -1499.2673 1600 1.4288804e-38
7996.1733 -1509.4319 1560 1.2256178e-38
8062.1143 -1555.8191 1580 1.2257977e-38
8096.8721 -1596.9517 1600 1.3085209e-38
8100.4473 -1632.8295 1610 1.290084e-38
8112.8516 -1673.4021 1620 1.3269251e-38
8147.6094 -1714.5345 1630 1.4373432e-38
8111.1714 -1740.463 1630 1.3547986e-38
8043.5508 -1761.1368 1610 1.4650022e-38
8020.6367 -1782.9305 1610 1.5207505e-38
7979.5044 -1817.6885 1600 1.5670642e-38
7934.2373 -1838.9222 1590 1.6314566e-38
7880.1401 -1855.4613 1580 1.7326198e-38
7906.0688 -1891.8992 1590 1.8615835e-38
7873.2061 -1953.7054 1590 1.8983193e-38
7987.4292 -2037.0905 1640 1.7787539e-38
7973.3447 -2063.5789 1640 1.787541e-38
7896.8945 -2079.5581 1620 1.6682618e-38
7865.1514 -2096.657 1610 1.5761395e-38
7855.2021 -2136.6694 1620 1.5389385e-38
7841.1177 -2163.1582 1610 1.9168635e-38
7787.021 -2179.697 1600 2.3509768e-38
7901.2441 -2263.082 1650 2.3509785e-38
7917.7832 -2317.1787 1660 2.3509778e-38
7894.8696 -2338.9727 1660 2.3509768e-38
7840.7729 -2355.5117 1640 2.3509779e-38
7821.9941 -2390.8296 1640 2.3509781e-38
7785.5562 -2416.7578 1640 2.3509771e-38
5938.731 -1672.6235 980 1.3182092e-38
5911.6826 -1680.8931 970 8.4819573e-39
5875.8047 -1684.4679 970 6.0859625e-39
5848.7563 -1692.7374 960 5.8976238e-39
5804.0488 -1691.6176 950 5.2536893e-39
5568.668 -1623.0918 860 4.3313799e-39
5144.853 -1397.7455 710 4.1466285e-39
5140.1582 -1406.575 710 3.227196e-39
5126.6343 -1410.7097 700 3.0424404e-39
5104.2803 -1410.1498 700 2.8573457e-39
5073.0977 -1404.8951 690 2.9498902e-39
5046.0488 -1413.1646 680 2.8573359e-39
5014.8657 -1407.9099 670 2.6722243e-39
4983.6826 -1402.6553 660 5.2529551e-39
4978.9883 -1411.4849 660 1.1243855e-38
4965.4639 -1415.6196 660 1.4101175e-38
4960.769 -1424.449 660 1.6406784e-38
4956.0742 -1433.2786 660 1.2902296e-38
4946.6851 -1450.9375 660 1.5946149e-38
4941.9902 -1459.7668 660 1.4840188e-38
4937.2954 -1468.5964 660 1.5484834e-38
4923.7715 -1472.7312 650 1.520717e-38
4919.0767 -1481.5607 650 2.0740654e-38
4861.4053 -1462.2219 630 2.3509886e-38
4983.8979 -1572.6552 690 2.3509874e-38
5141.7085 -1701.8673 750 2.3509872e-38
5329.5825 -1881.0415 840 2.3509877e-38
4930.0161 -1759.1941 700 2.2677184e-38
4934.1509 -1772.7183 700 2.2399536e-38
4911.7974 -1772.1583 700 2.2946943e-38
4911.2373 -1794.512 700 2.129247e-38
4897.7129 -1798.6467 690 1.9821661e-38
4884.189 -1802.7815 690 1.8991184e-38
4861.8354 -1802.2216 690 1.8164289e-38
4857.1406 -1811.051 690 1.6777409e-38
4808.8584 -1774.0532 670 1.4473245e-38
4764.7109 -1750.5797 650 1.3459451e-38
4725.2583 -1718.2766 630 1.189861e-38
4676.9761 -1681.2789 610 1.1342184e-38
4659.3174 -1671.8895 610 7.9273752e-39
4623.9995 -1653.1106 590 1.2348423e-38
4606.3403 -1643.7212 590 7.5593018e-39
4601.6455 -1652.5507 590 4.3324673e-39
4596.9512 -1661.3801 590 4.1477089e-39
4583.4268 -1665.5149 580 3.7785775e-39
4578.7319 -1674.3444 580 3.5027081e-39
4565.208 -1678.4791 580 3.4094334e-39
4578.1719 -1696.698 590 3.0410167e-39
4568.7827 -1714.3571 590 3.4072726e-39
4572.9175 -1727.8812 590 3.8700388e-39
4559.3931 -1732.016 590 3.5945323e-39
4563.5278 -1745.5402 590 2.5821923e-39
4558.8335 -1754.3696 590 2.304525e-39
4567.103 -1781.418 600 2.0272235e-39
4557.7134 -1799.0769 600 2.4910687e-39
4553.0186 -1807.9065 600 3.5016263e-39
4548.3242 -1816.736 600 3.5026983e-39
6408.8921 -404.96881 900 2.3509855e-38
5096.0557 -488.39474 540 2.3509873e-38
4567.2769 -524.35797 400 2.3509884e-38
4562.582 -533.18744 400 2.3509848e-38
4562.582 -533.18744 400 1.668481e-38
5232.0723 -594.6933 600 5.1611364e-39
5209.1587 -616.48706 590 1.1705532e-38
5159.7568 -624.19659 580 9.5872357e-39
5302.1484 -654.60468 620 1.6777001e-38
5462.7588 -672.04852 670 1.7791863e-38
5542.7842 -691.94733 700 1.9539625e-38
5591.626 -706.59143 720 1.8345053e-38
5680.4805 -731.18488 740 1.7428843e-38
5706.9692 -745.26904 750 1.7609292e-38
5724.6279 -754.65845 760 1.2361368e-38
5728.7627 -768.18262 770 3.4137368e-39
5741.7271 -786.40155 770 2.0725518e-38
5754.6914 -804.62042 780 2.3509799e-38
5749.9966 -813.44995 780 2.3507271e-38
5785.3145 -832.22876 790 2.3505815e-38
5829.4619 -855.70239 810 2.3507984e-38
5873.6094 -879.1759 820 2.3415072e-38
5895.4033 -902.08954 830 2.3509775e-38
8074.3037 -1426.3918 1530 1.5767152e-38
8131.415 -1468.0842 1560 1.5395146e-38
8134.9897 -1503.9622 1560 1.13346e-38
8005.0029 -1514.1267 1530 1.207251e-38
8084.4678 -1556.379 1560 1.2624252e-38
8105.7017 -1601.6462 1570 1.2993017e-38
8082.7881 -1623.4401 1570 1.317777e-38
8095.1924 -1664.0126 1580 1.3821339e-38
8138.7798 -1709.8398 1600 1.3912811e-38
8102.3418 -1735.7683 1590 1.4097564e-38
8052.3799 -1765.8315 1580 1.4005747e-38
8020.6367 -1782.9305 1570 1.4837652e-38
7993.0288 -1813.5538 1570 1.5300775e-38
7956.5908 -1839.4823 1560 1.557521e-38
7911.3237 -1860.7161 1560 1.7692811e-38
7972.5698 -1915.9327 1580 1.8060869e-38
7927.3027 -1937.1665 1570 1.7600271e-38
7957.3657 -1987.1284 1590 1.7876507e-38
8027.4419 -2047.0398 1620 1.7970487e-38
7964.5156 -2058.8843 1600 1.7507007e-38
7888.0649 -2074.8633 1580 1.6314203e-38
7873.981 -2101.3516 1580 1.621949e-38
7855.2021 -2136.6694 1580 1.5943995e-38
7827.5938 -2167.293 1580 2.0924269e-38
7778.1919 -2175.0024 1560 2.3491473e-38
7927.7329 -2277.166 1620 2.3501119e-38
7917.7832 -2317.1787 1620 2.3493237e-38
7912.5288 -2348.3618 1630 2.3507243e-38
7840.7729 -2355.5117 1610 2.3505823e-38
7813.1646 -2386.1348 1600 2.3509785e-38
7776.7271 -2412.0632 1600 2.3509768e-38
5929.9014 -1667.9288 960 1.5022772e-38
5929.3418 -1690.2825 960 6.8195591e-39
5884.6343 -1689.1626 950 6.1781512e-39
5884.0742 -1711.5162 950 5.164009e-39
5830.5371 -1705.7017 930 3.6856602e-39
5639.8638 -1638.2958 870 4.4228497e-39
5595.1562 -1637.1759 860 3.8729129e-39
5144.853 -1397.7455 690 3.7796425e-39
5140.1582 -1406.575 690 2.9502574e-39
5126.6343 -1410.7097 690 2.765506e-39
5113.1104 -1414.8445 690 2.765506e-39
5073.0977 -1404.8951 670 2.9495259e-39
5046.0488 -1413.1646 670 2.766215e-39
5014.8657 -1407.9099 660 2.765136e-39
4983.6826 -1402.6553 650 5.0678562e-39
4978.9883 -1411.4849 650 1.1152019e-38
4965.4639 -1415.6196 650 1.34558e-38
4960.769 -1424.449 640 1.6406073e-38
4956.0742 -1433.2786 640 1.2626061e-38
4946.6851 -1450.9375 640 1.6129457e-38
4941.9902 -1459.7668 640 1.575927e-38
4937.2954 -1468.5964 640 1.4931303e-38
4923.7715 -1472.7312 640 1.5483752e-38
4919.0767 -1481.5607 640 1.7978753e-38
4861.4053 -1462.2219 620 2.3509872e-38
4983.8979 -1572.6552 670 2.3509853e-38
5141.7085 -1701.8673 740 2.350987e-38
5329.5825 -1881.0415 820 2.3509856e-38
4956.5049 -1773.2782 700 2.2957732e-38
4930.0161 -1759.1941 690 2.212797e-38
4925.3213 -1768.0236 690 2.1296048e-38
4911.7974 -1772.1583 680 2.0654985e-38
4911.2373 -1794.512 690 2.1112019e-38
4897.7129 -1798.6467 680 2.0283341e-38
4884.189 -1802.7815 680 1.9543273e-38
4861.8354 -1802.2216 670 1.7518563e-38
4848.311 -1806.3563 670 1.5671416e-38
4734.6479 -1700.6177 620 4.054807e-39
4729.9531 -1709.4471 620 1.1159553e-38
4703.4648 -1695.363 610 1.1804264e-38
4668.1465 -1676.5842 600 1.1341483e-38
4650.4878 -1667.1947 590 1.0420593e-38
4619.8647 -1639.5864 580 1.2991992e-38
4606.3403 -1643.7212 580 8.0199156e-39
4601.6455 -1652.5507 580 6.0791466e-39
4588.1216 -1656.6854 570 4.7941531e-39
4583.4268 -1665.5149 570 4.9749515e-39
4578.7319 -1674.3444 570 4.5157754e-39
4565.208 -1678.4791 570 4.0547888e-39
4578.1719 -1696.698 580 3.4108726e-39
4568.7827 -1714.3571 580 4.0512057e-39
4572.9175 -1727.8812 580 3.4087104e-39
4568.2227 -1736.7107 580 3.0399292e-39
4563.5278 -1745.5402 580 2.8566128e-39
4558.8335 -1754.3696 580 3.2239632e-39
4558.2734 -1776.7233 580 2.8566142e-39
4562.4082 -1790.2474 580 3.1328423e-39
4548.8838 -1794.3822 580 2.4896351e-39
4535.3599 -1798.517 580 2.8576918e-39
6417.7217 -409.66354 890 2.3509872e-38
5096.0557 -488.39474 530 2.3509886e-38
5100.1904 -501.91895 530 2.3509869e-38
4567.2769 -524.35797 390 2.3509862e-38
4562.582 -533.18744 390 2.3509828e-38
4557.8877 -542.01691 390 1.5946181e-38
5232.0723 -594.6933 580 8.0181051e-39
5222.6831 -612.35229 580 1.041374e-38
5209.1587 -616.48706 580 1.142753e-38
5168.5859 -628.8913 570 8.942225e-39
5520.4302 -691.38733 680 1.8807827e-38
5546.9189 -705.4715 690 2.0100357e-38
5671.6514 -726.49017 730 2.0555221e-38
5751.6768 -746.38892 750 1.9173727e-38
5742.2871 -764.04785 750 1.678133e-38
5751.1162 -768.74255 760 9.4132911e-39
5772.9102 -791.65619 760 3.8707563e-39
5785.8745 -809.87512 770 2.2580979e-38
5798.8389 -828.09399 780 2.2678582e-38
5847.6807 -842.7381 790 2.3413628e-38
5860.645 -860.95703 800 2.350512e-38
5882.4385 -883.87061 810 2.3321442e-38
5908.9272 -897.95477 820 2.3509049e-38
8096.6572 -1426.9518 1510 1.7877221e-38
8153.7686 -1468.6443 1530 1.585397e-38
8134.9897 -1503.9622 1530 1.0872184e-38
8009.6973 -1505.2971 1490 1.1888835e-38
8070.9438 -1560.5138 1520 1.3081628e-38
8088.043 -1592.2568 1530 1.382062e-38
8051.605 -1618.1854 1520 1.3178851e-38
8081.6685 -1668.1473 1540 1.3268535e-38
8138.7798 -1709.8398 1560 1.3820975e-38
8088.8179 -1739.9031 1550 1.3822777e-38
8065.9043 -1761.6968 1550 1.4375227e-38
8029.4663 -1787.6252 1540 1.4655036e-38
7993.0288 -1813.5538 1540 1.6126211e-38
7965.4204 -1844.177 1530 1.6859826e-38
7951.3359 -1870.6654 1530 1.7231477e-38
7972.5698 -1915.9327 1540 1.87066e-38
7936.1323 -1941.8612 1540 1.8247061e-38
7979.7197 -1987.6884 1560 1.8614414e-38
8036.271 -2051.7344 1580 1.7690669e-38
7950.9912 -2063.019 1560 1.7967246e-38
7879.2354 -2070.1685 1540 1.7142161e-38
7865.1514 -2096.657 1540 1.6311326e-38
7837.543 -2127.2803 1540 1.5664894e-38
7809.9346 -2157.9033 1540 2.1848384e-38
7747.0083 -2169.7476 1520 2.3509778e-38
7901.2441 -2263.082 1580 2.3509781e-38
7922.478 -2308.3494 1590 2.3509781e-38
7939.0171 -2362.446 1600 2.3509802e-38
7849.6025 -2360.2063 1570 2.3509799e-38
7795.5059 -2376.7454 1560 2.3509779e-38
7767.8975 -2407.3687 1560 2.3509774e-38
5921.0723 -1663.2341 930 1.243773e-38
5938.1709 -1694.9772 950 6.4522059e-39
5902.293 -1698.552 930 6.2681916e-39
5919.3921 -1730.2952 940 5.1636489e-39
5848.1963 -1715.0911 920 3.4119446e-39
5812.3184 -1718.6659 910 3.9625946e-39
5604.5459 -1619.517 840 4.0544273e-39
5577.4976 -1627.7865 830 4.2391871e-39
5144.853 -1397.7455 680 3.2275505e-39
5148.9878 -1411.2697 680 3.1339269e-39
5126.6343 -1410.7097 680 2.9495357e-39
5113.1104 -1414.8445 670 2.7651402e-39
5073.0977 -1404.8951 660 2.6733075e-39
5037.2197 -1408.47 650 2.7651374e-39
5006.0361 -1403.2153 640 2.8576946e-39
4983.6826 -1402.6553 640 8.941132e-39
4978.9883 -1411.4849 630 1.1428242e-38
4965.4639 -1415.6196 630 1.4187966e-38
4960.769 -1424.449 630 1.723296e-38
4956.0742 -1433.2786 630 1.2442395e-38
4946.6851 -1450.9375 630 1.6310258e-38
4941.9902 -1459.7668 630 1.5667084e-38
4937.2954 -1468.5964 630 1.594006e-38
4923.7715 -1472.7312 630 1.5388693e-38
4919.0767 -1481.5607 630 1.8160638e-38
4861.4053 -1462.2219 610 2.3509873e-38
4983.8979 -1572.6552 660 2.3509874e-38
5141.7085 -1701.8673 720 2.3509849e-38
5329.5825 -1881.0415 800 2.3509846e-38
4956.5049 -1773.2782 680 2.3050642e-38
4930.0161 -1759.1941 670 2.2586793e-38
4925.3213 -1768.0236 670 2.2402411e-38
4911.7974 -1772.1583 670 2.148116e-38
4911.2373 -1794.512 670 2.1114189e-38
4897.7129 -1798.6467 670 2.0375905e-38
4884.189 -1802.7815 670 1.9086964e-38
4861.8354 -1802.2216 660 1.7886992e-38
4844.1763 -1792.8322 650 1.4468936e-38
4721.6836 -1682.3988 600 4.7016114e-39
4716.9888 -1691.2283 600 4.7930727e-39
4690.5005 -1677.1442 590 1.216979e-38
4668.1465 -1676.5842 590 1.1340053e-38
4650.4878 -1667.1947 580 1.0602837e-38
4619.8647 -1639.5864 570 1.2445278e-38
4606.3403 -1643.7212 570 9.5847147e-39
4601.6455 -1652.5507 560 6.7266698e-39
4588.1216 -1656.6854 560 6.1731317e-39
4583.4268 -1665.5149 560 5.2544026e-39
4569.9023 -1669.6497 560 5.1607805e-39
4565.208 -1678.4791 560 4.6076095e-39
4573.4775 -1705.5276 570 4.7891323e-39
4577.6123 -1719.0518 570 4.0562308e-39
4572.9175 -1727.8812 570 4.2381053e-39
4568.2227 -1736.7107 570 3.7764181e-39
4563.5278 -1745.5402 570 3.3168721e-39
4558.8335 -1754.3696 570 2.857703e-39
4554.1387 -1763.1991 570 2.9509734e-39
4540.6143 -1767.3339 570 3.6867378e-39
4527.0903 -1771.4686 560 3.3193986e-39
4522.3955 -1780.2981 560 3.8707689e-39
6408.8921 -404.96881 870 2.3509886e-38
5096.0557 -488.39474 520 2.3509886e-38
5100.1904 -501.91895 520 2.3509886e-38
4562.582 -533.18744 380 2.3509886e-38
4562.582 -533.18744 380 2.1024866e-38
4557.8877 -542.01691 380 1.5765024e-38
4700.8389 -550.07135 420 1.5946889e-38
4696.1445 -558.90082 420 1.6408211e-38
5236.7671 -585.86383 570 1.1613707e-38
5232.0723 -594.6933 570 8.3879694e-39
5222.6831 -612.35229 570 1.0231134e-38
5209.1587 -616.48706 570 1.2073237e-38
5168.5859 -628.8913 560 9.4914387e-39
5498.0767 -690.82739 660 1.9453887e-38
5524.5649 -704.91156 670 1.9540726e-38
5542.2241 -714.30096 670 2.1572944e-38
5764.6406 -764.60779 740 1.7421308e-38
5799.959 -783.38666 750 1.8623425e-38
5826.4473 -797.47083 760 6.2761328e-39
5839.4111 -815.6897 770 5.8911386e-39
5852.3755 -833.90863 780 2.1293857e-38
5878.8643 -847.9928 780 2.3318198e-38
5869.4746 -865.65173 790 2.2400213e-38
5882.4385 -883.87061 790 2.3506904e-38
5908.9272 -897.95477 800 2.3504028e-38
8105.4868 -1431.6465 1480 1.6409644e-38
8162.5981 -1473.3389 1500 1.5945078e-38
8126.1606 -1499.2673 1490 1.0044946e-38
7996.1733 -1509.4319 1460 1.3083422e-38
8070.9438 -1560.5138 1490 1.3362149e-38
8096.8721 -1596.9517 1500 1.2535635e-38
8051.605 -1618.1854 1490 1.2445247e-38
8072.8389 -1663.4526 1500 1.4006443e-38
8138.7798 -1709.8398 1530 9.0361975e-39
8088.8179 -1739.9031 1520 9.5911621e-39
8101.2222 -1780.4757 1520 9.4971756e-39
8038.2959 -1792.3201 1510 9.2180692e-39
8001.8579 -1818.2485 1500 7.468876e-39
7974.2495 -1848.8717 1500 1.6316714e-38
7960.1655 -1875.3601 1500 1.6686212e-38
7963.7402 -1911.2379 1510 1.7969757e-38
7927.3027 -1937.1665 1500 1.7789691e-38
7975.0249 -1996.5178 1520 1.8061243e-38
8045.1006 -2056.4292 1550 1.723652e-38
7933.3325 -2053.6294 1520 1.8061232e-38
7879.2354 -2070.1685 1510 1.7416957e-38
7873.981 -2101.3516 1510 1.6588634e-38
7828.7134 -2122.5854 1500 1.6954903e-38
7809.9346 -2157.9033 1500 2.3508624e-38
7804.6802 -2189.0864 1500 2.3506188e-38
7954.2212 -2291.2505 1560 2.3509748e-38
7957.7959 -2327.1282 1560 2.3509796e-38
7849.6025 -2360.2063 1540 2.3509803e-38
7786.6763 -2372.0508 1530 2.3509796e-38
7767.8975 -2407.3687 1520 2.3509817e-38
5921.0723 -1663.2341 910 1.0228645e-38
5947.0005 -1699.672 930 6.2656749e-39
5911.1226 -1703.2467 920 6.0848807e-39
5937.0508 -1739.6846 930 5.348036e-39
5874.6846 -1729.1753 910 3.4119376e-39
5829.9775 -1728.0553 900 3.6874426e-39
5586.8867 -1610.1276 820 3.8707521e-39
5568.668 -1623.0918 810 4.0555021e-39
5153.6826 -1402.4402 670 3.1364451e-39
5140.1582 -1406.575 670 2.950965e-39
5126.6343 -1410.7097 660 3.0413768e-39
5113.1104 -1414.8445 660 2.7669339e-39
5073.0977 -1404.8951 650 2.5832643e-39
5037.2197 -1408.47 640 2.7651374e-39
5006.0361 -1403.2153 630 2.5821909e-39
4983.6826 -1402.6553 620 8.941125e-39
4978.9883 -1411.4849 620 1.0508085e-38
4974.2935 -1420.3142 620 1.3732029e-38
4960.769 -1424.449 620 1.6684085e-38
4956.0742 -1433.2786 620 1.1982488e-38
4946.6851 -1450.9375 620 1.6494282e-38
4941.9902 -1459.7668 620 1.61241e-38
4937.2954 -1468.5964 620 1.5022067e-38
4923.7715 -1472.7312 620 1.4746206e-38
4910.2471 -1476.866 620 1.7425586e-38
4861.4053 -1462.2219 600 2.3509865e-38
4983.8979 -1572.6552 650 2.3509874e-38
5141.7085 -1701.8673 710 2.3509886e-38
5329.5825 -1881.0415 790 2.3509859e-38
4965.334 -1777.9729 670 2.277477e-38
4930.0161 -1759.1941 660 2.2128326e-38
4925.3213 -1768.0236 660 2.1479731e-38
4911.7974 -1772.1583 660 2.1570131e-38
4911.2373 -1794.512 660 2.0013238e-38
4897.7129 -1798.6467 660 2.0285141e-38
4893.0186 -1807.4762 660 1.9087312e-38
4870.665 -1806.9163 650 1.8346527e-38
4813.5532 -1765.2238 630 1.4471461e-38
4712.854 -1677.7041 590 4.3346155e-39
4708.1592 -1686.5336 590 2.8602099e-39
4690.5005 -1677.1442 580 1.1251439e-38
4668.1465 -1676.5842 580 1.1341464e-38
4650.4878 -1667.1947 570 9.9632195e-39
4611.0352 -1634.8917 560 1.2442414e-38
4606.3403 -1643.7212 550 9.6783383e-39
4592.8164 -1647.856 550 8.9353993e-39
4588.1216 -1656.6854 550 6.2689189e-39
4583.4268 -1665.5149 550 6.1742079e-39
4569.9023 -1669.6497 550 5.6214083e-39
4569.9023 -1669.6497 550 5.5288385e-39
4573.4775 -1705.5276 560 5.2504594e-39
4577.6123 -1719.0518 560 4.791635e-39
4564.0879 -1723.1865 560 4.1469985e-39
4559.3931 -1732.016 560 3.7792809e-39
4554.6987 -1740.8455 550 3.8704046e-39
4545.8691 -1736.1508 550 3.8721982e-39
4532.3447 -1740.2855 550 3.3158015e-39
4523.5156 -1735.5908 550 3.9633233e-39
4509.9912 -1739.7256 540 4.3306751e-39
4514.126 -1753.2498 550 4.3321072e-39
6431.2461 -405.52878 850 2.3509873e-38
5096.0557 -488.39474 510 2.3509881e-38
5100.1904 -501.91895 510 2.3509884e-38
5095.4956 -510.74841 510 2.3509886e-38
4562.582 -533.18744 380 1.8717493e-38
4557.8877 -542.01691 380 1.5764292e-38
4700.8389 -550.07135 410 1.6865607e-38
4696.1445 -558.90082 410 1.6406429e-38
4696.1445 -558.90082 410 9.5839917e-39
5236.7671 -585.86383 560 1.2260861e-38
5227.3779 -603.52277 560 9.5843462e-39
5222.6831 -612.35229 560 1.0782524e-38
5209.1587 -616.48706 560 1.1980704e-38
5182.1104 -624.75653 550 1.0872187e-38
5177.4155 -633.58606 550 1.5215788e-38
5195.0747 -642.97546 560 1.6502582e-38
5489.2471 -686.13269 640 1.8162452e-38
5493.3818 -699.65686 650 1.9172658e-38
5519.8701 -713.74103 660 2.0001687e-38
5755.8115 -759.91309 720 1.8071344e-38
5875.8491 -789.76123 760 1.7698259e-38
5871.1543 -798.5907 760 1.687496e-38
5870.5947 -820.9444 760 5.1672741e-39
5883.5586 -839.16333 770 1.0402571e-38
5901.2178 -848.55273 780 2.1572956e-38
5891.8281 -866.21167 780 2.2306575e-38
5895.9629 -879.73584 780 2.2768607e-38
5908.9272 -897.95477 780 2.3502592e-38
5921.8916 -916.17371 790 2.2584963e-38
8127.8403 -1432.2064 1450 1.6591875e-38
8184.9521 -1473.8989 1470 1.4107654e-38
8134.9897 -1503.9622 1460 1.0137862e-38
8018.5269 -1509.9919 1430 1.2164347e-38
8070.9438 -1560.5138 1450 1.3177057e-38
8088.043 -1592.2568 1460 1.4005007e-38
8029.2515 -1617.6255 1450 1.3820984e-38
8055.1797 -1654.0632 1460 1.345508e-38
8138.7798 -1709.8398 1490 1.5397302e-38
8079.9883 -1735.2084 1480 1.6510099e-38
8123.5757 -1781.0356 1500 1.7056817e-38
8047.1255 -1797.0148 1480 1.677736e-38
8019.5171 -1827.6379 1470 1.1895701e-38
7987.7739 -1844.7369 1470 1.7044936e-38
7977.8247 -1884.7495 1470 1.6775525e-38
7972.5698 -1915.9327 1470 1.824777e-38
7944.9614 -1946.5559 1470 1.7605295e-38
7979.7197 -1987.6884 1490 1.8246701e-38
7915.6733 -2044.2401 1480 1.7141819e-38
7879.2354 -2070.1685 1470 1.7142513e-38
7865.1514 -2096.657 1470 1.6497878e-38
7819.8843 -2117.8906 1460 1.6221285e-38
7792.2759 -2148.5139 1460 2.350937e-38
7822.3389 -2198.4761 1470 2.3509771e-38
7927.7329 -2277.166 1510 2.3509795e-38
7957.7959 -2327.1282 1530 2.3509813e-38
7858.4321 -2364.9009 1510 2.3509789e-38
7786.6763 -2372.0508 1490 2.3509792e-38
5983.4385 -1673.7434 910 9.5847091e-39
5921.0723 -1663.2341 900 8.8482175e-39
5955.8301 -1704.3667 910 5.8050611e-39
5911.1226 -1703.2467 900 5.9916075e-39
5928.2217 -1734.9899 910 5.1622168e-39
5874.6846 -1729.1753 890 3.5026983e-39
5812.3184 -1718.6659 870 3.5948953e-39
5569.228 -1600.738 790 3.6881685e-39
5568.668 -1623.0918 800 4.2380983e-39
5153.6826 -1402.4402 660 3.6863777e-39
5140.1582 -1406.575 650 3.1342815e-39
5126.6343 -1410.7097 650 2.7658633e-39
5113.1104 -1414.8445 650 2.6740236e-39
5073.0977 -1404.8951 630 2.6729544e-39
5037.2197 -1408.47 630 2.2141286e-39
5014.8657 -1407.9099 620 2.7658591e-39
4983.6826 -1402.6553 610 8.2971919e-39
4978.9883 -1411.4849 610 1.1242773e-38
4965.4639 -1415.6196 610 1.345545e-38
4960.769 -1424.449 610 1.6772332e-38
4956.0742 -1433.2786 610 1.2166523e-38
4946.6851 -1450.9375 610 1.5022758e-38
4941.9902 -1459.7668 610 1.5115346e-38
4937.2954 -1468.5964 610 1.4930584e-38
4923.7715 -1472.7312 600 1.5298285e-38
4910.2471 -1476.866 600 1.7888346e-38
4861.4053 -1462.2219 590 2.3509866e-38
4983.8979 -1572.6552 630 2.3509855e-38
5141.7085 -1701.8673 690 2.3509859e-38
5329.5825 -1881.0415 770 2.3509856e-38
4965.334 -1777.9729 660 2.2770835e-38
4938.8457 -1763.8888 650 2.3231792e-38
4934.1509 -1772.7183 650 2.1850305e-38
4911.7974 -1772.1583 640 2.1483314e-38
4911.2373 -1794.512 650 2.1205638e-38
4897.7129 -1798.6467 640 2.0285489e-38
4893.0186 -1807.4762 640 2.0004598e-38
4870.665 -1806.9163 640 1.742494e-38
4708.7192 -1664.1799 570 4.5190152e-39
4704.0244 -1673.0094 570 2.8573373e-39
4690.5005 -1677.1442 570 1.0973767e-38
4668.1465 -1676.5842 570 1.1064894e-38
4646.353 -1653.6705 560 1.02355e-38
4611.0352 -1634.8917 540 1.2901954e-38
4597.5107 -1639.0265 540 1.0872219e-38
4592.8164 -1647.856 540 9.2148588e-39
4588.1216 -1656.6854 540 7.5553389e-39
4583.4268 -1665.5149 540 7.2787562e-39
4569.9023 -1669.6497 540 6.358595e-39
4561.0732 -1664.955 540 6.3582348e-39
4578.1719 -1696.698 540 5.3466109e-39
4573.4775 -1705.5276 540 4.7923651e-39
4559.9531 -1709.6622 540 4.9763836e-39
4546.4292 -1713.797 540 4.7916406e-39
4537.5996 -1709.1023 540 4.1480607e-39
4524.0752 -1713.2371 530 4.3310254e-39
4510.5513 -1717.3718 530 3.8714906e-39
4510.5513 -1717.3718 530 4.5157726e-39
4497.0269 -1721.5066 530 4.6061802e-39
4496.4668 -1743.8604 530 5.0668038e-39
5096.0557 -488.39474 500 2.350988e-38
5091.3608 -497.22421 500 2.350988e-38
5095.4956 -510.74841 500 2.3509867e-38
4562.582 -533.18744 370 1.6135998e-38
4557.8877 -542.01691 370 1.5852908e-38
4700.8389 -550.07135 410 1.6224905e-38
4696.1445 -558.90082 410 1.474692e-38
4696.1445 -558.90082 410 9.6768978e-39
5250.291 -581.72906 550 9.3081265e-39
5236.7671 -585.86383 550 1.2996617e-38
5232.0723 -594.6933 550 9.4003123e-39
5222.6831 -612.35229 550 1.078144e-38
5209.1587 -616.48706 550 1.2074688e-38
5182.1104 -624.75653 540 1.1793422e-38
5177.4155 -633.58606 540 1.6407495e-38
5181.5503 -647.11023 550 1.6224905e-38
5190.3799 -651.80493 550 1.6778442e-38
5180.9902 -669.46387 550 1.8525484e-38
5462.1987 -694.40222 620 1.8435802e-38
5528.6997 -718.43573 640 1.8987897e-38
5568.7124 -728.38513 660 1.8712393e-38
5657.5674 -752.97858 680 1.8160998e-38
5965.2637 -792.00104 770 1.7701478e-38
5888.8135 -807.98016 750 1.7606046e-38
5906.4727 -817.36957 760 1.5395162e-38
5919.4365 -835.5885 760 4.7952391e-39
5932.4009 -853.80737 770 1.6763645e-38
5923.0117 -871.46631 770 2.1663711e-38
5918.3164 -880.29578 770 2.2126478e-38
5926.5859 -907.34424 770 2.3505096e-38
8119.0107 -1427.5117 1410 1.6593687e-38
8184.9521 -1473.8989 1430 1.4932735e-38
8143.8193 -1508.6569 1430 9.4946435e-39
8018.5269 -1509.9919 1390 1.2624966e-38
8062.1143 -1555.8191 1410 1.3084141e-38
8074.5186 -1596.3916 1420 1.3271043e-38
8011.5923 -1608.2361 1410 1.2904066e-38
8041.6558 -1658.198 1420 1.4099008e-38
8138.7798 -1709.8398 1450 1.6134842e-38
8079.9883 -1735.2084 1440 1.7792927e-38
8141.2349 -1790.425 1460 1.7244455e-38
8047.1255 -1797.0148 1440 1.7149711e-38
8010.6875 -1822.9432 1440 1.2168334e-38
7983.0791 -1853.5664 1430 1.6129447e-38
7960.1655 -1875.3601 1430 1.7417305e-38
7941.3867 -1910.678 1430 1.8429655e-38
7918.4731 -1932.4717 1430 1.7698919e-38
7975.0249 -1996.5178 1450 1.8612982e-38
7924.5029 -2048.9348 1440 1.8334945e-38
7879.2354 -2070.1685 1440 1.8063755e-38
7865.1514 -2096.657 1430 1.6222377e-38
7819.8843 -2117.8906 1430 1.6312046e-38
7774.6167 -2139.1245 1420 1.5852506e-38
