# .PCD v0.7 - Point Cloud Data file format
VERSION 0.7
FIELDS x y z rgb
SIZE 4 4 4 4
TYPE F F F F
COUNT 1 1 1 1
WIDTH 1256
HEIGHT 1
VIEWPOINT 0 0 0 1 0 0 0
POINTS 1256
DATA ascii
4480.0903 -1745.4686 90 1.343786e-38
5098.4575 -454.68518 80 2.2768297e-38
5093.7627 -463.51465 80 2.3045961e-38
5089.0684 -472.34412 80 2.3137433e-38
5075.5439 -476.47888 80 2.304454e-38
5070.8491 -485.30835 80 2.3044889e-38
5074.9839 -498.83255 80 1.3639892e-38
5092.6426 -508.22198 80 1.1429685e-38
5101.4722 -512.91669 80 1.2071816e-38
5119.1313 -522.30615 80 1.253171e-38
5114.4365 -531.13562 80 1.2163648e-38
5202.7314 -578.08276 70 8.2028425e-39
5206.8662 -591.60693 70 1.0044953e-38
5211.001 -605.1311 70 1.0507367e-38
5206.3062 -613.96057 70 8.5705474e-39
5192.7822 -618.09534 70 7.2794653e-39
5174.563 -631.05957 70 7.6503988e-39
5918.2637 -766.00104 40 8.0188184e-39
5917.7041 -788.35474 40 7.8358522e-39
5899.4849 -801.31897 40 8.4790622e-39
5903.6196 -814.84314 40 8.6616626e-39
5885.4009 -827.80737 40 8.937888e-39
6013.708 -884.70392 30 9.3070222e-39
6124.9165 -909.8573 30 9.4917722e-39
6084.3438 -922.2616 30 9.6775886e-39
6092.6133 -949.31 30 1.0507348e-38
4234.5889 -652.24896 110 1.4196253e-38
4234.5889 -652.24896 110 1.4285924e-38
4229.8945 -661.07843 110 1.1612633e-38
6811.8062 -1705.4595 -10 1.520498e-38
6762.4043 -1713.1691 -10 1.548301e-38
6721.8315 -1725.5732 -10 1.4468154e-38
6672.4297 -1733.2828 -10 1.1152727e-38
5858.6528 -1538.4301 20 1.2073239e-38
5858.0928 -1560.7837 20 1.2165434e-38
5813.3857 -1559.6638 20 1.1979249e-38
5795.167 -1572.6281 30 1.1888137e-38
5785.7773 -1590.287 30 1.1889924e-38
5785.2173 -1612.6406 20 1.1059108e-38
5705.1924 -1592.7419 30 1.1979978e-38
5466.2363 -1488.3384 40 1.1610115e-38
5492.165 -1524.7761 40 1.1244219e-38
5465.1162 -1533.0457 40 1.1154169e-38
5460.4219 -1541.8751 40 1.1518282e-38
5451.0322 -1559.5341 40 1.0967274e-38
5446.3374 -1568.3635 40 1.2351988e-38
5441.6426 -1577.193 40 9.3059713e-39
5432.2534 -1594.8519 40 1.2903376e-38
5007.8784 -1391.8594 60 1.1338204e-38
4994.3545 -1395.9941 60 1.1152744e-38
4980.8301 -1400.1289 60 1.0598847e-38
4976.1353 -1408.9584 70 9.3084894e-39
4966.7461 -1426.6173 60 9.8577017e-39
4953.2217 -1430.7521 70 9.9531189e-39
4939.6978 -1434.8868 70 1.4193019e-38
4935.0029 -1443.7163 70 1.032118e-38
4934.4429 -1466.0701 70 1.0321529e-38
4929.748 -1474.8994 70 1.382172e-38
4916.2241 -1479.0342 70 1.317996e-38
4683.083 -1321.0938 80 1.3270703e-38
4678.3882 -1329.9233 80 1.2716103e-38
4664.8638 -1334.0581 80 2.3417249e-38
4660.1689 -1342.8875 80 2.350909e-38
4655.4746 -1351.717 80 2.35098e-38
4650.7798 -1360.5464 80 2.3415812e-38
4637.2559 -1364.6812 80 2.3322194e-38
4562.4849 -1313.5994 90 2.3505519e-38
4557.79 -1322.4287 90 2.3412968e-38
4544.2661 -1326.5635 90 2.2587516e-38
4539.5713 -1335.3931 90 2.3046682e-38
4539.5713 -1335.3931 90 2.1848168e-38
4700.957 -1500.4832 70 2.1943579e-38
4705.0918 -1514.0073 70 2.1301082e-38
4713.3613 -1541.0557 70 2.2216547e-38
4721.6309 -1568.104 70 2.0651757e-38
4716.936 -1576.9336 70 2.0925462e-38
4441.3271 -1328.4585 90 2.139002e-38
4436.6328 -1337.2881 90 2.1292802e-38
4431.938 -1346.1174 90 1.9546149e-38
4436.0728 -1359.6416 90 1.9452495e-38
4453.1714 -1391.3848 90 1.9816958e-38
4260.043 -1243.3938 100 9.8648988e-39
4255.3481 -1252.2231 100 9.2191818e-39
4250.6533 -1261.0527 100 1.0600276e-38
4254.7881 -1274.5769 100 1.0689256e-38
4263.0576 -1301.6252 100 9.7680144e-39
4297.8159 -1342.7578 100 1.0782172e-38
4293.1211 -1351.5872 100 1.041482e-38
4301.3906 -1378.6356 100 6.7288222e-39
4305.5254 -1392.1598 90 7.4692445e-39
4300.8306 -1400.9893 90 9.7701808e-39
4300.8306 -1400.9893 90 8.295778e-39
4296.1357 -1409.8188 90 9.0336948e-39
4291.4414 -1418.6482 90 9.9549308e-39
4277.917 -1422.783 90 8.662055e-39
5098.4575 -454.68518 70 2.2124732e-38
5093.7627 -463.51465 70 2.2398807e-38
5089.0684 -472.34412 70 2.2312368e-38
5075.5439 -476.47888 70 2.2774766e-38
5070.8491 -485.30835 70 2.2126878e-38
5074.9839 -498.83255 70 1.2540381e-38
5092.6426 -508.22198 70 1.2161843e-38
5101.4722 -512.91669 70 1.1888856e-38
5105.6069 -526.44092 70 1.124959e-38
5114.4365 -531.13562 70 1.2072535e-38
5118.5713 -544.65979 70 7.1887046e-39
5145.0596 -558.74396 70 7.3734489e-39
5198.0366 -586.91223 60 8.2006887e-39
5206.8662 -591.60693 60 9.586486e-39
5211.001 -605.1311 60 1.0689958e-38
5206.3062 -613.96057 60 9.0300794e-39
5192.7822 -618.09534 60 7.3745294e-39
5174.563 -631.05957 60 7.8319034e-39
5454.0913 -723.05896 50 8.3861547e-39
5480.5801 -737.14307 40 8.3843639e-39
5890.6553 -796.62427 20 8.1106482e-39
5528.8623 -774.14087 40 8.2946766e-39
5854.2178 -822.55273 20 8.752066e-39
5938.3779 -855.97571 20 8.846407e-39
6049.5859 -881.12909 10 8.6620172e-39
6124.9165 -909.8573 10 9.1265742e-39
6079.6494 -931.09106 10 9.6747243e-39
6092.6133 -949.31 10 1.0783219e-38
6087.9189 -958.13953 10 1.4745823e-38
6056.1758 -975.23853 10 1.4285923e-38
6037.957 -988.20276 10 1.4562159e-38
6811.8062 -1705.4595 -40 1.446564e-38
6762.4043 -1713.1691 -40 1.5293951e-38
6721.8315 -1725.5732 -40 1.382387e-38
6672.4297 -1733.2828 -30 1.1150572e-38
5804.5562 -1554.9691 10 1.1889565e-38
5795.167 -1572.6281 10 1.197997e-38
5785.7773 -1590.287 10 1.1889925e-38
5776.3877 -1607.9459 10 1.0414105e-38
5475.0654 -1493.033 20 1.0967271e-38
5500.9941 -1529.4708 20 1.1060543e-38
5465.1162 -1533.0457 20 1.1152381e-38
5460.4219 -1541.8751 20 1.0876157e-38
5451.0322 -1559.5341 20 1.0969056e-38
5446.3374 -1568.3635 20 1.2718616e-38
5441.6426 -1577.193 20 9.3995948e-39
5414.5942 -1585.4625 30 1.2533522e-38
5007.8784 -1391.8594 50 1.1062341e-38
4985.5249 -1391.2993 50 1.0417342e-38
4980.8301 -1400.1289 50 1.0502712e-38
4976.1353 -1408.9584 50 9.2159294e-39
4966.7461 -1426.6173 50 9.12444e-39
4962.0513 -1435.4468 50 1.0504854e-38
4939.6978 -1434.8868 50 1.5111362e-38
4935.0029 -1443.7163 50 1.0228627e-38
4934.4429 -1466.0701 50 1.0045668e-38
4929.748 -1474.8994 50 1.3546209e-38
4916.2241 -1479.0342 50 1.3270358e-38
4674.2534 -1316.3992 70 1.2809743e-38
4669.5586 -1325.2285 70 1.1798834e-38
4664.8638 -1334.0581 70 2.3508741e-38
4660.1689 -1342.8875 70 2.3048844e-38
4655.4746 -1351.717 70 2.3508382e-38
4641.9502 -1355.8518 70 2.350802e-38
4558.3501 -1300.0752 80 2.305063e-38
4553.6553 -1308.9045 80 2.3506926e-38
4548.9609 -1317.7341 80 2.2585354e-38
4540.1313 -1313.0393 80 2.2681844e-38
4548.4009 -1340.0878 80 2.2770451e-38
4539.5713 -1335.3931 80 2.2952693e-38
4565.5 -1371.8308 70 2.1576572e-38
4687.4326 -1504.6179 60 2.1847417e-38
4704.5317 -1536.361 60 2.0559567e-38
4730.46 -1572.7988 60 2.1205649e-38
4703.9717 -1558.7146 60 2.046844e-38
4437.1924 -1314.9343 80 2.1477561e-38
4450.1567 -1333.1533 80 2.0558842e-38
4436.6328 -1337.2881 80 2.0834717e-38
4423.1084 -1341.4227 80 1.9269905e-38
4427.2432 -1354.947 80 1.917556e-38
4444.3423 -1386.6901 80 1.8898958e-38
4457.3062 -1404.9089 80 1.8528756e-38
4443.7822 -1409.0437 80 1.5301928e-38
4251.2134 -1238.699 90 9.6812264e-39
4246.5186 -1247.5286 90 9.4035647e-39
4246.5186 -1247.5286 90 1.0231515e-38
4245.959 -1269.8821 90 1.0595258e-38
4258.9229 -1288.1011 90 3.2261128e-39
4245.3989 -1292.2358 90 2.4871114e-39
4271.3271 -1328.6736 90 2.9452057e-39
4297.2559 -1365.1115 90 2.8540932e-39
4296.6958 -1387.4651 90 3.6809714e-39
4300.8306 -1400.9893 90 3.7735328e-39
4300.8306 -1400.9893 90 4.5074965e-39
4296.1357 -1409.8188 90 4.5996907e-39
4291.4414 -1418.6482 90 5.3350978e-39
4277.917 -1422.783 90 5.4269305e-39
5098.4575 -454.68518 60 2.1943574e-38
5093.7627 -463.51465 60 2.2127957e-38
5089.0684 -472.34412 60 2.2589291e-38
5084.373 -481.17358 60 2.2588585e-38
5079.6787 -490.00308 60 2.2310553e-38
5074.9839 -498.83255 60 1.299595e-38
5092.6426 -508.22198 60 1.1887775e-38
5110.3018 -517.61139 60 1.1889928e-38
5105.6069 -526.44092 60 1.1890654e-38
5114.4365 -531.13562 60 1.1613358e-38
5118.5713 -544.65979 60 7.1876382e-39
5140.3652 -567.57343 60 8.1077784e-39
5162.7188 -568.13336 50 1.3086307e-38
5198.0366 -586.91223 50 8.2003328e-39
5206.8662 -591.60693 50 9.5847007e-39
5211.001 -605.1311 50 1.0874702e-38
5206.3062 -613.96057 50 8.112802e-39
5192.7822 -618.09534 50 7.556757e-39
5183.3926 -635.75433 50 7.6482366e-39
5427.603 -708.97479 40 7.9230242e-39
5454.0913 -723.05896 30 7.466718e-39
5462.3608 -750.1073 30 8.0173806e-39
5520.0327 -769.44611 30 8.1099196e-39
5863.0469 -827.24744 10 8.7520632e-39
6098.4282 -895.77319 0 8.9403977e-39
6120.2217 -918.68683 0 9.5821784e-39
6070.8198 -926.39636 0 9.308467e-39
6092.6133 -949.31 0 1.2067122e-38
6096.748 -962.83423 0 1.5486264e-38
6073.835 -984.62793 0 1.5301871e-38
6055.6157 -997.59216 0 1.529684e-38
6785.3174 -1691.3752 -60 1.4927678e-38
6740.0508 -1712.609 -60 1.5295386e-38
6713.002 -1720.8785 -60 1.3087385e-38
5876.3115 -1547.8195 -10 1.1336044e-38
5795.167 -1572.6281 0 1.179738e-38
5785.7773 -1590.287 0 1.1702674e-38
5776.3877 -1607.9459 0 1.0044598e-38
5475.0654 -1493.033 10 1.1426451e-38
5500.9941 -1529.4708 10 1.1336052e-38
5465.1162 -1533.0457 10 1.1517195e-38
5460.4219 -1541.8751 10 1.0966192e-38
5459.8618 -1564.2288 10 1.0875795e-38
5437.5078 -1563.6688 10 1.2352358e-38
5441.6426 -1577.193 10 9.3967221e-39
5405.7646 -1580.7678 10 1.2903379e-38
5007.8784 -1391.8594 40 1.2161504e-38
4985.5249 -1391.2993 40 1.0966202e-38
4980.8301 -1400.1289 40 1.004497e-38
4976.1353 -1408.9584 40 9.860224e-39
4966.7461 -1426.6173 40 9.0336835e-39
4962.0513 -1435.4468 40 9.5857685e-39
4939.6978 -1434.8868 40 1.4650755e-38
4935.0029 -1443.7163 40 1.004532e-38
4934.4429 -1466.0701 40 1.0230418e-38
4929.748 -1474.8994 40 1.3362181e-38
4916.2241 -1479.0342 40 1.3084878e-38
4674.2534 -1316.3992 60 1.308597e-38
4669.5586 -1325.2285 60 1.2716461e-38
4664.8638 -1334.0581 60 2.3228565e-38
4660.1689 -1342.8875 60 2.3417965e-38
4655.4746 -1351.717 60 2.2865169e-38
4641.9502 -1355.8518 60 2.3509098e-38
4558.3501 -1300.0752 70 2.2866231e-38
4553.6553 -1308.9045 70 2.2586426e-38
4544.8262 -1304.21 70 2.2310206e-38
4540.1313 -1313.0393 70 2.203326e-38
4544.2661 -1326.5635 70 2.2220514e-38
4530.7422 -1330.6982 70 2.2860116e-38
4526.0474 -1339.5278 70 2.3044856e-38
4490.7295 -1320.749 70 2.1573734e-38
4486.0347 -1329.5784 70 2.1385716e-38
4472.5103 -1333.7131 70 2.1017673e-38
4463.6807 -1329.0186 70 2.1016227e-38
4450.1567 -1333.1533 70 2.0559202e-38
4445.4619 -1341.9827 70 2.0282984e-38
4440.7676 -1350.8123 70 1.9821641e-38
4431.938 -1346.1174 70 1.9359238e-38
4436.0728 -1359.6416 70 1.9819838e-38
4440.2075 -1373.1658 70 1.8899678e-38
4435.5127 -1381.9954 70 1.8622386e-38
4430.8179 -1390.8248 70 1.4659769e-38
4417.2939 -1394.9596 70 5.4341598e-39
4421.4287 -1408.4838 70 2.3056054e-39
4260.043 -1243.3938 90 8.5745201e-39
4251.2134 -1238.699 90 9.3117404e-39
4246.5186 -1247.5286 90 9.9527826e-39
4241.8242 -1256.3579 90 9.9542035e-39
4250.6533 -1261.0527 90 9.3084796e-39
4250.0938 -1283.4062 90 7.3723784e-39
4250.0938 -1283.4062 90 2.1190561e-39
4271.3271 -1328.6736 80 2.2105315e-39
4288.4263 -1360.4167 80 1.5683977e-39
4296.6958 -1387.4651 80 1.8435497e-39
4296.6958 -1387.4651 80 1.9343048e-39
4292.001 -1396.2946 80 1.8421105e-39
4287.3066 -1405.124 80 1.9350236e-39
4282.6118 -1413.9536 80 1.7506338e-39
4277.917 -1422.783 80 1.5669628e-39
5098.4575 -454.68518 50 2.2216912e-38
5093.7627 -463.51465 50 2.1754881e-38
5089.0684 -472.34412 50 2.31367e-38
5075.5439 -476.47888 50 2.2861938e-38
5070.8491 -485.30835 50 2.2126518e-38
5074.9839 -498.83255 50 1.2536055e-38
5092.6426 -508.22198 50 1.2254764e-38
5110.3018 -517.61139 50 1.1705537e-38
5105.6069 -526.44092 50 1.1794876e-38
5114.4365 -531.13562 50 1.1522947e-38
5118.5713 -544.65979 50 7.3720266e-39
5131.5356 -562.87872 50 7.7397189e-39
5162.7188 -568.13336 40 1.2901193e-38
5189.207 -582.21753 40 7.9248347e-39
5206.8662 -591.60693 40 9.952393e-39
5211.001 -605.1311 40 1.0965096e-38
5206.3062 -613.96057 40 8.3854401e-39
5201.6113 -622.7901 40 7.647159e-39
5183.3926 -635.75433 40 7.6493128e-39
5418.7734 -704.28009 20 7.5578444e-39
5454.0913 -723.05896 20 8.2910864e-39
5511.2031 -764.7514 10 8.4769084e-39
5854.2178 -822.55273 0 8.8442616e-39
5938.3779 -855.97571 -10 9.0293661e-39
6080.7695 -886.38379 -20 9.6747159e-39
6111.3926 -913.99207 -20 1.0043147e-38
6070.8198 -926.39636 -20 9.583965e-39
6092.6133 -949.31 -20 1.1424264e-38
6096.748 -962.83423 -20 1.5022777e-38
6078.5293 -975.79846 -20 1.5667765e-38
7999.1353 -1453.3687 -160 7.1879801e-39
6771.7935 -1695.51 -90 1.4741856e-38
6731.2207 -1707.9143 -90 1.5018453e-38
6699.4775 -1725.0133 -90 1.3362524e-38
5795.7266 -1550.2744 -20 1.1154525e-38
5786.3369 -1567.9333 -20 1.0783594e-38
5776.9478 -1585.5923 -20 1.1060901e-38
5767.5586 -1603.2512 -20 1.0414464e-38
5687.5332 -1583.3524 -20 1.0786111e-38
5475.0654 -1493.033 0 1.1244218e-38
5473.9458 -1537.7404 0 1.1151295e-38
5469.251 -1546.5698 0 1.1152011e-38
5459.8618 -1564.2288 0 1.0878301e-38
5446.3374 -1568.3635 0 1.3181739e-38
5450.4722 -1581.8877 0 8.6645493e-39
5441.083 -1599.5466 0 1.2534238e-38
5007.8784 -1391.8594 30 1.161156e-38
4985.5249 -1391.2993 30 1.1334623e-38
4980.8301 -1400.1289 30 1.0141107e-38
4976.1353 -1408.9584 30 9.310639e-39
4966.7461 -1426.6173 30 8.8478588e-39
4962.0513 -1435.4468 30 9.4006584e-39
4939.6978 -1434.8868 30 1.4375962e-38
4935.0029 -1443.7163 30 9.4932212e-39
4934.4429 -1466.0701 30 1.0689587e-38
4929.748 -1474.8994 30 1.3177428e-38
4916.2241 -1479.0342 30 1.3178504e-38
4665.4238 -1311.7043 50 1.2350549e-38
4660.729 -1320.5338 50 1.2075051e-38
4656.0342 -1329.3633 50 2.3323985e-38
4651.3398 -1338.1929 50 2.2678626e-38
4646.645 -1347.0222 50 2.3141385e-38
4589.5332 -1305.3298 60 2.2127262e-38
4558.3501 -1300.0752 60 2.3046672e-38
4544.8262 -1304.21 60 2.175847e-38
4544.8262 -1304.21 60 2.2400234e-38
4531.3018 -1308.3447 60 2.2123651e-38
4539.5713 -1335.3931 60 2.2494209e-38
4530.7422 -1330.6982 60 2.1482595e-38
4504.2534 -1316.6143 60 2.1293542e-38
4481.8999 -1316.0542 60 2.1663012e-38
4486.0347 -1329.5784 60 2.1110941e-38
4472.5103 -1333.7131 60 1.9641929e-38
4463.6807 -1329.0186 60 2.055778e-38
4458.9863 -1337.8479 60 2.0007109e-38
4445.4619 -1341.9827 60 1.9636905e-38
4445.4619 -1341.9827 60 1.9912406e-38
4440.7676 -1350.8123 60 1.9177348e-38
4436.0728 -1359.6416 60 1.9356008e-38
4431.3779 -1368.4712 60 1.8164279e-38
4426.6831 -1377.3005 60 1.7881593e-38
4421.9883 -1386.1301 60 1.3735327e-38
4417.2939 -1394.9596 60 4.5143615e-39
4412.5991 -1403.7891 60 2.2126881e-39
4260.043 -1243.3938 80 8.4815972e-39
4251.2134 -1238.699 80 9.9570916e-39
4246.5186 -1247.5286 80 8.7582051e-39
4246.5186 -1247.5286 80 1.0596333e-38
4241.8242 -1256.3579 80 1.0044251e-38
4250.0938 -1283.4062 80 8.3876093e-39
4241.2642 -1278.7117 80 2.8566226e-39
4267.1924 -1315.1494 80 3.0406481e-39
4279.5967 -1355.7219 70 2.4871226e-39
4301.3906 -1378.6356 70 2.3034516e-39
4296.6958 -1387.4651 70 2.4864023e-39
4292.001 -1396.2946 70 2.2112434e-39
4287.3066 -1405.124 70 2.0261431e-39
4282.6118 -1413.9536 70 1.9353852e-39
4277.917 -1422.783 70 2.1186946e-39
5098.4575 -454.68518 40 2.221657e-38
5093.7627 -463.51465 40 2.2494943e-38
5089.0684 -472.34412 40 2.2033615e-38
5075.5439 -476.47888 40 2.203505e-38
5070.8491 -485.30835 40 2.2308027e-38
5074.9839 -498.83255 40 1.2536425e-38
5092.6426 -508.22198 40 1.1428239e-38
5110.3018 -517.61139 40 1.2440229e-38
5105.6069 -526.44092 40 1.1797019e-38
5114.4365 -531.13562 40 1.1337121e-38
5118.5713 -544.65979 40 7.1879899e-39
5145.0596 -558.74396 30 6.9110415e-39
5162.7188 -568.13336 30 1.1613328e-38
5189.207 -582.21753 30 8.0159359e-39
5206.8662 -591.60693 30 9.6772439e-39
5211.001 -605.1311 30 1.0595962e-38
5206.3062 -613.96057 30 8.6616668e-39
5201.6113 -622.7901 30 7.5564053e-39
5205.7461 -636.31427 30 7.0983026e-39
5192.2222 -640.44904 30 7.6489484e-39
5472.3105 -710.09473 0 8.5676663e-39
5476.4453 -723.6189 0 8.2925172e-39
5556.4702 -743.51764 0 7.4667124e-39
5547.0811 -761.17657 0 8.47727e-39
5551.2158 -774.70081 0 8.4772756e-39
5929.5479 -851.28101 -20 8.5716264e-39
6089.5986 -891.07849 -40 9.1230009e-39
6102.563 -909.29736 -40 9.3066565e-39
6070.8198 -926.39636 -40 9.4917764e-39
6092.6133 -949.31 -40 1.1423185e-38
6105.5781 -967.52893 -40 1.5298997e-38
6096.1885 -985.18787 -40 1.5391902e-38
6794.1475 -1696.0701 -120 1.4009683e-38
6753.5747 -1708.4742 -120 1.456034e-38
6721.8315 -1725.5732 -110 1.2351986e-38
6672.4297 -1733.2828 -110 1.0875416e-38
5773.373 -1549.7144 -40 1.1428236e-38
5777.5078 -1563.2385 -40 1.069355e-38
5768.1182 -1580.8976 -40 1.1152374e-38
5758.729 -1598.5565 -40 9.7690906e-39
5466.2363 -1488.3384 -10 1.1241338e-38
5465.1162 -1533.0457 -20 1.0966553e-38
5460.4219 -1541.8751 -20 1.105802e-38
5451.0322 -1559.5341 -20 1.0691403e-38
5437.5078 -1563.6688 -20 1.2536735e-38
5441.6426 -1577.193 -20 9.2137658e-39
5432.2534 -1594.8519 -20 1.1986808e-38
5007.8784 -1391.8594 10 1.1059838e-38
4985.5249 -1391.2993 10 1.0785402e-38
4980.8301 -1400.1289 10 1.004604e-38
4976.1353 -1408.9584 10 8.9404131e-39
4966.7461 -1426.6173 10 9.215914e-39
4962.0513 -1435.4468 10 9.4020933e-39
4939.6978 -1434.8868 20 1.4651471e-38
4935.0029 -1443.7163 20 9.7694451e-39
4934.4429 -1466.0701 10 1.0230418e-38
4929.748 -1474.8994 10 1.2626415e-38
4916.2241 -1479.0342 20 1.3175996e-38
4665.4238 -1311.7043 40 1.2623181e-38
4660.729 -1320.5338 40 1.1890302e-38
4656.0342 -1329.3633 40 2.2587851e-38
4651.3398 -1338.1929 40 2.286338e-38
4646.645 -1347.0222 40 2.1485469e-38
4563.0449 -1291.2456 50 2.139365e-38
4558.3501 -1300.0752 50 2.0748285e-38
4549.521 -1295.3804 50 2.2861211e-38
4544.8262 -1304.21 50 2.2028574e-38
4522.4727 -1303.6499 50 2.0551648e-38
4526.6074 -1317.1741 50 2.0557769e-38
4508.9482 -1307.7847 50 2.0284782e-38
4504.2534 -1316.6143 50 2.0835059e-38
4490.7295 -1320.749 50 1.9914214e-38
4486.0347 -1329.5784 50 2.0184321e-38
4481.3398 -1338.408 50 2.092403e-38
4472.5103 -1333.7131 50 1.9727651e-38
4458.9863 -1337.8479 50 1.9086596e-38
4454.2915 -1346.6775 50 1.9821267e-38
4440.7676 -1350.8123 50 1.8716374e-38
4440.7676 -1350.8123 50 1.9264508e-38
4436.0728 -1359.6416 50 1.7972356e-38
4431.3779 -1368.4712 50 1.760788e-38
4426.6831 -1377.3005 50 1.733129e-38
4421.9883 -1386.1301 50 1.3915764e-38
4417.2939 -1394.9596 50 4.0544525e-39
4412.5991 -1403.7891 50 2.0279465e-39
4260.043 -1243.3938 70 8.5734481e-39
4251.2134 -1238.699 70 9.4010564e-39
4246.5186 -1247.5286 70 9.3074146e-39
4237.6895 -1242.8337 70 1.0412671e-38
4232.9946 -1251.6632 70 1.0133201e-38
4215.3359 -1242.2738 70 8.8485748e-39
4215.3359 -1242.2738 70 3.5023451e-39
4249.5337 -1305.76 70 3.5948925e-39
4262.498 -1323.9789 70 3.1335598e-39
4270.7676 -1351.0273 70 2.6725859e-39
4131.7354 -1186.4972 80 2.4885645e-39
4292.001 -1396.2946 60 2.3048795e-39
4287.3066 -1405.124 60 2.3959962e-39
4282.6118 -1413.9536 60 2.4863967e-39
4282.6118 -1413.9536 60 2.119059e-39
5098.4575 -454.68518 30 2.1206018e-38
5093.7627 -463.51465 30 2.2399165e-38
5089.0684 -472.34412 30 2.2217646e-38
5084.373 -481.17358 30 2.1757043e-38
5070.8491 -485.30835 30 2.1939968e-38
5074.9839 -498.83255 30 1.3179976e-38
5092.6426 -508.22198 30 1.1889573e-38
5110.3018 -517.61139 30 1.1336058e-38
5105.6069 -526.44092 30 1.1797729e-38
5123.2661 -535.83032 30 1.1242773e-38
5118.5713 -544.65979 30 7.5553277e-39
5145.0596 -558.74396 20 6.1742093e-39
5171.5483 -572.82806 20 6.2653091e-39
5198.0366 -586.91223 20 7.5574759e-39
5206.8662 -591.60693 20 9.8587625e-39
5211.001 -605.1311 20 1.0414445e-38
5206.3062 -613.96057 20 7.6521868e-39
5201.6113 -622.7901 20 7.1894164e-39
5219.2705 -632.1795 10 7.2812575e-39
5214.5757 -641.00897 10 7.1919233e-39
5325.7842 -666.16241 0 7.9251822e-39
5517.5776 -688.86096 0 7.5571298e-39
5597.6025 -708.7597 -10 7.5556836e-39
5588.2134 -726.41864 -10 7.9248235e-39
5583.5186 -735.24811 -10 7.8354977e-39
5587.6533 -748.77234 -10 7.9251794e-39
5578.2642 -766.43127 -10 8.2014047e-39
5582.3989 -779.95544 -10 8.2010446e-39
6120.7817 -896.33313 -60 8.9389586e-39
6102.563 -909.29736 -60 9.3992165e-39
6061.9902 -921.70166 -50 9.6747285e-39
6083.7842 -944.6153 -60 1.0964014e-38
6096.748 -962.83423 -60 1.4933439e-38
6096.1885 -985.18787 -60 1.4843404e-38
6794.1475 -1696.0701 -140 1.4373432e-38
6780.063 -1722.5585 -140 1.428483e-38
6748.3203 -1739.6575 -140 1.317455e-38
6681.2588 -1737.9775 -140 1.0784295e-38
5764.5435 -1545.0198 -60 1.1153086e-38
5777.5078 -1563.2385 -60 1.0691766e-38
5759.2891 -1576.2029 -60 1.105875e-38
5758.729 -1598.5565 -60 1.0501625e-38
5466.2363 -1488.3384 -30 1.1059097e-38
5465.1162 -1533.0457 -30 1.0783586e-38
5460.4219 -1541.8751 -30 1.0598132e-38
5451.0322 -1559.5341 -30 1.0784306e-38
5437.5078 -1563.6688 -30 1.2166527e-38
5450.4722 -1581.8877 -30 9.858038e-39
5458.7417 -1608.9362 -40 1.2258364e-38
5458.1816 -1631.2898 -40 1.2532073e-38
5007.8784 -1391.8594 0 1.1150954e-38
4994.3545 -1395.9941 0 1.0324784e-38
4980.8301 -1400.1289 0 9.9531231e-39
4976.1353 -1408.9584 0 9.4946631e-39
4966.7461 -1426.6173 0 9.1229967e-39
4962.0513 -1435.4468 0 9.9552671e-39
4948.5273 -1439.5815 0 1.3734192e-38
4943.8325 -1448.411 0 1.0134628e-38
4934.4429 -1466.0701 0 1.0599545e-38
4929.748 -1474.8994 0 1.2164026e-38
4916.2241 -1479.0342 0 1.2348403e-38
4665.4238 -1311.7043 30 1.1705544e-38
4660.729 -1320.5338 30 1.1983558e-38
4656.0342 -1329.3633 30 2.1301439e-38
4651.3398 -1338.1929 30 2.2402382e-38
4642.5103 -1333.498 30 2.3134911e-38
4563.0449 -1291.2456 40 2.2216578e-38
4558.3501 -1300.0752 40 2.2212248e-38
4549.521 -1295.3804 40 2.1383941e-38
4544.8262 -1304.21 40 5.7071327e-39
4522.4727 -1303.6499 40 5.6221019e-39
4517.7778 -1312.4795 40 6.9161002e-39
4500.1187 -1303.09 40 5.9826252e-39
4504.2534 -1316.6143 40 4.0558902e-39
4490.7295 -1320.749 40 2.7640598e-39
4494.8643 -1334.2732 40 3.1328465e-39
4490.1694 -1343.1025 40 3.3157889e-39
4476.645 -1347.2373 40 2.7647927e-39
4458.9863 -1337.8479 40 2.9477364e-39
4445.4619 -1341.9827 50 3.1339241e-39
4445.4619 -1341.9827 50 3.9629659e-39
4440.7676 -1350.8123 50 2.4892834e-39
4436.0728 -1359.6416 50 3.5963316e-39
4431.3779 -1368.4712 50 5.7088955e-39
4426.6831 -1377.3005 50 4.9825045e-39
4421.9883 -1386.1301 50 2.5796798e-39
4417.2939 -1394.9596 50 2.1197834e-39
4412.5991 -1403.7891 50 3.1321319e-39
4260.043 -1243.3938 70 2.4907253e-39
4251.2134 -1238.699 70 2.5814804e-39
4242.3838 -1234.0043 70 2.3034586e-39
4237.6895 -1242.8337 70 3.2243149e-39
4232.9946 -1251.6632 70 5.9898447e-39
4224.165 -1246.9685 70 2.9470077e-39
4219.4707 -1255.798 70 3.4980277e-39
4210.6411 -1251.1033 70 2.1212156e-39
4236.5693 -1287.541 60 2.5796812e-39
4197.1167 -1255.238 70 2.3974409e-39
4140.5649 -1191.1919 80 2.6729418e-39
4287.3066 -1405.124 60 2.7654962e-39
4282.6118 -1413.9536 60 2.4881988e-39
4282.6118 -1413.9536 60 2.7644242e-39
5098.4575 -454.68518 20 2.1292463e-38
5093.7627 -463.51465 20 2.1758809e-38
5089.0684 -472.34412 20 2.1852081e-38
5075.5439 -476.47888 20 2.3043805e-38
5070.8491 -485.30835 20 2.1943574e-38
5074.9839 -498.83255 20 1.2537862e-38
5110.3018 -517.61139 20 1.2254764e-38
5105.6069 -526.44092 20 1.2256203e-38
5114.4365 -531.13562 20 1.1339628e-38
5109.7417 -539.96509 20 7.3727357e-39
5145.0596 -558.74396 10 6.267121e-39
5171.5483 -572.82806 10 5.713943e-39
5198.0366 -586.91223 10 7.9273346e-39
5206.8662 -591.60693 10 9.6754502e-39
5211.001 -605.1311 0 1.0963314e-38
5206.3062 -613.96057 10 8.5690985e-39
5201.6113 -622.7901 0 7.8297552e-39
5228.0996 -636.87421 0 7.0068258e-39
5356.9673 -671.41705 0 7.2805317e-39
5495.2241 -688.30096 -10 7.832625e-39
5499.3589 -701.8252 -10 7.3730804e-39
5503.4937 -715.34937 -20 7.9248108e-39
5516.458 -733.56824 -20 7.9251766e-39
5565.2998 -748.21234 -20 8.2010474e-39
5569.4346 -761.73657 -20 8.3840023e-39
5573.5693 -775.26074 -20 8.7531324e-39
6089.5986 -891.07849 -70 9.2123155e-39
6102.563 -909.29736 -80 8.7545729e-39
6070.8198 -926.39636 -70 9.1240729e-39
6083.7842 -944.6153 -80 1.0321157e-38
6087.9189 -958.13953 -80 1.438171e-38
6087.3589 -980.49316 -80 1.4841245e-38
6768.2188 -1659.6322 -170 1.3911381e-38
6754.1348 -1686.1206 -170 1.3455072e-38
6753.5747 -1708.4742 -170 1.4192635e-38
6730.6611 -1730.2681 -170 1.262424e-38
6690.0884 -1742.6722 -160 1.0046382e-38
6649.5156 -1755.0765 -160 1.0505204e-38
6635.4316 -1781.5651 -160 1.09651e-38
5822.7754 -1542.0049 -80 1.1061255e-38
5773.373 -1549.7144 -80 1.0965832e-38
5777.5078 -1563.2385 -80 1.0966538e-38
5759.2891 -1576.2029 -80 1.0505937e-38
5758.729 -1598.5565 -80 9.5864944e-39
5475.0654 -1493.033 -50 1.0689959e-38
5465.1162 -1533.0457 -50 1.0690321e-38
5460.4219 -1541.8751 -50 1.0231864e-38
5451.0322 -1559.5341 -50 1.0415532e-38
5437.5078 -1563.6688 -50 1.2718982e-38
5450.4722 -1581.8877 -50 9.1247862e-39
5485.2305 -1623.0203 -50 1.2167252e-38
5007.8784 -1391.8594 0 1.1061257e-38
4994.3545 -1395.9941 0 1.0507374e-38
4980.8301 -1400.1289 0 9.4957449e-39
4976.1353 -1408.9584 0 9.4914387e-39
4966.7461 -1426.6173 0 8.9411292e-39
4962.0513 -1435.4468 0 9.6783201e-39
4948.5273 -1439.5815 0 1.3363627e-38
4943.8325 -1448.411 0 1.0133912e-38
4934.4429 -1466.0701 0 1.0506273e-38
4938.5776 -1479.5942 0 1.1890302e-38
4916.2241 -1479.0342 0 1.2346965e-38
4683.083 -1321.0938 20 1.1705894e-38
4678.3882 -1329.9233 20 1.2075755e-38
4656.0342 -1329.3633 20 2.1297848e-38
4651.3398 -1338.1929 20 2.2955902e-38
4633.6807 -1328.8033 20 2.157477e-38
4580.7041 -1300.635 30 2.1575865e-38
4558.3501 -1300.0752 30 2.1018733e-38
4549.521 -1295.3804 30 6.5318529e-39
4544.8262 -1304.21 30 2.1194135e-39
4522.4727 -1303.6499 30 4.052998e-39
4544.2661 -1326.5635 30 5.7178919e-39
4508.9482 -1307.7847 30 4.3303051e-39
4504.2534 -1316.6143 30 3.1321165e-39
4481.8999 -1316.0542 30 9.3005538e-39
4486.0347 -1329.5784 30 6.2682112e-39
4481.3398 -1338.408 30 3.9694694e-39
4472.5103 -1333.7131 30 3.2304498e-39
4458.9863 -1337.8479 40 3.23154e-39
4454.2915 -1346.6775 40 2.6830241e-39
4445.4619 -1341.9827 40 2.9538741e-39
4440.7676 -1350.8123 40 2.7665948e-39
4436.0728 -1359.6416 40 1.937539e-39
4431.3779 -1368.4712 40 4.6051152e-39
4426.6831 -1377.3005 40 3.317242e-39
4421.9883 -1386.1301 40 2.3077578e-39
4417.2939 -1394.9596 40 2.5818308e-39
4417.2939 -1394.9596 40 3.4148242e-39
4260.043 -1243.3938 60 2.2123392e-39
4251.2134 -1238.699 60 2.581835e-39
4246.5186 -1247.5286 60 2.3967262e-39
4237.6895 -1242.8337 60 3.8714752e-39
4232.9946 -1251.6632 60 2.2130496e-39
4211.2012 -1228.7496 60 4.4282657e-39
4193.542 -1219.3601 60 2.4917889e-39
4188.8472 -1228.1897 60 2.2148433e-39
4192.9819 -1241.7139 60 2.6751068e-39
4192.9819 -1241.7139 60 2.6740334e-39
4140.5649 -1191.1919 70 2.8562653e-39
4260.8179 -1391.0399 50 3.132855e-39
5098.4575 -454.68518 10 2.1484019e-38
5093.7627 -463.51465 10 2.1203127e-38
5089.0684 -472.34412 10 2.2949837e-38
5084.373 -481.17358 10 2.1759182e-38
5079.6787 -490.00308 10 2.2122544e-38
5074.9839 -498.83255 10 1.281049e-38
5092.6426 -508.22198 10 1.1611917e-38
5101.4722 -512.91669 10 1.1337485e-38
5105.6069 -526.44092 10 1.1339997e-38
5100.9121 -535.27039 10 1.1609766e-38
5096.2178 -544.09985 10 7.4631391e-39
5211.5605 -582.77747 0 8.017375e-39
5215.6953 -596.30164 0 9.7658564e-39
5211.001 -605.1311 0 1.0503776e-38
5206.3062 -613.96057 0 8.3872253e-39
5201.6113 -622.7901 0 7.0965117e-39
5228.0996 -636.87421 0 7.0043119e-39
5356.9673 -671.41705 -10 7.2798156e-39
5504.0537 -692.99567 -30 7.6489456e-39
5499.3589 -701.8252 -30 7.4667138e-39
5503.4937 -715.34937 -30 7.9237417e-39
5516.458 -733.56824 -30 7.6500274e-39
5565.2998 -748.21234 -40 8.0173736e-39
5569.4346 -761.73657 -40 8.2918039e-39
5618.2764 -776.38062 -40 7.834067e-39
6102.563 -909.29736 -90 8.8453406e-39
6070.8198 -926.39636 -90 9.4881835e-39
6092.6133 -949.31 -90 1.1056916e-38
6083.2241 -966.96899 -90 1.4468869e-38
6073.835 -984.62793 -90 1.3552679e-38
6100.3232 -998.71204 -100 1.3918226e-38
6745.8652 -1659.0723 -190 1.280792e-38
6736.4756 -1676.7312 -190 1.3545471e-38
6740.0508 -1712.609 -190 1.3639829e-38
6730.6611 -1730.2681 -190 1.1885613e-38
6698.918 -1747.3671 -190 1.0138581e-38
6667.1748 -1764.4661 -190 1.0598836e-38
6644.2612 -1786.2598 -190 1.0324057e-38
6599.5537 -1785.1398 -180 1.0599548e-38
5813.3857 -1559.6638 -100 1.0598483e-38
5803.9961 -1577.3228 -100 1.1058748e-38
5768.1182 -1580.8976 -100 1.096475e-38
5758.729 -1598.5565 -100 9.215212e-39
5475.0654 -1493.033 -60 1.0323696e-38
5465.1162 -1533.0457 -70 1.0506653e-38
5460.4219 -1541.8751 -70 1.0228987e-38
5451.0322 -1559.5341 -70 1.0136807e-38
5428.6787 -1558.9741 -60 1.2442747e-38
5441.6426 -1577.193 -70 9.9520301e-39
4994.3545 -1395.9941 -20 1.0783603e-38
4989.6597 -1404.8236 -10 9.4939484e-39
4976.1353 -1408.9584 -10 9.3088383e-39
4966.7461 -1426.6173 -10 9.1219247e-39
4962.0513 -1435.4468 -10 1.0046021e-38
4948.5273 -1439.5815 -10 1.3916068e-38
4943.8325 -1448.411 -10 9.6750929e-39
4943.2725 -1470.7646 -10 1.1335312e-38
4938.5776 -1479.5942 -10 1.1887788e-38
4718.4009 -1339.8726 0 1.2621379e-38
4713.7061 -1348.7021 0 1.2347314e-38
4704.8765 -1344.0073 0 1.1891011e-38
4691.3525 -1348.1421 10 2.2032886e-38
4651.3398 -1338.1929 10 2.2032525e-38
4616.022 -1319.4139 10 2.1301442e-38
4602.4976 -1323.5487 10 2.1203501e-38
4567.1797 -1304.7698 20 1.9633321e-38
4531.8618 -1285.991 20 1.8442671e-39
4553.6553 -1308.9045 20 1.5673173e-39
4500.6787 -1280.7363 30 2.1183331e-39
4544.2661 -1326.5635 20 4.057314e-39
4500.1187 -1303.09 20 3.6867406e-39
4513.083 -1321.3088 20 2.4896393e-39
4481.8999 -1316.0542 30 2.3045278e-39
4486.0347 -1329.5784 20 2.6729488e-39
4481.3398 -1338.408 30 2.5814818e-39
4472.5103 -1333.7131 30 3.7796593e-39
4458.9863 -1337.8479 30 4.0558804e-39
4445.4619 -1341.9827 30 3.3186797e-39
4440.7676 -1350.8123 30 3.5941876e-39
4440.7676 -1350.8123 30 3.1324962e-39
4436.0728 -1359.6416 30 4.1509599e-39
4431.3779 -1368.4712 30 3.4180682e-39
4426.6831 -1377.3005 30 4.335347e-39
4421.9883 -1386.1301 30 5.0649779e-39
4417.2939 -1394.9596 30 5.5223701e-39
4417.2939 -1394.9596 30 4.0501309e-39
4403.7695 -1399.0944 30 2.6718684e-39
4399.0747 -1407.9238 30 3.7742587e-39
4394.3799 -1416.7533 30 2.4882002e-39
4237.6895 -1242.8337 50 2.7626277e-39
4228.8599 -1238.139 50 2.8544562e-39
4211.2012 -1228.7496 60 2.6700663e-39
4202.3716 -1224.0549 60 1.2903829e-39
4188.8472 -1228.1897 60 1.7517086e-39
4188.8472 -1228.1897 60 1.8446301e-39
4171.1885 -1218.8003 60 1.8424735e-39
4144.6997 -1204.7161 60 1.7506352e-39
5098.4575 -454.68518 0 2.1480419e-38
5093.7627 -463.51465 0 2.1574428e-38
5089.0684 -472.34412 0 2.1298581e-38
5084.373 -481.17358 0 2.2309472e-38
5070.8491 -485.30835 0 2.1296769e-38
5074.9839 -498.83255 0 1.2440268e-38
5092.6426 -508.22198 0 1.1611917e-38
5101.4722 -512.91669 0 1.1427887e-38
5096.7773 -521.74615 0 1.1795947e-38
5092.083 -530.57562 0 1.1062694e-38
5096.2178 -544.09985 0 7.7390015e-39
5225.085 -578.6427 -10 8.1102853e-39
5229.2197 -592.16687 -10 1.0043507e-38
5224.5249 -600.99634 -10 8.6630948e-39
5215.1357 -618.65533 -10 7.742586e-39
5210.4409 -627.4848 -10 6.820994e-39
5241.624 -632.73944 -10 7.7389833e-39
5299.2959 -652.07825 -20 7.464567e-39
5356.9673 -671.41705 -30 7.1883374e-39
5472.8701 -687.74103 -40 7.280896e-39
5490.5293 -697.13043 -40 7.4645642e-39
5481.1396 -714.78943 -40 7.4642167e-39
5507.6284 -728.87354 -40 8.1992467e-39
5565.2998 -748.21234 -50 7.8322621e-39
5636.4956 -763.41638 -60 8.4751302e-39
6111.9521 -891.63843 -110 8.8460427e-39
6133.7461 -914.55206 -120 8.663092e-39
6102.0029 -931.65106 -110 8.7517003e-39
6092.6133 -949.31 -110 1.0229693e-38
6096.748 -962.83423 -120 1.4377769e-38
6087.3589 -980.49316 -120 1.4101544e-38
6109.1523 -1003.4067 -120 1.4007563e-38
6644.0459 -1616.2599 -210 1.2991951e-38
6678.8037 -1657.3923 -210 1.3913532e-38
6713.562 -1698.5249 -220 1.3915685e-38
6699.4775 -1725.0133 -220 1.1335681e-38
6681.2588 -1737.9775 -210 1.0137855e-38
6649.5156 -1755.0765 -210 1.0597044e-38
6617.7725 -1772.1755 -210 1.0138584e-38
5822.2148 -1564.3585 -120 1.050701e-38
5803.9961 -1577.3228 -120 1.0415892e-38
5768.1182 -1580.8976 -120 1.0138243e-38
5741.0698 -1589.1671 -110 9.0308179e-39
5483.8955 -1497.7278 -80 1.0322619e-38
5474.5059 -1515.3867 -80 1.0781803e-38
5456.2871 -1528.3508 -80 1.0229355e-38
5451.5923 -1537.1804 -80 9.496461e-39
5442.2026 -1554.8394 -80 1.0137512e-38
5419.8491 -1554.2794 -80 1.2811185e-38
5432.8135 -1572.4983 -80 1.0228248e-38
5348.6533 -1539.0753 -70 1.1524046e-38
5003.1836 -1400.6888 -30 1.0047848e-38
4989.6597 -1404.8236 -30 1.0135354e-38
4976.1353 -1408.9584 -30 9.213777e-39
4966.7461 -1426.6173 -30 9.0282899e-39
4962.0513 -1435.4468 -30 1.0137496e-38
4948.5273 -1439.5815 -30 1.400862e-38
4943.8325 -1448.411 -30 9.3981571e-39
4943.2725 -1470.7646 -30 1.0876136e-38
4938.5776 -1479.5942 -30 1.1613718e-38
4718.4009 -1339.8726 0 1.1795947e-38
4713.7061 -1348.7021 0 1.1796307e-38
4709.0112 -1357.5316 0 1.2718964e-38
4695.4873 -1361.6664 0 2.0652837e-38
4660.1689 -1342.8875 0 2.1019463e-38
4633.6807 -1328.8033 0 2.1481156e-38
4633.1211 -1351.157 0 2.1019107e-38
4593.668 -1318.854 10 1.9820924e-38
4549.521 -1295.3804 10 2.5804014e-39
4557.79 -1322.4287 10 1.3832932e-39
4470.0557 -1253.1279 20 1.2914507e-39
4478.3252 -1280.1764 20 3.8722123e-39
4500.1187 -1303.09 20 5.4416946e-39
4495.4238 -1311.9194 20 2.3960046e-39
4490.7295 -1320.749 20 2.121217e-39
4486.0347 -1329.5784 20 2.3056068e-39
4481.3398 -1338.408 20 2.3963661e-39
4472.5103 -1333.7131 20 2.0293759e-39
4450.1567 -1333.1533 20 2.5800357e-39
4445.4619 -1341.9827 20 2.5818294e-39
4440.7676 -1350.8123 20 3.6914167e-39
4440.7676 -1350.8123 20 4.5154321e-39
4436.0728 -1359.6416 20 4.5172187e-39
4431.3779 -1368.4712 20 4.1455649e-39
4426.6831 -1377.3005 20 1.9357439e-39
4421.9883 -1386.1301 20 1.9361096e-39
4408.4644 -1390.2649 20 1.8439112e-39
4408.4644 -1390.2649 20 1.9357523e-39
4394.9399 -1394.3997 20 2.0297388e-39
4390.2451 -1403.229 20 2.0272277e-39
4394.3799 -1416.7533 20 1.3840191e-39
4389.6855 -1425.5828 20 1.6595255e-39
4384.9907 -1434.4122 20 1.2911032e-39
4202.3716 -1224.0549 50 1.2921737e-39
4193.542 -1219.3601 50 1.1070664e-39
4188.8472 -1228.1897 50 1.3840148e-39
4184.1523 -1237.0192 50 1.846072e-39
4192.9819 -1241.7139 50 2.2137741e-39
4149.3945 -1195.8866 60 3.9676239e-39
5098.4575 -454.68518 0 2.1022338e-38
5093.7627 -463.51465 0 2.0560636e-38
5089.0684 -472.34412 0 2.1206734e-38
5084.373 -481.17358 0 2.2582829e-38
5079.6787 -490.00308 0 2.2030369e-38
5074.9839 -498.83255 0 1.2628245e-38
5092.6426 -508.22198 0 1.1154889e-38
5101.4722 -512.91669 0 1.1794867e-38
5096.7773 -521.74615 0 1.1705542e-38
5092.083 -530.57562 0 1.1701604e-38
5087.3882 -539.40515 0 7.1883542e-39
5242.7441 -588.0321 -20 8.0170121e-39
5229.2197 -592.16687 -20 9.4910534e-39
5224.5249 -600.99634 -20 1.0138222e-38
5219.8301 -609.82587 -20 6.9131925e-39
5210.4409 -627.4848 -20 7.6450052e-39
5241.624 -632.73944 -20 7.0954285e-39
5312.8198 -647.94348 -30 7.8311887e-39
5361.6621 -662.58759 -40 7.1876172e-39
5472.8701 -687.74103 -50 7.5546004e-39
5499.3589 -701.8252 -60 7.5571143e-39
5503.4937 -715.34937 -60 7.4620531e-39
5529.9819 -729.43347 -60 7.7436594e-39
5542.9463 -747.6524 -60 7.64931e-39
5560.605 -757.04181 -70 7.8333411e-39
5613.582 -785.21008 -70 7.7418643e-39
6124.9165 -909.8573 -130 8.7531268e-39
6093.1738 -926.9563 -130 8.6627332e-39
6083.7842 -944.6153 -130 9.3949159e-39
6074.3945 -962.27423 -130 1.1780108e-38
6065.0049 -979.93323 -130 1.2330762e-38
6055.6157 -997.59216 -130 1.1410979e-38
6082.1045 -1011.6763 -140 1.0401498e-38
6430.8037 -1378.2942 -190 1.0413003e-38
6412.585 -1391.2584 -190 1.0597023e-38
6477.9658 -1459.9993 -200 1.1332069e-38
6609.2881 -1575.1273 -220 1.2345131e-38
6635.2168 -1611.5652 -230 1.2345142e-38
6661.145 -1648.0029 -230 1.2251152e-38
6687.0732 -1684.4408 -240 1.2715351e-38
6681.8188 -1715.6239 -240 1.1518277e-38
6641.2461 -1728.0282 -240 1.0044952e-38
6623.0273 -1740.9924 -230 1.0689952e-38
6591.2842 -1758.0914 -230 9.8598429e-39
5812.8257 -1582.0175 -140 1.0323329e-38
5768.1182 -1580.8976 -130 1.0137147e-38
5714.5815 -1575.083 -130 8.4783672e-39
5510.3838 -1511.8119 -100 9.770164e-39
5483.335 -1520.0813 -100 1.0229348e-38
5465.1162 -1533.0457 -100 1.0229707e-38
5451.5923 -1537.1804 -100 1.0046391e-38
5442.2026 -1554.8394 -100 1.0320821e-38
5419.8491 -1554.2794 -90 1.2258726e-38
5415.1543 -1563.1089 -90 1.0228236e-38
5339.8237 -1534.3806 -90 1.2256573e-38
4980.8301 -1400.1289 -40 1.0319752e-38
4976.1353 -1408.9584 -40 8.4798007e-39
4966.7461 -1426.6173 -40 8.8460581e-39
4962.0513 -1435.4468 -40 9.8619925e-39
4948.5273 -1439.5815 -40 1.373238e-38
4943.8325 -1448.411 -40 9.7658564e-39
4943.2725 -1470.7646 -40 1.0510583e-38
4938.5776 -1479.5942 -40 1.1704474e-38
4727.2305 -1344.5674 -10 1.2070729e-38
4722.5356 -1353.3969 -10 1.1337487e-38
4709.0112 -1357.5316 -10 1.207755e-38
4704.3164 -1366.3611 -10 2.2304797e-38
4677.8281 -1352.2769 0 2.1753431e-38
4655.4746 -1351.717 0 2.1111291e-38
4650.7798 -1360.5464 0 1.9913487e-38
4637.2559 -1364.6812 0 2.0648508e-38
4549.521 -1295.3804 0 2.3974339e-39
4548.9609 -1317.7341 0 1.0148736e-39
4470.0557 -1253.1279 10 3.0406495e-39
4508.9482 -1307.7847 10 3.5959925e-39
4508.9482 -1307.7847 10 3.5931142e-39
4504.2534 -1316.6143 10 2.2126923e-39
4481.8999 -1316.0542 10 2.3041677e-39
4486.0347 -1329.5784 10 2.0279437e-39
4472.5103 -1333.7131 10 2.1208512e-39
4472.5103 -1333.7131 10 1.9364698e-39
4458.9863 -1337.8479 10 2.2126881e-39
4454.2915 -1346.6775 10 1.6609577e-39
4449.5967 -1355.5068 10 2.0283011e-39
4449.5967 -1355.5068 10 2.3048921e-39
4436.0728 -1359.6416 10 2.3981598e-39
4431.3779 -1368.4712 10 1.8431993e-39
4426.6831 -1377.3005 10 2.9484595e-39
4421.9883 -1386.1301 10 2.3970836e-39
4408.4644 -1390.2649 10 2.8566296e-39
4408.4644 -1390.2649 10 2.4896449e-39
4394.9399 -1394.3997 10 2.119782e-39
4390.2451 -1403.229 10 1.9353908e-39
4394.3799 -1416.7533 10 1.3832946e-39
4385.5508 -1412.0586 10 1.4751357e-39
4380.856 -1420.8881 10 1.5676858e-39
4376.1611 -1429.7175 10 1.4762119e-39
4193.542 -1219.3601 40 1.7520785e-39
4188.8472 -1228.1897 40 6.2700105e-39
4184.1523 -1237.0192 40 6.8217437e-39
4192.9819 -1241.7139 40 4.1527564e-39
4149.3945 -1195.8866 50 3.0438837e-39
5098.4575 -454.68518 -10 2.1297835e-38
5093.7627 -463.51465 -10 2.1386442e-38
5089.0684 -472.34412 -10 2.157371e-38
5084.373 -481.17358 -10 2.2214772e-38
5070.8491 -485.30835 -10 2.1756652e-38
5074.9839 -498.83255 -10 1.2257683e-38
5092.6426 -508.22198 -10 1.1977105e-38
5101.4722 -512.91669 -10 1.124457e-38
5096.7773 -521.74615 -10 1.1795221e-38
5092.083 -530.57562 -10 1.1152368e-38
5087.3882 -539.40515 -10 7.5542487e-39
5238.0493 -596.86157 -30 9.3084782e-39
5233.3545 -605.6911 -30 1.0597757e-38
5219.8301 -609.82587 -30 7.1883416e-39
5210.4409 -627.4848 -30 6.9128309e-39
5241.624 -632.73944 -40 7.2794555e-39
5312.8198 -647.94348 -40 7.1879829e-39
5361.6621 -662.58759 -50 7.0972222e-39
5428.1631 -686.62109 -60 7.463488e-39
5477.0049 -701.2652 -70 6.8213556e-39
5481.1396 -714.78943 -70 7.0961376e-39
5498.7988 -724.17883 -70 7.647152e-39
5511.7632 -742.39771 -70 7.5560367e-39
5515.8979 -755.92194 -70 7.4649229e-39
5466.4956 -763.63147 -70 8.1992439e-39
6143.1357 -896.89307 -150 7.9266143e-39
6124.9165 -909.8573 -150 8.3857904e-39
6093.1738 -926.9563 -150 8.3857918e-39
6061.4307 -944.0553 -150 7.0046636e-39
6056.7354 -952.88483 -150 3.2261086e-39
6047.3462 -970.54376 -150 3.2253939e-39
6015.6035 -987.64276 -140 3.5012535e-39
5988.5547 -995.91229 -140 3.1331997e-39
6445.4478 -1329.4521 -210 1.0227897e-38
6422.5342 -1351.2458 -210 1.0136409e-38
6430.8037 -1378.2942 -220 1.0412634e-38
6421.4141 -1395.9531 -220 1.1055127e-38
6429.6836 -1423.0015 -220 1.0599545e-38
6446.7827 -1454.7446 -220 1.0965451e-38
6477.4062 -1482.353 -230 1.1977082e-38
6586.9346 -1574.5674 -250 1.2163984e-38
6635.2168 -1611.5652 -250 1.1980323e-38
6652.3154 -1643.3082 -260 1.3083786e-38
6687.0732 -1684.4408 -260 1.2257259e-38
6672.9893 -1710.9292 -260 1.1701582e-38
6641.2461 -1728.0282 -260 9.7683605e-39
6600.6738 -1740.4325 -260 9.9520413e-39
6564.7959 -1744.0073 -250 9.7687319e-39
5830.4844 -1591.4069 -160 1.0044601e-38
5768.1182 -1580.8976 -150 1.0136784e-38
5616.8975 -1545.7947 -130 1.004496e-38
5536.8721 -1525.896 -120 9.6779684e-39
5492.165 -1524.7761 -120 9.9527644e-39
5465.1162 -1533.0457 -120 9.7687333e-39
5451.5923 -1537.1804 -110 1.0045316e-38
5442.2026 -1554.8394 -110 9.9531301e-39
5411.0195 -1549.5847 -110 1.225765e-38
5406.3247 -1558.4142 -110 9.5846839e-39
5339.8237 -1534.3806 -100 1.2442393e-38
4980.8301 -1400.1289 -50 9.3992417e-39
4976.1353 -1408.9584 -50 8.2954081e-39
4966.7461 -1426.6173 -50 8.9386026e-39
4962.0513 -1435.4468 -50 1.0414449e-38
4948.5273 -1439.5815 -50 1.3550518e-38
4943.8325 -1448.411 -50 9.2155567e-39
4943.2725 -1470.7646 -50 1.1703009e-38
4938.5776 -1479.5942 -50 1.179631e-38
4727.2305 -1344.5674 -20 1.1152019e-38
4722.5356 -1353.3969 -20 1.151865e-38
4709.0112 -1357.5316 -20 1.2628569e-38
4700.1816 -1352.8369 -20 2.046954e-38
4668.9985 -1347.5823 -10 2.0467023e-38
4655.4746 -1351.717 -10 2.0468796e-38
4650.7798 -1360.5464 -10 2.0372657e-38
4646.085 -1369.376 -10 1.9447831e-38
4632.561 -1373.5107 -10 3.4119502e-39
4557.79 -1322.4287 0 1.3825757e-39
4548.9609 -1317.7341 0 2.3034544e-39
4517.7778 -1312.4795 0 3.7803726e-39
4508.9482 -1307.7847 0 2.6765431e-39
4504.2534 -1316.6143 0 2.2130482e-39
4481.8999 -1316.0542 0 2.303816e-39
4477.2051 -1324.8838 0 2.0286626e-39
4477.2051 -1324.8838 0 2.0279423e-39
4463.6807 -1329.0186 0 1.93646e-39
4450.1567 -1333.1533 0 1.9368257e-39
4454.2915 -1346.6775 0 1.7517198e-39
4449.5967 -1355.5068 0 2.2127007e-39
4444.9019 -1364.3364 0 2.5814706e-39
4436.0728 -1359.6416 0 1.9368271e-39
4431.3779 -1368.4712 0 2.3070501e-39
4426.6831 -1377.3005 0 1.7531575e-39
4421.9883 -1386.1301 0 2.3988856e-39
4408.4644 -1390.2649 0 2.1201422e-39
4408.4644 -1390.2649 0 1.7513554e-39
4394.9399 -1394.3997 10 1.7506394e-39
4390.2451 -1403.229 0 1.6598801e-39
4394.3799 -1416.7533 0 1.4754888e-39
4376.7212 -1407.3638 10 1.4758489e-39
4380.856 -1420.8881 0 1.5676844e-39
4376.1611 -1429.7175 0 1.751361e-39
4202.3716 -1224.0549 40 1.5666082e-39
4188.8472 -1228.1897 40 1.5680418e-39
4184.1523 -1237.0192 40 2.3942025e-39
4192.9819 -1241.7139 40 3.0395803e-39
4140.5649 -1191.1919 50 2.7633522e-39
5098.4575 -454.68518 -20 2.1111999e-38
5093.7627 -463.51465 -20 2.092905e-38
5089.0684 -472.34412 -20 2.1112746e-38
5084.373 -481.17358 -20 2.1299641e-38
5070.8491 -485.30835 -20 2.2121116e-38
5074.9839 -498.83255 -20 1.2353116e-38
5092.6426 -508.22198 -20 1.1704113e-38
5101.4722 -512.91669 -20 1.1242784e-38
5096.7773 -521.74615 -20 1.1612635e-38
5078.5586 -534.71039 -20 1.1794155e-38
5087.3882 -539.40515 -20 6.7284523e-39
5238.0493 -596.86157 -40 9.4914177e-39
5224.5249 -600.99634 -40 9.399578e-39
5219.8301 -609.82587 -40 7.7418699e-39
5201.6113 -622.7901 -40 6.8188444e-39
5241.624 -632.73944 -50 7.1872598e-39
5299.2959 -652.07825 -60 7.3709294e-39
5348.1377 -666.72235 -60 7.4634866e-39
5396.98 -681.36646 -70 6.9128351e-39
5432.2979 -700.14532 -70 7.2798128e-39
5472.3105 -710.09473 -80 7.7371994e-39
5476.4453 -723.6189 -80 7.0053797e-39
5498.2388 -746.53247 -90 6.9138973e-39
6089.5986 -891.07849 -170 7.9251738e-39
6102.563 -909.29736 -170 7.9251836e-39
6070.8198 -926.39636 -170 8.1113699e-39
6052.6006 -939.3606 -170 6.3603872e-39
6056.7354 -952.88483 -170 3.1342717e-39
6033.8223 -974.67853 -170 2.9502489e-39
5997.9443 -978.25336 -160 2.9491671e-39
6015.043 -1009.9965 -160 2.9495259e-39
6345.3086 -1219.5787 -220 9.0311402e-39
6309.4307 -1223.1536 -210 8.9375208e-39
6255.334 -1239.6926 -210 1.0039904e-38
6365.9824 -1287.1997 -230 9.4006556e-39
6405.4351 -1319.5027 -230 9.6758019e-39
6396.0459 -1337.1616 -230 9.4896114e-39
6413.1445 -1368.9048 -240 9.4006556e-39
6403.7554 -1386.5637 -240 1.0320076e-38
6420.8545 -1418.3069 -240 1.0779993e-38
6437.9531 -1450.0499 -240 1.0872176e-38
6468.5762 -1477.6582 -250 1.1424984e-38
6612.8633 -1611.0052 -280 1.1978879e-38
6629.9619 -1642.7483 -280 1.2256175e-38
6655.8906 -1679.1862 -290 1.3175255e-38
6637.6719 -1692.1504 -280 1.0596315e-38
6605.9287 -1709.2494 -280 9.859117e-39
6574.1855 -1726.3484 -280 9.8601876e-39
6057.0361 -1655.2379 -210 1.0044583e-38
5785.7773 -1590.287 -180 1.0135715e-38
5723.4111 -1579.7776 -170 8.6631116e-39
5625.7266 -1550.4895 -150 9.9516742e-39
5554.5312 -1535.2854 -140 1.0046391e-38
5509.8237 -1534.1655 -140 9.5846923e-39
5473.9458 -1537.7404 -130 9.8616435e-39
5460.4219 -1541.8751 -130 9.6772691e-39
5451.0322 -1559.5341 -130 9.6779768e-39
5419.8491 -1554.2794 -130 1.2442031e-38
5406.3247 -1558.4142 -130 1.0230764e-38
5330.9941 -1529.6859 -120 1.1614802e-38
5295.1162 -1533.2607 -110 1.2349118e-38
4980.8301 -1400.1289 -70 9.3063258e-39
4976.1353 -1408.9584 -60 9.3070489e-39
4966.7461 -1426.6173 -60 8.9375264e-39
4962.0513 -1435.4468 -60 1.0780709e-38
4948.5273 -1439.5815 -60 1.4283039e-38
4943.8325 -1448.411 -60 9.3077607e-39
4943.2725 -1470.7646 -60 1.1520425e-38
4938.5776 -1479.5942 -60 1.1611565e-38
4925.0537 -1483.729 -60 1.1614063e-38
4713.7061 -1348.7021 -30 1.1334609e-38
4704.8765 -1344.0073 -30 1.2998054e-38
4691.3525 -1348.1421 -30 2.0192572e-38
4668.9985 -1347.5823 -20 2.0831472e-38
4655.4746 -1351.717 -20 2.0558483e-38
4650.7798 -1360.5464 -20 1.9728363e-38
4646.085 -1369.376 -20 1.44618e-38
4632.561 -1373.5107 -20 3.5959827e-39
4566.6196 -1327.1235 -10 1.4758419e-39
4544.2661 -1326.5635 -10 1.5694809e-39
4526.6074 -1317.1741 -10 5.1640217e-39
4508.9482 -1307.7847 0 3.8729269e-39
4504.2534 -1316.6143 0 2.3041635e-39
4481.8999 -1316.0542 0 1.9371802e-39
4477.2051 -1324.8838 0 1.8446273e-39
4472.5103 -1333.7131 0 1.9357481e-39
4472.5103 -1333.7131 0 1.8453461e-39
4458.9863 -1337.8479 0 1.6598773e-39
4454.2915 -1346.6775 0 1.9364614e-39
4449.5967 -1355.5068 0 2.1212198e-39
4444.9019 -1364.3364 0 2.3048879e-39
4436.0728 -1359.6416 0 2.4885589e-39
4431.3779 -1368.4712 0 2.3960088e-39
4426.6831 -1377.3005 0 2.2105371e-39
4421.9883 -1386.1301 0 2.3048823e-39
4408.4644 -1390.2649 0 2.029736e-39
4408.4644 -1390.2649 0 1.8446301e-39
4394.9399 -1394.3997 0 2.1204981e-39
4386.1104 -1389.7048 0 3.40873e-39
4390.2451 -1403.229 0 1.4751301e-39
4376.7212 -1407.3638 0 1.383296e-39
4372.0264 -1416.1934 0 1.5680404e-39
4367.3315 -1425.0228 0 1.6588039e-39
4202.3716 -1224.0549 30 1.2903773e-39
4197.6768 -1232.8844 30 1.3825785e-39
4192.9819 -1241.7139 30 1.1992621e-39
4192.9819 -1241.7139 30 1.5658866e-39
4149.3945 -1195.8866 40 1.1974642e-39
5098.4575 -454.68518 -30 2.0377329e-38
5093.7627 -463.51465 -30 2.1204572e-38
5089.0684 -472.34412 -30 2.1659816e-38
5075.5439 -476.47888 -30 2.1388236e-38
5070.8491 -485.30835 -30 2.1019453e-38
5074.9839 -498.83255 -30 1.2261652e-38
5092.6426 -508.22198 -30 1.0969062e-38
5101.4722 -512.91669 -30 1.1335325e-38
5096.7773 -521.74615 -30 1.115274e-38
5092.083 -530.57562 -30 1.1151295e-38
5087.3882 -539.40515 -30 7.1869053e-39
5233.9146 -583.3374 -60 7.8340572e-39
5229.2197 -592.16687 -60 9.1258694e-39
5224.5249 -600.99634 -60 1.0963674e-38
5219.8301 -609.82587 -60 7.8333341e-39
5201.6113 -622.7901 -50 6.9113974e-39
5290.4663 -647.38354 -70 6.8192018e-39
5325.7842 -666.16241 -70 7.3691414e-39
5405.8096 -686.06116 -80 7.2794555e-39
5454.6514 -700.70526 -90 7.2798072e-39
5449.9565 -709.53473 -90 7.3705721e-39
5454.0913 -723.05896 -90 7.2783793e-39
5458.2261 -736.58313 -90 7.8301139e-39
6089.5986 -891.07849 -190 8.0166505e-39
6089.0391 -913.43213 -190 8.1985335e-39
6061.9902 -921.70166 -180 8.0177324e-39
6043.7715 -934.66589 -180 6.5465609e-39
6043.2114 -957.01959 -180 4.149497e-39
6016.1631 -965.28906 -180 4.0576601e-39
5984.4199 -982.38812 -180 3.8743506e-39
5997.3843 -1000.6071 -180 4.1480579e-39
6427.0137 -1172.4165 -250 2.945563e-39
6399.9653 -1180.686 -240 3.4050992e-39
6337.0391 -1192.5303 -240 3.7720839e-39
6278.8076 -1195.5452 -230 4.2319816e-39
6278.2476 -1217.8989 -230 4.1401447e-39
6325.9697 -1277.2502 -240 5.1510582e-39
6374.252 -1314.248 -250 5.702423e-39
6396.0459 -1337.1616 -250 5.8868142e-39
6404.3154 -1364.2101 -260 7.0810428e-39
6403.7554 -1386.5637 -260 6.2548779e-39
6412.0249 -1413.6121 -260 6.8069642e-39
6411.4648 -1435.9658 -260 7.1743104e-39
6455.0522 -1481.793 -270 6.7137022e-39
6603.4736 -1628.6642 -300 9.1975682e-39
6620.5723 -1660.4072 -300 9.1078921e-39
6580 -1672.8115 -300 9.210121e-39
6039.377 -1645.8485 -230 9.5861315e-39
5985.8403 -1640.0339 -220 9.585414e-39
5821.0952 -1609.0658 -200 1.0044947e-38
5749.8994 -1593.8618 -190 8.9361041e-39
