# .PCD v0.7 - Point Cloud Data file format
VERSION 0.7
FIELDS x y z rgb
SIZE 4 4 4 4
TYPE F F F F
COUNT 1 1 1 1
WIDTH 169
HEIGHT 1
VIEWPOINT 0 0 0 1 0 0 0
POINTS 169
DATA ascii
4417.2607 -1280.2395 -260 2.579307e-39
4399.4404 -1271.1598 -260 2.8548149e-39
4403.8105 -1284.6097 -260 3.0384845e-39
4399.271 -1293.5198 -260 2.9480881e-39
4390.1909 -1311.34 -260 2.3931235e-39
4376.5713 -1338.0701 -260 1.0137904e-39
4380.9414 -1351.5201 -260 1.0137974e-39
4367.4912 -1355.8903 -260 1.1052658e-39
4358.5815 -1351.3503 -250 9.208773e-40
4362.9517 -1364.8003 -260 8.2939633e-40
4229.4702 -1274.3418 -200 6.4501068e-40
4224.9307 -1283.2518 -200 7.3648184e-40
4220.3906 -1292.1619 -200 6.4500787e-40
4215.8506 -1301.072 -200 7.361245e-40
4215.8506 -1301.072 -200 6.4500787e-40
4220.2207 -1314.522 -200 1.4736909e-39
4386.1602 -1253.1699 -260 2.7640472e-39
4381.6206 -1262.08 -260 2.6697048e-39
4377.0806 -1270.99 -260 2.8551793e-39
4372.5405 -1279.9001 -260 2.5796714e-39
4368.0005 -1288.8102 -260 3.1303228e-39
4372.3711 -1302.2601 -260 2.9473679e-39
4367.8311 -1311.1702 -260 1.5648062e-39
4372.2012 -1324.6201 -260 1.0141477e-39
4363.1211 -1342.4403 -260 1.0134331e-39
4363.1211 -1342.4403 -260 9.2231363e-40
4349.6714 -1346.8105 -260 9.2123743e-40
4354.0415 -1360.2605 -260 1.0130701e-39
4353.8716 -1382.6205 -270 7.3756364e-40
4344.9619 -1378.0806 -260 7.3683777e-40
4234.0103 -1265.4316 -210 7.3756224e-40
4229.4702 -1274.3418 -210 7.3684057e-40
4224.9307 -1283.2518 -210 5.5317658e-40
4220.3906 -1292.1619 -210 5.5352691e-40
4220.3906 -1292.1619 -210 7.3684617e-40
4215.8506 -1301.072 -210 7.3648884e-40
4211.3105 -1309.9819 -210 1.2907346e-39
4038.3281 -1120.8337 -130 1.0145079e-39
4354.7207 -1270.8203 -260 2.7629794e-39
4359.0908 -1284.2703 -260 2.8551736e-39
4354.5508 -1293.1804 -260 2.9470063e-39
4350.0107 -1302.0903 -260 3.0395635e-39
4345.4707 -1311.0005 -260 1.3822086e-39
4349.8408 -1324.4504 -260 1.1052672e-39
4340.9312 -1319.9105 -260 7.3756504e-40
4336.3911 -1328.8206 -260 7.382783e-40
4309.4912 -1337.5609 -250 6.4500928e-40
4238.3804 -1278.8816 -220 6.4537221e-40
4229.4702 -1274.3418 -220 6.4536661e-40
4224.9307 -1283.2518 -220 6.4501068e-40
4220.3906 -1292.1619 -220 7.372035e-40
4211.4805 -1287.6221 -220 5.5353531e-40
4206.9404 -1296.532 -220 8.2940334e-40
4202.4004 -1305.4421 -220 1.3829316e-39
4038.3281 -1120.8337 -130 1.2903745e-39
4042.6985 -1134.2837 -130 1.3807764e-39
4327.9902 -1257.2006 -260 2.8558897e-39
4332.3604 -1270.6506 -260 2.5793098e-39
4327.8203 -1279.5605 -260 2.9477308e-39
4332.1904 -1293.0106 -260 3.0395593e-39
4336.561 -1306.4606 -270 2.3005761e-39
4323.1108 -1310.8308 -260 9.219563e-40
4314.2007 -1306.2908 -260 9.2159476e-40
4305.1211 -1324.111 -260 8.2975646e-40
4300.5811 -1333.021 -260 7.372021e-40
4229.4702 -1274.3418 -220 5.5281505e-40
4224.9307 -1283.2518 -220 8.2868167e-40
4211.4805 -1287.6221 -220 8.2868307e-40
4211.4805 -1287.6221 -220 6.4572394e-40
4206.9404 -1296.532 -220 7.3720631e-40
4202.4004 -1305.4421 -220 1.4740441e-39
4038.3281 -1120.8337 -140 1.6580808e-39
4042.6985 -1134.2837 -140 1.4740469e-39
4314.54 -1261.5708 -260 3.0384859e-39
4300.9204 -1288.301 -260 2.5775106e-39
4296.3809 -1297.2109 -260 1.1059832e-39
4300.751 -1310.661 -260 1.2889381e-39
4300.751 -1310.661 -260 8.2868587e-40
4296.2109 -1319.571 -260 7.3791817e-40
4220.5601 -1269.8019 -230 7.3756364e-40
4216.0205 -1278.7119 -230 8.2832434e-40
4216.0205 -1278.7119 -230 8.2903199e-40
4211.4805 -1287.6221 -230 9.219563e-40
4206.9404 -1296.532 -230 2.028294e-39
4202.4004 -1305.4421 -230 1.7509911e-39
4042.6985 -1134.2837 -150 1.1989047e-39
4247.2905 -1283.4216 -250 2.2080106e-39
4229.4702 -1274.3418 -240 2.1194135e-39
4216.0205 -1278.7119 -240 2.4874799e-39
4216.0205 -1278.7119 -240 2.9502489e-39
4211.4805 -1287.6221 -240 1.7527932e-39
4206.9404 -1296.532 -240 2.4885533e-39
4202.4004 -1305.4421 -240 1.7506352e-39
4056.1484 -1129.9136 -160 1.1985432e-39
4247.2905 -1283.4216 -260 3.2282708e-39
4229.4702 -1274.3418 -250 2.5825496e-39
4224.9307 -1283.2518 -250 3.5923757e-39
4216.0205 -1278.7119 -250 2.584702e-39
4211.4805 -1287.6221 -250 3.131406e-39
4206.9404 -1296.532 -250 2.5825468e-39
4198.0303 -1291.9922 -240 1.566604e-39
4056.1484 -1129.9136 -160 1.6573633e-39
4051.6084 -1138.8236 -160 1.291099e-39
4220.5601 -1269.8019 -260 3.8682494e-39
4216.0205 -1278.7119 -250 3.2268358e-39
4216.0205 -1278.7119 -250 3.2239604e-39
4211.4805 -1287.6221 -250 3.1324906e-39
4198.0303 -1291.9922 -250 2.5811189e-39
4189.1206 -1287.4523 -250 1.5666012e-39
4171.3003 -1278.3724 -240 1.4747713e-39
4064.8887 -1156.8135 -180 1.1992621e-39
4069.2588 -1170.2634 -180 1.2911004e-39
4225.1001 -1260.8918 -260 3.6860161e-39
4220.5601 -1269.8019 -260 4.1451978e-39
4211.6504 -1265.262 -260 3.0417215e-39
4207.1104 -1274.172 -260 3.8682578e-39
4193.6602 -1278.5422 -260 2.951335e-39
4193.6602 -1278.5422 -260 3.3161504e-39
4180.2104 -1282.9124 -250 1.842828e-39
4166.9302 -1264.9225 -240 1.3818526e-39
4149.1099 -1255.8427 -230 1.2903759e-39
4171.1304 -1300.7324 -250 1.3825673e-39
4216.1899 -1256.3518 -270 3.9604464e-39
4216.1899 -1256.3518 -270 3.8718423e-39
4202.7402 -1260.722 -260 3.4101453e-39
4202.7402 -1260.722 -260 4.2381081e-39
4198.2002 -1269.6321 -260 3.4994711e-39
4184.75 -1274.0022 -260 3.5019878e-39
4175.8403 -1269.4624 -250 1.658085e-39
4166.9302 -1264.9225 -250 1.7502764e-39
4153.48 -1269.2926 -240 1.3822128e-39
4157.8501 -1282.7427 -250 1.29002e-39
4162.2207 -1296.1926 -250 1.2903843e-39
4216.1899 -1256.3518 -270 4.3342638e-39
4202.7402 -1260.722 -270 3.686735e-39
4193.8301 -1256.1821 -270 3.5034241e-39
4189.29 -1265.0923 -270 4.2359529e-39
4180.3799 -1260.5522 -260 3.5970547e-39
4166.9302 -1264.9225 -260 1.9346635e-39
4158.02 -1260.3826 -250 1.3822156e-39
4149.1099 -1255.8427 -250 1.381854e-39
4135.6602 -1260.2129 -240 1.4740483e-39
4126.75 -1255.6729 -240 1.4740483e-39
4108.9297 -1246.5931 -230 1.2903801e-39
4207.2803 -1251.812 -280 5.1600602e-39
4193.8301 -1256.1821 -280 5.156826e-39
4193.8301 -1256.1821 -270 4.0569566e-39
4180.3799 -1260.5522 -270 4.2366732e-39
4171.4702 -1256.0125 -270 3.5948967e-39
4162.5601 -1251.4724 -260 1.8435483e-39
4158.02 -1260.3826 -260 1.4751287e-39
4140.1997 -1251.3027 -250 1.1077839e-39
4140.1997 -1251.3027 -250 1.4740455e-39
4126.75 -1255.6729 -250 1.3836533e-39
4117.8398 -1251.1331 -240 1.291099e-39
4104.3896 -1255.5032 -240 1.2907374e-39
4198.3701 -1247.2721 -280 5.068938e-39
4198.3701 -1247.2721 -280 4.9735151e-39
4184.9199 -1251.6422 -280 4.5168418e-39
4176.0098 -1247.1023 -270 4.0537252e-39
4171.4702 -1256.0125 -270 3.6881727e-39
4162.5601 -1251.4724 -270 1.9350278e-39
4149.1099 -1255.8427 -270 1.7502722e-39
4140.1997 -1251.3027 -260 1.0155827e-39
4140.1997 -1251.3027 -260 1.1063476e-39
4126.75 -1255.6729 -250 1.2900171e-39
4117.8398 -1251.1331 -250 1.382217e-39
4113.2998 -1260.0431 -250 1.3822142e-39
4104.3896 -1255.5032 -250 1.5669684e-39
