# .PCD v0.7 - Point Cloud Data file format
VERSION 0.7
FIELDS x y z rgb
SIZE 4 4 4 4
TYPE F F F F
COUNT 1 1 1 1
WIDTH 1234
HEIGHT 1
VIEWPOINT 0 0 0 1 0 0 0
POINTS 1234
DATA ascii
4964.8486 -1400.0692 410 1.0512027e-38
4939.0098 -1411.5735 410 1.2075416e-38
4926.0903 -1417.3256 410 1.1706632e-38
4909.5869 -1432.4136 410 1.1062356e-38
4906.0034 -1441.7494 410 1.0506667e-38
4898.8359 -1460.4209 410 1.0044257e-38
4867.2451 -1459.0057 400 9.7683647e-39
4863.6611 -1468.3416 400 1.0139295e-38
4856.4941 -1487.0132 400 1.3730975e-38
4852.9102 -1496.349 400 9.9524042e-39
4845.7432 -1515.0205 400 1.2630029e-38
4838.5757 -1533.6921 400 1.3088111e-38
4801.2324 -1519.3574 400 1.2444563e-38
4881.7622 -1700.2302 420 2.3136016e-38
4866.0122 -1769.1646 420 2.0925129e-38
4828.6689 -1754.8298 410 2.0835834e-38
4821.5015 -1773.5015 410 2.0099317e-38
4808.582 -1779.2535 410 2.0558129e-38
4792.0791 -1794.3414 410 1.9269181e-38
4788.4951 -1803.6772 410 1.8713866e-38
4781.3281 -1822.3489 410 1.7150493e-38
4753.3203 -1811.5979 410 1.7149426e-38
4746.1533 -1830.2694 410 1.5118959e-38
4657.7939 -1753.5057 390 9.3027875e-39
4635.5386 -1755.6742 390 2.3027384e-39
4622.6191 -1761.4264 390 8.3890498e-39
4600.3638 -1763.5948 390 8.8525503e-39
4581.6924 -1756.4275 380 8.202139e-39
4568.7729 -1762.1796 380 5.1597057e-39
4546.5176 -1764.348 380 6.2656931e-39
4533.5981 -1770.1001 380 3.8750877e-39
4520.6787 -1775.8523 380 2.3981598e-39
4517.0947 -1785.1881 380 2.3034544e-39
4509.9277 -1803.8597 380 2.0272207e-39
4404.7241 -124.62408 280 6.9150072e-39
4378.8848 -136.12834 270 7.2816261e-39
4406.8926 -146.87938 280 6.7281048e-39
4696.9644 -172.53593 310 4.0583846e-39
4724.9717 -183.28696 320 1.4483301e-38
4756.563 -184.70219 320 1.6876415e-38
4784.5703 -195.45323 320 1.5767581e-38
4825.4971 -200.45213 330 1.5301526e-38
4862.8403 -214.78685 330 1.4934578e-38
4903.7676 -219.78577 340 1.420097e-38
4941.1104 -234.12048 340 1.5399862e-38
4946.8628 -247.03995 340 1.6320384e-38
4974.8701 -257.79099 350 1.7979524e-38
5025.1328 -266.37357 350 1.8995839e-38
5053.1401 -277.1246 360 2.138825e-38
5058.8926 -290.0441 360 2.3509823e-38
5064.6445 -302.96356 360 2.3509832e-38
5048.1416 -318.05151 360 2.3509818e-38
5040.9741 -336.72311 360 2.3509828e-38
5015.1348 -348.22736 360 2.3509846e-38
5033.8066 -355.39471 360 2.3509844e-38
5080.4854 -373.31311 360 2.3509851e-38
5064.7358 -442.24744 370 2.3509862e-38
5048.2324 -457.33536 360 2.3509872e-38
5035.313 -463.08749 360 2.3509853e-38
5028.1455 -481.75909 360 2.3509862e-38
5024.562 -491.09491 360 1.8994074e-38
5017.3945 -509.76651 360 1.4289898e-38
5013.811 -519.10229 360 1.3918958e-38
4956.3809 -529.19135 360 1.4562872e-38
4753.915 -526.45209 330 1.2995921e-38
5224.9507 -610.86273 390 9.3066775e-39
5212.0312 -616.61487 390 1.0876502e-38
5204.8643 -635.2865 390 8.8482469e-39
5169.6895 -643.20703 390 1.1245653e-38
5162.5215 -661.87866 390 1.1708778e-38
5118.0112 -666.21558 380 1.1710215e-38
7826.8101 -1673.8911 730 1.1704452e-38
7756.4604 -1689.7323 720 1.2530969e-38
7768.7178 -1769.4176 730 1.3736714e-38
6764.9702 -1705.4586 610 1.4377034e-38
6679.5327 -1704.7966 600 1.4469938e-38
6569.6714 -1684.0479 590 1.428591e-38
6530.9131 -1701.3042 590 1.5573409e-38
6482.8188 -1714.9769 580 1.5390813e-38
6391.6289 -1701.3954 570 1.5389026e-38
5761.8848 -1556.0623 490 1.4384947e-38
5708.0381 -1556.8154 490 5.533516e-39
5682.1992 -1568.3197 480 4.8856229e-39
5647.0244 -1576.2402 480 4.884904e-39
5630.5215 -1591.3282 480 3.9597247e-39
5533.5796 -1564.8273 470 1.1052268e-38
5440.2217 -1528.9905 450 1.0781801e-38
5395.7109 -1533.3274 450 1.0599207e-38
5388.5439 -1551.9989 450 1.0231872e-38
5381.376 -1570.6705 450 1.1242769e-38
5364.873 -1585.7585 450 1.1061266e-38
5314.6104 -1577.1759 440 1.1061979e-38
5020.8633 -1421.5713 400 1.1983214e-38
4964.8486 -1400.0692 400 1.0695703e-38
4939.0098 -1411.5735 390 1.2349847e-38
4926.0903 -1417.3256 390 1.179776e-38
4909.5869 -1432.4136 390 1.0783977e-38
4906.0034 -1441.7494 390 1.032299e-38
4898.8359 -1460.4209 390 9.9552909e-39
4867.2451 -1459.0057 390 9.5836217e-39
4863.6611 -1468.3416 390 9.8627282e-39
4865.8296 -1490.5968 390 1.4099752e-38
4852.9102 -1496.349 390 9.6779754e-39
4845.7432 -1515.0205 390 1.2998438e-38
4838.5757 -1533.6921 390 1.3269638e-38
4791.8965 -1515.7738 380 1.2625699e-38
4894.6816 -1694.478 400 2.1762073e-38
4896.8501 -1716.7334 400 2.2769026e-38
4899.0186 -1738.9886 400 2.2035043e-38
4886.0991 -1744.7408 400 2.2492798e-38
4863.8438 -1746.9092 400 2.2032547e-38
4866.0122 -1769.1646 400 2.1754873e-38
4828.6689 -1754.8298 400 2.092799e-38
4821.5015 -1773.5015 400 2.0560294e-38
4808.582 -1779.2535 400 2.0099658e-38
4792.0791 -1794.3414 390 1.8716387e-38
4788.4951 -1803.6772 390 1.9355994e-38
4781.3281 -1822.3489 390 1.8346153e-38
4753.3203 -1811.5979 390 1.7513526e-38
4721.7295 -1810.1826 390 1.5212952e-38
4648.458 -1749.9221 380 9.9485297e-39
4626.2031 -1752.0906 370 2.6707978e-39
4622.6191 -1761.4264 370 8.019554e-39
4600.3638 -1763.5948 370 9.1262701e-39
4581.6924 -1756.4275 370 7.926285e-39
4568.7729 -1762.1796 370 3.6849427e-39
4555.8535 -1767.9318 370 2.0268605e-39
4542.9336 -1773.6838 360 1.7517058e-39
4530.0146 -1779.4359 360 1.8428308e-39
4517.0947 -1785.1881 360 1.8424721e-39
4489.0874 -1774.437 360 1.751354e-39
4365.9658 -141.88046 270 7.0068384e-39
4801.0732 -180.3653 310 5.4520894e-39
4847.7524 -198.28369 320 1.6139227e-38
4888.6797 -203.28259 320 1.4846328e-38
4938.9424 -211.86517 330 1.4567599e-38
4944.6943 -224.78467 330 1.5209374e-38
4963.3657 -231.95203 330 1.4568287e-38
4978.4536 -248.45518 330 1.5861194e-38
4997.1255 -255.62254 340 1.7057939e-38
5025.1328 -266.37357 340 1.899477e-38
5053.1401 -277.1246 340 2.0561711e-38
5058.8926 -290.0441 340 2.3509101e-38
5061.0605 -312.29938 340 2.222412e-38
5048.1416 -318.05151 340 2.3234303e-38
5040.9741 -336.72311 340 2.3509842e-38
5015.1348 -348.22736 340 2.3509848e-38
5033.8066 -355.39471 340 2.3509852e-38
5080.4854 -373.31311 350 2.3509863e-38
5064.7358 -442.24744 350 2.3509879e-38
5048.2324 -457.33536 350 2.3509862e-38
5035.313 -463.08749 350 2.350988e-38
5028.1455 -481.75909 350 2.3509884e-38
5024.562 -491.09491 350 1.761222e-38
5017.3945 -509.76651 350 1.419445e-38
5013.811 -519.10229 350 1.4745481e-38
4956.3809 -529.19135 340 1.4287376e-38
4753.915 -526.45209 320 1.3731332e-38
5224.9507 -610.86273 370 9.4899842e-39
5212.0312 -616.61487 370 1.1427878e-38
5204.8643 -635.2865 370 8.756403e-39
5169.6895 -643.20703 370 1.0786118e-38
5162.5215 -661.87866 370 1.1521505e-38
5127.3472 -669.79919 370 1.1246003e-38
6262.6406 -977.05994 500 1.1706977e-38
6341.6636 -1050.24 510 1.2536016e-38
7817.4741 -1670.3075 690 1.1520066e-38
7756.4604 -1689.7323 690 1.105549e-38
7783.0522 -1732.0745 690 1.1606873e-38
7699.7837 -1753.6677 680 1.2160394e-38
6794.3926 -1684.6187 580 1.4101164e-38
6746.2988 -1698.2913 580 1.4102603e-38
6679.5327 -1704.7966 570 1.4562502e-38
6569.6714 -1684.0479 560 1.4287711e-38
6530.9131 -1701.3042 560 1.5665596e-38
6492.1543 -1718.5605 550 1.5024541e-38
6428.9727 -1715.7301 550 1.6035453e-38
6380.8779 -1729.4028 540 1.649607e-38
5834.4023 -1562.4763 480 5.7200639e-39
5771.2207 -1559.6459 470 5.0700212e-39
5726.71 -1563.9828 470 4.7019575e-39
5710.2065 -1579.0707 460 5.7964305e-39
5665.6963 -1583.4076 460 1.0689225e-38
5639.8574 -1594.9119 460 1.1150929e-38
5509.1558 -1544.7404 440 1.0967621e-38
5430.8857 -1525.4067 430 1.0507003e-38
5395.7109 -1533.3274 430 1.0693548e-38
5388.5439 -1551.9989 430 1.0967978e-38
5381.376 -1570.6705 430 1.133749e-38
5364.873 -1585.7585 430 1.0968348e-38
5305.2744 -1573.5922 420 1.1337481e-38
4996.4399 -1401.4845 380 1.2076487e-38
4964.8486 -1400.0692 380 1.0511665e-38
4939.0098 -1411.5735 380 1.1706644e-38
4926.0903 -1417.3256 380 1.1705196e-38
4909.5869 -1432.4136 370 1.1244228e-38
4906.0034 -1441.7494 370 9.862738e-39
4898.8359 -1460.4209 370 1.0507023e-38
4867.2451 -1459.0057 370 9.4925093e-39
4863.6611 -1468.3416 370 1.022935e-38
4856.4941 -1487.0132 370 1.3638778e-38
4852.9102 -1496.349 370 9.4014011e-39
4845.7432 -1515.0205 370 1.3458337e-38
4838.5757 -1533.6921 370 1.2810823e-38
4791.8965 -1515.7738 370 1.235164e-38
4874.5947 -1718.9019 380 2.2400976e-38
4861.6753 -1724.6539 380 2.258392e-38
4814.9961 -1706.7356 380 2.2123668e-38
4841.5884 -1749.0776 380 2.1570843e-38
4828.6689 -1754.8298 380 1.9553332e-38
4821.5015 -1773.5015 380 2.0466662e-38
4817.918 -1782.8373 380 1.9545437e-38
4801.4146 -1797.9252 380 1.8994774e-38
4788.4951 -1803.6772 380 1.8807873e-38
4781.3281 -1822.3489 380 1.7244129e-38
4743.9844 -1808.0142 370 1.686996e-38
4706.6416 -1793.6794 370 1.4843471e-38
4648.458 -1749.9221 360 1.1240677e-38
4635.5386 -1755.6742 360 2.3970864e-39
4622.6191 -1761.4264 360 8.6663486e-39
4600.3638 -1763.5948 360 9.0365912e-39
4581.6924 -1756.4275 350 9.0301172e-39
4568.7729 -1762.1796 350 4.6987331e-39
4555.8535 -1767.9318 350 2.3041663e-39
4542.9336 -1773.6838 350 2.7640584e-39
4520.6787 -1775.8523 350 2.3963619e-39
4507.7588 -1781.6044 350 2.2112462e-39
4473.9995 -1757.9338 340 2.1183387e-39
4933.1899 -198.94569 310 1.5217612e-38
4961.1973 -209.69673 320 1.3372663e-38
4966.9492 -222.61621 320 1.3554167e-38
4985.6211 -229.78357 320 1.4663383e-38
5000.709 -246.28674 320 1.5584977e-38
5019.3809 -253.4541 320 1.6141732e-38
5025.1328 -266.37357 330 1.8442664e-38
5053.1401 -277.1246 330 1.9731265e-38
5058.8926 -290.0441 330 2.2315934e-38
5051.7251 -308.7157 330 2.1395451e-38
5048.1416 -318.05151 330 2.3140309e-38
5040.9741 -336.72311 330 2.3509839e-38
5015.1348 -348.22736 330 2.3509838e-38
5020.8872 -361.14685 330 2.3509853e-38
5039.5586 -368.31421 330 2.3509852e-38
5064.7358 -442.24744 340 2.350987e-38
5057.5684 -460.91904 340 2.3509874e-38
5044.6489 -466.67117 330 2.3509869e-38
5028.1455 -481.75909 330 2.350986e-38
5024.562 -491.09491 330 1.6780295e-38
5017.3945 -509.76651 330 1.4379203e-38
5013.811 -519.10229 330 1.4196623e-38
4965.7168 -532.77502 330 1.4376339e-38
4753.915 -526.45209 310 1.3642714e-38
5224.9507 -610.86273 360 9.4910674e-39
5212.0312 -616.61487 360 1.1152378e-38
5204.8643 -635.2865 360 8.7553338e-39
5169.6895 -643.20703 350 9.9560014e-39
5162.5215 -661.87866 350 1.0326205e-38
5127.3472 -669.79919 350 1.0782887e-38
5220.7051 -705.63599 360 1.0877942e-38
6249.7207 -982.81207 470 1.1338196e-38
6361.7505 -1025.8162 490 1.1981763e-38
6322.9922 -1043.0725 480 1.1981057e-38
7817.4741 -1670.3075 650 1.2163634e-38
7756.4604 -1689.7323 650 1.280863e-38
7773.7168 -1728.4907 650 1.1705172e-38
6729.042 -1659.5328 550 1.4285546e-38
6727.627 -1691.1239 550 1.4009333e-38
6679.5327 -1704.7966 540 1.4561782e-38
6551 -1676.8805 530 1.4286643e-38
6521.5771 -1697.7205 530 1.4747248e-38
6492.1543 -1718.5605 530 1.5939676e-38
6438.3081 -1719.3138 520 1.5298983e-38
6408.8857 -1740.1538 520 1.5300065e-38
5825.0664 -1558.8927 450 4.0576713e-39
5717.374 -1560.3992 440 1.0874348e-38
5700.8711 -1575.4871 440 1.2070363e-38
5656.3604 -1579.824 440 1.1979252e-38
5639.8574 -1594.9119 440 1.1337841e-38
5518.4917 -1548.3241 420 1.1520802e-38
5430.8857 -1525.4067 410 1.1152738e-38
5386.375 -1529.7437 410 9.4979113e-39
5379.208 -1548.4153 410 1.1152734e-38
5372.0405 -1567.0869 410 1.1246026e-38
5355.5371 -1582.1748 410 1.2163282e-38
5305.2744 -1573.5922 400 1.1519367e-38
4987.104 -1397.9008 370 1.2351628e-38
4964.8486 -1400.0692 360 1.0324767e-38
4939.0098 -1411.5735 360 1.1338571e-38
4926.0903 -1417.3256 360 1.1524045e-38
4909.5869 -1432.4136 360 1.1060198e-38
4906.0034 -1441.7494 360 1.0691764e-38
4898.8359 -1460.4209 360 9.9560028e-39
4867.2451 -1459.0057 360 9.2180776e-39
4863.6611 -1468.3416 360 1.0596323e-38
4865.8296 -1490.5968 360 1.327359e-38
4852.9102 -1496.349 360 9.7698137e-39
4845.7432 -1515.0205 360 1.2811537e-38
4838.5757 -1533.6921 360 1.3454029e-38
4791.8965 -1515.7738 350 1.2993768e-38
4871.0112 -1728.2377 370 2.1024143e-38
4845.1719 -1739.7418 360 2.1114551e-38
4856.6763 -1765.5808 370 2.1570837e-38
4828.6689 -1754.8298 360 2.0833267e-38
4821.5015 -1773.5015 360 2.0281908e-38
4814.334 -1792.173 360 1.9732317e-38
4801.4146 -1797.9252 360 1.9632591e-38
4797.8311 -1807.261 360 1.871638e-38
4781.3281 -1822.3489 360 1.8894664e-38
4738.2324 -1795.0947 360 1.6596606e-38
4700.8892 -1780.76 350 1.5578861e-38
4648.458 -1749.9221 340 1.1150638e-38
4635.5386 -1755.6742 340 2.2134238e-39
4622.6191 -1761.4264 340 8.38941e-39
4600.3638 -1763.5948 340 9.1284281e-39
4578.1084 -1765.7633 340 9.4907297e-39
4568.7729 -1762.1796 340 5.4380876e-39
4555.8535 -1767.9318 340 2.5811049e-39
4542.9336 -1773.6838 340 2.7647801e-39
4520.6787 -1775.8523 330 2.7640626e-39
4492.6709 -1765.1012 330 2.4874799e-39
4458.9116 -1741.4307 330 2.3045222e-39
4992.7886 -211.11197 310 1.1901462e-38
4989.2051 -220.44777 310 1.3096757e-38
5017.2119 -231.19881 310 1.4294602e-38
5032.3003 -247.70197 310 1.5213679e-38
5038.0522 -260.62146 310 1.5769722e-38
5043.8047 -273.54092 310 1.7340288e-38
5062.4761 -280.70828 320 1.9639058e-38
5068.228 -293.62778 320 2.1852454e-38
5051.7251 -308.7157 320 2.157732e-38
5048.1416 -318.05151 320 2.3231808e-38
5040.9741 -336.72311 320 2.3509816e-38
5015.1348 -348.22736 310 2.3509824e-38
5020.8872 -361.14685 310 2.3509845e-38
4584.3638 -354.25311 280 2.3509839e-38
5064.7358 -442.24744 320 2.3509849e-38
5061.1519 -451.58325 320 2.3509863e-38
5044.6489 -466.67117 320 2.3509856e-38
5028.1455 -481.75909 320 2.3509856e-38
5024.562 -491.09491 320 1.6133487e-38
5017.3945 -509.76651 320 1.4192306e-38
5013.811 -519.10229 320 1.3918232e-38
4965.7168 -532.77502 320 1.502314e-38
4753.915 -526.45209 300 1.456106e-38
5224.9507 -610.86273 340 9.5836175e-39
5212.0312 -616.61487 340 1.1518991e-38
5204.8643 -635.2865 340 1.0783968e-38
5169.6895 -643.20703 340 9.861652e-39
5171.8574 -665.46228 340 9.7698137e-39
5146.0186 -676.96655 340 1.0138586e-38
6240.3848 -979.22839 450 1.1242407e-38
6320.8237 -1020.8173 460 1.0875781e-38
6313.6562 -1039.4889 460 1.1061975e-38
7826.8101 -1673.8911 620 1.1798084e-38
7765.7959 -1693.3159 610 1.2163638e-38
7783.0522 -1732.0745 610 1.2256545e-38
6682.3633 -1641.6145 510 1.3916776e-38
6727.627 -1691.1239 520 1.4286632e-38
6679.5327 -1704.7966 510 1.4838714e-38
6532.3281 -1669.7131 500 1.4746173e-38
6502.9053 -1690.5531 500 1.5297185e-38
6473.4829 -1711.3932 490 1.5573408e-38
6438.3081 -1719.3138 490 6.9214826e-39
6399.5498 -1736.5702 490 4.2395374e-39
5843.7383 -1566.0601 430 1.0873978e-38
5761.8848 -1556.0623 420 1.096834e-38
5717.374 -1560.3992 420 1.1519356e-38
5700.8711 -1575.4871 420 1.2810081e-38
5656.3604 -1579.824 420 1.2259433e-38
5630.5215 -1591.3282 410 1.2348748e-38
5533.5796 -1564.8273 400 9.4078625e-39
5430.8857 -1525.4067 390 1.1336767e-38
5386.375 -1529.7437 390 1.0232225e-38
5379.208 -1548.4153 390 1.1060537e-38
5372.0405 -1567.0869 390 1.1335692e-38
5355.5371 -1582.1748 390 1.1611197e-38
5305.2744 -1573.5922 380 1.1243859e-38
4977.7681 -1394.3171 350 1.1614431e-38
4955.5127 -1396.4856 350 1.0141815e-38
4939.0098 -1411.5735 340 1.1155991e-38
4926.0903 -1417.3256 340 1.1339657e-38
4909.5869 -1432.4136 340 1.1153463e-38
4906.0034 -1441.7494 340 1.0232599e-38
4898.8359 -1460.4209 340 9.679776e-39
4876.5811 -1462.5894 340 9.0322528e-39
4863.6611 -1468.3416 340 9.954558e-39
4865.8296 -1490.5968 340 1.4284493e-38
4852.9102 -1496.349 340 9.2187909e-39
4845.7432 -1515.0205 340 1.3364001e-38
4838.5757 -1533.6921 340 1.3272523e-38
4791.8965 -1515.7738 330 1.3086682e-38
4841.5884 -1749.0776 350 2.0469177e-38
4828.6689 -1754.8298 350 2.0286213e-38
4812.166 -1769.9177 350 2.0468449e-38
4814.334 -1792.173 350 2.0096075e-38
4801.4146 -1797.9252 350 1.8717467e-38
4788.4951 -1803.6772 340 1.8715306e-38
4781.3281 -1822.3489 340 1.7705482e-38
4728.8965 -1791.511 340 1.6870326e-38
4691.5537 -1777.1763 330 1.4385007e-38
4639.1221 -1746.3384 330 1.1705958e-38
4635.5386 -1755.6742 330 2.5804014e-39
4613.2832 -1757.8427 330 8.4823202e-39
4600.3638 -1763.5948 330 9.222765e-39
4581.6924 -1756.4275 320 9.7701654e-39
4568.7729 -1762.1796 320 6.2667623e-39
4546.5176 -1764.348 320 3.1321221e-39
4527.8457 -1757.1807 320 3.5012619e-39
4505.5908 -1759.3491 320 2.9488112e-39
4486.9189 -1752.1818 320 2.9484497e-39
4468.2476 -1745.0144 310 3.3154385e-39
5020.7959 -221.86301 300 1.2268809e-38
5030.1318 -225.44669 300 1.4202394e-38
5045.2197 -241.94984 300 1.4202053e-38
5050.9717 -254.86932 300 1.4849563e-38
5047.3882 -264.20514 300 1.7241967e-38
5062.4761 -280.70828 300 1.8261148e-38
5058.8926 -290.0441 300 2.0565678e-38
5042.3892 -305.13202 300 2.0376987e-38
5038.8057 -314.46783 300 2.2956266e-38
5031.6382 -333.13943 300 2.3509817e-38
5005.7993 -344.64371 300 2.3509842e-38
4493.1743 -340.67163 260 2.3509838e-38
5064.7358 -442.24744 310 2.3509863e-38
5061.1519 -451.58325 310 2.3509855e-38
5044.6489 -466.67117 310 2.3509859e-38
5028.1455 -481.75909 310 2.3509866e-38
5024.562 -491.09491 310 1.6682713e-38
5017.3945 -509.76651 310 1.3735281e-38
5013.811 -519.10229 310 1.3736008e-38
4978.6362 -527.02289 300 1.4008988e-38
4753.915 -526.45209 280 1.4472818e-38
5224.9507 -610.86273 330 9.3084656e-39
5212.0312 -616.61487 330 1.0968343e-38
5195.5283 -631.70276 320 8.4787203e-39
5169.6895 -643.20703 320 9.4013787e-39
5162.5215 -661.87866 320 1.0411217e-38
5146.0186 -676.96655 320 9.7672969e-39
6221.7134 -972.06104 420 1.032405e-38
6302.1523 -1013.6499 430 1.0508095e-38
6263.3936 -1030.9062 430 1.0968702e-38
6205.9634 -1040.9954 420 1.1980327e-38
6204.5483 -1072.5864 420 1.3734917e-38
7773.7168 -1728.4907 570 1.2257274e-38
6710.3706 -1652.3655 480 1.3824928e-38
6746.2988 -1698.2913 490 1.3917123e-38
6698.2041 -1711.964 480 1.391749e-38
6541.6641 -1673.2968 470 1.511315e-38
6502.9053 -1690.5531 470 1.5114231e-38
6473.4829 -1711.3932 470 1.5758163e-38
6428.9727 -1715.7301 460 7.2758835e-39
6399.5498 -1736.5702 460 6.4407055e-39
5843.7383 -1566.0601 410 1.0784665e-38
5761.8848 -1556.0623 400 1.1887425e-38
5717.374 -1560.3992 400 1.2351622e-38
5691.5352 -1571.9033 400 1.2259077e-38
5665.6963 -1583.4076 390 1.2810442e-38
5630.5215 -1591.3282 390 1.0691414e-38
5552.251 -1571.9946 380 1.1151301e-38
5430.8857 -1525.4067 370 1.0782175e-38
5386.375 -1529.7437 370 1.0874361e-38
5379.208 -1548.4153 370 1.0695347e-38
5372.0405 -1567.0869 370 1.0968706e-38
5355.5371 -1582.1748 370 1.0968702e-38
5305.2744 -1573.5922 360 1.0600662e-38
4977.7681 -1394.3171 330 1.1890661e-38
4955.5127 -1396.4856 330 1.0234358e-38
4939.0098 -1411.5735 330 1.1431856e-38
4926.0903 -1417.3256 330 1.1428623e-38
4909.5869 -1432.4136 330 1.0786126e-38
4906.0034 -1441.7494 330 1.0231159e-38
4898.8359 -1460.4209 330 1.0229718e-38
4876.5811 -1462.5894 320 9.0326017e-39
4863.6611 -1468.3416 320 1.0044952e-38
4865.8296 -1490.5968 320 1.4650397e-38
4852.9102 -1496.349 320 9.7694507e-39
4845.7432 -1515.0205 320 1.3088116e-38
4847.9111 -1537.2759 320 1.2995569e-38
4801.2324 -1519.3574 320 1.2444559e-38
4807.7378 -1586.1233 320 2.2313806e-38
4825.7471 -1678.7281 330 2.1853896e-38
4837.2515 -1704.5671 330 2.1757395e-38
4809.2441 -1693.816 330 2.1024869e-38
4847.3408 -1761.9972 330 2.1388601e-38
4828.6689 -1754.8298 330 1.9918154e-38
4821.5015 -1773.5015 330 1.9914591e-38
4814.334 -1792.173 330 1.9455025e-38
4801.4146 -1797.9252 330 1.972694e-38
4788.4951 -1803.6772 330 1.8988307e-38
4781.3281 -1822.3489 330 1.8253249e-38
4728.8965 -1791.511 320 1.6871782e-38
4700.8892 -1780.76 320 1.4937098e-38
4639.1221 -1746.3384 310 1.2163697e-38
4626.2031 -1752.0906 310 2.8566268e-39
4613.2832 -1757.8427 310 8.5734411e-39
4591.0283 -1760.0111 310 9.2188119e-39
4581.6924 -1756.4275 310 9.6761957e-39
4559.437 -1758.5959 310 1.3436415e-38
4540.7656 -1751.4286 310 2.1197792e-39
4518.5103 -1753.597 300 2.7662248e-39
4499.8384 -1746.4297 300 5.0765036e-39
4486.9189 -1752.1818 300 4.8939256e-39
4464.6636 -1754.3502 300 2.3952899e-39
5027.9634 -203.19139 280 8.9415047e-39
5033.7153 -216.11087 280 9.7708983e-39
5039.4678 -229.03036 290 6.6366224e-39
5045.2197 -241.94984 290 1.2824497e-38
5050.9717 -254.86932 290 1.5588204e-38
5043.8047 -273.54092 290 1.5955907e-38
5040.2207 -282.87674 290 1.7707246e-38
5045.9727 -295.79623 290 2.0470241e-38
5029.4697 -310.88416 290 1.9732688e-38
5025.8857 -320.21997 290 2.3509811e-38
5009.3828 -335.30789 290 2.3509111e-38
5015.1348 -348.22736 290 2.3509132e-38
4534.1011 -345.67053 250 2.3509837e-38
4539.8535 -358.59003 250 2.3509842e-38
5071.9033 -423.57581 290 2.3509858e-38
5064.7358 -442.24744 290 2.3509869e-38
5061.1519 -451.58325 290 2.3509869e-38
5044.6489 -466.67117 290 2.350986e-38
5037.4814 -485.34277 290 2.3509848e-38
5024.562 -491.09491 290 1.4843124e-38
5017.3945 -509.76651 290 1.3640929e-38
5013.811 -519.10229 290 1.3365424e-38
4987.9717 -530.60657 290 1.4100471e-38
4757.4985 -517.11627 270 1.106054e-38
4753.915 -526.45209 270 1.4474619e-38
5215.6152 -607.27905 310 9.3999521e-39
5208.4473 -625.95068 310 1.1244212e-38
5195.5283 -631.70276 310 8.5691307e-39
5169.6895 -643.20703 310 9.8598471e-39
5162.5215 -661.87866 310 9.769085e-39
5136.6826 -673.38293 310 9.2191454e-39
5202.0332 -698.46863 310 9.7676557e-39
6203.042 -964.89368 390 1.087327e-38
6261.2251 -1008.651 400 1.0322973e-38
6244.7217 -1023.739 400 1.0872551e-38
6215.2993 -1044.579 400 1.1979961e-38
6226.8037 -1070.418 400 1.2723288e-38
6197.3809 -1091.2581 400 5.9941186e-39
6785.0566 -1681.0349 460 1.3547634e-38
6746.2988 -1698.2913 460 1.4283753e-38
6726.2119 -1722.7151 460 1.4467796e-38
6560.3359 -1680.4641 440 1.5482287e-38
6521.5771 -1697.7205 440 1.4654699e-38
6492.1543 -1718.5605 440 1.5297902e-38
6438.3081 -1719.3138 440 1.5022046e-38
6408.8857 -1740.1538 430 1.0599918e-38
5862.4102 -1573.2274 390 1.20736e-38
5771.2207 -1559.6459 380 1.2074319e-38
5726.71 -1563.9828 380 1.2720395e-38
5700.8711 -1575.4871 370 1.2074682e-38
5675.0322 -1586.9913 370 1.2534221e-38
5639.8574 -1594.9119 370 1.1152733e-38
5561.5869 -1575.5782 360 1.0969416e-38
5430.8857 -1525.4067 350 1.1242064e-38
5386.375 -1529.7437 350 1.0507729e-38
5379.208 -1548.4153 350 1.1060896e-38
5372.0405 -1567.0869 350 1.1152367e-38
5355.5371 -1582.1748 350 1.1427166e-38
5295.9385 -1570.0085 340 1.0968707e-38
4977.7681 -1394.3171 310 1.2073604e-38
4955.5127 -1396.4856 310 9.9592174e-39
4939.0098 -1411.5735 310 1.1891025e-38
4926.0903 -1417.3256 310 1.1798115e-38
4909.5869 -1432.4136 310 1.1244585e-38
4906.0034 -1441.7494 310 9.8638114e-39
4898.8359 -1460.4209 310 9.953842e-39
4876.5811 -1462.5894 310 9.2155637e-39
4863.6611 -1468.3416 310 9.8602058e-39
4865.8296 -1490.5968 310 1.3823878e-38
4852.9102 -1496.349 310 1.0043164e-38
4845.7432 -1515.0205 310 1.336254e-38
4838.5757 -1533.6921 310 1.2718974e-38
4801.2324 -1519.3574 300 1.2902653e-38
4768.2261 -1549.5333 300 2.3141055e-38
4761.0586 -1568.205 300 2.1759915e-38
4763.2271 -1590.4602 300 2.2034698e-38
4750.3076 -1596.2123 300 2.1392234e-38
4771.1475 -1625.635 300 2.176278e-38
4803.4922 -1680.8966 310 2.1296776e-38
4775.4844 -1670.1455 310 2.1298562e-38
4841.5884 -1749.0776 310 2.1207102e-38
4828.6689 -1754.8298 310 2.0924403e-38
4812.166 -1769.9177 310 2.0193304e-38
4814.334 -1792.173 310 2.0097519e-38
4801.4146 -1797.9252 310 1.880607e-38
4788.4951 -1803.6772 310 1.9448567e-38
4781.3281 -1822.3489 310 1.7427096e-38
4728.8965 -1791.511 310 1.7238384e-38
4706.6416 -1793.6794 310 1.5122559e-38
4639.1221 -1746.3384 300 1.1982897e-38
4626.2031 -1752.0906 300 2.5807644e-39
4613.2832 -1757.8427 300 6.7302586e-39
4591.0283 -1760.0111 300 8.206476e-39
4581.6924 -1756.4275 290 9.5850749e-39
4559.437 -1758.5959 290 1.3176683e-38
4531.4297 -1747.8448 290 4.5254864e-39
4512.7578 -1740.6775 290 4.7019813e-39
4490.5029 -1742.8459 290 7.5521453e-39
4477.583 -1748.598 290 4.7916742e-39
4464.6636 -1754.3502 290 2.0293759e-39
5037.2988 -206.77507 270 9.1255373e-39
5055.9707 -213.94243 270 1.0140393e-38
5052.3867 -223.27823 270 9.3996088e-39
5054.5557 -245.53351 270 7.0036042e-39
5050.9717 -254.86932 270 7.5596367e-39
5047.3882 -264.20514 270 7.3781447e-39
5040.2207 -282.87674 270 8.9584198e-39
5036.6372 -292.21255 270 1.2006257e-38
5020.1338 -307.30048 270 1.7153365e-38
5003.6309 -322.3884 270 2.2222667e-38
4348.1382 -327.84335 230 2.3509816e-38
4366.8101 -335.01071 230 2.3509811e-38
4552.7729 -352.83789 240 2.3509839e-38
4567.8608 -369.34103 240 2.3509842e-38
5071.9033 -423.57581 280 2.3509839e-38
5064.7358 -442.24744 280 2.3509848e-38
5061.1519 -451.58325 280 2.3509865e-38
5044.6489 -466.67117 280 2.3509853e-38
5037.4814 -485.34277 280 2.350986e-38
5024.562 -491.09491 280 1.4288495e-38
5017.3945 -509.76651 280 1.3918593e-38
5023.1465 -522.68597 280 1.2999159e-38
4997.3076 -534.19025 280 1.3549816e-38
4757.4985 -517.11627 260 1.1520781e-38
4753.915 -526.45209 260 1.576031e-38
5215.6152 -607.27905 290 9.5846923e-39
5208.4473 -625.95068 290 1.0875793e-38
5195.5283 -631.70276 290 8.2936186e-39
5169.6895 -643.20703 290 9.676895e-39
5162.5215 -661.87866 290 9.4021017e-39
5146.0186 -676.96655 290 9.49071e-39
5202.0332 -698.46863 290 9.9534861e-39
6212.3779 -968.47736 370 1.0229697e-38
6261.2251 -1008.651 380 1.032226e-38
6282.0654 -1038.0737 380 1.0508435e-38
6243.3066 -1055.3301 380 1.1612256e-38
6264.1465 -1084.7527 380 1.2351999e-38
6234.7241 -1105.5928 380 6.3607404e-39
6850.4077 -1706.1207 430 1.4376299e-38
6764.9702 -1705.4586 430 1.3547992e-38
6735.5479 -1726.2987 430 1.4835843e-38
6579.0073 -1687.6315 420 1.5113513e-38
6530.9131 -1701.3042 410 1.5295031e-38
6492.1543 -1718.5605 410 1.5665598e-38
6438.3081 -1719.3138 410 1.5204994e-38
6390.2139 -1732.9865 400 1.2349105e-38
5780.5562 -1563.2296 360 1.18928e-38
5717.374 -1560.3992 350 1.2075411e-38
5691.5352 -1571.9033 350 1.2625692e-38
5675.0322 -1586.9913 350 1.2626761e-38
5639.8574 -1594.9119 350 1.0505221e-38
5561.5869 -1575.5782 340 1.1703748e-38
5430.8857 -1525.4067 330 1.0784315e-38
5386.375 -1529.7437 330 1.0784309e-38
5379.208 -1548.4153 330 1.0876514e-38
5372.0405 -1567.0869 330 1.0876147e-38
5355.5371 -1582.1748 330 1.1153089e-38
5295.9385 -1570.0085 320 1.0602443e-38
4996.4399 -1401.4845 300 1.2440948e-38
4955.5127 -1396.4856 300 1.0050331e-38
4939.0098 -1411.5735 300 1.1615165e-38
4926.0903 -1417.3256 290 1.1521163e-38
4909.5869 -1432.4136 290 1.0694291e-38
4906.0034 -1441.7494 290 1.0048913e-38
4898.8359 -1460.4209 290 9.3113677e-39
4876.5811 -1462.5894 290 9.0311724e-39
4863.6611 -1468.3416 290 9.7708744e-39
4865.8296 -1490.5968 290 1.3457253e-38
4849.3267 -1505.6847 290 9.4006752e-39
4845.7432 -1515.0205 290 1.2810102e-38
4838.5757 -1533.6921 290 1.299305e-38
4791.8965 -1515.7738 290 1.1982503e-38
4738.8032 -1570.3734 290 2.2310935e-38
4725.8838 -1576.1255 290 2.2859061e-38
4818.5801 -1697.3998 300 2.1208536e-38
4866.0122 -1769.1646 300 2.138789e-38
4825.085 -1764.1656 300 2.0559916e-38
4821.5015 -1773.5015 300 2.0282999e-38
4814.334 -1792.173 300 1.936031e-38
4801.4146 -1797.9252 300 1.8900058e-38
4788.4951 -1803.6772 300 1.8898267e-38
4771.9922 -1818.7653 300 1.8070643e-38
4728.8965 -1791.511 290 1.7884821e-38
4715.9775 -1797.2632 290 1.6132404e-38
4648.458 -1749.9221 280 1.1706676e-38
4626.2031 -1752.0906 280 3.0417383e-39
4613.2832 -1757.8427 280 6.9146484e-39
4591.0283 -1760.0111 280 8.0227882e-39
4581.6924 -1756.4275 280 1.0503798e-38
4559.437 -1758.5959 280 7.6496575e-39
4531.4297 -1747.8448 280 2.4013842e-39
4503.4224 -1737.0939 270 4.60729e-39
4490.5029 -1742.8459 270 5.8987281e-39
4477.583 -1748.598 270 4.8824377e-39
4473.9995 -1757.9338 270 1.5673285e-39
5059.5542 -204.60663 260 9.3092223e-39
5074.6426 -221.10979 260 1.0507379e-38
5061.7227 -226.86191 260 1.0136804e-38
5058.1392 -236.19772 260 8.0206358e-39
5050.9717 -254.86932 260 8.9407901e-39
5047.3882 -264.20514 260 9.3092139e-39
5040.2207 -282.87674 260 1.0232248e-38
5045.9727 -295.79623 260 1.2994873e-38
5020.1338 -307.30048 260 1.7791156e-38
4351.7222 -318.50754 220 2.2036479e-38
4338.8027 -324.25967 220 2.3138162e-38
4348.1382 -327.84335 220 2.3509816e-38
4363.2266 -344.3465 220 2.350983e-38
4445.0801 -354.34433 220 2.3509821e-38
4567.8608 -369.34103 230 2.3509823e-38
4699.9775 -387.92145 240 2.3509837e-38
5058.9834 -429.32794 260 2.3509844e-38
5064.7358 -442.24744 260 2.3509856e-38
5061.1519 -451.58325 260 2.3509858e-38
5044.6489 -466.67117 260 2.3509867e-38
5037.4814 -485.34277 260 2.3509846e-38
5033.8979 -494.67859 260 1.3920074e-38
5017.3945 -509.76651 260 1.3455819e-38
5023.1465 -522.68597 260 1.3825673e-38
5006.6436 -537.77393 260 1.3550528e-38
4757.4985 -517.11627 250 1.0692115e-38
5222.7822 -588.60742 280 1.4657205e-38
5215.6152 -607.27905 280 9.2162741e-39
5208.4473 -625.95068 280 1.0874715e-38
5186.1924 -628.11914 280 8.2950535e-39
5169.6895 -643.20703 280 9.4914191e-39
5162.5215 -661.87866 280 9.401743e-39
5136.6826 -673.38293 270 9.7694465e-39
5170.4424 -697.05341 280 1.0044947e-38
3820.5168 -446.65198 190 1.0045673e-38
3816.9331 -455.98776 190 1.0230765e-38
3816.9331 -455.98776 190 1.0599196e-38
6302.9053 -1067.4963 350 1.1335325e-38
6305.0737 -1089.7516 360 1.2902662e-38
6284.9868 -1114.1753 350 6.9114002e-39
6859.7432 -1709.7043 400 1.4282679e-38
6783.6416 -1712.626 400 1.4192635e-38
6735.5479 -1726.2987 400 1.4100793e-38
6616.3506 -1701.9662 390 1.5478343e-38
6558.9204 -1712.0552 390 1.5204992e-38
6510.8262 -1725.7279 380 1.5941112e-38
6447.644 -1722.8975 380 1.7876477e-38
6371.542 -1725.8191 370 2.2864449e-38
5771.2207 -1559.6459 330 1.2348754e-38
5708.0381 -1556.8154 330 1.1891724e-38
5682.1992 -1568.3197 330 1.2717166e-38
5675.0322 -1586.9913 330 1.1983925e-38
5649.1929 -1598.4956 330 1.0138602e-38
5561.5869 -1575.5782 320 1.1519715e-38
5430.8857 -1525.4067 310 1.0047833e-38
5386.375 -1529.7437 310 9.9595803e-39
5379.208 -1548.4153 310 1.1061252e-38
5372.0405 -1567.0869 310 1.1243136e-38
5364.873 -1585.7585 310 1.0876881e-38
5295.9385 -1570.0085 300 1.0692838e-38
5002.1919 -1414.4039 280 1.1799901e-38
4955.5127 -1396.4856 280 1.0232913e-38
4939.0098 -1411.5735 280 1.1616242e-38
4926.0903 -1417.3256 280 1.1245302e-38
4909.5869 -1432.4136 280 1.0602094e-38
4906.0034 -1441.7494 280 1.1056246e-38
4898.8359 -1460.4209 280 9.5861441e-39
4876.5811 -1462.5894 280 8.7560247e-39
4863.6611 -1468.3416 280 1.0597398e-38
4865.8296 -1490.5968 280 1.3823516e-38
4849.3267 -1505.6847 280 9.3095544e-39
4845.7432 -1515.0205 280 1.2995928e-38
4838.5757 -1533.6921 280 1.2624634e-38
4791.8965 -1515.7738 270 1.2992694e-38
4788.4043 -1664.3934 280 2.1571554e-38
4866.0122 -1769.1646 280 2.0654292e-38
4828.6689 -1754.8298 280 2.0373746e-38
4812.166 -1769.9177 280 1.9734125e-38
4814.334 -1792.173 280 2.0007113e-38
4792.0791 -1794.3414 280 1.8900781e-38
4788.4951 -1803.6772 280 1.8624898e-38
4771.9922 -1818.7653 280 1.8345805e-38
4738.2324 -1795.0947 280 1.7884826e-38
4725.313 -1800.8468 270 1.6501891e-38
4648.458 -1749.9221 270 1.2352042e-38
4626.2031 -1752.0906 270 3.1335654e-39
4603.9478 -1754.259 270 7.0975991e-39
4591.0283 -1760.0111 270 7.8380424e-39
4581.6924 -1756.4275 270 1.0415187e-38
4550.1011 -1755.0122 260 5.8907883e-39
4522.0938 -1744.2612 260 2.6693559e-39
4503.4224 -1737.0939 260 4.8831468e-39
4490.5029 -1742.8459 260 9.9603888e-39
4486.9189 -1752.1818 260 5.3412663e-39
4473.9995 -1757.9338 260 2.3934991e-39
5068.8901 -208.19031 240 9.7694731e-39
5087.5615 -215.35767 250 9.8659694e-39
5071.0586 -230.44559 250 1.0598145e-38
5058.1392 -236.19772 250 8.4819727e-39
5050.9717 -254.86932 250 1.023118e-38
5047.3882 -264.20514 250 1.0784347e-38
5030.8848 -279.29306 240 1.2906283e-38
5027.3013 -288.62888 240 1.8795613e-38
4997.8784 -309.46893 240 2.1198091e-38
4355.3057 -309.17172 210 2.2036848e-38
4338.8027 -324.25967 210 2.2497823e-38
4344.5547 -337.17914 210 2.3050646e-38
4363.2266 -344.3465 210 2.3509806e-38
4454.416 -357.92801 210 2.3509811e-38
4567.8608 -369.34103 220 2.3509831e-38
4690.6416 -384.33777 230 2.3509838e-38
5064.7358 -442.24744 250 2.3509852e-38
5061.1519 -451.58325 250 2.3509858e-38
5044.6489 -466.67117 250 2.3509856e-38
5037.4814 -485.34277 250 2.3509824e-38
5033.8979 -494.67859 250 1.3184299e-38
5017.3945 -509.76651 250 1.3181034e-38
5023.1465 -522.68597 250 1.3457623e-38
5010.2275 -528.43811 250 1.4099749e-38
4757.4985 -517.11627 230 1.1610481e-38
5213.4463 -585.02374 260 1.4932004e-38
5215.6152 -607.27905 260 9.5854098e-39
5208.4473 -625.95068 260 1.1243492e-38
5182.6084 -637.4549 260 8.0181023e-39
5160.3535 -639.62335 260 8.7571037e-39
5162.5215 -661.87866 260 9.1237254e-39
5127.3472 -669.79919 260 9.2177189e-39
3820.5168 -446.65198 180 9.8609177e-39
3816.9331 -455.98776 180 1.0321177e-38
3816.9331 -455.98776 180 1.0045309e-38
3813.3494 -465.32358 180 1.1427518e-38
3800.4299 -471.07568 180 1.1249249e-38
3800.4299 -471.07568 180 6.9135554e-39
3768.8389 -469.66046 180 8.2935906e-39
6878.415 -1716.8717 370 1.3366119e-38
6802.3135 -1719.7933 370 1.3916062e-38
6744.8833 -1729.8824 370 1.4560702e-38
6691.0371 -1730.6356 360 1.4744734e-38
6633.6069 -1740.7246 360 1.5295394e-38
6576.1768 -1750.8137 360 1.5483004e-38
6472.0674 -1742.9843 350 1.9996954e-38
6399.5498 -1736.5702 350 2.3509774e-38
5862.4102 -1573.2274 320 1.0786458e-38
5780.5562 -1563.2296 310 1.1705558e-38
5717.374 -1560.3992 310 1.2440956e-38
5700.8711 -1575.4871 310 1.1889212e-38
5684.3677 -1590.575 310 1.2626417e-38
5667.8643 -1605.663 310 1.1337841e-38
5580.2588 -1582.7456 300 8.7585428e-39
5430.8857 -1525.4067 290 1.0875082e-38
5395.7109 -1533.3274 290 1.0415173e-38
5388.5439 -1551.9989 290 1.0966553e-38
5372.0405 -1567.0869 290 1.1241694e-38
5364.873 -1585.7585 290 1.0783952e-38
5305.2744 -1573.5922 290 1.0967635e-38
5039.5352 -1428.7386 270 1.1616229e-38
4964.8486 -1400.0692 260 1.060098e-38
4939.0098 -1411.5735 260 1.1524045e-38
4926.0903 -1417.3256 260 1.1338571e-38
4909.5869 -1432.4136 260 1.0231888e-38
4906.0034 -1441.7494 260 1.0232585e-38
4898.8359 -1460.4209 260 9.5847105e-39
4876.5811 -1462.5894 260 8.5712747e-39
4863.6611 -1468.3416 260 1.0045309e-38
4865.8296 -1490.5968 260 1.3823879e-38
4849.3267 -1505.6847 260 9.4021045e-39
4845.7432 -1515.0205 260 1.290121e-38
4838.5757 -1533.6921 260 1.2717186e-38
4803.4922 -1680.8966 260 2.1020183e-38
4866.0122 -1769.1646 270 2.1203856e-38
4828.6689 -1754.8298 260 2.0283715e-38
4812.166 -1769.9177 260 2.0188997e-38
4814.334 -1792.173 260 2.0188637e-38
4792.0791 -1794.3414 260 1.9726947e-38
4788.4951 -1803.6772 260 1.8439443e-38
4771.9922 -1818.7653 260 1.8255033e-38
4738.2324 -1795.0947 260 1.8250734e-38
4721.7295 -1810.1826 260 1.6964303e-38
4654.2104 -1762.8416 250 1.244208e-38
4626.2031 -1752.0906 250 3.0417327e-39
4603.9478 -1754.259 250 7.2827065e-39
4600.3638 -1763.5948 250 8.5734537e-39
4581.6924 -1756.4275 250 1.068854e-38
4550.1011 -1755.0122 250 4.9731494e-39
4525.6777 -1734.9254 250 3.5909576e-39
4503.4224 -1737.0939 250 4.3306975e-39
4490.5029 -1742.8459 250 7.6482842e-39
4486.9189 -1752.1818 250 5.2530209e-39
4473.9995 -1757.9338 250 4.6937361e-39
5081.8096 -202.43817 230 9.4964666e-39
5087.5615 -215.35767 230 1.0138251e-38
5071.0586 -230.44559 230 1.0416987e-38
5067.4751 -239.7814 230 9.2191692e-39
5050.9717 -254.86932 230 1.1704141e-38
5047.3882 -264.20514 230 1.3089571e-38
5030.8848 -279.29306 230 1.8894286e-38
5027.3013 -288.62888 230 1.973268e-38
4351.7222 -318.50754 200 2.2310182e-38
4348.1382 -327.84335 200 2.3414391e-38
4348.1382 -327.84335 200 2.3417974e-38
4363.2266 -344.3465 200 2.350982e-38
4457.9995 -348.59219 210 2.3509837e-38
4558.5249 -365.75735 210 2.3509818e-38
4690.6416 -384.33777 220 2.350982e-38
5064.7358 -442.24744 240 2.3509838e-38
5061.1519 -451.58325 240 2.3509844e-38
5044.6489 -466.67117 230 2.3509841e-38
5037.4814 -485.34277 230 2.3509837e-38
5033.8979 -494.67859 230 1.3181038e-38
5017.3945 -509.76651 230 1.2814399e-38
5023.1465 -522.68597 230 1.3363987e-38
5028.8989 -535.60547 230 1.3639858e-38
4757.4985 -517.11627 220 1.124277e-38
5213.4463 -585.02374 240 1.4104774e-38
5215.6152 -607.27905 240 9.5829057e-39
5199.1118 -622.36694 240 1.0967984e-38
5182.6084 -637.4549 240 8.5680377e-39
5156.7695 -648.95917 240 9.0329689e-39
5153.186 -658.29492 240 8.7581757e-39
5118.0112 -666.21558 240 9.0340367e-39
5092.1724 -677.71979 240 9.677604e-39
3820.5168 -446.65198 180 9.7712374e-39
3816.9331 -455.98776 180 1.0505924e-38
3816.9331 -455.98776 180 9.9534608e-39
3804.0137 -461.7399 180 1.1703024e-38
3800.4299 -471.07568 180 1.0967632e-38
3800.4299 -471.07568 180 6.3607474e-39
3796.8462 -480.4115 180 1.1056208e-38
3778.1748 -473.24414 180 1.0502682e-38
6878.415 -1716.8717 340 1.3639831e-38
6792.9775 -1716.2097 340 1.4101523e-38
6744.8833 -1729.8824 340 1.4192995e-38
6700.373 -1734.2194 330 1.5022033e-38
6670.9502 -1755.0593 330 1.5299322e-38
6604.1846 -1761.5647 330 1.4749761e-38
6490.7393 -1750.1516 320 1.9635379e-38
6436.8931 -1750.9049 320 2.2030329e-38
5843.7383 -1566.0601 290 1.1058378e-38
5789.8921 -1566.8132 290 1.2074322e-38
5726.71 -1563.9828 290 1.2075037e-38
5710.2065 -1579.0707 290 1.1981756e-38
5703.0391 -1597.7423 290 1.2075406e-38
5686.5361 -1612.8303 280 1.1704472e-38
5589.5947 -1586.3293 280 1.1335689e-38
5430.8857 -1525.4067 270 1.0967637e-38
5395.7109 -1533.3274 270 1.0967981e-38
5388.5439 -1551.9989 270 1.0692112e-38
5381.376 -1570.6705 270 1.0874721e-38
5364.873 -1585.7585 270 1.0876512e-38
5305.2744 -1573.5922 270 1.1152017e-38
5048.8711 -1432.3224 250 1.207432e-38
4961.2651 -1409.405 250 9.865577e-39
4948.3457 -1415.1571 250 1.1063775e-38
4926.0903 -1417.3256 250 1.151938e-38
4909.5869 -1432.4136 250 1.0782535e-38
4906.0034 -1441.7494 250 1.0322271e-38
4898.8359 -1460.4209 250 9.5854294e-39
4876.5811 -1462.5894 240 8.5727068e-39
4863.6611 -1468.3416 240 9.6776012e-39
4865.8296 -1490.5968 240 1.400648e-38
4849.3267 -1505.6847 240 9.7690948e-39
4845.7432 -1515.0205 240 1.2720057e-38
4838.5757 -1533.6921 240 1.1982853e-38
4788.4043 -1664.3934 240 2.1573713e-38
4856.6763 -1765.5808 250 2.1114158e-38
4828.6689 -1754.8298 250 2.037231e-38
4812.166 -1769.9177 250 2.0648894e-38
4814.334 -1792.173 250 1.9820921e-38
4792.0791 -1794.3414 250 1.8996201e-38
4788.4951 -1803.6772 250 1.8989726e-38
4775.5757 -1809.4294 250 1.7793008e-38
4738.2324 -1795.0947 240 1.7791914e-38
4721.7295 -1810.1826 240 1.7329855e-38
4654.2104 -1762.8416 240 1.2626457e-38
4626.2031 -1752.0906 240 3.3165147e-39
4613.2832 -1757.8427 240 7.0057693e-39
4600.3638 -1763.5948 240 8.3886925e-39
4581.6924 -1756.4275 240 1.1148785e-38
4550.1011 -1755.0122 230 5.6192321e-39
4525.6777 -1734.9254 230 5.9826308e-39
4494.0864 -1733.5101 230 4.8806273e-39
4490.5029 -1742.8459 230 9.1173032e-39
4486.9189 -1752.1818 230 5.5252876e-39
4473.9995 -1757.9338 230 6.1710326e-39
5081.8096 -202.43817 220 9.8641631e-39
5087.5615 -215.35767 220 9.9560098e-39
5071.0586 -230.44559 220 1.0784676e-38
5067.4751 -239.7814 220 9.2227622e-39
5060.3076 -258.453 220 1.2813364e-38
5047.3882 -264.20514 220 1.6317846e-38
5040.2207 -282.87674 220 1.9729454e-38
5036.6372 -292.21255 220 2.0283336e-38
4351.7222 -318.50754 190 2.1849589e-38
4348.1382 -327.84335 190 2.2681132e-38
4344.5547 -337.17914 190 2.3232508e-38
4363.2266 -344.3465 190 2.3233576e-38
4457.9995 -348.59219 200 2.3326145e-38
4558.5249 -365.75735 200 2.3509823e-38
4690.6416 -384.33777 210 2.350983e-38
5064.7358 -442.24744 220 2.3509846e-38
5061.1519 -451.58325 220 2.3509825e-38
5044.6489 -466.67117 220 2.3509835e-38
5037.4814 -485.34277 220 2.3509828e-38
5033.8979 -494.67859 220 1.40047e-38
5017.3945 -509.76651 220 1.3363613e-38
5023.1465 -522.68597 220 1.3823884e-38
5028.8989 -535.60547 220 1.363985e-38
4757.4985 -517.11627 210 1.1244563e-38
5209.8628 -594.35956 230 1.3831421e-38
5215.6152 -607.27905 230 9.4910674e-39
5199.1118 -622.36694 230 1.1149494e-38
5182.6084 -637.4549 230 8.2932458e-39
5160.3535 -639.62335 230 8.6623913e-39
5162.5215 -661.87866 230 9.308474e-39
5118.0112 -666.21558 230 9.0304494e-39
3820.5168 -446.65198 170 9.4932184e-39
3816.9331 -455.98776 170 1.0319376e-38
3816.9331 -455.98776 170 9.6768865e-39
3804.0137 -461.7399 170 1.0965102e-38
3800.4299 -471.07568 170 1.0142552e-38
3800.4299 -471.07568 170 7.0943551e-39
3796.8462 -480.4115 170 1.0964011e-38
6859.7432 -1709.7043 310 1.3639822e-38
6774.3057 -1709.0424 310 1.428519e-38
6735.5479 -1726.2987 300 1.4558185e-38
6681.7012 -1727.052 300 1.511172e-38
6670.9502 -1755.0593 300 1.5483008e-38
6594.8486 -1757.9811 300 1.6400296e-38
6481.4033 -1746.568 300 1.4012581e-38
6408.8857 -1740.1538 290 1.5029967e-38
5886.834 -1593.3142 270 1.0506267e-38
5808.5635 -1573.9806 270 1.1892452e-38
5736.0459 -1567.5665 260 1.2074325e-38
5719.5425 -1582.6544 260 1.2350193e-38
5712.375 -1601.326 260 1.262713e-38
5686.5361 -1612.8303 260 1.1064129e-38
5604.6826 -1602.8324 260 1.115381e-38
5430.8857 -1525.4067 250 1.051061e-38
5395.7109 -1533.3274 250 1.1425728e-38
5388.5439 -1551.9989 250 1.0783594e-38
5381.376 -1570.6705 250 1.0599207e-38
5374.209 -1589.3422 250 1.1243851e-38
5314.6104 -1577.1759 250 1.1336757e-38
5020.8633 -1421.5713 230 1.1708425e-38
4964.8486 -1400.0692 230 1.0326548e-38
4939.0098 -1411.5735 230 1.1340362e-38
4926.0903 -1417.3256 230 1.1430421e-38
4909.5869 -1432.4136 230 1.1152387e-38
4906.0034 -1441.7494 230 1.0506297e-38
4898.8359 -1460.4209 230 9.0333444e-39
4876.5811 -1462.5894 230 9.2130469e-39
4863.6611 -1468.3416 230 9.4950162e-39
4865.8296 -1490.5968 230 1.3732766e-38
4852.9102 -1496.349 230 9.7672913e-39
4836.4072 -1511.4369 230 1.2076131e-38
4832.8232 -1520.7727 230 1.2625708e-38
4773.3164 -1647.8903 230 2.0102904e-38
4839.4199 -1726.8224 230 2.0741461e-38
4847.3408 -1761.9972 230 2.0648901e-38
4828.6689 -1754.8298 230 2.019187e-38
4812.166 -1769.9177 230 2.0190434e-38
4817.918 -1782.8373 230 1.9822e-38
4792.0791 -1794.3414 230 1.9362108e-38
4788.4951 -1803.6772 230 1.8985415e-38
4775.5757 -1809.4294 230 1.8252892e-38
4738.2324 -1795.0947 230 1.7608589e-38
4721.7295 -1810.1826 230 1.6595167e-38
4663.5459 -1766.4253 220 1.2352746e-38
4626.2031 -1752.0906 220 3.0420858e-39
4613.2832 -1757.8427 220 7.190508e-39
4600.3638 -1763.5948 220 8.4816042e-39
4581.6924 -1756.4275 220 1.0045327e-38
4550.1011 -1755.0122 220 6.0805703e-39
4525.6777 -1734.9254 220 1.3158397e-38
4494.0864 -1733.5101 220 4.2377802e-39
4490.5029 -1742.8459 220 4.9828814e-39
4486.9189 -1752.1818 220 6.4461705e-39
4473.9995 -1757.9338 220 6.2660854e-39
4451.7441 -1760.1023 220 1.4754874e-39
5081.8096 -202.43817 200 9.862375e-39
5087.5615 -215.35767 200 1.0416256e-38
5071.0586 -230.44559 200 1.0326231e-38
5058.1392 -236.19772 200 1.0875084e-38
5050.9717 -254.86932 200 1.3733864e-38
5047.3882 -264.20514 200 1.7886968e-38
5030.8848 -279.29306 200 1.9456441e-38
5036.6372 -292.21255 200 2.1205998e-38
4344.5547 -337.17914 180 2.2591093e-38
4366.8101 -335.01071 180 2.3509818e-38
4467.3354 -352.17587 190 2.3509105e-38
4567.8608 -369.34103 190 2.350981e-38
4690.6416 -384.33777 190 2.3509828e-38
5090.5747 -430.74316 210 2.3509817e-38
5064.7358 -442.24744 210 2.3509837e-38
5070.4878 -455.16693 210 2.3509844e-38
5044.6489 -466.67117 210 2.3509831e-38
5037.4814 -485.34277 210 2.3509832e-38
5033.8979 -494.67859 210 1.327215e-38
5017.3945 -509.76651 210 1.3270704e-38
5023.1465 -522.68597 210 1.2814043e-38
5038.2349 -539.18915 210 1.2905523e-38
4748.1626 -513.53259 200 1.0969415e-38
5209.8628 -594.35956 210 1.4106922e-38
5206.2793 -603.69537 210 9.1240883e-39
5199.1118 -622.36694 210 1.0968704e-38
5182.6084 -637.4549 210 8.5730543e-39
5156.7695 -648.95917 210 9.3059558e-39
5153.186 -658.29492 210 8.5719907e-39
5127.3472 -669.79919 210 8.6645451e-39
3820.5168 -446.65198 170 9.9523958e-39
3816.9331 -455.98776 170 9.8598457e-39
3816.9331 -455.98776 170 9.9534622e-39
3804.0137 -461.7399 170 1.1058375e-38
3800.4299 -471.07568 170 1.1614444e-38
3800.4299 -471.07568 170 7.096146e-39
3796.8462 -480.4115 170 1.0324047e-38
6831.7363 -1698.9534 280 1.3730228e-38
6764.9702 -1705.4586 280 1.3916769e-38
6735.5479 -1726.2987 270 1.4378806e-38
6691.0371 -1730.6356 270 1.4928042e-38
6670.9502 -1755.0593 270 1.5571968e-38
6604.1846 -1761.5647 270 1.5942546e-38
6481.4033 -1746.568 270 1.4744744e-38
6455.5645 -1758.0723 270 1.2995559e-38
5862.4102 -1573.2274 240 1.1060174e-38
5799.2275 -1570.397 240 1.1979612e-38
5726.71 -1563.9828 240 1.1615867e-38
5719.5425 -1582.6544 240 1.2716458e-38
5703.0391 -1597.7423 240 1.2901929e-38
5686.5361 -1612.8303 240 1.1522235e-38
5614.0181 -1606.4161 240 1.1519005e-38
5430.8857 -1525.4067 230 1.0413748e-38
5395.7109 -1533.3274 230 1.1153098e-38
5397.8794 -1555.5826 230 1.0690324e-38
5381.376 -1570.6705 230 1.0509165e-38
5374.209 -1589.3422 230 1.133533e-38
5314.6104 -1577.1759 230 1.0783244e-38
5020.8633 -1421.5713 220 1.1891025e-38
4964.8486 -1400.0692 210 1.0049251e-38
4939.0098 -1411.5735 210 1.1614091e-38
4926.0903 -1417.3256 210 1.0786477e-38
4909.5869 -1432.4136 210 1.1059839e-38
4906.0034 -1441.7494 210 1.0411599e-38
4898.8359 -1460.4209 210 9.4939554e-39
4876.5811 -1462.5894 210 8.7549527e-39
4863.6611 -1468.3416 210 9.125519e-39
4865.8296 -1490.5968 210 1.3178153e-38
4849.3267 -1505.6847 210 9.3091914e-39
4836.4072 -1511.4369 210 1.2807235e-38
4832.8232 -1520.7727 210 1.289835e-38
4771.1475 -1625.635 210 2.1941791e-38
4763.9805 -1644.3066 210 2.1846001e-38
4805.6602 -1703.1519 210 2.1111305e-38
4841.5884 -1749.0776 210 2.0835069e-38
4828.6689 -1754.8298 210 2.1200973e-38
4806.4136 -1756.9983 210 2.0099303e-38
4817.918 -1782.8373 210 1.954256e-38
4795.6626 -1785.0056 210 1.9635461e-38
4788.4951 -1803.6772 210 1.8716754e-38
4775.5757 -1809.4294 210 1.8435854e-38
4738.2324 -1795.0947 210 1.7424918e-38
4725.313 -1800.8468 210 1.6135627e-38
4663.5459 -1766.4253 210 1.281157e-38
4620.4507 -1739.171 210 3.0406621e-39
4603.9478 -1754.259 210 7.2816359e-39
4591.0283 -1760.0111 210 8.0206428e-39
4581.6924 -1756.4275 210 1.0137153e-38
4550.1011 -1755.0122 210 7.0010959e-39
4516.3418 -1731.3417 200 1.5107742e-38
4494.0864 -1733.5101 200 2.8587792e-39
4490.5029 -1742.8459 200 5.2519293e-39
4477.583 -1748.598 200 7.651929e-39
4473.9995 -1757.9338 200 5.343769e-39
4461.0801 -1763.686 200 1.935381e-39
5072.4736 -198.85449 190 9.4010395e-39
5087.5615 -215.35767 190 9.8623834e-39
5071.0586 -230.44559 190 1.0966204e-38
5058.1392 -236.19772 190 1.0324432e-38
5050.9717 -254.86932 190 1.576432e-38
5047.3882 -264.20514 190 1.9268458e-38
5030.8848 -279.29306 190 2.0098221e-38
5023.7178 -297.96466 190 2.0651743e-38
4366.8101 -335.01071 170 2.3232506e-38
4467.3354 -352.17587 180 2.3509818e-38
4567.8608 -369.34103 180 2.3509814e-38
4690.6416 -384.33777 180 2.3417991e-38
5122.166 -432.15842 190 2.3509831e-38
5064.7358 -442.24744 190 2.3509838e-38
5070.4878 -455.16693 190 2.3509824e-38
5044.6489 -466.67117 190 2.3509827e-38
5037.4814 -485.34277 190 2.3418001e-38
5033.8979 -494.67859 190 1.3456896e-38
5017.3945 -509.76651 190 1.3454382e-38
5023.1465 -522.68597 190 1.3546579e-38
5038.2349 -539.18915 190 1.2719328e-38
4748.1626 -513.53259 180 1.1244211e-38
5200.5273 -590.77588 200 1.3922182e-38
5206.2793 -603.69537 200 9.5850553e-39
5189.7764 -618.78333 200 1.1245649e-38
5173.2729 -633.87122 200 8.7534897e-39
5156.7695 -648.95917 200 8.7553072e-39
5162.5215 -661.87866 200 8.9393257e-39
5127.3472 -669.79919 200 8.7570953e-39
3820.5168 -446.65198 160 1.0044584e-38
3816.9331 -455.98776 160 9.7679976e-39
3816.9331 -455.98776 160 9.9541881e-39
3804.0137 -461.7399 160 1.0415885e-38
3809.7656 -474.65936 160 1.1983216e-38
3800.4299 -471.07568 160 7.0028672e-39
3796.8462 -480.4115 160 1.0505553e-38
6822.4004 -1695.3696 250 1.336647e-38
6755.6343 -1701.875 240 1.3642341e-38
6735.5479 -1726.2987 240 1.4467786e-38
6691.0371 -1730.6356 240 1.5385781e-38
6680.2861 -1758.6431 240 1.5020953e-38
6604.1846 -1761.5647 240 1.6033663e-38
6481.4033 -1746.568 240 1.4285199e-38
6446.2285 -1754.4885 240 9.955986e-39
5871.7461 -1576.811 220 1.0878665e-38
5799.2275 -1570.397 220 1.180167e-38
5736.0459 -1567.5665 220 1.2072887e-38
5719.5425 -1582.6544 220 1.1891734e-38
5712.375 -1601.326 220 1.2075045e-38
5695.8721 -1616.4139 220 1.1337477e-38
5623.354 -1609.9998 220 1.1247448e-38
5440.2217 -1528.9905 210 1.0598128e-38
5395.7109 -1533.3274 210 1.0598843e-38
5397.8794 -1555.5826 210 1.0322632e-38
5381.376 -1570.6705 210 1.0415539e-38
5374.209 -1589.3422 210 1.0508808e-38
5323.9463 -1580.7595 210 1.0779657e-38
5011.5278 -1417.9877 200 1.1616939e-38
4964.8486 -1400.0692 200 1.0141093e-38
4939.0098 -1411.5735 200 1.17052e-38
4926.0903 -1417.3256 200 1.1519378e-38
4918.9229 -1435.9972 200 1.1058043e-38
