# .PCD v0.7 - Point Cloud Data file format
VERSION 0.7
FIELDS x y z rgb
SIZE 4 4 4 4
TYPE F F F F
COUNT 1 1 1 1
WIDTH 1237
HEIGHT 1
VIEWPOINT 0 0 0 1 0 0 0
POINTS 1237
DATA ascii
5048.2949 -545.84711 620 1.5296871e-38
5095.2793 -562.94812 630 1.1430051e-38
5120.0498 -582.60565 640 7.7426238e-39
5132.0034 -608.23987 640 9.9545665e-39
5134.5601 -630.45398 640 9.9552909e-39
5649.6982 -764.73993 770 1.1798824e-38
5652.2549 -786.95398 770 1.0876873e-38
5664.208 -812.58826 770 4.6115808e-39
5767.5742 -850.21045 800 1.3632967e-38
5779.5278 -875.84467 800 1.7330899e-38
5791.4814 -901.47894 810 1.8069171e-38
5871.5625 -1675.5507 880 1.0135359e-38
5789.5469 -1666.9829 870 1.2626405e-38
5807.4771 -1705.4342 870 7.7390267e-39
5738.2783 -1690.8898 850 8.5709356e-39
5712.644 -1702.8433 850 4.9774584e-39
5605.8574 -1674.6179 830 4.6083227e-39
5474.3008 -1626.7351 790 3.042083e-39
5062.5635 -1413.0244 690 3.1346402e-39
5008.7383 -1414.7173 680 3.6860105e-39
4977.127 -1413.8535 670 2.7669395e-39
4945.5166 -1412.9899 660 2.4892722e-39
4913.9053 -1412.1262 660 2.5793196e-39
4888.271 -1424.0797 650 2.489275e-39
4866.0571 -1426.6362 650 2.7647829e-39
4853.2397 -1432.6129 650 2.5825426e-39
4837.0024 -1447.9866 640 9.7672997e-39
4830.1621 -1466.7804 640 1.3177448e-38
4826.7422 -1476.1774 640 1.0231508e-38
4819.9014 -1494.9712 640 1.2626436e-38
4763.52 -1474.45 630 1.2531722e-38
4747.2827 -1489.8236 630 1.1430422e-38
4731.8745 -1590.6333 630 2.0376609e-38
4749.8047 -1629.0847 640 1.9639425e-38
4767.7349 -1667.5361 650 1.8534517e-38
4909.5181 -1804.2751 690 1.908551e-38
4837.7627 -1767.5166 670 1.8718901e-38
4824.9453 -1773.4933 670 1.8071383e-38
4799.3115 -1785.4468 660 1.7793709e-38
4780.5176 -1778.6063 660 1.7609319e-38
4764.2803 -1793.98 660 1.6689877e-38
4751.4629 -1799.9567 650 1.5948729e-38
4689.1045 -1766.6184 640 1.493638e-38
4657.4937 -1765.7548 630 1.3553816e-38
4543.0381 -1670.8873 600 3.1342927e-39
4505.4502 -1657.2064 590 8.9465326e-39
4489.2129 -1672.5801 590 9.0373129e-39
4485.7925 -1681.9771 590 9.7709039e-39
4472.9756 -1687.9537 580 6.7277432e-39
4475.5322 -1710.1678 590 4.2388312e-39
4484.0654 -1745.199 590 4.2395402e-39
4480.645 -1754.5959 590 3.7792837e-39
4458.4312 -1757.1525 590 4.0530022e-39
4414.8667 -1730.6545 570 3.0424502e-39
4386.6758 -1720.3939 570 3.2257568e-39
4373.8584 -1726.3707 570 2.7647843e-39
4355.0649 -1719.5303 560 2.7647885e-39
4342.2476 -1725.507 560 2.856631e-39
4283.3096 -1682.7717 540 3.1339227e-39
4285.8662 -1704.9858 550 3.2264757e-39
4282.4458 -1714.3827 550 3.1357192e-39
3916.4141 -59.383987 330 1.1436563e-38
3925.811 -62.804184 330 1.2443491e-38
3935.208 -66.22438 340 1.1614084e-38
3954.002 -73.064789 340 9.1294833e-39
3963.3989 -76.484985 340 7.6493352e-39
3982.1929 -83.325394 350 2.1571105e-38
3991.5896 -86.74559 350 1.6693496e-38
4000.9866 -90.165787 350 1.8995154e-38
4010.3833 -93.585983 350 1.6507687e-38
4016.3604 -106.40312 350 1.5404554e-38
4025.7571 -109.82332 360 1.7796607e-38
4247.0342 -115.86903 400 2.0103255e-38
4265.8281 -122.70944 410 1.9364295e-38
4271.8047 -135.52657 410 1.8995454e-38
4281.2017 -138.94676 410 1.5873098e-38
4290.5986 -142.36697 420 1.9726929e-38
4296.5752 -155.18408 420 1.7156646e-38
4324.7661 -165.4447 420 1.7241285e-38
4334.1631 -168.8649 430 1.5956653e-38
4993.7095 -228.00996 570 1.5399868e-38
5040.6943 -245.11096 580 1.7246304e-38
5043.251 -267.32501 580 2.0836502e-38
5039.8306 -276.72192 580 2.3509841e-38
5045.8076 -289.53906 580 2.3509869e-38
5038.9668 -308.33292 580 2.3234303e-38
5035.5469 -317.72986 580 2.3509841e-38
5038.1035 -339.94391 580 2.3509856e-38
5021.8662 -355.31757 580 2.3509848e-38
4986.835 -363.8508 570 2.3509849e-38
5270.4697 -403.23486 640 2.3509859e-38
5057.7266 -432.22034 600 2.3509858e-38
5063.7031 -445.03745 600 2.3509874e-38
5015.8545 -459.54742 590 2.350988e-38
5009.0142 -478.34128 590 2.3509886e-38
5005.5938 -487.73822 590 2.2958829e-38
4998.7539 -506.53204 590 1.5853252e-38
5014.127 -522.76941 590 1.5115699e-38
5048.2949 -545.84711 600 1.5209326e-38
5095.2793 -562.94812 610 1.189067e-38
5116.6299 -592.00256 620 8.5701999e-39
5122.6064 -604.8197 620 1.0048193e-38
5115.7661 -623.61353 620 8.9425907e-39
5730.8506 -804.91864 760 1.1521877e-38
5705.2158 -816.87213 760 1.0415546e-38
5795.7651 -860.47101 780 3.1360807e-39
5798.3213 -882.68512 780 1.6865616e-38
5810.2749 -908.31934 790 1.770183e-38
5831.6255 -937.37378 790 1.9083684e-38
5906.5938 -1667.0173 860 1.3638021e-38
5790.4102 -1635.3719 840 1.0044961e-38
5674.2275 -1603.7264 810 1.2809711e-38
5657.9897 -1619.1001 810 6.6337483e-39
5622.959 -1627.6333 800 7.1879955e-39
5587.9277 -1636.1666 800 5.3455164e-39
5552.8965 -1644.6998 790 4.425365e-39
5062.5635 -1413.0244 670 3.4097852e-39
5008.7383 -1414.7173 660 3.3190231e-39
4977.127 -1413.8535 650 2.7665723e-39
4945.5166 -1412.9899 650 2.765499e-39
4913.9053 -1412.1262 640 2.2144846e-39
4888.271 -1424.0797 630 2.5800315e-39
4866.0571 -1426.6362 630 2.5803874e-39
4853.2397 -1432.6129 630 3.0438767e-39
4837.0024 -1447.9866 630 9.6765334e-39
4830.1621 -1466.7804 630 1.2350919e-38
4823.3218 -1485.5742 630 9.6776222e-39
4819.9014 -1494.9712 630 1.2993404e-38
4763.52 -1474.45 610 1.2259443e-38
4747.2827 -1489.8236 610 1.2439884e-38
4722.4775 -1587.2131 610 2.0468826e-38
4749.8047 -1629.0847 620 1.9638703e-38
4767.7349 -1667.5361 630 1.9453593e-38
4918.915 -1807.6953 670 1.9269201e-38
4837.7627 -1767.5166 650 1.9176996e-38
4824.9453 -1773.4933 650 1.7705109e-38
4802.7314 -1776.0498 640 1.7791908e-38
4771.1206 -1775.1862 640 1.6965037e-38
4764.2803 -1793.98 640 1.6136713e-38
4742.0664 -1796.5365 630 1.604379e-38
4679.708 -1763.1982 620 1.4936383e-38
4651.5171 -1752.9376 610 1.3368328e-38
4524.2441 -1664.0469 580 3.2293498e-39
4496.0532 -1653.7863 570 4.9824862e-39
4492.6328 -1663.1832 570 8.944397e-39
4485.7925 -1681.9771 570 9.8634512e-39
4472.9756 -1687.9537 570 7.373114e-39
4466.1348 -1706.7477 570 4.884188e-39
4468.6914 -1728.9617 570 5.1589812e-39
4465.2715 -1738.3586 570 4.6998023e-39
4446.4775 -1731.5182 570 4.0555077e-39
4408.8896 -1717.8374 560 3.778932e-39
4380.6992 -1707.5768 550 3.6863734e-39
4367.8818 -1713.5536 550 3.410504e-39
4355.0649 -1719.5303 550 3.2257596e-39
4336.271 -1712.6898 540 3.317235e-39
4277.333 -1669.9546 530 3.5016305e-39
4279.8896 -1692.1687 530 3.6870937e-39
4276.4692 -1701.5656 530 3.8732856e-39
3925.811 -62.804184 330 1.0879791e-38
3938.6284 -56.827454 330 1.2259826e-38
3948.0251 -60.247665 330 1.1155985e-38
3966.8191 -67.088058 330 9.0354912e-39
3972.7959 -79.905182 340 7.7422455e-39
3995.0098 -77.348663 340 2.350726e-38
4000.9866 -90.165787 340 1.7982073e-38
4000.9866 -90.165787 340 1.8164693e-38
4019.7803 -97.006195 350 1.8443767e-38
4019.7803 -97.006195 350 1.9546522e-38
4038.5742 -103.84659 350 1.5776573e-38
4057.3682 -110.687 350 1.8896835e-38
4256.4307 -119.28923 400 2.0008212e-38
4271.8047 -135.52657 400 1.8905112e-38
4281.2017 -138.94676 400 2.047243e-38
4287.1782 -151.76389 410 2.0010368e-38
4296.5752 -155.18408 410 1.6047765e-38
4324.7661 -165.4447 410 1.6875009e-38
4334.1631 -168.8649 420 1.6142841e-38
4980.8926 -233.98668 550 1.5769756e-38
5040.6943 -245.11096 560 1.8902945e-38
5033.8535 -263.90482 560 1.7705127e-38
5030.4336 -273.30173 560 2.3509842e-38
5032.9902 -295.51581 560 2.3509853e-38
5038.9668 -308.33292 570 2.2314141e-38
5032.1265 -327.12677 570 2.3509839e-38
5038.1035 -339.94391 570 2.3509848e-38
5021.8662 -355.31757 570 2.3509851e-38
4986.835 -363.8508 560 2.3509859e-38
5270.4697 -403.23486 620 2.3509862e-38
5057.7266 -432.22034 580 2.3509884e-38
5063.7031 -445.03745 580 2.3509876e-38
5015.8545 -459.54742 570 2.3509869e-38
5009.0142 -478.34128 570 2.3509883e-38
5005.5938 -487.73822 570 2.0472084e-38
4998.7539 -506.53204 570 1.53001e-38
5004.7305 -519.34918 580 1.5393e-38
5048.2949 -545.84711 580 1.5573088e-38
5104.6763 -566.36829 600 1.2073609e-38
5120.0498 -582.60565 600 7.8358746e-39
5132.0034 -608.23987 610 1.0138584e-38
5106.3691 -620.19336 600 8.6634941e-39
5131.1396 -639.85083 610 1.1341087e-38
5724.0098 -823.71252 740 1.1247442e-38
5846.1699 -868.17511 770 9.4017514e-39
5826.5127 -892.94568 770 4.3292163e-39
5838.4658 -918.57996 770 1.7333417e-38
5859.8164 -947.6344 780 1.953998e-38
5816.0449 -1623.4185 820 1.2995194e-38
5737.4492 -1605.4537 800 1.050665e-38
5640.0596 -1580.6487 780 1.3085584e-38
5629.7988 -1608.8395 780 5.8979896e-39
5604.165 -1620.793 770 7.0950894e-39
5559.7368 -1625.906 770 5.0696554e-39
5543.4995 -1641.2797 760 4.5175634e-39
5446.1099 -1616.4745 740 3.5037843e-39
5053.166 -1409.6041 650 2.8566184e-39
5012.1582 -1405.3203 640 3.4101509e-39
4977.127 -1413.8535 630 3.0417271e-39
4945.5166 -1412.9899 630 2.3981556e-39
4913.9053 -1412.1262 620 2.4889149e-39
4888.271 -1424.0797 620 2.4889177e-39
4866.0571 -1426.6362 610 2.672946e-39
4853.2397 -1432.6129 610 3.0431564e-39
4837.0024 -1447.9866 610 9.308474e-39
4830.1621 -1466.7804 610 1.3361818e-38
4832.7188 -1488.9945 610 9.9542049e-39
4819.9014 -1494.9712 610 1.1983222e-38
4763.52 -1474.45 600 1.244026e-38
4756.6797 -1493.2439 600 1.2350556e-38
4814.7197 -1684.6371 620 2.0008202e-38
4817.2759 -1706.8511 620 1.9087695e-38
4924.8916 -1820.5125 650 1.8716402e-38
4837.7627 -1767.5166 630 1.8532004e-38
4815.5488 -1770.0731 630 1.8437652e-38
4802.7314 -1776.0498 630 1.7426728e-38
4771.1206 -1775.1862 620 1.7054715e-38
4764.2803 -1793.98 620 1.6966468e-38
4732.6689 -1793.1163 610 1.6501548e-38
4673.731 -1750.3811 600 1.5121842e-38
4651.5171 -1752.9376 590 1.3460181e-38
4508.8701 -1647.8096 560 3.8729213e-39
4496.0532 -1653.7863 560 3.2311392e-39
4483.2363 -1659.7631 550 8.7592785e-39
4476.3955 -1678.5569 550 1.0505232e-38
4472.9756 -1687.9537 550 7.5585801e-39
4460.1582 -1693.9305 550 5.1607749e-39
4453.3179 -1712.7244 550 5.346964e-39
4440.501 -1718.701 550 5.3451703e-39
4421.707 -1711.8607 540 4.5164943e-39
4393.5161 -1701.6001 540 4.5161285e-39
4361.9053 -1700.7365 530 4.1477047e-39
4352.5083 -1697.3162 530 4.0533623e-39
4339.6914 -1703.293 530 3.6856546e-39
4311.5005 -1693.0323 520 3.5949051e-39
4277.333 -1669.9546 510 3.5959799e-39
4279.8896 -1692.1687 510 4.0551588e-39
4267.0723 -1698.1454 510 4.7012498e-39
3843.7954 -54.236435 300 2.3509886e-38
3925.811 -62.804184 320 1.1060223e-38
3948.0251 -60.247665 320 1.161517e-38
3957.4221 -63.667862 330 1.0600662e-38
3966.8191 -67.088058 330 9.4932296e-39
3976.2158 -70.508255 330 7.4660271e-39
3995.0098 -77.348663 330 2.3505853e-38
4004.4067 -80.76886 340 1.9088399e-38
4023.2007 -87.609268 340 1.7521119e-38
4019.7803 -97.006195 340 1.9272819e-38
4038.5742 -103.84659 340 1.7249554e-38
4047.9712 -107.26678 350 1.9086971e-38
4066.7651 -114.10719 350 2.0104023e-38
4088.979 -111.55066 350 1.5310555e-38
4243.6138 -125.26596 390 1.9916365e-38
4271.8047 -135.52657 390 1.9825602e-38
4309.3926 -149.20737 400 2.0469544e-38
4328.186 -156.04776 400 2.0564257e-38
4334.1631 -168.8649 410 1.6692777e-38
4980.8926 -233.98668 530 1.5403829e-38
5040.6943 -245.11096 550 1.7704027e-38
5043.251 -267.32501 550 2.1761352e-38
5039.8306 -276.72192 550 2.3509841e-38
5045.8076 -289.53906 550 2.3509846e-38
5038.9668 -308.33292 550 2.3509804e-38
5035.5469 -317.72986 550 2.3509837e-38
5038.1035 -339.94391 550 2.3509845e-38
5021.8662 -355.31757 550 2.3509842e-38
4986.835 -363.8508 540 2.3509856e-38
5270.4697 -403.23486 600 2.3509858e-38
5057.7266 -432.22034 560 2.3509872e-38
5063.7031 -445.03745 560 2.3509866e-38
5015.8545 -459.54742 560 2.3509872e-38
5009.0142 -478.34128 560 2.3509849e-38
5005.5938 -487.73822 560 1.9825635e-38
4998.7539 -506.53204 560 1.5022427e-38
5004.7305 -519.34918 560 1.5483761e-38
5104.6763 -566.36829 580 1.2257288e-38
5129.4473 -586.02588 590 8.4787105e-39
5132.0034 -608.23987 590 1.0505926e-38
5106.3691 -620.19336 590 8.5709342e-39
5108.9258 -642.40741 590 1.1798466e-38
5096.1084 -648.38416 590 1.1341451e-38
5733.4067 -827.13269 720 1.161515e-38
5915.3687 -882.7196 760 1.1061624e-38
5867.5205 -897.22955 750 7.9309513e-39
5888.8706 -926.284 760 1.2802139e-38
5929.0146 -962.17889 770 1.8161359e-38
5791.2744 -1603.7609 790 1.2810799e-38
5709.2583 -1595.1931 770 1.1517205e-38
5636.6396 -1590.0457 750 1.3269971e-38
5629.7988 -1608.8395 750 5.7128836e-39
5594.7676 -1617.3727 750 6.0827283e-39
5550.3398 -1622.4857 740 4.7015862e-39
5543.4995 -1641.2797 740 4.3335365e-39
5436.7129 -1613.0543 720 4.330654e-39
5043.7695 -1406.184 630 2.7651374e-39
5012.1582 -1405.3203 620 3.4119474e-39
4977.127 -1413.8535 620 2.7658633e-39
4945.5166 -1412.9899 610 2.5814664e-39
4923.3022 -1415.5464 600 2.396722e-39
4897.668 -1427.4999 600 2.4885603e-39
4866.0571 -1426.6362 600 2.3052397e-39
4853.2397 -1432.6129 590 2.9502475e-39
4837.0024 -1447.9866 590 9.5843364e-39
4830.1621 -1466.7804 590 1.26275e-38
4832.7188 -1488.9945 590 9.861652e-39
4819.9014 -1494.9712 590 1.2720054e-38
4763.52 -1474.45 580 1.1707008e-38
4756.6797 -1493.2439 580 1.2165814e-38
4725.0342 -1609.4271 580 1.945576e-38
4733.5674 -1644.4584 590 1.9545063e-38
4977.853 -1850.4305 650 1.935959e-38
4837.7627 -1767.5166 610 1.8624926e-38
4815.5488 -1770.0731 610 1.926524e-38
4802.7314 -1776.0498 610 1.8255762e-38
4761.7236 -1771.766 600 1.7795501e-38
4758.3037 -1781.1628 600 1.6320036e-38
4736.0894 -1783.7194 590 1.6228906e-38
4673.731 -1750.3811 580 1.5304798e-38
4657.4937 -1765.7548 580 1.4286704e-38
4518.2671 -1651.2297 540 3.4108726e-39
4496.0532 -1653.7863 540 2.8605644e-39
4483.2363 -1659.7631 540 8.6678059e-39
4476.3955 -1678.5569 540 1.0599227e-38
4472.9756 -1687.9537 540 8.2939759e-39
4460.1582 -1693.9305 540 4.9785402e-39
4453.3179 -1712.7244 540 5.8986944e-39
4440.501 -1718.701 530 5.8061443e-39
4412.3101 -1708.4406 530 5.5284854e-39
4384.1191 -1698.1799 520 5.2519027e-39
4365.3252 -1691.3395 520 4.3317429e-39
4343.1113 -1693.896 510 4.1477089e-39
4324.3174 -1687.0557 510 4.0533581e-39
4296.127 -1676.795 500 4.0548e-39
4277.333 -1669.9546 500 3.9644023e-39
4279.8896 -1692.1687 500 4.3324659e-39
4267.0723 -1698.1454 500 4.5175789e-39
3830.9783 -60.213165 300 2.3509886e-38
3957.4221 -63.667862 320 1.0604257e-38
3966.8191 -67.088058 320 1.0874735e-38
3976.2158 -70.508255 320 8.9400572e-39
3985.6128 -73.928467 320 7.6479003e-39
4004.4067 -80.76886 330 2.3509797e-38
4013.8037 -84.189056 330 1.9546169e-38
4023.2007 -87.609268 330 1.7520739e-38
4032.5977 -91.029465 330 1.9917476e-38
4051.3914 -97.869858 340 1.7795521e-38
4060.7883 -101.29007 340 2.0008568e-38
4079.582 -108.13046 340 1.9274252e-38
4098.376 -114.97087 350 1.8441973e-38
4126.5669 -125.23146 350 1.6787484e-38
4158.1777 -126.09514 360 1.7702231e-38
4154.7578 -135.49207 360 1.863247e-38
5018.4805 -247.66748 530 1.5592202e-38
5043.251 -267.32501 530 2.1476471e-38
5039.8306 -276.72192 530 2.3509837e-38
5045.8076 -289.53906 530 2.3509867e-38
5038.9668 -308.33292 530 2.3326135e-38
5035.5469 -317.72986 540 2.3509839e-38
5050.9204 -333.96716 540 2.3509848e-38
5034.6826 -349.34082 540 2.3509839e-38
4986.835 -363.8508 530 2.3509849e-38
5057.7266 -432.22034 550 2.350988e-38
5063.7031 -445.03745 550 2.3509874e-38
5015.8545 -459.54742 540 2.3509869e-38
5009.0142 -478.34128 540 2.3509862e-38
5005.5938 -487.73822 540 1.8163611e-38
4998.7539 -506.53204 540 1.4565405e-38
5004.7305 -519.34918 540 1.5114625e-38
5104.6763 -566.36829 560 1.2442027e-38
5129.4473 -586.02588 570 8.2957514e-39
5132.0034 -608.23987 570 1.0045316e-38
5106.3691 -620.19336 570 8.0188478e-39
5099.5288 -638.98718 570 1.1611208e-38
5073.8945 -650.94067 560 1.1707702e-38
5952.9561 -896.40039 740 1.179667e-38
5876.917 -900.64978 730 1.0601358e-38
5898.2676 -929.70422 740 7.1926758e-39
5947.8086 -969.01929 750 1.7239423e-38
5781.877 -1600.3407 760 1.3272122e-38
5709.2583 -1595.1931 740 1.1885275e-38
5630.6631 -1577.2285 730 1.3178502e-38
5620.4023 -1605.4193 730 5.4355849e-39
5585.3711 -1613.9525 720 6.080206e-39
5544.3633 -1609.6687 720 4.7919923e-39
5515.3086 -1631.019 710 4.4253664e-39
5358.981 -1563.4786 680 3.5966946e-39
5043.7695 -1406.184 610 2.581828e-39
5008.7383 -1414.7173 600 3.5927317e-39
4977.127 -1413.8535 600 2.8569813e-39
4954.9131 -1416.41 590 2.5814706e-39
4923.3022 -1415.5464 590 2.3967234e-39
4897.668 -1427.4999 580 2.1219344e-39
4866.0571 -1426.6362 580 2.2130538e-39
4853.2397 -1432.6129 580 2.4896309e-39
4837.0024 -1447.9866 570 9.2144903e-39
4830.1621 -1466.7804 570 1.225908e-38
4832.7188 -1488.9945 580 9.3099187e-39
4819.9014 -1494.9712 570 1.2442402e-38
4763.52 -1474.45 560 1.2071822e-38
4756.6797 -1493.2439 560 1.2350554e-38
4846.3306 -1685.5007 590 2.0377333e-38
4824.1162 -1688.0573 590 2.0284424e-38
4801.9023 -1690.6138 580 2.0096796e-38
4959.0591 -1843.5901 620 1.9544337e-38
4837.7627 -1767.5166 600 1.8994779e-38
4815.5488 -1770.0731 590 1.9080142e-38
4802.7314 -1776.0498 590 1.7797656e-38
4761.7236 -1771.766 580 1.7974157e-38
4758.3037 -1781.1628 580 1.7606442e-38
4736.0894 -1783.7194 580 1.6226017e-38
4670.311 -1759.778 560 1.5949075e-38
4657.4937 -1765.7548 560 1.41999e-38
4524.2441 -1664.0469 530 2.9506175e-39
4496.0532 -1653.7863 520 2.5832643e-39
4483.2363 -1659.7631 520 8.7589296e-39
4476.3955 -1678.5569 520 1.0782175e-38
4472.9756 -1687.9537 520 8.8475084e-39
4460.1582 -1693.9305 520 5.1629413e-39
4447.3413 -1699.9072 520 6.3650788e-39
4434.5239 -1705.8839 520 5.9937823e-39
4412.3101 -1708.4406 510 5.2537034e-39
4384.1191 -1698.1799 510 4.7023204e-39
4365.3252 -1691.3395 500 4.9763906e-39
4343.1113 -1693.896 500 4.9745871e-39
4324.3174 -1687.0557 500 4.1484306e-39
4305.5234 -1680.2152 490 4.2406304e-39
4283.3096 -1682.7717 490 4.5168558e-39
4279.8896 -1692.1687 490 4.7927238e-39
4273.0488 -1710.9625 490 5.3455389e-39
3830.9783 -60.213165 290 2.3509886e-38
3948.0251 -60.247665 310 1.1889589e-38
3979.6362 -61.111328 320 1.0230433e-38
3989.0332 -64.53154 320 8.3876121e-39
3998.4302 -67.951736 320 1.1148417e-38
4007.8269 -71.371933 320 2.2491718e-38
4026.6208 -78.212341 320 1.7984615e-38
4032.5977 -91.029465 330 2.0010696e-38
4041.9946 -94.449661 330 2.0745777e-38
4060.7883 -101.29007 330 2.0100751e-38
4083.0024 -98.733536 340 2.0930523e-38
4088.979 -111.55066 340 1.7893481e-38
4120.5898 -112.41434 340 1.7985303e-38
4129.9868 -115.83453 350 1.8076041e-38
4158.1777 -126.09514 350 1.835157e-38
4154.7578 -135.49207 350 1.9087681e-38
4195.7656 -139.77594 360 2.0008918e-38
5009.083 -244.24728 510 1.9452154e-38
5033.8535 -263.90482 520 2.194395e-38
5039.8306 -276.72192 520 2.3509842e-38
5045.8076 -289.53906 520 2.3509858e-38
5038.9668 -308.33292 520 2.3142118e-38
5035.5469 -317.72986 520 2.3509834e-38
5047.5 -343.36411 520 2.3509839e-38
5044.0801 -352.76102 520 2.3509849e-38
4986.835 -363.8508 510 2.3509865e-38
5057.7266 -432.22034 530 2.3509863e-38
5063.7031 -445.03745 530 2.3509866e-38
5015.8545 -459.54742 530 2.3509874e-38
5009.0142 -478.34128 520 2.350986e-38
5005.5938 -487.73822 520 1.7518949e-38
4998.7539 -506.53204 520 1.4929505e-38
5004.7305 -519.34918 530 1.5024212e-38
5104.6763 -566.36829 550 1.1891377e-38
5129.4473 -586.02588 550 8.3865177e-39
5132.0034 -608.23987 550 1.0048196e-38
5106.3691 -620.19336 550 7.4653307e-39
5099.5288 -638.98718 550 1.1523317e-38
5073.8945 -650.94067 550 1.2164376e-38
5934.1621 -889.56 710 1.1707347e-38
5858.123 -893.80939 700 1.1983925e-38
5876.0537 -932.26074 710 1.0604587e-38
5919.6182 -958.75867 720 9.5868517e-39
5791.2744 -1603.7609 740 1.4651094e-38
5709.2583 -1595.1931 720 1.2072883e-38
5630.6631 -1577.2285 710 1.3089896e-38
5620.4023 -1605.4193 710 5.1607959e-39
5575.9741 -1610.5323 700 5.8986832e-39
5544.3633 -1609.6687 690 4.5171921e-39
5509.332 -1618.2019 690 4.8831146e-39
5358.981 -1563.4786 660 3.7796481e-39
5053.166 -1409.6041 590 3.5995574e-39
5018.1353 -1418.1375 590 3.1346374e-39
4986.5244 -1417.2738 580 2.5821853e-39
4954.9131 -1416.41 580 2.4896351e-39
4923.3022 -1415.5464 570 2.3048837e-39
4897.668 -1427.4999 570 2.3960046e-39
4866.0571 -1426.6362 560 2.3038089e-39
4853.2397 -1432.6129 560 2.6733075e-39
4837.0024 -1447.9866 560 8.6652584e-39
4830.1621 -1466.7804 560 1.2992701e-38
4832.7188 -1488.9945 560 9.5861357e-39
4819.9014 -1494.9712 560 1.2167612e-38
4763.52 -1474.45 550 1.2625713e-38
4766.0767 -1496.6641 550 1.1431134e-38
4838.6611 -1618.8586 570 2.1204221e-38
4816.4468 -1621.4152 560 2.1294979e-38
4843.7739 -1663.2867 570 2.1389326e-38
4855.7275 -1688.9209 580 2.0928708e-38
4848.8867 -1707.7148 580 2.0282638e-38
4906.9614 -1782.061 590 1.9729472e-38
4949.6621 -1840.1699 600 1.8898261e-38
4831.7861 -1754.6995 580 1.9726939e-38
4806.1519 -1766.6528 570 1.8437296e-38
4802.7314 -1776.0498 570 1.7611839e-38
4761.7236 -1771.766 560 1.7884464e-38
4758.3037 -1781.1628 560 1.6227108e-38
4736.0894 -1783.7194 560 1.6136355e-38
4673.731 -1750.3811 550 1.6225669e-38
4651.5171 -1752.9376 540 1.4839155e-38
4549.0146 -1683.7045 520 2.8594995e-39
4496.0532 -1653.7863 510 3.1367912e-39
4492.6328 -1663.1832 510 8.9450991e-39
4476.3955 -1678.5569 510 1.0787568e-38
4472.9756 -1687.9537 510 1.5495298e-38
4460.1582 -1693.9305 510 1.8896457e-38
4447.3413 -1699.9072 500 1.1522241e-38
4434.5239 -1705.8839 500 1.8990105e-38
4412.3101 -1708.4406 500 2.0003527e-38
4393.5161 -1701.6001 490 1.9361036e-38
4365.3252 -1691.3395 490 1.5772973e-38
4343.1113 -1693.896 480 1.3652124e-38
4324.3174 -1687.0557 480 6.7518498e-39
4302.1035 -1689.6122 480 5.8165811e-39
4292.7065 -1686.1919 480 5.7193618e-39
4285.8662 -1704.9858 480 5.6246425e-39
4282.4458 -1714.3827 470 5.9916285e-39
3830.9783 -60.213165 280 2.3509886e-38
3830.9783 -60.213165 280 2.3509886e-38
4001.8501 -58.55481 310 7.374542e-39
4020.644 -65.395203 320 1.4373784e-38
4026.6208 -78.212341 320 1.9914197e-38
4036.0176 -81.632538 320 1.7429964e-38
4054.8115 -88.472931 320 2.0747938e-38
4064.2085 -91.893143 320 1.8080755e-38
4073.6055 -95.313339 330 2.1397613e-38
4092.3994 -102.15373 330 2.0748289e-38
4101.7964 -105.57394 330 1.7799107e-38
4120.5898 -112.41434 340 1.7982785e-38
4139.3838 -119.25475 340 1.7521449e-38
4158.1777 -126.09514 340 1.899369e-38
4176.9717 -132.93555 350 1.8906518e-38
4195.7656 -139.77594 350 1.9362475e-38
4214.5596 -146.61633 350 2.010363e-38
4986.8691 -246.80382 490 1.8251796e-38
5043.251 -267.32501 500 2.1298225e-38
5039.8306 -276.72192 500 2.350983e-38
5045.8076 -289.53906 500 2.3326188e-38
5038.9668 -308.33292 500 2.3509809e-38
5035.5469 -317.72986 500 2.3509853e-38
5047.5 -343.36411 510 2.3509839e-38
5044.0801 -352.76102 510 2.3509845e-38
5132.0723 -374.1459 520 2.3509855e-38
5115.835 -389.51956 520 2.3509869e-38
5057.7266 -432.22034 510 2.350986e-38
5050.8857 -451.01416 510 2.3509873e-38
5015.8545 -459.54742 510 2.3509866e-38
5009.0142 -478.34128 510 2.3509865e-38
5005.5938 -487.73822 510 1.631971e-38
4998.7539 -506.53204 510 1.5205735e-38
5004.7305 -519.34918 510 1.4746211e-38
5104.6763 -566.36829 530 1.2350554e-38
5129.4473 -586.02588 540 8.4794308e-39
5132.0034 -608.23987 540 1.0688885e-38
5106.3691 -620.19336 530 7.4656768e-39
5108.9258 -642.40741 540 1.1615502e-38
5096.1084 -648.38416 530 1.1799892e-38
5915.3687 -882.7196 690 1.1799903e-38
5858.123 -893.80939 680 1.2258712e-38
5866.6562 -928.84058 680 1.2536739e-38
5900.8242 -951.91827 690 9.406073e-39
5791.2744 -1603.7609 710 1.4651818e-38
5709.2583 -1595.1931 700 1.2439506e-38
5630.6631 -1577.2285 680 1.3915684e-38
5611.0049 -1601.999 680 5.6210467e-39
5566.5771 -1607.1121 670 6.0837933e-39
5525.5693 -1602.8282 670 4.0558706e-39
5446.9736 -1584.8635 650 4.424293e-39
5330.79 -1553.2181 630 4.2413423e-39
5068.54 -1425.8416 580 3.5948911e-39
5018.1353 -1418.1375 570 3.2250324e-39
4986.5244 -1417.2738 560 2.7647801e-39
4954.9131 -1416.41 560 2.3977996e-39
4913.9053 -1412.1262 550 2.397078e-39
4897.668 -1427.4999 550 2.2126937e-39
4866.0571 -1426.6362 540 2.2130482e-39
4853.2397 -1432.6129 540 2.5800301e-39
4837.0024 -1447.9866 540 9.3070418e-39
4830.1621 -1466.7804 540 1.2903368e-38
4832.7188 -1488.9945 540 9.9538448e-39
4819.9014 -1494.9712 540 1.2533162e-38
4763.52 -1474.45 530 1.2072539e-38
4775.4736 -1500.0842 530 1.1704837e-38
4816.4468 -1621.4152 550 2.0745034e-38
4855.7275 -1688.9209 560 2.1112738e-38
4858.2842 -1711.135 560 2.0100019e-38
4925.7554 -1788.9015 580 2.0281901e-38
4943.6855 -1827.3528 580 1.8902583e-38
4831.7861 -1754.6995 560 1.8535942e-38
4806.1519 -1766.6528 550 1.8166442e-38
4802.7314 -1776.0498 550 1.8437641e-38
4771.1206 -1775.1862 550 1.7975593e-38
4758.3037 -1781.1628 550 1.6412588e-38
4742.0664 -1796.5365 540 1.659517e-38
4679.708 -1763.1982 530 1.5126152e-38
4657.4937 -1765.7548 530 1.4842029e-38
4583.1821 -1706.7821 510 3.1346542e-39
4505.4502 -1657.2064 500 3.0438781e-39
4498.6099 -1676.0004 500 1.7608987e-38
4485.7925 -1681.9771 490 1.7611471e-38
4482.3726 -1691.374 490 1.7794781e-38
4466.1348 -1706.7477 490 1.8621682e-38
4453.3179 -1712.7244 490 1.2252273e-38
4440.501 -1718.701 490 1.8622023e-38
4421.707 -1711.8607 490 1.8992258e-38
4393.5161 -1701.6001 480 1.8072101e-38
4355.9287 -1687.9193 470 1.7890204e-38
4343.1113 -1693.896 470 1.9264541e-38
4324.3174 -1687.0557 470 1.8898617e-38
4311.5005 -1693.0323 460 1.8529493e-38
4298.6831 -1699.009 460 1.7056877e-38
4285.8662 -1704.9858 460 1.5492073e-38
4282.4458 -1714.3827 460 1.3740362e-38
3830.9783 -60.213165 280 2.3509886e-38
3830.9783 -60.213165 280 2.3509886e-38
4705.0303 89.896179 410 1.4659101e-38
4039.438 -72.235611 310 1.9363207e-38
4058.2319 -79.076004 320 1.8165022e-38
4067.6287 -82.496216 320 2.1672409e-38
4086.4226 -89.336609 320 1.8079292e-38
4095.8193 -92.756805 320 2.2586465e-38
4105.2163 -96.177017 320 1.8719667e-38
4124.0103 -103.01741 330 1.7063352e-38
4129.9868 -115.83453 330 1.7614011e-38
4152.2012 -113.27802 330 1.8074603e-38
4170.9951 -120.11841 340 1.8353717e-38
4199.1855 -130.37901 340 1.8444833e-38
4208.5825 -133.79922 340 1.8536665e-38
4236.7734 -144.05981 350 1.9721189e-38
5043.251 -267.32501 490 2.1567235e-38
5049.2275 -280.14215 490 2.3509838e-38
5064.6011 -296.37946 490 2.2499667e-38
5038.9668 -308.33292 490 2.3047757e-38
5035.5469 -317.72986 490 2.3509842e-38
5038.1035 -339.94391 490 2.3509838e-38
5034.6826 -349.34082 490 2.3509845e-38
5141.4697 -377.5661 510 2.3509859e-38
5115.835 -389.51956 500 2.3509858e-38
5057.7266 -432.22034 500 2.3509877e-38
5050.8857 -451.01416 500 2.3509863e-38
5015.8545 -459.54742 490 2.3509873e-38
5009.0142 -478.34128 490 2.3509858e-38
5005.5938 -487.73822 490 1.5394153e-38
4998.7539 -506.53204 490 1.5114265e-38
5004.7305 -519.34918 490 1.382713e-38
5104.6763 -566.36829 510 1.1614795e-38
5138.8438 -589.44604 520 7.9266269e-39
5132.0034 -608.23987 520 1.0416612e-38
5106.3691 -620.19336 520 7.923048e-39
5121.7432 -636.43066 520 1.1706627e-38
5893.1543 -885.27612 660 1.2260147e-38
5845.3062 -899.78607 650 1.2628209e-38
5857.2598 -925.42035 660 1.2721492e-38
5897.4038 -961.31519 660 1.0234746e-38
5800.6709 -1607.1812 690 1.4653258e-38
5709.2583 -1595.1931 670 1.3266388e-38
5621.2656 -1573.8082 660 1.3456521e-38
5601.6084 -1598.5789 660 5.5281308e-39
5560.6006 -1594.295 650 5.6220991e-39
5482.0049 -1576.3303 630 4.7945007e-39
5409.3857 -1571.1827 620 1.7527155e-38
5334.2104 -1543.8212 610 4.0537182e-39
5077.937 -1429.2617 560 2.9495301e-39
5018.1353 -1418.1375 550 2.6722257e-39
4986.5244 -1417.2738 540 2.674018e-39
4945.5166 -1412.9899 540 2.3041705e-39
4913.9053 -1412.1262 530 2.3048809e-39
4888.271 -1424.0797 530 2.1204967e-39
4875.4541 -1430.0564 530 2.3052397e-39
4853.2397 -1432.6129 520 2.3045236e-39
4837.0024 -1447.9866 520 9.4003095e-39
4830.1621 -1466.7804 520 1.2904083e-38
4832.7188 -1488.9945 520 1.0136433e-38
4819.9014 -1494.9712 520 1.2627878e-38
4772.917 -1477.8702 510 1.2718623e-38
4766.0767 -1496.6641 510 1.2168328e-38
4810.4702 -1608.598 530 2.1570858e-38
4819.0034 -1643.6292 530 2.0649271e-38
4830.957 -1669.2634 530 2.0376983e-38
4839.4902 -1704.2946 540 1.9824897e-38
4891.5879 -1765.8237 550 2.1109862e-38
4934.2886 -1823.9326 560 1.9545426e-38
4822.3892 -1751.2792 540 1.9359591e-38
4806.1519 -1766.6528 540 1.7615083e-38
4802.7314 -1776.0498 540 1.770332e-38
4771.1206 -1775.1862 530 1.659804e-38
4764.2803 -1793.98 530 1.7332013e-38
4742.0664 -1796.5365 530 1.6964667e-38
4689.1045 -1766.6184 520 1.567539e-38
4666.8906 -1769.1749 510 1.5303721e-38
4598.5557 -1723.0194 500 3.318321e-39
4520.8237 -1673.4438 480 4.1548766e-39
4498.6099 -1676.0004 480 1.7333422e-38
4485.7925 -1681.9771 480 1.8250024e-38
4482.3726 -1691.374 480 1.8254303e-38
4466.1348 -1706.7477 480 1.8254335e-38
4462.7148 -1716.1445 480 1.2249798e-38
4440.501 -1718.701 470 1.9821634e-38
4421.707 -1711.8607 470 1.8624539e-38
4384.1191 -1698.1799 460 1.9999214e-38
4355.9287 -1687.9193 460 1.9085527e-38
4337.1348 -1681.0789 460 2.0003168e-38
4324.3174 -1687.0557 450 1.9085165e-38
4311.5005 -1693.0323 450 1.8902938e-38
4298.6831 -1699.009 450 1.8713862e-38
4301.2397 -1721.2231 450 1.6502991e-38
4288.4229 -1727.1998 450 1.576831e-38
3830.9783 -60.213165 270 2.3509886e-38
3827.5581 -69.610092 270 2.3509855e-38
4705.0303 89.896179 400 1.4288501e-38
4089.8428 -79.939682 310 2.1937463e-38
4099.2397 -83.359879 310 1.99153e-38
4108.6367 -86.78009 320 2.222414e-38
4127.4307 -93.620483 320 1.8443781e-38
4133.4072 -106.43761 320 1.6879678e-38
4152.2012 -113.27802 320 1.6510164e-38
4161.5981 -116.69821 330 1.7615443e-38
4180.3916 -123.53862 330 1.835407e-38
4199.1855 -130.37901 330 1.7893826e-38
4230.7969 -131.24269 340 1.9364287e-38
4249.5908 -138.0831 340 1.7875836e-38
4444.3696 -187.69324 370 1.6508013e-38
4595.584 -210.80547 400 1.483952e-38
5056.0679 -261.3483 470 2.019112e-38
5058.624 -283.56235 470 2.3509832e-38
5064.6011 -296.37946 470 2.2957047e-38
5038.9668 -308.33292 470 2.2772613e-38
5035.5469 -317.72986 470 2.3509837e-38
5028.7061 -336.52368 470 2.3509853e-38
5012.4688 -351.89734 470 2.3509846e-38
5122.6758 -370.72571 490 2.3509877e-38
5115.835 -389.51956 490 2.3509848e-38
5057.7266 -432.22034 480 2.3509862e-38
5050.8857 -451.01416 480 2.3509849e-38
5015.8545 -459.54742 480 2.3509853e-38
5009.0142 -478.34128 480 2.3509866e-38
5005.5938 -487.73822 480 1.4472543e-38
4989.3564 -503.11185 480 1.4378851e-38
4995.3335 -515.92896 480 1.4655081e-38
5104.6763 -566.36829 500 1.1892812e-38
5138.8438 -589.44604 500 8.9378964e-39
5132.0034 -608.23987 500 1.0418412e-38
5106.3691 -620.19336 500 7.6478834e-39
5121.7432 -636.43066 500 1.0696792e-38
5874.3604 -878.43573 630 1.2716823e-38
5835.9092 -896.36591 630 1.2624983e-38
5847.8628 -922.00012 630 1.2906591e-38
5878.6104 -954.47479 640 9.9567174e-39
5835.7021 -1598.6478 670 1.4378113e-38
5806.6479 -1619.9983 660 1.4651817e-38
5718.6553 -1598.6134 650 1.3084148e-38
5611.8691 -1570.3881 630 1.3921802e-38
5586.2344 -1582.3416 630 6.1727758e-39
5523.0127 -1580.6141 620 5.6224691e-39
5425.623 -1555.8091 600 5.9876573e-39
5375.2188 -1548.105 590 2.2671779e-38
5334.2104 -1543.8212 590 3.0420886e-39
5027.5322 -1421.5576 530 2.4889163e-39
4986.5244 -1417.2738 530 2.4881946e-39
4936.1191 -1409.5697 520 1.9364557e-39
4904.5083 -1408.7061 510 2.1194149e-39
4888.271 -1424.0797 510 2.2119706e-39
4875.4541 -1430.0564 510 2.394927e-39
4853.2397 -1432.6129 510 2.2130482e-39
4837.0024 -1447.9866 500 8.9411348e-39
4830.1621 -1466.7804 500 1.2903729e-38
4832.7188 -1488.9945 510 9.8602072e-39
4819.9014 -1494.9712 500 1.1980715e-38
4772.917 -1477.8702 500 1.2258366e-38
4766.0767 -1496.6641 500 1.1706631e-38
4757.5088 -1578.6798 500 2.1205655e-38
4794.2329 -1623.9717 510 2.0745417e-38
4787.3926 -1642.7655 510 2.0745024e-38
4814.7197 -1684.6371 510 2.0926553e-38
4876.2139 -1749.5864 530 2.065032e-38
4934.2886 -1823.9326 540 1.8994403e-38
4822.3892 -1751.2792 520 1.9085165e-38
4806.1519 -1766.6528 520 1.9175923e-38
4802.7314 -1776.0498 520 1.8254688e-38
4771.1206 -1775.1862 510 1.8068139e-38
4764.2803 -1793.98 510 1.6963597e-38
4751.4629 -1799.9567 510 1.6137427e-38
4704.4785 -1782.8557 500 1.6407544e-38
4682.2646 -1785.4122 500 1.5117178e-38
4613.9292 -1739.2568 490 3.5941946e-39
4545.5942 -1693.1013 470 2.4914232e-39
4513.9834 -1692.2377 470 1.6044841e-38
4501.166 -1698.2144 470 1.7609679e-38
4488.3491 -1704.1912 460 1.7055063e-38
4475.5322 -1710.1678 460 1.7335971e-38
4453.3179 -1712.7244 460 1.4741239e-38
4440.501 -1718.701 460 1.8901503e-38
4421.707 -1711.8607 450 1.8991892e-38
4384.1191 -1698.1799 450 1.8161075e-38
4355.9287 -1687.9193 440 1.9084811e-38
4337.1348 -1681.0789 440 1.9454665e-38
4324.3174 -1687.0557 440 1.9450369e-38
4320.8975 -1696.4525 440 1.8331432e-38
4304.6602 -1711.8262 440 1.7711625e-38
4301.2397 -1721.2231 440 2.0659368e-38
4297.8193 -1730.62 440 2.341805e-38
3830.9783 -60.213165 260 2.3509886e-38
3827.5581 -69.610092 260 2.350987e-38
4705.0303 89.896179 390 1.2908438e-38
4121.4536 -80.80336 310 6.4493459e-39
4130.8506 -84.223557 310 2.2953038e-38
4136.8271 -97.04068 310 1.8257586e-38
4155.6211 -103.88109 310 1.706729e-38
4165.0181 -107.30128 320 1.6050997e-38
4183.812 -114.14169 320 1.7521793e-38
4202.606 -120.98209 320 1.771014e-38
4212.0029 -124.40228 320 1.8443756e-38
4249.5908 -138.0831 330 1.9357093e-38
4268.3843 -144.92349 330 1.6680889e-38
4331.6064 -146.65085 340 1.3841571e-38
4406.7817 -174.01245 360 1.7245208e-38
4425.5757 -180.85284 360 7.5637102e-39
4453.7666 -191.11343 360 1.6501535e-38
4494.7744 -195.39731 370 1.5767225e-38
4586.187 -207.38527 380 1.5122205e-38
5033.8535 -263.90482 450 2.0842267e-38
5049.2275 -280.14215 460 2.3509832e-38
5055.2041 -292.95926 460 2.1852859e-38
5038.9668 -308.33292 460 2.3508738e-38
5035.5469 -317.72986 460 2.3509832e-38
5028.7061 -336.52368 460 2.3509821e-38
5021.8662 -355.31757 460 2.3509835e-38
5141.4697 -377.5661 470 2.3509832e-38
5115.835 -389.51956 470 2.3509849e-38
5057.7266 -432.22034 460 2.3509855e-38
5050.8857 -451.01416 470 2.3509862e-38
5015.8545 -459.54742 460 2.3509849e-38
5009.0142 -478.34128 460 2.3509869e-38
5005.5938 -487.73822 460 1.4011199e-38
4989.3564 -503.11185 460 1.3734572e-38
4995.3335 -515.92896 460 1.4379204e-38
5114.0732 -569.78851 480 1.2074337e-38
5138.8438 -589.44604 490 8.4808727e-39
5141.4004 -611.6601 490 1.1151296e-38
5115.7661 -623.61353 480 8.3850841e-39
5121.7432 -636.43066 490 1.0787187e-38
5864.9639 -875.0155 610 1.2536382e-38
5835.9092 -896.36591 610 1.2534948e-38
5847.8628 -922.00012 610 1.336434e-38
5900.8242 -951.91827 620 9.6808508e-39
6646.4639 -1680.9052 770 1.2809718e-38
6532.8369 -1671.4738 750 1.3730942e-38
6375.6455 -1635.5443 720 1.3086665e-38
6154.3687 -1629.4987 690 1.4467068e-38
6090.2832 -1659.3823 680 1.4744369e-38
5851.0762 -1614.8851 650 1.5204991e-38
5844.2354 -1633.6791 650 1.5480133e-38
5728.0522 -1602.0336 630 1.3452936e-38
5583.6782 -1560.1274 600 1.4286277e-38
5533.2734 -1552.4235 600 5.9898321e-39
5479.4482 -1554.1162 590 5.4370016e-39
5400.8525 -1536.1516 580 7.0093257e-39
5356.4248 -1541.2646 570 1.861912e-38
5324.8135 -1540.401 560 2.9506077e-39
5255.6152 -1525.8564 550 2.8566212e-39
5027.5322 -1421.5576 510 2.3027243e-39
4977.127 -1413.8535 510 1.6605919e-39
4926.7227 -1406.1495 500 1.4747671e-39
4904.5083 -1408.7061 490 1.4744098e-39
4888.271 -1424.0797 490 1.4751287e-39
4875.4541 -1430.0564 490 1.5673201e-39
4853.2397 -1432.6129 490 1.7517114e-39
4837.0024 -1447.9866 490 9.0318843e-39
4830.1621 -1466.7804 490 1.2902643e-38
4832.7188 -1488.9945 490 1.0227193e-38
4819.9014 -1494.9712 490 1.2624277e-38
4772.917 -1477.8702 480 1.225837e-38
4766.0767 -1496.6641 480 1.1890672e-38
4837.7974 -1650.4696 500 2.0743979e-38
4830.957 -1669.2634 500 2.0559571e-38
4858.2842 -1711.135 500 2.0097526e-38
4906.9614 -1782.061 520 2.0005685e-38
4934.2886 -1823.9326 520 1.9635832e-38
4822.3892 -1751.2792 500 1.8260452e-38
4806.1519 -1766.6528 500 1.8531986e-38
4802.7314 -1776.0498 500 1.8345821e-38
4780.5176 -1778.6063 500 1.6966112e-38
4773.6772 -1797.4001 500 1.6690967e-38
4757.4399 -1812.7738 490 1.5585708e-38
4719.8521 -1799.093 490 1.5765065e-38
4697.6382 -1801.6495 490 1.5212957e-38
4619.9062 -1752.074 470 4.0533861e-39
4582.3184 -1738.3931 470 2.581465e-39
4523.3804 -1695.6578 450 1.4844505e-38
4516.54 -1714.4517 450 1.7422036e-38
4488.3491 -1704.1912 450 1.7699352e-38
4484.9287 -1713.588 450 1.7057583e-38
4462.7148 -1716.1445 450 1.6405046e-38
4449.8975 -1722.1213 450 1.945143e-38
4427.6836 -1724.6779 440 1.8898631e-38
4359.3486 -1678.5223 430 1.9635115e-38
4349.9517 -1675.1022 430 1.8068509e-38
4337.1348 -1681.0789 430 1.5590744e-38
4324.3174 -1687.0557 420 1.83487e-38
4320.8975 -1696.4525 420 1.8808243e-38
4304.6602 -1711.8262 420 1.9827095e-38
4301.2397 -1721.2231 420 2.0843395e-38
4297.8193 -1730.62 420 2.2683007e-38
3830.9783 -60.213165 260 2.3509886e-38
3827.5581 -69.610092 260 2.3509858e-38
4705.0303 89.896179 370 1.3000635e-38
4904.957 112.90491 400 1.1059497e-38
4168.4385 -97.904358 310 6.9985624e-39
4168.4385 -97.904358 310 1.7430305e-38
4187.2324 -104.74477 310 1.650945e-38
4206.0264 -111.58516 310 1.7342076e-38
4224.8198 -118.42557 320 1.7527565e-38
4243.6138 -125.26596 320 1.7525757e-38
4262.4077 -132.10635 320 1.7885561e-38
4303.4155 -136.39023 330 1.4660156e-38
4363.2173 -147.51451 340 1.5774418e-38
4413.6221 -155.2186 340 1.6588325e-38
4423.019 -158.63879 350 1.4572269e-38
4441.813 -165.47919 350 1.6045243e-38
4457.1865 -181.71652 350 8.120484e-39
4466.5835 -185.13672 350 1.503325e-38
4513.5684 -202.23772 360 1.5670344e-38
4573.3701 -213.362 370 1.6042006e-38
5024.457 -260.48462 440 2.1668427e-38
5039.8306 -276.72192 440 2.3509828e-38
5045.8076 -289.53906 440 2.1390443e-38
5029.5698 -304.91272 440 2.3509816e-38
5022.7295 -323.70657 440 2.3509821e-38
5028.7061 -336.52368 440 2.3509845e-38
5021.8662 -355.31757 440 2.3509837e-38
5150.8662 -380.9863 460 2.3509845e-38
4979.9941 -382.64465 430 2.3509832e-38
5057.7266 -432.22034 450 2.3509851e-38
5050.8857 -451.01416 450 2.350987e-38
5015.8545 -459.54742 450 2.3509865e-38
5009.0142 -478.34128 440 2.3509855e-38
5005.5938 -487.73822 440 1.4652226e-38
4989.3564 -503.11185 440 1.4193744e-38
4995.3335 -515.92896 440 1.4102979e-38
5114.0732 -569.78851 460 1.1982872e-38
5148.2407 -592.86621 470 8.2957668e-39
5141.4004 -611.6601 470 1.0783956e-38
5115.7661 -623.61353 470 8.0209651e-39
5131.1396 -639.85083 470 1.1889586e-38
5883.7578 -881.8559 590 1.2625353e-38
5867.5205 -897.22955 590 1.2443109e-38
5866.6562 -928.84058 590 1.3177074e-38
5910.2207 -955.3385 600 9.6794187e-39
6684.915 -1662.975 740 1.26264e-38
6580.6851 -1656.9637 720 1.290335e-38
6479.875 -1641.5555 710 1.3729866e-38
6394.4395 -1642.3848 700 1.3547637e-38
6327.7969 -1650.0543 690 1.428267e-38
6364.5215 -1695.3462 700 1.3548712e-38
6154.3687 -1629.4987 660 1.4468508e-38
6144.1079 -1657.6895 660 1.4468506e-38
6043.2983 -1642.2812 650 1.4471743e-38
5914.2979 -1616.6125 630 1.5023475e-38
5816.9082 -1591.8075 610 1.5574133e-38
5797.251 -1616.578 610 1.5480862e-38
5690.4648 -1588.3528 600 1.3455079e-38
5602.4717 -1566.9679 580 1.3917496e-38
5539.25 -1565.2405 570 7.1890661e-39
5470.0513 -1550.696 560 4.9778213e-39
5382.0586 -1529.3112 550 1.069602e-38
5347.0273 -1537.8445 550 1.1503572e-38
5324.8135 -1540.401 540 2.1190477e-39
5280.3857 -1545.514 540 2.860563e-39
5036.9287 -1424.9778 500 3.8700444e-39
4977.127 -1413.8535 490 1.6591528e-39
4917.3257 -1402.7292 480 1.5673229e-39
4895.1113 -1405.2858 480 1.7509883e-39
4888.271 -1424.0797 480 1.9353782e-39
4875.4541 -1430.0564 470 1.8431825e-39
4853.2397 -1432.6129 470 1.843907e-39
4837.0024 -1447.9866 470 9.3999451e-39
4830.1621 -1466.7804 470 1.281046e-38
4832.7188 -1488.9945 470 9.9524e-39
4819.9014 -1494.9712 470 1.2533157e-38
4772.917 -1477.8702 460 1.2718249e-38
4756.6797 -1493.2439 460 1.1615147e-38
4688.3101 -1564.1354 450 2.0924766e-38
4883.0547 -1730.7925 490 2.0375551e-38
4925.7554 -1788.9015 500 2.0006777e-38
4934.2886 -1823.9326 500 1.9363195e-38
4822.3892 -1751.2792 480 1.8442678e-38
4815.5488 -1770.0731 480 1.9081568e-38
4799.3115 -1785.4468 480 1.8438005e-38
4786.4941 -1791.4235 480 1.7611478e-38
4779.6538 -1810.2173 480 1.6780646e-38
4766.8369 -1816.1941 480 1.6594465e-38
4735.2256 -1815.3303 470 1.6408992e-38
4731.8057 -1824.7273 470 1.5305144e-38
4654.0737 -1775.1516 460 4.2381557e-39
4616.4858 -1761.4708 460 2.2126909e-39
4569.501 -1744.3699 450 1.4105843e-38
4541.3105 -1734.1093 440 1.7331289e-38
4519.0967 -1736.6658 440 1.6777409e-38
4506.2793 -1742.6425 440 1.7882668e-38
4493.4619 -1748.6193 440 1.6777775e-38
4486.6216 -1767.4131 440 1.8898616e-38
4461.8511 -1747.7555 430 1.8533436e-38
4353.3721 -1665.7052 410 2.0100035e-38
4340.5547 -1671.682 410 1.9268497e-38
4337.1348 -1681.0789 410 2.0098616e-38
4324.3174 -1687.0557 410 1.9728384e-38
4317.4771 -1705.8495 410 1.8624565e-38
4314.0566 -1715.2463 410 1.890369e-38
4301.2397 -1721.2231 410 1.9733105e-38
4297.8193 -1730.62 410 2.1571618e-38
3830.9783 -60.213165 250 2.3509886e-38
3827.5581 -69.610092 250 2.3509845e-38
4705.0303 89.896179 360 1.2171957e-38
4904.957 112.90491 390 1.0601032e-38
4228.2402 -109.02864 310 1.8164277e-38
4247.0342 -115.86903 310 1.7894535e-38
4275.2246 -126.12964 310 1.7341366e-38
4306.8359 -126.99332 320 1.7708702e-38
4344.4233 -140.6741 320 1.6692775e-38
4376.0342 -141.53778 330 1.6785661e-38
4417.0425 -145.82166 330 1.5204321e-38
4445.2334 -156.08226 340 1.4297469e-38
4451.21 -168.89938 340 1.604129e-38
4457.1865 -181.71652 340 9.9783479e-39
4485.3774 -191.97711 340 1.0058691e-38
4535.7822 -199.68118 350 1.2453219e-38
4586.187 -207.38527 360 1.5949806e-38
5015.0601 -257.06442 420 2.1481561e-38
5030.4336 -273.30173 420 2.3509837e-38
5032.9902 -295.51581 420 2.1757802e-38
5029.5698 -304.91272 420 2.2773708e-38
5022.7295 -323.70657 420 2.3509839e-38
5019.3096 -333.10352 420 2.3509842e-38
5021.8662 -355.31757 420 2.3509839e-38
5141.4697 -377.5661 440 2.3509849e-38
5011.6055 -383.50833 420 2.3509846e-38
5108.9946 -408.31342 440 2.3509841e-38
5048.3291 -428.80011 430 2.3509825e-38
5050.8857 -451.01416 430 2.3509872e-38
5015.8545 -459.54742 430 2.3509846e-38
5009.0142 -478.34128 430 2.350986e-38
5005.5938 -487.73822 430 1.437671e-38
4989.3564 -503.11185 430 1.3460133e-38
4995.3335 -515.92896 430 1.3732777e-38
5114.0732 -569.78851 450 1.1520453e-38
5148.2407 -592.86621 450 8.2943319e-39
5141.4004 -611.6601 450 1.1244211e-38
5115.7661 -623.61353 450 9.2144609e-39
5121.7432 -636.43066 450 1.1706265e-38
5114.9023 -655.22449 450 1.2350195e-38
5962.3535 -899.82062 570 1.1982133e-38
5936.7188 -911.77405 570 1.1520439e-38
5945.252 -946.80524 570 1.0781075e-38
6703.709 -1669.8153 710 1.3453642e-38
6627.6699 -1674.0647 700 1.2718598e-38
6542.2334 -1674.8939 690 1.372915e-38
6441.4238 -1659.4857 680 1.4373429e-38
6346.5908 -1656.8948 660 1.3915695e-38
6283.3691 -1655.1674 650 1.419084e-38
6173.1621 -1636.3391 640 1.4836929e-38
6125.3145 -1650.849 630 1.5206426e-38
5971.543 -1605.5227 610 1.4839087e-38
5851.9395 -1583.2742 590 1.5389735e-38
5769.9238 -1574.7064 580 1.5576283e-38
5716.0986 -1576.3993 580 1.5206789e-38
5656.2969 -1565.275 570 1.4280184e-38
5602.4717 -1566.9679 560 1.5208577e-38
5539.25 -1565.2405 550 8.6616696e-39
5479.4482 -1554.1162 540 4.3310142e-39
5382.0586 -1529.3112 530 2.4878331e-39
5341.0508 -1525.0273 520 2.4006681e-39
5334.2104 -1543.8212 520 4.1473502e-39
5289.7822 -1548.9342 520 3.9633149e-39
5002.7617 -1401.9001 470 3.5030542e-39
4952.3564 -1394.196 470 1.7509939e-39
4920.7456 -1393.3324 460 1.9350222e-39
4895.1113 -1405.2858 460 1.6595199e-39
4888.271 -1424.0797 460 1.7506366e-39
4875.4541 -1430.0564 460 1.568039e-39
4853.2397 -1432.6129 450 1.9353852e-39
4837.0024 -1447.9866 450 9.0315255e-39
4830.1621 -1466.7804 450 1.2718979e-38
4832.7188 -1488.9945 450 1.0226836e-38
4819.9014 -1494.9712 450 1.2534945e-38
4772.917 -1477.8702 450 1.170593e-38
4756.6797 -1493.2439 440 1.2074685e-38
4673.7998 -1516.2871 430 2.1204572e-38
4660.9829 -1522.2638 430 2.1113103e-38
4697.707 -1567.5555 440 2.0466302e-38
4774.5752 -1648.7422 450 1.9917431e-38
4718.1938 -1628.2211 450 1.9358172e-38
4909.5181 -1804.2751 480 1.9635819e-38
4812.9922 -1747.859 460 1.9179513e-38
4815.5488 -1770.0731 460 1.9084791e-38
4799.3115 -1785.4468 460 1.7978462e-38
4786.4941 -1791.4235 460 1.7702948e-38
4779.6538 -1810.2173 460 1.7054717e-38
4776.2334 -1819.6143 460 1.6409358e-38
4744.6226 -1818.7506 460 1.6134918e-38
4737.7822 -1837.5444 460 1.4567236e-38
4644.6768 -1771.7314 440 5.5260135e-39
4607.0889 -1758.0507 440 2.1204981e-39
4578.8984 -1747.79 430 1.6224578e-38
4556.6841 -1750.3466 430 1.6592285e-38
4534.4702 -1752.9031 430 1.6317508e-38
4521.6528 -1758.8798 430 1.6688086e-38
4518.2329 -1768.2767 430 1.6226397e-38
4501.9951 -1783.6504 420 1.8160335e-38
4529.3223 -1825.522 430 1.8345071e-38
4353.3721 -1665.7052 400 2.0280811e-38
4340.5547 -1671.682 400 1.9176287e-38
4327.7378 -1677.6587 400 2.0280844e-38
4324.3174 -1687.0557 400 1.8619535e-38
4317.4771 -1705.8495 400 1.6762329e-38
4314.0566 -1715.2463 400 9.484627e-39
4301.2397 -1721.2231 390 6.4558465e-39
4303.7964 -1743.4371 400 7.7494482e-39
3830.9783 -60.213165 250 2.3509886e-38
3827.5581 -69.610092 250 2.3509842e-38
4714.4272 86.475983 350 1.1342553e-38
4297.439 -123.5731 310 1.6593673e-38
4338.4468 -127.85698 310 1.7156258e-38
4357.2407 -134.69739 320 1.6880383e-38
4407.6455 -142.40146 320 1.5955563e-38
4435.8359 -152.66206 330 1.5769728e-38
4476.8442 -156.94594 330 1.5585313e-38
4514.4316 -170.62674 340 1.5674297e-38
4533.2256 -177.46713 340 5.7175402e-39
4529.8057 -186.86407 340 8.20906e-39
4545.1792 -203.10139 340 1.3368357e-38
4595.584 -210.80547 350 1.5669986e-38
5011.6396 -266.46133 400 2.2126185e-38
5027.0137 -282.69867 410 2.3509855e-38
5032.9902 -295.51581 410 2.0747956e-38
5029.5698 -304.91272 410 2.2865535e-38
5022.7295 -323.70657 410 2.3509842e-38
5028.7061 -336.52368 410 2.3509839e-38
5034.6826 -349.34082 410 2.3509848e-38
5132.0723 -374.1459 420 2.3509839e-38
5115.835 -389.51956 420 2.3509856e-38
5131.209 -405.7569 430 2.3509851e-38
5048.3291 -428.80011 420 2.3509855e-38
5050.8857 -451.01416 420 2.3509851e-38
5015.8545 -459.54742 410 2.3509845e-38
5009.0142 -478.34128 410 2.3509863e-38
5005.5938 -487.73822 410 1.4373103e-38
4989.3564 -503.11185 410 1.4099397e-38
4995.3335 -515.92896 410 1.3732774e-38
5104.6763 -566.36829 430 1.1340379e-38
5157.6377 -596.28644 440 8.297559e-39
5150.7974 -615.08032 440 1.0783238e-38
5115.7661 -623.61353 430 8.5755598e-39
5121.7432 -636.43066 430 1.1247807e-38
5114.9023 -655.22449 430 1.151973e-38
6012.7578 -907.52466 560 1.161156e-38
5995.6572 -954.50928 560 7.560001e-39
6713.1055 -1673.2356 680 1.2994106e-38
6637.0664 -1677.485 670 1.3637313e-38
6570.4243 -1685.1545 660 1.3362522e-38
6484.9883 -1685.9836 650 1.345544e-38
6355.9883 -1660.3149 640 1.4191914e-38
6264.5752 -1648.327 620 1.4194067e-38
6179.1392 -1649.1561 610 1.5112795e-38
6097.123 -1640.5884 600 1.5572683e-38
5962.1465 -1602.1025 580 1.529647e-38
5842.543 -1579.854 570 1.5391544e-38
5754.5498 -1558.4691 560 1.5943992e-38
5710.1221 -1563.5822 550 1.6034747e-38
5656.2969 -1565.275 540 1.308703e-38
5621.2656 -1573.8082 540 1.5296836e-38
5548.647 -1568.6608 530 1.1981033e-38
5479.4482 -1554.1162 520 4.7930727e-39
5382.0586 -1529.3112 510 4.1477047e-39
5350.4478 -1528.4475 500 3.872194e-39
5330.79 -1553.2181 500 4.0551504e-39
5299.1792 -1552.3544 500 2.3056012e-39
5002.7617 -1401.9001 450 7.1015536e-39
4961.7539 -1397.6162 450 8.1171335e-39
4920.7456 -1393.3324 440 7.930601e-39
4895.1113 -1405.2858 440 7.1955499e-39
4888.271 -1424.0797 440 6.3636326e-39
4875.4541 -1430.0564 440 5.1654594e-39
4853.2397 -1432.6129 440 4.6126415e-39
4837.0024 -1447.9866 440 8.6656227e-39
4830.1621 -1466.7804 440 1.2809018e-38
4832.7188 -1488.9945 440 9.4932198e-39
4819.9014 -1494.9712 440 1.2350927e-38
4769.4966 -1487.2671 430 1.2348049e-38
4756.6797 -1493.2439 430 1.1888503e-38
4695.1504 -1545.3416 420 2.1388247e-38
4713.0806 -1583.793 430 2.1481164e-38
4783.9722 -1652.1625 440 2.0648877e-38
4718.1938 -1628.2211 430 1.9363186e-38
4894.1445 -1788.0377 460 1.9912776e-38
4812.9922 -1747.859 450 1.9084829e-38
4815.5488 -1770.0731 450 1.8717823e-38
4802.7314 -1776.0498 450 1.8622758e-38
4786.4941 -1791.4235 440 1.7700796e-38
4779.6538 -1810.2173 440 1.7606079e-38
4776.2334 -1819.6143 440 1.6595889e-38
4744.6226 -1818.7506 440 1.5488119e-38
4737.7822 -1837.5444 440 1.401621e-38
4644.6768 -1771.7314 430 6.5408717e-39
4607.0889 -1758.0507 420 2.1197736e-39
4584.875 -1760.6072 420 1.6408996e-38
4556.6841 -1750.3466 410 1.6497577e-38
4534.4702 -1752.9031 410 1.4933133e-38
4521.6528 -1758.8798 410 1.1046174e-38
4514.8125 -1777.6737 410 6.1745652e-39
