# .PCD v0.7 - Point Cloud Data file format
VERSION 0.7
FIELDS x y z rgb
SIZE 4 4 4 4
TYPE F F F F
COUNT 1 1 1 1
WIDTH 1288
HEIGHT 1
VIEWPOINT 0 0 0 1 0 0 0
POINTS 1288
DATA ascii
4152.2012 786.43665 80 2.2101728e-39
4179.3896 778.64038 80 2.578235e-39
4189.0859 761.14801 80 2.9466518e-39
4193.9336 752.40179 80 2.7626249e-39
4203.6299 734.90942 80 2.6700691e-39
4190.9858 716.46704 80 2.5778749e-39
4169.5952 693.17651 80 2.302367e-39
4174.4434 684.43036 80 2.3016481e-39
4166.6475 657.24176 80 2.1183359e-39
4180.2412 653.34363 80 2.3016495e-39
4158.8511 630.05316 80 2.3012922e-39
4221.0244 641.64935 80 2.3931263e-39
4204.4819 609.61267 80 1.8413917e-39
4209.3301 600.86646 80 2.3038075e-39
4210.2803 578.526 80 3.8668116e-39
4215.1279 569.77979 80 4.0504812e-39
4216.0781 547.43927 80 3.315077e-39
4220.9263 538.69312 80 3.0392104e-39
4217.0283 525.09882 80 3.3150798e-39
4209.2319 497.91022 80 3.8686053e-39
4214.0801 489.164 80 6.9106813e-39
4201.4355 470.72162 80 9.6754586e-39
4219.8779 458.07733 80 1.0873996e-38
4224.7261 449.33112 80 1.1150226e-38
4225.6763 426.99066 80 1.1335336e-38
4252.8647 419.19446 80 1.1152735e-38
4315.0381 430.79059 80 1.1244933e-38
4350.9727 427.84247 80 1.0231871e-38
4166.3525 348.37299 90 9.0322556e-39
4188.6934 349.323 80 1.0411942e-38
4149.8105 316.3363 90 1.0780729e-38
4163.4048 312.43823 90 1.1057669e-38
4181.8472 299.79388 90 1.1241698e-38
4186.6953 291.04773 90 1.0873998e-38
4182.7969 277.45343 90 1.1057307e-38
4152.6602 249.31485 90 9.6758216e-39
4140.0161 230.87247 90 1.0875793e-38
4136.1182 217.27817 90 1.2534598e-38
4132.2197 203.68387 90 1.3087042e-38
4137.0679 194.93768 90 1.2442762e-38
4141.916 186.19147 90 1.317924e-38
4151.6123 168.69907 90 1.2718618e-38
4156.4604 159.95288 90 1.2626433e-38
4161.3086 151.2067 90 1.2626073e-38
4179.751 138.56238 90 9.6769076e-39
4184.5986 129.81619 90 4.3324715e-39
4194.2949 112.32379 90 2.3045292e-39
4185.5488 107.47571 90 3.6870937e-39
4195.2451 89.983307 90 5.8061401e-39
4222.4336 82.187103 90 5.6213957e-39
4249.6221 74.3909 90 5.4377205e-39
4192.2969 54.048523 90 5.1615007e-39
4166.0586 39.504242 90 5.3451689e-39
4139.8198 24.959961 90 5.4377205e-39
4144.668 16.213745 90 5.0703813e-39
4140.7695 2.6194458 90 5.0682247e-39
4136.8716 -10.974838 90 2.9495357e-39
4141.7197 -19.721039 90 1.6598801e-39
4160.1621 -32.365341 90 1.6595213e-39
4165.0103 -41.111526 90 1.8428322e-39
4161.1123 -54.705826 90 2.3977996e-39
4188.3008 -62.502029 90 4.6998009e-39
4533.1045 -65.744553 80 3.5948995e-39
4484.5254 -81.238831 80 6.7291712e-39
4494.2217 -98.731232 80 8.2017845e-39
4535.0039 -110.42554 80 6.0834472e-39
4531.1064 -124.01984 80 5.900142e-39
4527.208 -137.61412 80 7.1905178e-39
4523.3096 -151.20842 80 9.1266191e-39
4564.0928 -162.90273 80 1.0600304e-38
4564.0928 -162.90273 80 1.3362905e-38
4564.0928 -162.90273 80 8.0181331e-39
4564.0928 -162.90273 80 4.0558917e-39
3952.7068 2425.1868 40 1.2833292e-38
3953.6567 2402.8462 40 1.4862641e-38
3954.6069 2380.5059 40 6.1884059e-39
3960.4048 2349.4192 40 3.8834745e-39
3957.4568 2313.4844 40 3.421053e-39
3967.1528 2295.9919 40 3.6961867e-39
3972.9512 2264.9053 40 3.603275e-39
3978.749 2233.8186 40 3.3263336e-39
3979.6992 2211.478 40 3.3255979e-39
3998.1416 2198.8337 40 3.0504418e-39
3999.0916 2176.4932 40 4.5273725e-39
4008.7876 2159.001 40 7.0134119e-39
4018.4839 2141.5085 40 7.2881799e-39
4028.1802 2124.0161 40 8.6740039e-39
4037.8762 2106.5237 40 9.4990856e-39
4047.5725 2089.0312 40 5.8126911e-39
4066.0149 2076.387 40 4.8903649e-39
4070.8628 2067.6409 40 6.0910661e-39
4110.6958 2078.2869 40 4.7067065e-39
4124.29 2074.3889 40 3.3212413e-39
4146.6309 2075.3389 40 4.3335814e-39
4199.1079 2104.4275 30 4.6101654e-39
4161.9287 1820.8472 40 2.9524462e-39
4158.9805 1784.9125 40 3.1364745e-39
4159.9307 1762.572 40 5.9948795e-39
4160.8804 1740.2314 40 1.2908478e-38
4170.5767 1722.7391 40 1.0145507e-38
4162.7803 1695.5505 40 5.8086918e-39
4159.8325 1659.6157 50 5.5317462e-39
4148.1382 1618.8329 50 5.5303085e-39
4127.6973 1573.2019 50 5.1636825e-39
4128.6475 1550.8613 50 5.4395408e-39
4116.9531 1510.0785 50 1.0706292e-38
4105.2588 1469.2957 50 1.59722e-38
3822.3345 1175.2655 70 1.255635e-38
3823.2842 1152.925 70 5.0773415e-39
3824.2344 1130.5846 70 1.1074406e-39
3807.6919 1098.5479 70 2.0293871e-39
3821.2861 1094.6498 70 3.7814516e-39
3830.9824 1077.1573 70 4.9778353e-39
3835.8306 1068.4113 70 4.2409948e-39
3828.0342 1041.2227 70 3.9633359e-39
3841.6284 1037.3245 70 2.8569925e-39
3860.0708 1024.6802 70 1.3861827e-39
3886.3096 1039.2245 70 1.7538876e-39
3926.1426 1049.8707 70 1.9386362e-39
3927.0923 1027.5302 70 2.0304633e-39
3940.6868 1023.6321 70 1.8457203e-39
3954.281 1019.734 70 1.6620451e-39
3972.7234 1007.0897 70 1.6609745e-39
3947.4348 970.20496 70 1.4758574e-39
3952.2827 961.45874 70 1.290743e-39
3944.4868 934.27014 70 1.4744112e-39
4001.812 954.61255 70 1.6584437e-39
3941.5386 898.33533 70 1.658085e-39
3933.7422 871.14673 70 2.0261459e-39
3925.9463 843.95813 70 2.4860408e-39
3930.7942 835.21191 70 2.7619088e-39
3935.6423 826.46582 70 2.577519e-39
3927.8462 799.27722 70 2.5778791e-39
3932.6943 790.53101 70 2.7633508e-39
3959.8828 782.73474 70 2.9470176e-39
3973.4771 778.83667 70 3.3143609e-39
3987.0713 774.9386 70 3.3147211e-39
4040.4985 781.68665 70 3.7746146e-39
4062.8391 782.6366 70 3.7753363e-39
4326.1748 905.73901 50 3.1314102e-39
4292.1401 864.0061 60 2.3027299e-39
4294.04 819.3252 60 2.393485e-39
4298.8882 810.57898 60 2.7622648e-39
4264.8535 768.84607 60 2.5782364e-39
4208.478 726.16321 60 2.3934864e-39
4178.3413 698.02466 60 2.3938438e-39
4174.4434 684.43036 60 2.0257857e-39
4175.3936 662.08984 60 2.1179771e-39
4180.2412 653.34363 60 2.209098e-39
4181.1914 631.00317 70 1.7495604e-39
4221.0244 641.64935 60 1.381854e-39
4213.228 614.46075 60 2.2105329e-39
4218.0762 605.71454 60 2.854459e-39
4210.2803 578.526 70 3.4987508e-39
4215.1279 569.77979 70 3.6827777e-39
4224.8242 552.28735 70 3.0381342e-39
4220.9263 538.69312 70 3.3147197e-39
4217.0283 525.09882 70 3.4991095e-39
4209.2319 497.91022 70 4.2370263e-39
4205.334 484.31592 70 7.2790995e-39
4192.6895 465.87354 70 9.5836287e-39
4202.3857 448.38116 70 1.0322259e-38
4207.2339 439.63495 70 1.08758e-38
4216.9297 422.14252 70 1.1244579e-38
4239.2705 423.09253 70 1.1520084e-38
4266.459 415.29633 70 1.2070746e-38
4206.1855 359.01917 70 9.5861427e-39
4228.5264 359.96918 70 9.5875804e-39
4158.5566 321.18439 70 1.0139672e-38
4185.7451 313.38818 70 1.0047842e-38
4221.6797 310.44006 70 1.0048198e-38
4217.7817 296.84583 70 9.954928e-39
4152.6602 249.31485 70 9.8641659e-39
4135.168 239.61865 70 1.1428604e-38
4122.5234 221.17627 80 1.2350202e-38
4132.2197 203.68387 80 1.2350572e-38
4137.0679 194.93768 80 1.2810819e-38
4133.1699 181.34338 80 1.3085601e-38
4151.6123 168.69907 80 1.2717193e-38
4147.7139 155.1048 80 1.2350564e-38
4161.3086 151.2067 80 1.2809023e-38
4179.751 138.56238 80 9.8609415e-39
4184.5986 129.81619 80 5.3462619e-39
4203.041 117.17188 70 2.6733173e-39
4207.8896 108.42569 70 3.5948967e-39
4248.6724 96.731384 70 5.3462465e-39
4262.2666 92.833282 70 5.3451703e-39
4294.3032 76.290863 70 5.0689422e-39
4321.4917 68.494659 70 5.1611322e-39
4095.1387 23.059967 80 4.8852684e-39
4122.3271 15.263763 80 4.9771039e-39
4132.0234 -2.2286377 80 4.6079668e-39
4136.8716 -10.974838 80 3.132485e-39
4141.7197 -19.721039 80 1.7517128e-39
4151.416 -37.213425 80 1.7509953e-39
4156.2642 -45.959625 80 1.8431895e-39
4161.1123 -54.705826 80 2.3977968e-39
4165.96 -63.452026 80 4.4242902e-39
4237.8301 -69.348251 80 4.2391843e-39
4546.6982 -69.642654 70 3.6867322e-39
4475.7788 -86.086929 70 6.4536619e-39
4480.627 -94.83313 70 7.835876e-39
4499.0693 -107.47743 70 6.0823668e-39
4517.5117 -120.12173 70 6.0830955e-39
4424.252 -137.51599 70 7.3741832e-39
3956.605 2438.781 20 1.245734e-38
3953.6567 2402.8462 20 1.2183627e-38
3959.4551 2371.7595 20 5.0798667e-39
3956.5068 2335.8247 20 5.2624461e-39
3953.5586 2299.8899 20 5.2649628e-39
3959.3569 2268.8032 20 4.6188717e-39
3969.053 2251.311 20 3.7898215e-39
3970.0029 2228.9705 20 3.4185166e-39
3988.4453 2216.3262 20 3.1411997e-39
3993.2935 2207.5798 20 3.0489956e-39
4002.9897 2190.0876 20 5.9070574e-39
4017.5339 2163.8489 20 6.0925374e-39
4018.4839 2141.5085 20 6.2769217e-39
4028.1802 2124.0161 20 9.7781766e-39
4033.978 2092.9294 20 7.1041446e-39
4034.9282 2070.5889 20 4.2503905e-39
4053.3706 2057.9446 20 5.7273226e-39
4058.2188 2049.1985 20 6.5509736e-39
4085.4072 2041.4021 20 4.7052632e-39
4111.6455 2055.9465 20 5.1651357e-39
4133.9863 2056.8965 20 7.187669e-39
4190.3613 2099.5793 10 5.3466417e-39
4235.0425 2101.4792 10 2.3070782e-39
4153.1826 1815.9993 20 2.9520889e-39
4150.2344 1780.0643 20 3.1357528e-39
4159.9307 1762.572 20 5.9927201e-39
4160.8804 1740.2314 20 1.2355656e-38
4161.8306 1717.891 20 9.9593084e-39
4167.6284 1686.8043 30 5.5324637e-39
4159.8325 1659.6157 30 5.5320951e-39
4139.3916 1613.9847 30 5.1625937e-39
4123.7993 1559.6075 30 5.1626007e-39
4119.9014 1546.0133 30 5.4388205e-39
4125.6992 1514.9266 30 9.8747401e-39
4117.9033 1487.738 30 1.3293187e-38
4118.853 1465.3975 30 9.0482991e-39
3832.0305 1157.7732 50 3.6007415e-39
3824.2344 1130.5846 50 1.9375558e-39
3807.6919 1098.5479 50 3.5970631e-39
3868.9153 1132.4846 50 3.8700613e-39
3959.2271 1113.9441 50 3.7850795e-39
3951.4312 1086.7555 50 4.1513397e-39
3947.533 1073.1611 50 3.6917993e-39
3948.4829 1050.8207 50 3.5985218e-39
3958.1792 1033.3282 50 3.3222965e-39
3963.0273 1024.582 50 2.9531482e-39
3981.4697 1011.9377 50 2.4903736e-39
3968.8252 993.49536 50 1.5676957e-39
3978.5215 976.00293 50 1.1985516e-39
3935.7405 929.422 50 1.6595269e-39
3984.3196 944.91626 50 1.9382746e-39
3941.5386 898.33533 50 2.1230288e-39
3933.7422 871.14673 60 1.7542407e-39
3938.5903 862.40051 50 1.8450042e-39
3957.0327 849.75623 50 1.8449986e-39
3944.3887 831.31384 60 1.845e-39
3927.8462 799.27722 60 1.7542379e-39
3950.1865 800.22717 60 2.02975e-39
3981.2734 806.02527 50 2.0290297e-39
3999.7158 793.38098 50 1.8460734e-39
4013.3101 789.48291 50 2.0297458e-39
4434.0776 999.85095 30 2.0304619e-39
4412.687 976.56042 30 2.0301059e-39
4387.3984 939.67566 30 1.9375502e-39
4370.856 907.63892 40 2.0272277e-39
4354.3135 875.60229 40 2.2098183e-39
4364.0098 858.10986 40 2.0257829e-39
4333.873 829.97131 40 2.025427e-39
4308.5845 793.08655 40 2.4856793e-39
4260.9551 755.25177 40 2.4856835e-39
4187.0879 702.87274 50 2.2101756e-39
4174.4434 684.43036 50 1.8413931e-39
4166.6475 657.24176 50 1.6577221e-39
4180.2412 653.34363 50 1.381138e-39
4189.9375 635.85126 50 1.1981859e-39
4221.0244 641.64935 50 2.3016495e-39
4213.228 614.46075 50 2.9459371e-39
4218.0762 605.71454 50 3.6831379e-39
4210.2803 578.526 50 4.0511987e-39
4215.1279 569.77979 50 3.6824246e-39
4224.8242 552.28735 50 3.7746132e-39
4220.9263 538.69312 50 3.9590073e-39
4217.0283 525.09882 50 4.0501211e-39
4209.2319 497.91022 50 4.0529938e-39
4222.8262 494.01208 50 6.8192074e-39
4201.4355 470.72162 50 9.6754572e-39
4309.2402 461.87732 50 1.1243854e-38
4354.8711 441.43677 50 1.161192e-38
4409.248 425.84436 50 1.1333893e-38
4414.0962 417.09814 50 1.1704477e-38
4167.3027 326.03253 60 1.2441319e-38
4225.5781 324.03436 60 1.2716105e-38
4186.6953 291.04773 60 1.1797753e-38
4130.3198 248.36484 60 1.1890305e-38
4126.4219 234.77057 60 1.1981423e-38
4122.5234 221.17627 60 1.2349128e-38
4132.2197 203.68387 60 1.2166887e-38
4137.0679 194.93768 60 1.2351993e-38
4133.1699 181.34338 60 1.2810097e-38
4146.7642 177.44528 60 1.2902293e-38
4147.7139 155.1048 60 1.2625357e-38
4161.3086 151.2067 60 1.2350202e-38
4171.0049 133.71429 60 9.4928778e-39
4175.8525 124.96808 60 4.6076123e-39
4194.2949 112.32379 60 2.4889233e-39
4199.1431 103.57758 60 3.6860161e-39
4217.5854 90.933289 60 4.7937916e-39
4231.1797 87.035187 60 4.8845523e-39
4258.3682 79.238983 60 4.5168474e-39
4299.1514 67.544678 60 4.5164886e-39
4121.3774 37.604248 70 4.5168502e-39
4131.0737 20.111847 70 4.424293e-39
4122.3271 15.263763 70 4.5157726e-39
4118.4292 1.6694641 70 4.7012386e-39
4136.8716 -10.974838 70 4.5161313e-39
4141.7197 -19.721039 70 3.043169e-39
4146.5679 -28.467239 70 2.4896351e-39
4156.2642 -45.959625 70 2.767301e-39
4161.1123 -54.705826 70 5.3451675e-39
4165.96 -63.452026 70 7.1851186e-39
4296.105 -71.346375 60 7.0943607e-39
4577.7852 -63.844574 50 5.2529733e-39
4467.0327 -90.935028 50 6.0852423e-39
4480.627 -94.83313 50 7.7429657e-39
4454.3887 -109.37741 60 5.7146675e-39
4481.5771 -117.17361 60 5.7153976e-39
3960.5029 2452.3752 0 8.1187281e-39
3953.6567 2402.8462 0 7.4758558e-39
3959.4551 2371.7595 0 4.617441e-39
3956.5068 2335.8247 0 3.9717114e-39
3949.6606 2286.2957 0 3.9720562e-39
3950.6106 2263.9553 0 4.154644e-39
3960.3066 2246.4629 0 4.2468298e-39
3966.105 2215.3762 0 4.2468354e-39
3975.801 2197.8838 0 3.8784102e-39
3989.3953 2193.9856 0 3.8766095e-39
4007.8376 2181.3413 0 6.2736623e-39
4008.7876 2159.001 0 1.0236275e-38
4014.5859 2127.9141 0 1.0973843e-38
4015.5356 2105.5737 0 7.564771e-39
4016.4858 2083.2332 0 9.5030246e-39
4026.1821 2065.7407 0 9.3208012e-39
4035.8782 2048.2483 0 6.5509834e-39
4054.3206 2035.604 0 6.7331985e-39
4064.0166 2018.1118 0 5.8094415e-39
4099.0015 2037.5042 0 7.0961992e-39
4112.5957 2033.606 0 6.7259804e-39
4165.0732 2062.6946 0 4.5165293e-39
4212.7021 2100.5293 0 3.0432083e-39
4222.3984 2083.0369 0 2.2145266e-39
4161.9287 1820.8472 0 2.7684137e-39
4150.2344 1780.0643 0 3.1364717e-39
4151.1846 1757.7239 0 5.6253712e-39
4156.9824 1726.6372 10 1.1895384e-38
4157.9326 1704.2968 10 9.6823502e-39
4158.8823 1681.9562 10 5.4395506e-39
4147.188 1641.1733 10 5.0714813e-39
4135.4937 1600.3905 10 4.8874488e-39
4115.0532 1554.7595 10 3.5967128e-39
4124.7495 1537.2671 10 2.3063425e-39
4129.5977 1528.5209 10 6.8329793e-39
4126.6494 1492.5861 10 9.8791233e-39
4136.3457 1475.0938 10 7.1074587e-39
4137.2954 1452.7532 10 2.7702409e-39
3815.4883 1125.7365 40 2.2116259e-39
3795.0476 1080.1055 40 2.119789e-39
4293.6787 1459.4032 10 4.7066757e-39
4290.731 1423.4684 10 4.7974224e-39
3972.8215 1110.0459 30 3.5045283e-39
3965.0254 1082.8573 30 3.1350228e-39
3965.9753 1060.5168 30 2.7658843e-39
3962.0771 1046.9226 30 2.4903736e-39
3971.7734 1029.4302 30 2.2130623e-39
3985.3677 1025.5321 30 1.8439238e-39
3977.5715 998.34351 30 1.2914647e-39
3996.0139 985.69922 30 1.1067091e-39
3905.6038 901.28345 40 1.3818597e-39
3984.3196 944.91626 40 1.7513666e-39
3867.6709 845.9563 40 2.121224e-39
3894.8594 838.16003 40 2.2130623e-39
3917.2 839.11011 40 2.3970906e-39
3957.0327 849.75623 40 2.3056166e-39
3944.3887 831.31384 40 2.3978108e-39
3919.1001 794.42908 40 2.6733229e-39
3958.9329 805.07532 40 2.4903694e-39
4007.512 820.56958 40 2.7665948e-39
4047.3447 831.2157 40 2.8584289e-39
4065.7871 818.57141 40 2.8587918e-39
4446.7217 1018.2933 10 3.1353703e-39
4382.5503 948.42188 20 3.0438991e-39
4378.6523 934.82751 20 3.1350158e-39
4379.6021 912.48706 20 2.8587904e-39
4363.0596 880.45044 20 2.306697e-39
4372.7559 862.95801 20 1.6598927e-39
4351.3652 839.66748 20 1.1985488e-39
4352.3154 817.32703 20 1.1978271e-39
4313.4326 784.34033 20 1.1974656e-39
4327.0269 780.44226 20 1.1971041e-39
4319.2305 753.25366 20 1.1971041e-39
4135.5605 651.44366 40 1.1049112e-39
4154.0029 638.79938 40 9.2159757e-40
4172.4453 626.15509 40 1.6577207e-39
4221.0244 641.64935 30 2.4863967e-39
4221.9746 619.30884 30 3.5913038e-39
4218.0762 605.71454 30 4.2341564e-39
4210.2803 578.526 30 3.7746146e-39
4223.874 574.62787 30 3.8675277e-39
4224.8242 552.28735 30 4.0511987e-39
4220.9263 538.69312 40 4.0504812e-39
4217.0283 525.09882 40 3.6824204e-39
4209.2319 497.91022 40 3.7764097e-39
4214.0801 489.164 40 6.6355336e-39
4175.1973 456.17737 40 9.5854224e-39
4228.624 462.92542 40 1.0231151e-38
4318.9365 444.38489 30 1.1519723e-38
4354.8711 441.43677 30 1.1060907e-38
4373.3135 428.79248 30 1.0598494e-38
4426.7407 435.54059 30 9.8616534e-39
4427.6904 413.20007 30 9.3992417e-39
4158.5566 321.18439 40 8.756389e-39
4411.1484 381.16339 30 8.9386265e-39
4139.0659 253.21295 50 1.0046761e-38
4126.4219 234.77057 50 1.1243855e-38
4122.5234 221.17627 50 1.1430406e-38
4132.2197 203.68387 50 1.2257647e-38
4137.0679 194.93768 50 1.290122e-38
4141.916 186.19147 50 1.2810823e-38
4151.6123 168.69907 50 1.2442397e-38
4147.7139 155.1048 50 1.2625352e-38
4152.562 146.35858 50 1.2351637e-38
4157.4102 137.6124 50 9.4003193e-39
4175.8525 124.96808 50 3.9629715e-39
4203.041 117.17188 50 2.2116203e-39
4207.8896 108.42569 50 3.2257568e-39
4217.5854 90.933289 50 4.4246546e-39
4244.7744 83.137085 50 4.4235798e-39
4218.5356 68.592804 50 4.1477089e-39
4183.5508 49.200409 50 3.9633205e-39
4134.9717 33.706146 50 4.3310198e-39
4148.5659 29.808044 50 3.9640351e-39
4127.1753 6.5175476 60 4.3317387e-39
4123.2773 -7.0767365 60 4.5157726e-39
4136.8716 -10.974838 60 4.4239315e-39
4141.7197 -19.721039 60 3.8707633e-39
4151.416 -37.213425 50 3.4090691e-39
4156.2642 -45.959625 50 3.6845784e-39
4169.8584 -49.857727 50 4.1448321e-39
4174.7065 -58.603928 50 4.5118125e-39
4273.7646 -72.296356 50 4.2355928e-39
4395.1631 -85.038803 40 5.9923278e-39
4435.9463 -96.733109 40 7.5582102e-39
4409.7075 -111.27739 40 5.8057883e-39
4405.8096 -124.87169 40 5.7157493e-39
3960.5029 2452.3752 -20 6.8330074e-39
3957.5549 2416.4407 -10 6.1872834e-39
3959.4551 2371.7595 -10 3.8813025e-39
3943.8623 2317.3823 -10 3.7927054e-39
3937.0161 2267.8533 -10 3.8820185e-39
3946.7124 2250.3608 -10 3.3273944e-39
3947.6626 2228.0205 -10 2.9575259e-39
3953.4604 2196.9338 -10 2.955721e-39
3967.0547 2193.0356 -10 3.0471936e-39
3985.4971 2180.3914 -10 3.6922e-39
3999.0916 2176.4932 -10 4.7988993e-39
3996.1436 2140.5583 -10 8.1182979e-39
4001.9414 2109.4717 -10 8.3952548e-39
4002.8916 2087.1313 -10 9.2239238e-39
4008.6895 2056.0447 -10 1.2910657e-38
4013.5376 2047.2983 -10 1.1252228e-38
4031.98 2034.6541 -10 7.9346171e-39
4041.6763 2017.1616 -10 6.6427867e-39
4051.3726 1999.6692 -10 5.9012742e-39
4099.0015 2037.5042 -10 5.9898559e-39
4121.3418 2038.4541 -10 4.4243393e-39
4156.3267 2057.8464 -10 3.1357626e-39
4200.0576 2082.0869 -20 2.5836623e-39
4243.7891 2106.3274 -20 2.3074369e-39
4153.1826 1815.9993 -10 2.9524392e-39
4150.2344 1780.0643 0 2.952079e-39
4142.438 1752.8757 0 5.6253712e-39
4148.2363 1721.7891 0 1.1525177e-38
4149.186 1699.4486 0 9.5912322e-39
4146.2383 1663.5138 0 5.2555138e-39
4129.6958 1631.4772 0 5.6260886e-39
4118.0015 1590.6942 0 4.8903341e-39
4115.0532 1554.7595 0 2.677283e-39
4116.0029 1532.4189 0 2.3996157e-39
4134.4453 1519.7747 0 5.4467897e-39
4135.3955 1497.4342 0 7.5691459e-39
4148.9897 1493.5361 0 5.6286964e-39
4149.9399 1471.1956 0 2.677674e-39
4159.6362 1453.7032 0 1.3843862e-39
4181.9766 1454.6532 0 1.2918262e-39
4213.0635 1460.4513 0 2.3992542e-39
4244.1499 1466.2494 0 4.0598601e-39
4262.5923 1453.6051 0 4.6133996e-39
4302.4253 1464.2512 0 4.150981e-39
4312.1216 1446.7589 0 2.7673276e-39
4304.3252 1419.5703 0 2.121947e-39
3994.2119 1133.3364 10 1.936474e-39
3973.7715 1087.7054 20 1.6606115e-39
3965.9753 1060.5168 20 1.568053e-39
3962.0771 1046.9226 20 1.5680488e-39
3971.7734 1029.4302 20 1.383303e-39
3981.4697 1011.9377 20 1.2911046e-39
3964.9272 979.90112 20 1.1067133e-39
3978.5215 976.00293 20 1.1059916e-39
3888.1113 891.58728 30 9.2232344e-40
3927.9443 902.2334 30 1.1059944e-39
3885.1633 855.65247 30 1.1989131e-39
3886.1133 833.31201 30 1.3836575e-39
3890.9614 824.5658 30 1.2914605e-39
4309.8291 1079.6149 0 1.5673299e-39
4328.2715 1066.9705 0 1.4754944e-39
4337.9673 1049.4781 0 1.5669684e-39
4347.6636 1031.9857 0 1.5669684e-39
4361.2578 1028.0876 0 1.383296e-39
4432.1777 1044.5319 0 1.4747727e-39
4430.1792 986.25659 0 1.3825771e-39
4387.3984 939.67566 0 1.3832974e-39
4379.6021 912.48706 0 1.566967e-39
4354.3135 875.60229 0 1.8431979e-39
4355.2637 853.26184 0 1.843914e-39
4333.873 829.97131 0 1.7517254e-39
4334.8232 807.63086 10 1.3822198e-39
4313.4326 784.34033 10 1.0137918e-39
4327.0269 780.44226 10 1.1052686e-39
4183.1895 689.27844 20 9.2159757e-40
4118.0684 641.7475 20 1.1052672e-39
4136.5107 629.10321 20 1.1974656e-39
4158.8511 630.05316 20 1.9339488e-39
4212.2783 636.80127 20 3.1303228e-39
4213.228 614.46075 20 3.8660956e-39
4218.0762 605.71454 20 3.7749747e-39
4210.2803 578.526 20 4.1433943e-39
4223.874 574.62787 20 4.0508386e-39
4224.8242 552.28735 20 3.7753335e-39
4220.9263 538.69312 20 3.7753321e-39
4230.6226 521.20068 20 3.4058377e-39
4217.978 502.7583 20 3.3172322e-39
4214.0801 489.164 20 6.7277264e-39
4157.7046 446.48114 30 9.5847077e-39
4345.1748 458.9292 20 1.1151663e-38
4354.8711 441.43677 20 1.1610125e-38
4373.3135 428.79248 20 1.0875435e-38
4440.335 431.64246 10 1.0044964e-38
4453.9292 427.74432 10 9.1255359e-39
4149.8105 316.3363 30 8.9411376e-39
4234.3242 328.88251 30 9.0315396e-39
4143.9141 244.46674 30 1.0322989e-38
4135.168 239.61865 40 1.0876519e-38
4122.5234 221.17627 40 1.1888504e-38
4132.2197 203.68387 40 1.2164738e-38
4137.0679 194.93768 40 1.2443114e-38
4141.916 186.19147 40 1.2258726e-38
4151.6123 168.69907 40 1.2259089e-38
4147.7139 155.1048 40 1.2259083e-38
4161.3086 151.2067 40 1.2809741e-38
4157.4102 137.6124 40 9.4017612e-39
4175.8525 124.96808 40 4.0551658e-39
4203.041 117.17188 30 2.3038075e-39
4207.8896 108.42569 30 3.0420872e-39
4217.5854 90.933289 30 3.9629603e-39
4262.2666 92.833282 30 3.6852944e-39
4249.6221 74.3909 30 2.8569771e-39
4254.4702 65.644684 30 3.1324864e-39
4197.145 45.302307 40 2.8562625e-39
4206.8413 27.809906 40 2.7651458e-39
4113.5811 10.415649 40 3.0417299e-39
4118.4292 1.6694641 40 3.2250436e-39
4136.8716 -10.974838 40 3.2257624e-39
4132.9736 -24.569122 40 3.3172434e-39
4146.5679 -28.467239 40 2.7651458e-39
4142.6699 -42.061523 40 2.9488196e-39
4169.8584 -49.857727 40 2.8566226e-39
4152.3662 -59.553925 40 3.225045e-39
4220.3374 -79.044434 40 2.671874e-39
4341.7358 -91.78688 30 2.5872356e-39
4382.519 -103.48119 30 2.7662234e-39
3941.0125 2384.4038 -30 6.5524646e-39
3925.4199 2330.0266 -30 4.3415618e-39
3918.5737 2280.4976 -30 3.972775e-39
3920.4739 2235.8167 -30 3.6954567e-39
3921.4238 2213.4761 -30 3.2341128e-39
3931.1201 2195.9839 -30 3.2330254e-39
3944.7144 2192.0857 -30 2.8638869e-39
3954.4106 2174.5933 -30 2.4958233e-39
3964.1067 2157.1008 -30 2.7738451e-39
3973.8027 2139.6084 -30 6.0950486e-39
3979.6011 2108.5217 -20 9.2225001e-39
3980.551 2086.1814 -20 7.6551604e-39
3977.603 2050.2466 -20 8.6682277e-39
3978.5527 2027.906 -20 8.9466181e-39
3975.6047 1991.9712 -20 7.4711321e-39
4006.6914 1997.7693 -20 6.8257444e-39
4029.032 1998.7192 -20 6.7335544e-39
4042.6262 1994.8213 -30 5.3488193e-39
4086.3572 2019.0618 -30 4.1488314e-39
4117.4438 2024.8599 -30 3.13612e-39
4143.6826 2039.4041 -30 2.5833021e-39
4196.1597 2068.4927 -40 2.4911093e-39
4252.5352 2111.1755 -40 2.3067194e-39
4140.5381 1797.5569 -20 2.9524364e-39
4137.5898 1761.6219 -20 2.9524434e-39
4138.54 1739.2815 -20 5.5324539e-39
4139.4902 1716.941 -20 1.1158182e-38
4136.542 1681.0062 -20 9.1313344e-39
4137.4917 1658.6658 -20 4.4261231e-39
4117.0513 1613.0348 -20 3.8718731e-39
4114.1035 1577.1 -10 5.992353e-39
4106.3071 1549.9114 -10 4.7959734e-39
4116.0029 1532.4189 -10 3.1353857e-39
4125.6992 1514.9266 -10 4.7970832e-39
4135.3955 1497.4342 -10 5.7226689e-39
4157.7363 1498.3842 -10 4.3393673e-39
4158.686 1476.0437 -10 2.8609778e-39
4172.2803 1472.1456 -10 1.5676957e-39
4199.4688 1464.3494 -20 1.1992719e-39
4221.8096 1465.2994 -20 2.2141413e-39
4240.252 1452.655 -20 3.6892755e-39
4253.8462 1448.757 -20 3.7807565e-39
4281.0347 1440.9608 -20 2.5804126e-39
4303.375 1441.9108 -20 1.7510079e-39
4304.3252 1419.5703 -20 1.3829415e-39
3973.7715 1087.7054 0 1.290743e-39
3965.9753 1060.5168 0 1.1067119e-39
3970.8232 1051.7706 0 1.0145163e-39
3971.7734 1029.4302 0 1.1059916e-39
3981.4697 1011.9377 0 1.1063518e-39
3964.9272 979.90112 10 1.1981887e-39
3969.7754 971.15491 10 1.0141533e-39
3914.3501 906.13159 10 8.3012501e-40
3927.9443 902.2334 10 9.2160037e-40
3876.417 850.80432 20 8.2976347e-40
3886.1133 833.31201 20 1.0134359e-39
4309.8291 1079.6149 -10 1.5705669e-39
4337.0176 1071.8186 -10 1.5709256e-39
4346.7139 1054.3262 -10 1.7542379e-39
4356.4097 1036.8339 -10 1.8464335e-39
4378.7505 1037.7838 -10 1.9375502e-39
4379.7002 1015.4434 -10 1.6591626e-39
4416.585 990.15466 -10 8.2940334e-40
4382.5503 948.42188 -10 8.2976207e-40
4361.1597 925.13135 -10 8.2940334e-40
4362.1099 902.79089 -10 1.0137932e-39
4345.5674 870.75415 0 1.3818583e-39
4355.2637 853.26184 0 1.2903857e-39
4342.6191 834.81946 0 1.2907416e-39
4343.5693 812.47888 0 1.1978285e-39
4322.1787 789.18848 0 1.1056301e-39
4344.5195 790.13843 0 1.10527e-39
4156.9512 674.73413 0 1.0134317e-39
4100.5757 632.05127 10 1.0137918e-39
4145.2568 633.95129 10 1.1974642e-39
4189.9375 635.85126 0 2.2101728e-39
4221.0244 641.64935 0 3.0388516e-39
4213.228 614.46075 0 3.4069083e-39
4218.0762 605.71454 0 3.4994697e-39
4210.2803 578.526 0 3.958287e-39
4215.1279 569.77979 0 3.6824204e-39
4224.8242 552.28735 0 3.498748e-39
4220.9263 538.69312 10 3.407274e-39
4230.6226 521.20068 10 3.0388502e-39
4217.978 502.7583 10 3.1317619e-39
4222.8262 494.01208 10 6.6362567e-39
4201.4355 470.72162 10 9.4003165e-39
4345.1748 458.9292 0 1.1428605e-38
4354.8711 441.43677 0 1.1336415e-38
4373.3135 428.79248 0 1.2072176e-38
4449.0811 436.49054 0 1.1797392e-38
4121.5737 243.51675 20 1.2533153e-38
4126.4219 234.77057 20 1.2258366e-38
4122.5234 221.17627 20 1.2258012e-38
4132.2197 203.68387 20 1.2442038e-38
4137.0679 194.93768 20 1.2534951e-38
4141.916 186.19147 20 1.2165455e-38
4151.6123 168.69907 20 1.2258726e-38
4147.7139 155.1048 20 1.2165814e-38
4152.562 146.35858 20 1.1982147e-38
4157.4102 137.6124 20 9.2162868e-39
4162.2583 128.86618 20 3.8722137e-39
4194.2949 112.32379 20 2.3052565e-39
4207.8896 108.42569 20 2.7651472e-39
4203.9912 94.83139 20 3.4101509e-39
4222.4336 82.187103 20 3.1339227e-39
4218.5356 68.592804 20 2.8555422e-39
4223.3838 59.846588 20 2.763348e-39
4210.7393 41.404205 20 2.8562625e-39
4206.8413 27.809906 20 3.315077e-39
4113.5811 10.415649 30 3.3154399e-39
4109.6831 -3.1786346 30 3.3150812e-39
4128.1255 -15.822937 30 3.4991123e-39
4132.9736 -24.569122 30 3.4069181e-39
4137.8218 -33.315323 30 3.5898716e-39
4133.9238 -46.909622 30 3.4065538e-39
4169.8584 -49.857727 30 3.3143623e-39
4157.2139 -68.300125 30 2.7633452e-39
4215.4893 -70.298233 30 2.4896379e-39
4265.0186 -77.144455 20 2.5807588e-39
4274.7148 -94.636856 20 2.3974423e-39
4337.8379 -105.38116 20 2.488196e-39
4284.4106 -112.12924 20 2.3048851e-39
3889.4854 2332.9749 -50 4.7092667e-39
3891.3853 2288.2939 -50 5.9070854e-39
3904.9795 2284.3958 -50 4.8032476e-39
3898.1333 2234.8667 -40 3.7869334e-39
3907.8296 2217.3743 -40 3.4188754e-39
3908.7795 2195.0337 -40 3.6961699e-39
3918.4756 2177.5413 -40 3.6990384e-39
3932.0701 2173.6433 -40 4.8918152e-39
3954.4106 2174.5933 -50 4.4333622e-39
3972.853 2161.949 -50 5.9092112e-39
3982.5491 2144.4565 -50 9.0413276e-39
3983.499 2122.116 -50 7.469337e-39
3984.4492 2099.7756 -40 8.0214136e-39
3990.2471 2068.689 -40 9.6848978e-39
3987.2991 2032.7542 -40 1.0147316e-38
3984.3511 1996.8193 -40 8.486349e-39
4010.5896 2011.3635 -40 7.1941598e-39
4032.9302 2012.3137 -40 6.549875e-39
4042.6262 1994.8213 -40 4.5205048e-39
4086.3572 2019.0618 -50 3.0442887e-39
4121.3418 2038.4541 -50 2.5829462e-39
4139.7842 2025.8098 -50 2.3996339e-39
4200.0576 2082.0869 -60 2.4914694e-39
4252.5352 2111.1755 -60 2.2141637e-39
4140.5381 1797.5569 -40 2.9527965e-39
4120.0977 1751.9258 -40 2.9520734e-39
4129.7939 1734.4333 -40 5.164393e-39
4126.8457 1698.4987 -40 1.0971277e-38
4119.0493 1671.3101 -40 9.7741801e-39
4116.1016 1635.3752 -40 4.2424591e-39
4104.4072 1594.5924 -30 2.5814902e-39
4105.3569 1572.2518 -30 4.9771221e-39
4102.4092 1536.3171 -30 7.4664041e-39
4107.2568 1527.5709 -30 4.7956217e-39
4125.6992 1514.9266 -30 3.7818383e-39
4130.5474 1506.1804 -30 4.5205118e-39
4166.4824 1503.2323 -30 3.5070731e-39
4167.4321 1480.8918 -30 2.859889e-39
4189.7729 1481.8418 -30 1.5694991e-39
4212.1133 1482.7917 -40 1.1070762e-39
4230.5557 1470.1475 -40 1.1985488e-39
4240.252 1452.655 -40 1.1981887e-39
4253.8462 1448.757 -40 1.0145191e-39
4281.0347 1440.9608 -40 1.0148778e-39
4294.6289 1437.0626 -40 9.2268217e-40
4304.3252 1419.5703 -40 9.219619e-40
3973.7715 1087.7054 0 9.2231923e-40
3974.7217 1065.365 0 8.3048514e-40
3970.8232 1051.7706 0 8.3012501e-40
3980.5195 1034.2783 0 8.3012501e-40
3985.3677 1025.5321 0 1.1056343e-39
3968.8252 993.49536 0 9.2268077e-40
3978.5215 976.00293 0 8.3048654e-40
3935.7405 929.422 0 7.3792798e-40
3936.6904 907.08154 0 7.3756644e-40
3876.417 850.80432 0 7.3792938e-40
3894.8594 838.16003 0 8.3048234e-40
4318.5752 1084.4629 -30 2.8573387e-39
4345.7637 1076.6667 -30 2.4882002e-39
4346.7139 1054.3262 -30 2.0261487e-39
4365.1562 1041.6819 -30 1.1063476e-39
4387.4966 1042.632 -30 8.3048234e-40
4397.1929 1025.1395 -30 8.3012361e-40
4364.1079 961.06616 -30 9.2159897e-40
4365.0576 938.72571 -30 8.2940334e-40
4352.4136 920.28333 -20 7.3756784e-40
4353.3633 897.94275 -20 7.3756784e-40
4345.5674 870.75415 -20 1.0134345e-39
4346.5176 848.4137 -20 1.106349e-39
4351.3652 839.66748 -20 1.1063518e-39
4369.8076 827.02319 -20 1.1059916e-39
4357.1636 808.58081 -20 1.1974642e-39
4393.0986 805.63269 -20 1.1974656e-39
4083.0833 622.3551 0 1.2896584e-39
4119.0181 619.40698 0 1.6577193e-39
4189.9375 635.85126 0 2.3023684e-39
4229.7705 646.49744 0 3.1306871e-39
4221.9746 619.30884 0 3.4983879e-39
4226.8223 610.56268 0 3.5905849e-39
4210.2803 578.526 0 3.5912996e-39
4223.874 574.62787 0 3.4980291e-39
4224.8242 552.28735 0 3.4069139e-39
4229.6724 543.5412 0 3.406551e-39
4230.6226 521.20068 0 2.5785966e-39
4226.7241 507.60638 0 2.9484525e-39
4253.9131 499.81018 0 6.727732e-39
4258.7607 491.06403 0 9.9520469e-39
4277.2031 478.41968 0 9.9531273e-39
4282.0518 469.67352 0 1.0874718e-38
4340.3267 467.67535 -10 1.0875074e-38
4376.2617 464.72729 -10 1.1244577e-38
4372.3633 451.133 -10 1.115382e-38
4399.5518 443.33679 -10 1.1613355e-38
4449.0811 436.49054 -10 1.1797027e-38
4476.2695 428.69434 -10 1.1888145e-38
4121.5737 243.51675 10 1.2257648e-38
4135.168 239.61865 10 1.2349837e-38
4136.1182 217.27817 10 1.235127e-38
4140.9658 208.53195 10 1.2256208e-38
4137.0679 194.93768 10 1.2258007e-38
4141.916 186.19147 10 1.2074339e-38
4151.6123 168.69907 10 1.2624624e-38
4147.7139 155.1048 10 1.2258363e-38
4143.8159 141.5105 10 1.1981423e-38
4103.9834 130.86432 20 9.2152134e-39
4082.5928 107.57382 20 4.514702e-39
4180.7007 116.22189 10 2.8566226e-39
4199.1431 103.57758 10 2.5800343e-39
4195.2451 89.983307 10 3.1332095e-39
4200.0933 81.237091 10 2.3045264e-39
4196.1953 67.642822 10 1.6584409e-39
4214.6377 54.998505 10 1.107428e-39
4188.3989 40.454224 10 1.2914605e-39
4184.501 26.859924 10 1.292178e-39
4135.9219 11.365662 20 1.1996236e-39
4132.0234 -2.2286377 20 1.1077895e-39
4128.1255 -15.822937 20 1.199625e-39
4124.2275 -29.417221 20 1.199625e-39
4129.0752 -38.163422 20 1.1999851e-39
4133.9238 -46.909622 20 1.2914633e-39
4161.1123 -54.705826 20 1.2911018e-39
4157.2139 -68.300125 20 1.751717e-39
4251.4238 -73.246353 10 2.3978038e-39
4256.2725 -81.992554 10 2.4896379e-39
4230.0337 -96.536835 10 2.3970822e-39
4248.4761 -109.18114 10 2.3048851e-39
4186.3027 -120.77731 20 2.4881946e-39
3878.741 2269.8516 -60 5.4464716e-39
3901.0815 2270.8015 -60 5.260267e-39
3898.1333 2234.8667 -60 4.8017986e-39
3895.1853 2198.9319 -60 4.6170416e-39
3904.8813 2181.4395 -60 9.7724145e-39
3914.5776 2163.947 -60 9.0334243e-39
3932.0701 2173.6433 -60 5.1676875e-39
3950.5125 2160.999 -60 5.2602418e-39
3964.1067 2157.1008 -60 7.7488008e-39
3965.0566 2134.7605 -60 7.2871065e-39
3983.499 2122.116 -60 3.8762312e-39
3993.1953 2104.6238 -60 3.2308464e-39
3994.1453 2082.2832 -60 3.2301247e-39
4003.8413 2064.7908 -60 2.6765936e-39
4013.5376 2047.2983 -60 3.4141544e-39
4044.6245 2053.0964 -70 6.2732881e-39
4075.7109 2058.8945 -70 6.1807394e-39
4080.5591 2050.1484 -70 3.967324e-39
4120.3921 2060.7947 -70 2.8598974e-39
4121.3418 2038.4541 -70 2.3067152e-39
4139.7842 2025.8098 -70 2.2148853e-39
4200.0576 2082.0869 -80 2.3077984e-39
4128.8438 1756.7739 -60 3.0442733e-39
4121.0479 1729.5853 -60 5.1640371e-39
4118.0996 1693.6505 -60 1.0694325e-38
4115.1514 1657.7157 -50 8.76111e-39
4107.355 1630.5271 -50 3.5045326e-39
4091.7627 1576.15 -50 2.0297612e-39
4096.6108 1567.4038 -50 2.6736803e-39
4084.9165 1526.6208 -50 6.3575286e-39
4103.3589 1513.9766 -50 5.9008832e-39
4116.9531 1510.0785 -50 2.9517217e-39
4126.6494 1492.5861 -50 3.044639e-39
4157.7363 1498.3842 -50 2.9510113e-39
4167.4321 1480.8918 -50 2.1205177e-39
4189.7729 1481.8418 -50 1.3836617e-39
4203.3672 1477.9437 -50 1.6588053e-39
4230.5557 1470.1475 -60 1.7499275e-39
4231.5059 1447.807 -60 1.4744154e-39
4253.8462 1448.757 -60 1.290743e-39
4272.2886 1436.1127 -60 1.291106e-39
4294.6289 1437.0626 -60 1.0152351e-39
4313.0713 1424.4183 -60 8.3048654e-40
4292.6309 1378.7874 -60 8.3048374e-40
4314.9712 1379.7374 -60 8.3012921e-40
3978.6196 1078.9592 -20 8.3012501e-40
3979.5696 1056.6188 -20 8.3012781e-40
3980.5195 1034.2783 -20 7.3828811e-40
3981.4697 1011.9377 -20 8.3048514e-40
3956.1812 975.05298 -10 9.2231923e-40
3969.7754 971.15491 -10 8.3048234e-40
3944.4868 934.27014 -10 9.2124024e-40
3945.4365 911.92969 -10 8.2940334e-40
3893.9094 860.50061 0 6.4573235e-40
3916.25 861.45056 -10 8.2976487e-40
4335.1172 1116.4996 -50 1.1974684e-39
4353.5596 1103.8553 -50 9.2159757e-40
4372.002 1091.2109 -50 1.0137974e-39
4364.2061 1064.0225 -50 1.0137946e-39
4386.5464 1064.9724 -50 9.2159757e-40
4404.9888 1052.3281 -50 8.3012501e-40
4346.6152 951.37 -40 9.219577e-40
4347.5654 929.02942 -40 9.219591e-40
4334.9209 910.58704 -40 1.1063476e-39
4327.125 883.39856 -40 1.013796e-39
4336.8213 865.90613 -40 1.0141561e-39
4346.5176 848.4137 -40 1.106349e-39
4368.8579 849.36365 -40 1.1985446e-39
4396.0464 841.5675 -40 1.2896584e-39
4400.8945 832.82129 -40 1.197467e-39
4436.8291 829.87317 -40 1.2896612e-39
4135.5605 651.44366 -10 1.3814939e-39
4154.0029 638.79938 -10 1.5658838e-39
4189.9375 635.85126 -20 2.5782336e-39
4212.2783 636.80127 -20 2.946656e-39
4213.228 614.46075 -20 3.4065524e-39
4226.8223 610.56268 -20 3.4980291e-39
4210.2803 578.526 -20 3.4987438e-39
4223.874 574.62787 -20 3.2228828e-39
4224.8242 552.28735 -20 3.4983921e-39
4229.6724 543.5412 -20 3.2221625e-39
4239.3687 526.04877 -20 2.3945626e-39
4244.2168 517.30261 -20 2.9480923e-39
4271.4053 509.50641 -20 6.6358951e-39
4298.5938 501.71021 -20 9.215921e-39
4294.6958 488.11591 -20 1.0320468e-38
4304.3921 470.62347 -20 1.0782161e-38
4331.5806 462.82727 -20 1.0601006e-38
4345.1748 458.9292 -20 1.1336772e-38
4372.3633 451.133 -20 1.1980338e-38
4390.8057 438.48865 -20 1.1521163e-38
4409.248 425.84436 -20 1.1705189e-38
4396.604 407.40198 -20 1.1613352e-38
4383.9595 388.95959 -20 1.2072539e-38
4185.7451 313.38818 0 1.2165091e-38
4292.5996 326.88434 -10 1.1981784e-38
4306.1938 322.98627 -10 1.1797753e-38
4355.7227 316.14001 -20 1.1981783e-38
4139.0659 253.21295 0 1.2165094e-38
4148.7622 235.72055 0 1.2258727e-38
4136.1182 217.27817 0 1.1982496e-38
4149.7119 213.38007 0 1.2259089e-38
4145.814 199.78577 0 1.1982137e-38
4150.6621 191.03958 0 1.2165458e-38
4160.3584 173.54718 0 1.2073979e-38
4147.7139 155.1048 0 1.2165095e-38
4090.3887 134.76242 0 1.234913e-38
4086.4907 121.16812 0 8.9404271e-39
4091.3389 112.42194 0 4.3306681e-39
4171.9546 111.37381 0 2.579321e-39
4176.8027 102.62759 0 2.2116133e-39
4181.6509 93.881409 0 2.8566142e-39
4191.3467 76.389008 0 2.3038089e-39
4196.1953 67.642822 0 1.4740511e-39
4214.6377 54.998505 0 1.2907402e-39
4188.3989 40.454224 0 1.6588025e-39
4184.501 26.859924 0 1.7509981e-39
4158.2622 12.315643 0 1.7509995e-39
4140.7695 2.6194458 0 1.659164e-39
4136.8716 -10.974838 10 1.7513596e-39
4132.9736 -24.569122 10 1.6591626e-39
4137.8218 -33.315323 10 1.6595213e-39
4142.6699 -42.061523 10 1.6595213e-39
4147.5176 -50.807724 10 1.6588039e-39
4143.6196 -64.402008 10 1.7520743e-39
4237.8301 -69.348251 0 2.5807532e-39
4180.5044 -89.690613 10 2.5803972e-39
4176.6064 -103.28491 10 2.3967206e-39
4181.4546 -112.03111 10 2.3963619e-39
4172.708 -116.8792 10 2.3963605e-39
3872.9429 2300.9382 -80 5.5426441e-39
3878.741 2269.8516 -80 5.0798457e-39
3888.437 2252.3591 -80 4.987629e-39
3889.3872 2230.0186 -80 5.4464436e-39
3873.7949 2175.6414 -80 7.6533751e-39
3892.2373 2162.9971 -80 1.2165146e-38
3918.4756 2177.5413 -80 9.9581986e-39
3940.8164 2178.4915 -80 5.4482162e-39
3954.4106 2174.5933 -80 6.9222729e-39
3972.853 2161.949 -90 7.7487994e-39
3973.8027 2139.6084 -80 4.7067037e-39
3992.2451 2126.9641 -80 3.046818e-39
4001.9414 2109.4717 -90 2.7702311e-39
4011.6377 2091.9795 -80 2.6776754e-39
4016.4858 2083.2332 -90 2.2170532e-39
4034.9282 2070.5889 -90 3.8744081e-39
4057.2686 2071.5388 -90 6.7353425e-39
4088.3555 2077.3369 -90 6.6445986e-39
4098.0518 2059.8445 -90 4.1556739e-39
4124.29 2074.3889 -90 2.6776656e-39
4130.0884 2043.3022 -90 2.2148839e-39
4139.7842 2025.8098 -90 2.3985535e-39
4183.5156 2050.0503 -100 2.2152441e-39
4243.7891 2106.3274 -110 2.3070754e-39
4128.8438 1756.7739 -80 3.4123341e-39
4125.8955 1720.8391 -80 5.3477095e-39
4109.3535 1688.8024 -70 1.0050033e-38
4106.4053 1652.8677 -70 7.8377244e-39
4094.7109 1612.0847 -70 2.9513602e-39
4083.0166 1571.3019 -70 2.1215897e-39
4083.9666 1548.9614 -70 1.8450014e-39
4076.1704 1521.7728 -60 2.9495455e-39
4094.6128 1509.1285 -60 4.2409976e-39
4108.207 1505.2303 -70 3.2286491e-39
4126.6494 1492.5861 -70 2.3971018e-39
4157.7363 1498.3842 -70 1.7531659e-39
4167.4321 1480.8918 -70 1.3843834e-39
4189.7729 1481.8418 -70 1.2911102e-39
4203.3672 1477.9437 -70 1.1067161e-39
4221.8096 1465.2994 -70 1.1067161e-39
4222.7593 1442.9589 -70 1.1070706e-39
4232.4556 1425.4666 -70 9.2232764e-40
4250.8979 1412.8221 -70 1.0148792e-39
4273.2383 1413.7722 -80 1.0137974e-39
4282.9346 1396.2798 -80 8.3012921e-40
4292.6309 1378.7874 -80 9.2232204e-40
4332.4639 1389.4336 -80 9.2268077e-40
3988.3159 1061.4668 -30 9.2196471e-40
3980.5195 1034.2783 -30 8.3012641e-40
3972.7234 1007.0897 -30 9.2232204e-40
3947.4348 970.20496 -30 9.2232204e-40
3952.2827 961.45874 -30 8.2940614e-40
3953.2329 939.11816 -30 8.3012501e-40
3958.0811 930.37207 -30 8.2976768e-40
3924.0461 888.63916 -20 9.219605e-40
3933.7422 871.14673 -20 8.2976487e-40
4351.6602 1148.5363 -70 9.219577e-40
4400.2393 1164.0305 -70 8.3012501e-40
4418.6816 1151.3862 -80 1.0141519e-39
4428.3774 1133.8938 -80 1.0148736e-39
4376.8506 1082.4648 -70 9.230395e-40
4430.2773 1089.2129 -70 1.1059916e-39
4354.4116 978.55859 -60 1.106349e-39
4346.6152 951.37 -60 1.1981845e-39
4347.5654 929.02942 -60 1.1059888e-39
4334.9209 910.58704 -60 1.0141561e-39
4327.125 883.39856 -50 1.1063462e-39
4328.0752 861.05798 -50 1.0145135e-39
4346.5176 848.4137 -50 1.4744126e-39
4377.604 854.21179 -60 1.6577277e-39
4413.5391 851.26367 -60 1.3814995e-39
4392.1484 827.97314 -60 1.2893011e-39
4144.3066 656.29175 -30 1.381854e-39
4145.2568 633.95129 -30 1.8413945e-39
4181.1914 631.00317 -30 2.6700691e-39
4203.5322 631.95319 -30 2.9466546e-39
4155.9028 594.11841 -30 3.22288e-39
4218.0762 605.71454 -30 3.406195e-39
4210.2803 578.526 -30 3.406195e-39
4223.874 574.62787 -30 3.406195e-39
4224.8242 552.28735 -30 3.1310473e-39
4238.4185 548.38928 -30 2.9462945e-39
4256.8608 535.745 -30 2.302367e-39
4275.3032 523.10071 -30 2.5811063e-39
4280.1514 514.35449 -30 6.9117547e-39
4307.3398 506.55829 -40 9.3088369e-39
4303.4419 492.96399 -30 9.9527644e-39
4304.3921 470.62347 -30 1.0322264e-38
4291.7476 452.18109 -30 1.0783243e-38
4318.9365 444.38489 -30 1.0783245e-38
4354.8711 441.43677 -40 1.1152022e-38
4350.9727 427.84247 -40 1.1521166e-38
4351.9229 405.50201 -30 1.1519719e-38
4316.938 386.10962 -30 1.1612282e-38
4255.7148 352.17297 -20 1.2164012e-38
4243.0703 333.73059 -20 1.1889942e-38
4252.7666 316.23816 -20 1.1981058e-38
4257.6147 307.492 -20 1.1614437e-38
4284.8032 299.6958 -20 1.198142e-38
4152.6602 249.31485 -10 1.207326e-38
4148.7622 235.72055 -10 1.1981428e-38
4136.1182 217.27817 -10 1.2164735e-38
4149.7119 213.38007 -10 1.207362e-38
4154.5605 204.63385 -10 1.2165811e-38
4155.5103 182.29337 -10 1.1706635e-38
4160.3584 173.54718 -10 1.2072174e-38
4147.7139 155.1048 -10 1.2164016e-38
4130.2217 145.4086 0 1.225765e-38
4108.8311 122.1181 0 9.032257e-39
4091.3389 112.42194 0 4.23955e-39
4158.3604 115.27191 0 2.580763e-39
4168.0566 97.77951 0 2.0279437e-39
4181.6509 93.881409 -10 2.4881946e-39
4200.0933 81.237091 -10 2.2112532e-39
4196.1953 67.642822 -10 1.4747671e-39
4214.6377 54.998505 -10 1.4744126e-39
4197.145 45.302307 0 1.6588039e-39
4184.501 26.859924 0 1.659164e-39
4167.0083 17.163727 0 1.8435553e-39
4149.5161 7.4675598 0 1.9350292e-39
4145.6177 -6.1267395 0 1.6598829e-39
4132.9736 -24.569122 0 1.7524386e-39
4137.8218 -33.315323 0 1.5680488e-39
4133.9238 -46.909622 0 1.8435455e-39
4138.7715 -55.655823 0 1.6598787e-39
4134.8735 -69.250107 0 1.7520757e-39
4260.1704 -68.398254 0 2.4896351e-39
4166.9102 -85.792511 0 2.4889177e-39
4163.0122 -99.38681 0 2.4881974e-39
4159.1143 -112.98109 0 2.304525e-39
4163.9619 -121.72729 0 2.3963605e-39
3865.1467 2273.7495 -100 3.3259609e-39
3862.1987 2237.8147 -100 3.7869432e-39
3867.0466 2229.0686 -100 4.3390366e-39
3881.5908 2202.8301 -100 3.9691583e-39
3878.6428 2166.8953 -100 3.6003688e-39
3892.2373 2162.9971 -100 4.2439319e-39
3918.4756 2177.5413 -100 4.4279672e-39
3940.8164 2178.4915 -100 5.3528004e-39
3954.4106 2174.5933 -100 6.918317e-39
3972.853 2161.949 -100 5.2588013e-39
3973.8027 2139.6084 -100 3.5081619e-39
3992.2451 2126.9641 -100 3.047181e-39
4001.9414 2109.4717 -100 2.4943729e-39
4006.7896 2100.7256 -100 4.1553138e-39
4025.2319 2088.0813 -110 6.0006655e-39
4043.6743 2075.437 -110 6.7353537e-39
4061.1667 2085.1331 -110 5.7190409e-39
4092.2534 2090.9312 -110 4.4293769e-39
4093.2034 2068.5908 -110 3.5992659e-39
4124.29 2074.3889 -110 3.506706e-39
4133.9863 2056.8965 -110 3.2315512e-39
4143.6826 2039.4041 -110 2.8609708e-39
4162.125 2026.7598 -120 2.2148853e-39
4209.7539 2064.5945 -120 2.1230386e-39
4411.9648 2256.7166 -150 1.8457371e-39
4495.5283 2291.603 -160 1.9372054e-39
4513.9707 2278.9587 -160 2.6754865e-39
4498.3784 2224.5815 -160 3.3212175e-39
4128.8438 1756.7739 -100 3.3204972e-39
4125.8955 1720.8391 -100 5.4388205e-39
4105.4551 1675.2081 -90 7.6522429e-39
4093.7607 1634.4253 -90 5.5339238e-39
4085.9646 1607.2367 -90 3.1371808e-39
4074.2705 1566.4537 -80 1.8453601e-39
4083.9666 1548.9614 -80 1.7528086e-39
4072.2722 1508.1785 -80 1.8446455e-39
4085.8667 1504.2804 -80 3.2268541e-39
4104.3091 1491.6361 -80 3.1360976e-39
4117.9033 1487.738 -80 2.0301101e-39
4148.9897 1493.5361 -90 2.4896562e-39
4167.4321 1480.8918 -90 2.0301213e-39
4189.7729 1481.8418 -90 1.3833086e-39
4208.2153 1469.1975 -90 1.1992705e-39
4213.0635 1460.4513 -90 1.1067161e-39
4214.0132 1438.1108 -90 1.0152393e-39
4223.7095 1420.6184 -90 9.2304511e-40
4233.4058 1403.126 -90 1.0145163e-39
4251.8481 1390.4817 -90 1.0145163e-39
4274.1885 1391.4316 -90 9.2268497e-40
4292.6309 1378.7874 -90 9.2232344e-40
4332.4639 1389.4336 -100 9.2232344e-40
3979.5696 1056.6188 -50 9.2196331e-40
3963.0273 1024.582 -50 9.2232064e-40
3963.9771 1002.2416 -40 1.0141561e-39
3956.1812 975.05298 -40 8.2976487e-40
3952.2827 961.45874 -40 8.3012361e-40
3961.979 943.96631 -40 8.2976487e-40
3975.5732 940.06824 -40 1.0152337e-39
3976.5234 917.72766 -40 1.292178e-39
4455.5664 1126.0977 -100 1.5669684e-39
4486.6528 1131.8958 -100 1.4744098e-39
4389.3965 997.95093 -80 1.2896598e-39
4346.6152 951.37 -80 1.1978243e-39
4338.8193 924.1814 -80 1.0141561e-39
4334.9209 910.58704 -70 1.1981831e-39
4318.3789 878.55042 -70 1.1063462e-39
4336.8213 865.90613 -70 1.1067049e-39
4346.5176 848.4137 -70 1.7499191e-39
4377.604 854.21179 -80 1.7499205e-39
4422.2852 856.11182 -80 1.4729777e-39
4392.1484 827.97314 -80 1.3818554e-39
4327.0269 780.44226 -70 1.3814981e-39
4156.9512 674.73413 -50 1.3814981e-39
4166.6475 657.24176 -50 1.1974656e-39
4136.5107 629.10321 -40 1.7499163e-39
4189.9375 635.85126 -50 2.5778777e-39
4203.5322 631.95319 -50 3.221445e-39
4147.1567 589.27032 -40 3.2221639e-39
4218.0762 605.71454 -50 3.313998e-39
4210.2803 578.526 -50 3.2221695e-39
4223.874 574.62787 -50 3.2221625e-39
4233.5703 557.1355 -50 2.8548219e-39
4247.165 553.23737 -50 2.9459357e-39
4265.6074 540.59308 -50 2.1179786e-39
4284.0498 527.94879 -50 2.6725817e-39
4297.644 524.05066 -50 6.6351749e-39
4316.0864 511.40637 -50 9.0318969e-39
4317.0361 489.06586 -50 9.6783341e-39
4321.8843 480.3197 -50 1.0229716e-38
4331.5806 462.82727 -50 1.0505941e-38
4336.4287 454.08112 -50 1.0599929e-38
4354.8711 441.43677 -50 1.0875795e-38
4364.5674 423.9444 -50 1.1152025e-38
4329.5825 404.552 -50 1.0966919e-38
4290.6992 371.56537 -40 1.1702319e-38
4255.7148 352.17297 -40 1.1337494e-38
4251.8164 338.57867 -40 1.1520445e-38
4261.5127 321.08624 -40 1.1979629e-38
4279.9551 308.44196 -40 1.1982133e-38
4315.8901 305.49384 -40 1.2074336e-38
4303.2456 287.05145 -40 1.2164735e-38
4171.1025 236.67053 -30 1.2165808e-38
4144.8643 222.12625 -20 1.1982137e-38
4149.7119 213.38007 -20 1.1889231e-38
4145.814 199.78577 -20 1.1979624e-38
4141.916 186.19147 -20 1.1889586e-38
4151.6123 168.69907 -20 1.1888868e-38
4134.1196 159.0029 -20 1.1707348e-38
4130.2217 145.4086 -20 1.1798829e-38
4126.3237 131.8143 -20 8.5712831e-39
4113.6792 113.37192 -10 3.961531e-39
4149.6143 110.4238 -20 2.4889219e-39
4168.0566 97.77951 -20 2.0272249e-39
4181.6509 93.881409 -20 2.2123308e-39
4200.0933 81.237091 -20 2.0268633e-39
4204.9414 72.490906 -20 1.5658894e-39
4214.6377 54.998505 -20 1.565525e-39
4210.7393 41.404205 -20 1.8421133e-39
4193.2471 31.708038 -20 1.8421161e-39
4180.6025 13.265625 -10 1.9346649e-39
4163.1104 3.569458 -10 2.1183401e-39
4150.4658 -14.87294 -10 2.3023712e-39
4141.7197 -19.721039 -10 2.1183387e-39
4151.416 -37.213425 -10 2.3945668e-39
4142.6699 -42.061523 -10 2.210893e-39
4147.5176 -50.807724 -10 1.9350334e-39
4134.8735 -69.250107 -10 2.1194191e-39
4273.7646 -72.296356 -20 2.5807518e-39
4158.1641 -90.64061 -10 2.4881988e-39
4163.0122 -99.38681 -10 2.4885589e-39
4154.2656 -104.23489 -10 2.2123336e-39
4150.3677 -117.82919 0 2.3041663e-39
3852.5024 2255.3071 -120 3.5107123e-39
3853.4524 2232.9668 -120 3.2333995e-39
3863.1484 2215.4744 -120 3.8776871e-39
3864.0986 2193.1338 -120 3.7847586e-39
3869.8965 2162.0471 -110 3.2301513e-39
3879.5928 2144.5547 -110 3.4138181e-39
3914.5776 2163.947 -120 3.4134538e-39
3936.918 2164.897 -120 3.6893148e-39
3950.5125 2160.999 -120 3.505641e-39
3972.853 2161.949 -120 3.505641e-39
3973.8027 2139.6084 -120 3.5971093e-39
3983.499 2122.116 -120 3.5038375e-39
4001.9414 2109.4717 -120 3.7793384e-39
4015.5356 2105.5737 -130 5.066829e-39
4025.2319 2088.0813 -130 4.6987724e-39
4038.8262 2084.1831 -130 3.686061e-39
4061.1667 2085.1331 -130 3.1343249e-39
4092.2534 2090.9312 -130 2.6740642e-39
4101.9497 2073.439 -130 2.3070796e-39
4133.0361 2079.2371 -140 2.2141623e-39
4142.7324 2061.7446 -140 2.2138007e-39
4156.3267 2057.8464 -140 2.3052733e-39
4196.1597 2068.4927 -140 2.2145168e-39
4231.1445 2087.885 -150 2.2155972e-39
4389.624 2255.7664 -170 2.03085e-39
4395.4224 2224.6797 -170 2.1223212e-39
4477.0859 2304.2473 -180 2.0304829e-39
4482.8843 2273.1606 -180 1.7535401e-39
4497.4287 2246.9221 -180 1.9364866e-39
4541.1592 2271.1626 -190 2.6718866e-39
4128.8438 1756.7739 -120 3.2247045e-39
4117.1494 1715.991 -110 4.6108563e-39
4096.709 1670.36 -110 7.1019376e-39
4076.2686 1624.7291 -110 6.087085e-39
4082.0664 1593.6423 -100 3.3208644e-39
4065.5242 1561.6057 -100 1.8453629e-39
4075.2202 1544.1133 -100 1.7528086e-39
4072.2722 1508.1785 -100 1.6598927e-39
4085.8667 1504.2804 -100 2.6751152e-39
4104.3091 1491.6361 -100 4.0580525e-39
4109.1572 1482.8899 -100 2.8591491e-39
4140.2437 1488.688 -100 2.3985325e-39
4158.686 1476.0437 -110 2.2145112e-39
4181.0264 1476.9937 -110 1.3847505e-39
4199.4688 1464.3494 -110 1.1074378e-39
4213.0635 1460.4513 -110 1.1989103e-39
4210.1152 1424.5165 -110 1.0145233e-39
4223.7095 1420.6184 -110 1.1989103e-39
4233.4058 1403.126 -110 1.1067161e-39
4234.3555 1380.7855 -110 1.1067189e-39
4252.7979 1368.1412 -110 1.4762105e-39
4262.4941 1350.6488 -110 3.136801e-39
4293.5811 1356.4469 -110 4.5197327e-39
3989.2656 1039.1263 -60 4.7952321e-39
3985.3677 1025.5321 -60 3.2293582e-39
3977.5715 998.34351 -60 1.291822e-39
3987.2676 980.85107 -60 9.2159897e-40
3979.4714 953.66248 -60 1.0145135e-39
3984.3196 944.91626 -60 3.5048549e-39
3997.9138 941.01819 -60 3.5959813e-39
4571.2646 1247.3982 -130 1.4747699e-39
