# .PCD v0.7 - Point Cloud Data file format
VERSION 0.7
FIELDS x y z rgb
SIZE 4 4 4 4
TYPE F F F F
COUNT 1 1 1 1
WIDTH 1240
HEIGHT 1
VIEWPOINT 0 0 0 1 0 0 0
POINTS 1240
DATA ascii
3974.6543 1397.5181 -100 3.2254079e-39
3996.9749 1396.1783 -100 1.1974656e-39
4000.6353 1382.5181 -100 1.1056315e-39
4017.9556 1372.5181 -100 9.2124024e-40
4040.2761 1371.1783 -100 9.2159897e-40
4062.5967 1369.8385 -100 1.013796e-39
4093.5774 1363.4988 -100 2.9488196e-39
4107.2378 1367.1591 -100 9.2159757e-40
4138.2183 1360.8193 -110 1.9343076e-39
4155.5391 1350.8193 -110 7.3756784e-40
4164.1992 1345.8193 -110 1.0145107e-39
3898.2183 945.1272 -50 6.4501208e-40
3910.5386 926.46692 -50 1.6609535e-39
4431.6865 1249.1205 -110 3.3172294e-39
4547.3081 1309.3832 -120 4.6062082e-40
4576.9492 1280.7229 -120 5.5245631e-40
4351.686 1110.5564 -90 4.6061942e-40
4331.686 1075.9154 -90 8.2868167e-40
4349.0068 1065.9154 -90 6.4536801e-40
4432.3076 1110.1974 -100 5.5281365e-40
2294.2766 1467.0189 -20 1.1992705e-39
2302.9368 1462.0189 -20 1.1985488e-39
2320.2573 1452.0189 -20 1.0148806e-39
2323.9175 1438.3586 -20 1.0152393e-39
2332.5779 1433.3586 -20 1.2914647e-39
2349.8982 1423.3586 -20 1.2007054e-39
2358.5586 1418.3586 -20 1.7520855e-39
2367.2188 1413.3586 -20 2.3027412e-39
2372.2188 1422.0189 -20 1.2914703e-39
2390.8792 1434.3394 -30 1.0156009e-39
2398.5586 1487.6406 -30 1.1992747e-39
2421.5972 1647.5444 -50 1.2914717e-39
2444.8984 1587.9034 -50 1.2003565e-39
2448.5586 1574.2432 -40 1.475863e-39
2464.5393 1541.9226 -40 7.1011753e-39
2464.1804 1461.3009 -30 6.9231753e-39
2474.1804 1478.6213 -40 1.9364796e-39
2495.52 1535.5829 -40 2.769466e-39
2510.8792 1642.1854 -60 3.0460585e-39
2537.219 1707.8071 -60 2.3045404e-39
2557.219 1742.4482 -70 1.93756e-39
2572.5779 1849.0508 -80 2.0290423e-39
2596.2383 1870.0315 -80 3.5920492e-39
2608.5586 1851.3713 -80 2.4010899e-39
2609.5396 1793.0701 -80 3.1332277e-39
2611.1418 1595.8456 -60 2.9527979e-39
2622.1226 1554.8649 -50 3.3230182e-39
2637.1226 1580.8456 -60 3.3215874e-39
3157.0527 3301.3899 -270 2.3509886e-38
3178.0337 3277.7297 -270 1.5960621e-38
3228.0337 3364.332 -280 2.3509886e-38
3254.0144 3349.332 -280 2.3509886e-38
3286.335 3365.313 -280 2.3509886e-38
3307.3157 3341.6526 -280 2.3509886e-38
3333.2964 3326.6526 -280 2.1397669e-38
3496.5015 3209.332 -280 4.2442738e-39
3528.822 3225.3127 -280 4.1517124e-39
3554.8027 3210.3127 -280 4.2449857e-39
3569.4438 3155.6719 -280 4.79637e-39
3595.4246 3140.6719 -280 3.2301177e-39
3606.4053 3099.6909 -280 2.8620512e-39
3617.386 3058.7102 -270 4.0580609e-39
3685.6873 3077.0115 -280 2.9542468e-39
3728.0078 3110.3127 -280 2.4921925e-39
3773.9885 3129.9536 -290 3.0424838e-39
3794.9692 3106.2935 -290 3.1346752e-39
3820.9502 3091.2935 -290 2.3992724e-39
3841.9307 3067.6333 -280 2.2152385e-39
3852.9116 3026.6523 -280 2.4911009e-39
3838.8923 2942.3704 -270 2.5822119e-39
3838.5332 2861.7485 -260 2.5822161e-39
3854.5142 2829.4282 -260 2.1223184e-39
3776.4756 2574.2615 -230 4.7019897e-39
3767.4561 2498.6396 -220 2.9524378e-39
3758.437 2423.0181 -210 2.029764e-39
3759.4177 2364.7168 -210 2.0294039e-39
3756.7383 2320.0757 -200 1.6620577e-39
3739.0586 2249.4539 -190 1.8478965e-39
3730.0396 2173.832 -190 1.9390075e-39
3737.3599 2146.5117 -180 3.7757146e-39
3749.6804 2127.8513 -180 1.9364866e-39
3757.001 2100.5308 -180 2.303823e-39
3755.6611 2078.2104 -180 2.579691e-39
3747.9817 2024.9092 -170 2.4878555e-39
3773.9624 2009.9092 -170 2.4874954e-39
3806.283 2025.8899 -170 2.6718838e-39
3853.6035 2067.8513 -180 2.7640794e-39
3884.5842 2061.5115 -180 2.8559149e-39
3906.9048 2060.1719 -180 2.0293941e-39
3934.2251 2067.4924 -190 2.7633592e-39
3975.2061 2078.4731 -190 2.5814931e-39
3997.5264 2077.1333 -190 2.3963815e-39
4014.8469 2067.1333 -190 2.4889331e-39
4060.8276 2086.7744 -200 2.6733215e-39
4091.8086 2080.4346 -200 3.0395873e-39
4099.1289 2053.114 -190 2.3971088e-39
4150.1099 2081.4153 -200 2.3049104e-39
4187.4302 2106.0564 -210 1.8450126e-39
4218.4111 2099.7166 -210 2.0283151e-39
4230.7314 2081.0564 -210 1.8439322e-39
4256.7124 2066.0562 -210 1.8435693e-39
4264.0327 2038.7358 -200 1.6591808e-39
4247.6929 1990.4346 -200 1.3829443e-39
4020.3726 1636.7039 -150 1.1981915e-39
3971.353 1491.8002 -130 1.1981859e-39
3946.353 1448.4989 -120 1.1056301e-39
3987.334 1459.4796 -130 1.6587969e-39
3990.9941 1445.8193 -120 4.2395528e-39
3979.6543 1406.1783 -120 3.1324948e-39
4001.9749 1404.8386 -120 1.1981831e-39
4000.6353 1382.5181 -120 9.2124164e-40
4012.9556 1363.8578 -120 1.0137946e-39
4035.2761 1362.5181 -120 9.208815e-40
4052.5967 1352.5181 -120 6.4501068e-40
4074.917 1351.1783 -120 3.5023395e-39
4097.2378 1349.8385 -120 3.5916709e-39
4119.5581 1348.4988 -120 2.3016551e-39
4141.8789 1347.1591 -120 6.4537361e-40
4159.1992 1337.1591 -120 7.3756224e-40
4352.0449 1191.1782 -120 3.4101383e-39
4504.9873 1276.0819 -140 4.6097955e-40
4522.3081 1266.0819 -140 5.5317238e-40
4525.9683 1252.4218 -140 5.5281505e-40
4556.9492 1246.0819 -140 5.5281084e-40
2292.9368 1444.6984 -30 1.3836561e-39
2306.5969 1448.3586 -30 1.4747741e-39
2310.2573 1434.6984 -30 1.1085126e-39
2327.5779 1424.6984 -30 2.119066e-39
2336.238 1419.6984 -30 2.0293899e-39
2344.8982 1414.6984 -30 1.5669712e-39
2353.5586 1409.6984 -30 1.3854582e-39
2367.2188 1413.3586 -30 1.1074322e-39
2375.8792 1408.3586 -30 1.2918304e-39
2389.5393 1412.0188 -40 1.1070776e-39
2399.5393 1429.3394 -40 1.4758602e-39
2409.5393 1446.6599 -40 1.107442e-39
2419.5393 1463.9803 -40 1.1996362e-39
2428.1995 1458.9803 -40 1.1999949e-39
2441.8599 1462.6406 -40 1.5676985e-39
2450.52 1457.6406 -40 4.1441258e-39
2467.8406 1447.6406 -40 2.4936288e-39
2475.52 1500.9419 -50 3.2351259e-39
2494.5393 1593.8842 -60 1.9386432e-39
2520.8792 1659.5059 -70 2.7637221e-39
2537.219 1707.8071 -80 6.4429041e-39
2552.219 1733.7878 -80 2.3074285e-39
2581.2383 1844.0508 -100 2.5818546e-39
2593.5586 1825.3904 -90 3.0467858e-39
2594.5396 1767.0891 -90 1.5336526e-38
2608.1997 1770.7495 -90 9.3264624e-39
2624.1804 1738.429 -90 7.6616372e-39
2626.501 1702.4481 -80 9.7835786e-39
2631.1418 1630.4867 -80 1.1808659e-38
2643.4624 1611.8264 -70 1.1717532e-38
3205.354 3285.05 -300 2.3509886e-38
3247.6748 3318.3513 -300 2.3509886e-38
3257.3157 3255.05 -300 2.3509886e-38
3564.4438 3147.0115 -300 3.3226931e-39
3600.4246 3149.332 -310 3.0450075e-39
3616.4053 3117.0115 -300 4.1484656e-39
3789.6104 3017.0115 -310 2.3063551e-39
3805.5911 2984.6909 -300 1.9386544e-39
3806.5718 2926.3896 -300 2.7658857e-39
3817.5525 2885.4089 -290 2.3070712e-39
3828.5332 2844.4282 -290 2.7662402e-39
3770.1357 2543.2808 -250 3.7821942e-39
3752.4561 2472.6589 -240 2.6747677e-39
3753.437 2414.3577 -240 2.3992626e-39
3759.4177 2364.7168 -230 2.6740544e-39
3751.7383 2311.4155 -220 2.2159489e-39
3739.0586 2249.4539 -220 2.7666032e-39
3735.0396 2182.4924 -210 2.2130693e-39
3742.3599 2155.1719 -210 2.029757e-39
3754.6804 2136.5117 -200 2.2119875e-39
3762.001 2109.1912 -200 2.4878583e-39
3755.6611 2078.2104 -200 2.7630046e-39
3747.9817 2024.9092 -190 2.6715265e-39
3755.3022 1997.5886 -190 3.0388685e-39
3786.2827 1991.2488 -190 3.498762e-39
3828.6035 2024.55 -200 3.9586612e-39
3884.5842 2061.5115 -200 3.2232611e-39
3926.9048 2094.8127 -210 2.8559163e-39
4056.5459 2239.3577 -240 3.3143707e-39
4102.5264 2258.9985 -240 2.6718852e-39
4061.1868 2167.396 -230 3.3143749e-39
4097.1675 2169.7166 -230 2.947033e-39
4114.4883 2159.7166 -230 2.5800483e-39
4111.8086 2115.0757 -220 3.3147351e-39
4109.1289 2070.4346 -220 2.3963899e-39
4165.1099 2107.396 -230 2.5797008e-39
4239.751 2156.678 -240 2.3967417e-39
4252.0713 2138.0178 -240 2.4871338e-39
4274.3916 2136.678 -240 1.9361236e-39
4271.7124 2092.0371 -230 1.6595396e-39
4274.0327 2056.0562 -230 1.8432091e-39
4276.3535 2020.0754 -220 1.3829485e-39
4322.334 2039.7166 -230 1.2918276e-39
3924.0327 1449.8386 -140 1.013796e-39
3912.6929 1410.1976 -130 9.2160317e-40
3968.6736 1447.1591 -140 1.5673201e-39
3952.334 1398.8578 -140 5.2562117e-39
3960.9941 1393.8578 -130 2.3952885e-39
3991.9749 1387.5181 -140 1.106349e-39
3990.6353 1365.1976 -130 1.1056301e-39
3994.2954 1351.5374 -130 9.2159757e-40
4016.6157 1350.1975 -130 9.2159897e-40
4033.9365 1340.1975 -130 8.2940334e-40
4051.2568 1330.1975 -130 1.4740469e-39
4078.5774 1337.5181 -140 1.0130785e-39
4095.8979 1327.5181 -140 7.3720771e-40
4136.8789 1338.4988 -140 7.3756504e-40
4154.1992 1328.4988 -140 8.290418e-40
4181.5195 1335.8193 -140 1.6587997e-39
4309.7246 1157.877 -130 3.500899e-39
4462.667 1242.7806 -150 5.5281505e-40
4429.0068 1204.4795 -140 5.5281505e-40
4488.6475 1227.7806 -150 6.4429181e-40
4556.9492 1246.0819 -160 4.6097815e-40
2296.5969 1431.0381 -40 9.2304371e-40
2306.5969 1448.3586 -50 2.2108973e-39
2313.9175 1421.0381 -40 1.3840205e-39
2322.5779 1416.0381 -40 2.3081137e-39
2331.238 1411.0381 -40 2.5825594e-39
2339.8982 1406.0381 -40 1.4765888e-39
2357.2188 1396.0381 -40 1.1070776e-39
2362.2188 1404.6984 -40 3.7753587e-39
2375.8792 1408.3586 -50 1.842849e-39
2384.5393 1403.3586 -50 1.1067161e-39
2398.1995 1407.0188 -50 1.1067175e-39
2411.8599 1410.6791 -50 1.3829429e-39
2420.52 1405.6791 -50 1.1992733e-39
2425.52 1414.3394 -50 1.1996362e-39
2441.8599 1462.6406 -60 1.3836659e-39
2456.8599 1488.6213 -60 7.557843e-39
2460.52 1474.9611 -60 3.7887075e-39
2481.8599 1531.9226 -70 4.3461987e-39
2493.1997 1571.5636 -70 4.4480969e-39
2515.8792 1650.8457 -80 2.1237813e-39
2529.5393 1654.5059 -90 2.6772872e-39
2595.8792 1789.4097 -110 2.2145196e-39
2618.1997 1788.0701 -110 3.0485753e-39
2626.8599 1783.0698 -110 1.1533194e-38
2637.8408 1742.0891 -100 1.2453663e-38
2638.8215 1683.788 -100 1.3009354e-38
2656.1418 1673.7878 -100 1.3193392e-38
2964.9951 2788.7363 -250 2.3509886e-38
2983.2961 2720.4351 -240 2.3509886e-38
3001.9565 2732.7554 -250 2.3509886e-38
3439.6101 2410.7937 -240 2.3077984e-39
3476.9307 2435.4348 -240 2.3063565e-39
3494.251 2425.4348 -240 2.6740516e-39
3510.2319 2393.1143 -240 2.0308458e-39
3537.5522 2400.4348 -240 2.0301255e-39
3749.155 2566.9409 -280 1.8453713e-39
3745.1357 2499.9795 -270 1.9411697e-39
3736.1165 2424.3577 -260 2.0311989e-39
3738.437 2388.377 -260 1.8457301e-39
3754.4177 2356.0564 -250 2.7673234e-39
3746.7383 2302.7551 -250 2.2137951e-39
3734.0586 2240.7937 -240 2.5822119e-39
3735.0396 2182.4924 -230 3.4087258e-39
3742.3599 2155.1719 -230 2.2130693e-39
3754.6804 2136.5117 -230 1.8450042e-39
3767.001 2117.8513 -220 2.2116273e-39
3760.6611 2086.8706 -220 3.2225352e-39
3747.9817 2024.9092 -210 2.7651584e-39
3750.3022 1988.9282 -210 2.4892918e-39
3762.6226 1970.2681 -210 2.3985381e-39
3808.6035 1989.9092 -210 2.4900121e-39
3825.9238 1979.9092 -210 2.3967403e-39
3936.9048 2112.1333 -240 3.5906003e-39
4109.8472 2231.6782 -260 2.3956571e-39
4122.1675 2213.0178 -260 2.3956571e-39
4148.1484 2198.0178 -260 2.1197904e-39
4121.8086 2132.396 -250 2.3034656e-39
4124.1289 2096.4153 -250 2.0286808e-39
4155.1099 2090.0754 -250 2.2119945e-39
4211.0908 2127.0371 -260 2.120159e-39
4247.0713 2129.3577 -260 2.1197974e-39
4240.7314 2098.3767 -260 1.6591808e-39
4256.7124 2066.0562 -250 1.4747882e-39
4264.0327 2038.7358 -250 1.4755028e-39
4281.3535 2028.7358 -250 1.3825883e-39
3912.6929 1410.1976 -150 1.1063518e-39
3958.6736 1429.8386 -160 1.568039e-39
3938.6736 1395.1976 -150 5.712885e-39
3955.9941 1385.1976 -150 2.0279479e-39
3973.3145 1375.1976 -150 1.289664e-39
3971.9749 1352.8771 -150 1.0137932e-39
3984.2954 1334.2168 -150 9.2123743e-40
4001.6157 1324.2168 -150 9.2159757e-40
4005.2761 1310.5565 -150 8.290432e-40
4003.9365 1288.2361 -140 1.0134345e-39
4054.917 1316.5374 -150 1.9353838e-39
4113.2183 1317.5181 -150 8.2904461e-40
4149.1992 1319.8385 -160 6.4537081e-40
4186.5195 1344.4795 -160 1.1070678e-39
4203.8403 1334.4795 -160 7.3756784e-40
4221.1606 1324.4795 -160 1.1070622e-39
4299.4619 1360.1013 -170 9.208829e-40
4279.4619 1325.4602 -170 6.4536941e-40
4320.4429 1336.441 -170 5.5281645e-40
4309.7246 1157.877 -150 3.3168693e-39
4425.3467 1218.1396 -160 6.4501208e-40
4405.3467 1183.4987 -160 4.6133828e-40
4488.6475 1227.7806 -170 5.5245631e-40
4556.9492 1246.0819 -180 4.6097955e-40
4448.2891 1077.877 -150 1.3825659e-39
4448.2891 1077.877 -150 4.6061661e-40
4448.2891 1077.877 -150 5.5281365e-40
4448.2891 1077.877 -150 6.4500787e-40
4448.2891 1077.877 -150 7.3684337e-40
4448.2891 1077.877 -150 6.4536661e-40
4448.2891 1077.877 -150 9.2051717e-40
2302.5779 1381.3971 -50 1.0145205e-39
2310.2573 1434.6984 -60 3.0406649e-39
2317.5779 1407.3778 -50 9.2232484e-40
2326.238 1402.3778 -50 1.2914605e-39
2334.8982 1397.3778 -50 2.2119777e-39
2343.5586 1392.3778 -50 3.1472056e-39
2357.2188 1396.0381 -50 3.5005473e-39
2370.8792 1399.6984 -60 3.9640534e-39
2370.8792 1399.6984 -60 1.2003509e-39
2384.5393 1403.3586 -60 1.4754986e-39
2398.1995 1407.0188 -60 1.3825855e-39
2411.8599 1410.6791 -60 1.3847393e-39
2420.52 1405.6791 -60 1.753882e-39
2424.1804 1392.0188 -60 1.8478755e-39
2445.52 1448.9803 -70 2.3099368e-39
2456.8599 1488.6213 -70 6.7518974e-39
2459.1804 1452.6406 -70 7.0257251e-39
2485.52 1518.2623 -80 7.0137384e-39
2490.52 1526.9226 -80 7.6537016e-39
2502.8406 1508.2623 -80 5.8987449e-39
2614.5396 1801.7302 -120 4.0541134e-39
2631.8599 1791.7302 -120 8.5659175e-39
2640.5203 1786.7302 -120 1.2823914e-38
2646.501 1737.0891 -120 1.3748034e-38
2665.1611 1749.4097 -120 1.4392689e-38
2917.6743 2746.7747 -260 1.8821612e-38
2946.3347 2776.4158 -270 1.918716e-38
2962.3154 2744.0952 -270 2.1397669e-38
2971.9565 2680.7939 -260 2.1948682e-38
2987.9373 2648.4734 -260 2.3509886e-38
3016.5974 2678.1145 -260 2.3509886e-38
3060.1614 2433.5696 -240 2.3509886e-38
3245.4243 2534.4541 -260 3.0464439e-39
3282.3857 2478.4734 -260 2.49291e-39
3283.3665 2420.1721 -250 2.6772956e-39
3322.0269 2467.1335 -260 3.3201483e-39
3329.3472 2439.813 -260 2.6758649e-39
3350.3281 2416.1528 -250 2.491831e-39
3372.6484 2414.813 -260 4.7920218e-39
3404.9692 2430.7937 -260 8.9353839e-39
3422.2896 2420.7937 -260 3.0428369e-39
3433.2705 2379.813 -260 2.1241274e-39
3450.5908 2369.813 -260 4.3324898e-39
3452.9114 2333.8323 -250 1.6627864e-39
3488.8921 2336.1528 -250 1.8464532e-39
3506.2126 2326.1528 -250 2.494691e-39
3543.5332 2350.7937 -260 3.5970897e-39
3719.1548 2514.9795 -290 2.305988e-39
3720.1357 2456.6782 -290 2.2141455e-39
3726.1165 2407.0371 -280 2.0290409e-39
3733.437 2379.7168 -280 2.0297612e-39
3754.4177 2356.0564 -280 2.1215981e-39
3746.7383 2302.7551 -270 2.5829252e-39
3734.0586 2240.7937 -260 2.029757e-39
3730.0396 2173.832 -250 2.2137895e-39
3737.3599 2146.5117 -250 1.9368467e-39
3749.6804 2127.8513 -250 1.7524526e-39
3762.001 2109.1912 -250 1.660257e-39
3755.6611 2078.2104 -240 2.5832923e-39
3747.9817 2024.9092 -230 2.1215939e-39
3740.3022 1971.6079 -230 2.3981766e-39
3742.6226 1935.627 -220 2.1219512e-39
3764.9431 1934.2874 -220 2.3049048e-39
3805.9238 1945.2681 -230 2.2134266e-39
3921.9048 2086.1526 -250 1.9372054e-39
4046.5459 2222.0371 -280 3.5941862e-39
4112.5264 2276.3191 -290 4.5161551e-39
4071.1868 2184.7166 -280 2.6715223e-39
4092.1675 2161.0564 -280 2.4871366e-39
4148.1484 2198.0178 -280 2.4874925e-39
4126.8086 2141.0564 -280 2.1205107e-39
4124.1289 2096.4153 -270 2.3967445e-39
4203.77 2154.3577 -280 2.1219582e-39
4208.4111 2082.396 -280 2.3023894e-39
4210.7314 2046.4153 -270 1.5669824e-39
4204.3916 2015.4346 -270 1.2907556e-39
4225.3726 1991.7742 -270 1.474421e-39
4237.6929 1973.114 -260 1.2903913e-39
4283.6738 1992.7549 -270 1.1989117e-39
3912.6929 1410.1976 -170 9.2124164e-40
3945.0132 1426.1783 -170 1.5669586e-39
3933.6736 1386.5374 -170 4.7012414e-39
3945.9941 1367.8771 -170 4.9782011e-39
3968.3145 1366.5374 -170 1.2900214e-39
3961.9749 1335.5565 -160 1.1056301e-39
3960.6353 1313.2361 -160 9.219577e-40
3954.2954 1282.2552 -160 8.2940334e-40
3957.9556 1268.5951 -160 8.2940474e-40
3951.6157 1237.6143 -150 9.2123743e-40
3973.9363 1236.2745 -150 1.197467e-39
3712.3337 983.16577 -100 7.3756504e-40
3697.3337 957.18494 -100 9.2159336e-40
3714.6543 947.18494 -100 6.4537081e-40
3728.3145 950.84521 -100 1.5676746e-39
4156.5195 1292.5181 -170 1.1056343e-39
4178.8403 1291.1782 -170 8.2940194e-40
4243.4814 1323.1398 -180 1.4744084e-39
4237.1416 1292.1591 -180 5.5317798e-40
4278.1221 1303.1398 -180 6.4465054e-40
3624.2952 710.67871 -60 5.5317518e-40
3655.2759 704.33887 -60 6.4465194e-40
4291.0645 1145.5564 -160 5.5245631e-40
4388.0259 1193.4987 -180 6.4500928e-40
4373.0259 1167.5179 -170 5.5317798e-40
4488.6475 1227.7806 -190 5.5281645e-40
4580.6094 1267.0627 -200 5.5245631e-40
4434.6284 1074.2167 -170 4.6061942e-40
4465.6094 1067.8768 -170 5.5317518e-40
4474.2695 1062.8768 -170 5.5245351e-40
4474.2695 1062.8768 -170 4.6061802e-40
4474.2695 1062.8768 -170 5.5281365e-40
4474.2695 1062.8768 -170 4.6133688e-40
4474.2695 1062.8768 -170 6.4500928e-40
4474.2695 1062.8768 -170 9.2123463e-40
4474.2695 1062.8768 -170 8.2868167e-40
2292.9368 1444.6984 -70 9.219619e-40
2301.5969 1439.6984 -70 1.0138016e-39
2317.5779 1407.3778 -60 1.1063532e-39
2329.8982 1388.7177 -60 1.8417574e-39
2329.8982 1388.7177 -60 4.9666796e-39
2343.5586 1392.3778 -60 3.6874609e-39
2360.8792 1382.3778 -60 1.2907472e-39
2365.8792 1391.0381 -70 1.5684089e-39
2370.8792 1399.6984 -70 1.1985516e-39
2384.5393 1403.3586 -70 1.2907486e-39
2398.1995 1407.0188 -70 1.2907486e-39
2411.8599 1410.6791 -70 1.2911088e-39
2420.52 1405.6791 -70 1.474777e-39
2424.1804 1392.0188 -70 1.4744224e-39
2439.1804 1417.9996 -70 1.4747784e-39
2450.52 1457.6406 -80 1.5673341e-39
2467.8406 1447.6406 -80 1.6591724e-39
2475.52 1500.9419 -90 1.5669796e-39
2485.1611 1437.6406 -80 1.6598913e-39
2496.501 1477.2816 -90 1.5676999e-39
2511.501 1503.2623 -90 1.6598941e-39
2614.5396 1801.7302 -140 2.1219554e-39
2626.8599 1783.0698 -140 7.1873005e-39
2644.1804 1773.0698 -140 1.2549485e-38
2651.501 1745.7495 -140 1.2826068e-38
2666.501 1771.7302 -140 1.3933853e-38
2846.9563 2464.2876 -240 1.6235869e-38
2934.9949 2736.7747 -290 1.7802453e-38
2948.2961 2659.8132 -280 1.8821253e-38
2947.9373 2579.1914 -270 2.0295643e-38
2952.5781 2507.23 -260 2.0479314e-38
2988.918 2590.1721 -270 2.0754821e-38
2998.5591 2526.8708 -270 2.2224189e-38
2996.8601 2423.9287 -250 2.240786e-38
3007.8408 2382.9478 -250 2.2591531e-38
3026.5012 2395.2683 -250 2.2775202e-38
3037.4819 2354.2876 -240 2.3234379e-38
3059.8025 2352.9478 -250 2.3142544e-38
3077.123 2342.9478 -250 2.2316024e-38
3094.4434 2332.9478 -250 1.9281148e-38
3123.1038 2362.5889 -250 1.78968e-38
3234.0845 2494.813 -280 7.2903365e-39
3207.3857 2348.5696 -260 5.9956124e-39
3266.0459 2430.1721 -270 5.3506046e-39
3230.687 2288.9285 -250 4.4272119e-39
3290.687 2392.8516 -270 3.5059759e-39
3301.6677 2351.8708 -260 2.5843909e-39
3308.9883 2324.5503 -260 2.3999871e-39
3336.3088 2331.8708 -260 2.2148811e-39
3389.9692 2404.813 -280 2.3074341e-39
3410.9497 2381.1528 -280 2.2148755e-39
3406.9307 2314.1912 -270 2.1230428e-39
3429.251 2312.8516 -270 2.0308458e-39
3420.2319 2237.2297 -260 1.8468161e-39
3447.5522 2244.5503 -260 1.7549764e-39
3433.5332 2160.2683 -250 2.3989081e-39
3445.8535 2141.6079 -250 2.1223142e-39
3468.1741 2140.2681 -250 2.2134322e-39
3630.4946 2381.4155 -290 2.2141497e-39
3692.8152 2449.3577 -310 2.0312017e-39
3695.1357 2413.377 -300 2.0312031e-39
3711.1165 2381.0564 -300 2.0383904e-39
3723.437 2362.3962 -300 3.690384e-39
3749.4177 2347.3962 -300 2.3970976e-39
3741.7383 2294.095 -290 2.5796868e-39
3739.0586 2249.4539 -280 3.4079971e-39
3735.0396 2182.4924 -280 1.9368397e-39
3742.3599 2155.1719 -270 1.9361208e-39
3749.6804 2127.8513 -270 1.4755056e-39
3757.001 2100.5308 -270 1.8446455e-39
3740.6611 2052.2295 -260 1.8453629e-39
3727.9814 1990.2681 -250 2.3070487e-39
3680.3022 1867.6848 -230 2.0286738e-39
3687.6226 1840.3643 -230 2.1205121e-39
3734.9431 1882.3257 -240 2.2134238e-39
3772.2637 1906.9668 -240 1.9361222e-39
3813.2444 1917.9475 -250 2.0286752e-39
3939.2251 2076.1526 -280 2.2123462e-39
3985.2061 2095.7935 -280 3.9636988e-39
3982.5264 2051.1526 -280 2.6715223e-39
4014.8469 2067.1333 -280 2.6711649e-39
4065.8276 2095.4346 -290 3.8718647e-39
4078.1484 2076.7744 -290 3.3194028e-39
3926.8083 1794.6462 -240 3.410895e-39
4210.7314 2046.4153 -290 1.5669796e-39
4204.3916 2015.4346 -290 1.3822296e-39
4230.3726 2000.4346 -290 1.1981915e-39
4214.0327 1952.1333 -280 1.2900298e-39
4288.6738 2001.4153 -290 1.1059958e-39
3914.0327 1432.5181 -190 1.1052728e-39
3922.6929 1427.5181 -190 1.2893011e-39
3945.0132 1426.1783 -190 2.028294e-39
3933.6736 1386.5374 -190 5.8990672e-39
3932.334 1364.2168 -180 5.157912e-39
3949.6543 1354.2168 -180 9.2124024e-40
3933.3145 1305.9155 -180 1.0137918e-39
3918.3145 1279.9348 -170 1.0134345e-39
3906.9749 1240.2938 -160 9.2124024e-40
3805.9941 1125.39 -140 9.2123743e-40
3804.6543 1103.0695 -140 8.2976207e-40
3760.9941 1047.4478 -130 1.6587997e-39
3717.3337 991.82593 -120 7.3792657e-40
4042.2375 1254.5758 -180 1.1978243e-39
4093.2183 1282.8771 -180 6.4501208e-40
3741.9746 954.50549 -110 8.290432e-40
4151.5195 1283.8578 -190 2.0265032e-39
4187.5005 1286.1782 -190 6.4537221e-40
4219.8208 1302.1591 -200 2.0279395e-39
4218.4814 1279.8385 -190 7.3684757e-40
4254.4619 1282.1591 -200 7.3648604e-40
3589.6541 730.67871 -70 5.5281505e-40
3611.9746 729.33887 -70 6.4465194e-40
3629.2952 719.33887 -70 6.4465194e-40
3665.2759 721.65942 -80 5.5281645e-40
3673.936 716.65942 -80 5.5281505e-40
4235.0835 1108.595 -170 6.4429181e-40
4313.3848 1144.2167 -180 7.3684898e-40
4335.7056 1142.877 -180 6.4465054e-40
4404.0068 1161.1782 -190 5.5317378e-40
4370.3467 1122.877 -180 4.6062082e-40
4320.3467 1036.2744 -170 4.6026209e-40
4439.6284 1082.877 -180 5.5245491e-40
4451.9492 1064.2167 -180 5.5245351e-40
4450.6094 1041.8961 -180 4.6062082e-40
4450.6094 1041.8961 -180 4.6025928e-40
4450.6094 1041.8961 -180 3.6842379e-40
4450.6094 1041.8961 -180 5.5281505e-40
4450.6094 1041.8961 -180 5.5245351e-40
4450.6094 1041.8961 -180 6.4464774e-40
4450.6094 1041.8961 -180 1.0130729e-39
4450.6094 1041.8961 -180 7.3648744e-40
2293.9175 1386.3971 -70 1.0137974e-39
2305.2573 1426.0381 -80 1.0134387e-39
2312.5779 1398.7177 -70 1.105993e-39
2329.8982 1388.7177 -70 1.4736923e-39
2329.8982 1388.7177 -80 1.1067147e-39
2343.5586 1392.3778 -80 1.4736965e-39
2352.2188 1387.3778 -80 4.1466271e-39
2365.8792 1391.0381 -80 1.4744224e-39
2370.8792 1399.6984 -80 1.478014e-39
2384.5393 1403.3586 -80 1.1978355e-39
2393.1995 1398.3586 -80 1.1981901e-39
2406.8599 1402.0188 -80 1.1989117e-39
2420.52 1405.6791 -80 1.474421e-39
2427.8406 1378.3586 -80 1.4744168e-39
2442.8406 1404.3394 -90 1.5666167e-39
2450.52 1457.6406 -90 1.3829415e-39
2467.8406 1447.6406 -90 1.9346775e-39
2474.1804 1478.6213 -100 1.6598885e-39
2485.1611 1437.6406 -90 1.6591724e-39
2498.8213 1441.3009 -100 1.5666209e-39
2505.1611 1472.2816 -100 1.4758602e-39
2605.8792 1806.7302 -150 2.5793294e-39
2614.5396 1801.7302 -150 2.2159433e-39
2626.8599 1783.0698 -150 1.0240541e-38
2644.1804 1773.0698 -150 1.1994504e-38
2651.501 1745.7495 -150 1.4019204e-38
2670.1611 1758.0698 -150 1.4022087e-38
2841.9563 2455.6274 -260 1.5683409e-38
2887.937 2475.2683 -270 1.6512093e-38
2907.9373 2509.9094 -280 1.6790828e-38
2930.2578 2508.5696 -280 1.7157811e-38
2936.2383 2458.9287 -270 1.8265577e-38
2963.5591 2466.249 -280 1.9557731e-38
2969.5396 2416.6082 -270 2.0569715e-38
2980.5205 2375.6274 -260 1.9557731e-38
3001.5012 2351.967 -260 2.0387479e-38
3020.1614 2364.2876 -270 2.0295285e-38
3041.1421 2340.6274 -260 1.9740325e-38
3049.8025 2335.6272 -260 2.0020137e-38
3077.123 2342.9478 -270 1.799007e-38
3089.4434 2324.2876 -270 1.7804964e-38
3116.7639 2331.6082 -270 1.6332726e-38
3129.0845 2312.9478 -270 1.4580319e-38
3155.0652 2297.9478 -270 1.4393416e-38
3183.7256 2327.5889 -270 1.181118e-38
3174.7063 2251.967 -260 9.6874257e-39
3195.687 2228.3066 -260 7.9342542e-39
3214.3472 2240.6272 -260 6.9186533e-39
3226.6677 2221.967 -260 5.9981292e-39
3240.9497 2086.7041 -240 3.6035567e-39
3269.251 2035.7234 -240 3.7868746e-39
3366.5715 2164.2874 -270 4.5219089e-39
3385.2319 2176.6079 -270 4.6133856e-39
3417.5522 2192.5886 -270 3.4119782e-39
3413.5332 2125.6272 -260 2.1219596e-39
3440.8535 2132.9478 -270 1.9382844e-39
3458.1741 2122.9478 -270 4.2435241e-39
3470.4946 2104.2874 -270 4.0584196e-39
3512.8149 2137.5886 -270 3.9672974e-39
3663.7959 2339.095 -310 5.2540747e-39
3666.1165 2303.1143 -310 2.2130763e-39
3692.0972 2288.1143 -310 2.9574572e-39
3709.4175 2278.1143 -310 3.5934674e-39
3716.7383 2250.7937 -310 2.0283137e-39
3689.0586 2162.8513 -290 2.4871296e-39
3685.0396 2095.8899 -280 2.0286738e-39
3707.3599 2094.55 -280 1.6602556e-39
3709.6804 2058.5693 -280 1.4758616e-39
3722.001 2039.9092 -280 2.0286766e-39
3695.6611 1974.2874 -270 2.672953e-39
3662.9814 1877.6848 -250 2.7622732e-39
3636.6418 1812.063 -240 2.7629892e-39
3653.9624 1802.063 -240 2.0286696e-39
3681.2827 1809.3835 -240 1.9364796e-39
3732.2637 1837.6848 -250 1.7513694e-39
3749.584 1827.6848 -250 1.9357607e-39
3796.9048 1869.6462 -260 1.5680558e-39
3824.2251 1876.9668 -260 3.3179679e-39
3831.5457 1849.6462 -260 2.5782476e-39
4043.5073 2096.7744 -310 2.6704447e-39
4119.4883 2168.3767 -330 4.0562532e-39
4140.4688 2144.7166 -320 3.2264897e-39
3880.8276 1775.0051 -250 3.5038095e-39
3908.1482 1782.3257 -260 3.5949233e-39
3930.4688 1780.9861 -260 2.2105511e-39
4199.3916 2006.7742 -310 1.3825827e-39
4211.7124 1988.114 -310 1.1981971e-39
4214.0327 1952.1333 -300 1.1981915e-39
4245.0137 1945.7935 -310 1.1056371e-39
3940.3723 1498.1399 -220 1.0134345e-39
3919.0327 1441.1783 -210 1.106349e-39
3941.353 1439.8386 -210 1.0141547e-39
3945.0132 1426.1783 -210 1.6595157e-39
3933.6736 1386.5374 -200 4.698373e-39
3917.334 1338.2361 -200 1.1052714e-39
3892.334 1294.9348 -190 1.0134345e-39
3885.9941 1263.9541 -180 7.3720911e-40
3889.6543 1250.2938 -180 8.2940334e-40
3849.6543 1181.0118 -170 8.2940474e-40
3810.9941 1134.0503 -160 7.3757205e-40
3828.3145 1124.0503 -160 8.2940334e-40
3808.3145 1089.4093 -150 2.3952829e-39
3740.9941 1012.8068 -130 8.2940194e-40
3692.3337 948.52478 -120 1.5666082e-39
3700.9939 943.52478 -120 6.4501208e-40
3723.3145 942.18494 -120 7.3684757e-40
3740.6348 932.18494 -120 1.6584381e-39
3735.6348 923.52466 -120 8.2940334e-40
3715.6348 888.88367 -120 1.0134317e-39
3548.6733 719.69788 -80 6.4501068e-40
3575.9939 727.01843 -80 5.5281785e-40
3584.6541 722.01843 -80 5.5281505e-40
3611.9746 729.33887 -90 5.5245772e-40
3634.2952 727.99915 -90 6.4465194e-40
3647.9553 731.65942 -90 5.5281785e-40
3693.936 751.30042 -90 5.5281645e-40
3739.917 770.94141 -100 6.4429321e-40
4248.7441 1112.2552 -190 1.1056301e-39
4308.3848 1135.5564 -200 7.3648884e-40
4330.7056 1134.2167 -200 6.4501208e-40
4371.686 1145.1974 -210 5.5281785e-40
4272.0449 1052.6141 -180 5.5245631e-40
4257.0449 1026.6334 -180 4.6062222e-40
4265.7056 1021.6334 -180 5.5245631e-40
4301.686 1023.9539 -180 5.5245631e-40
4448.2891 1077.877 -200 4.6061802e-40
4451.9492 1064.2167 -200 4.6025928e-40
4474.2695 1062.8768 -200 4.6097815e-40
4474.2695 1062.8768 -200 3.6842379e-40
4474.2695 1062.8768 -200 6.4500647e-40
4474.2695 1062.8768 -200 5.5317238e-40
4474.2695 1062.8768 -200 6.4500647e-40
4474.2695 1062.8768 -200 1.104907e-39
2294.2766 1467.0189 -90 1.0130785e-39
2302.9368 1462.0189 -90 1.1974642e-39
2317.5779 1407.3778 -90 1.1056315e-39
2329.8982 1388.7177 -90 1.2893067e-39
2338.5586 1383.7177 -90 1.0137988e-39
2347.2188 1378.7177 -90 1.3829429e-39
2352.2188 1387.3778 -90 1.1992705e-39
2365.8792 1391.0381 -90 1.6616919e-39
2379.5393 1394.6984 -90 1.1981915e-39
2388.1995 1389.6984 -90 1.9335943e-39
2396.8599 1384.6984 -90 1.5687676e-39
2401.8599 1393.3586 -90 1.4740595e-39
2419.1804 1383.3586 -90 1.4740581e-39
2422.8406 1369.6984 -90 1.4740581e-39
2442.8406 1404.3394 -100 1.5662565e-39
2454.1804 1443.9803 -100 1.291106e-39
2462.8406 1438.9803 -100 1.7510065e-39
2476.5007 1442.6406 -110 1.5676928e-39
2485.1611 1437.6406 -110 1.6584507e-39
2493.8213 1432.6406 -110 1.3833044e-39
2508.8213 1458.6213 -110 1.4755014e-39
2605.8792 1806.7302 -170 2.7633606e-39
2609.5396 1793.0701 -170 3.2265065e-39
2626.8599 1783.0698 -170 1.1163615e-38
2639.1804 1764.4097 -170 1.2909974e-38
2646.501 1737.0891 -160 1.3375625e-38
2663.8215 1727.0891 -160 1.3194115e-38
2852.937 2414.6467 -280 1.4855805e-38
2863.918 2373.6658 -270 1.5313568e-38
2882.5781 2385.9863 -280 1.5498671e-38
2899.8987 2375.9863 -280 1.6698988e-38
2909.5396 2312.6851 -270 1.6885533e-38
2945.8794 2395.6274 -290 1.7618065e-38
2968.2 2394.2876 -290 1.7434752e-38
2967.8408 2313.6658 -270 1.8267011e-38
2980.1614 2295.0056 -270 1.835813e-38
3002.4819 2293.6658 -280 1.8449248e-38
2997.123 2204.3838 -260 1.79872e-38
3014.4434 2194.3838 -260 1.7439416e-38
3038.1035 2215.3645 -270 1.7438698e-38
3055.4243 2205.3645 -270 1.725718e-38
3082.7446 2212.6851 -270 1.7342917e-38
3111.405 2242.3259 -280 1.6609309e-38
3120.3279 2017.7812 -240 1.4851498e-38
3158.9883 2064.7427 -250 1.3378508e-38
3151.3086 2011.4414 -250 1.2085242e-38
3178.6292 2018.762 -250 9.9650902e-39
3202.2896 2039.7427 -250 8.2126376e-39
3214.6099 2021.0825 -250 7.4718229e-39
3231.9304 2011.0825 -250 7.3763735e-39
3244.251 1992.4221 -250 7.0987062e-39
3266.5715 1991.0825 -250 6.731367e-39
3283.8921 1981.0825 -250 6.5484093e-39
3301.2124 1971.0825 -250 6.5476876e-39
3313.533 1952.4221 -250 3.4166599e-39
3342.1934 1982.0632 -260 1.9393662e-39
3409.5137 2058.6658 -270 4.0555315e-39
3411.8342 2022.6848 -270 4.8852922e-39
3429.1548 2012.6848 -270 4.7016226e-39
3467.8149 2059.6465 -280 4.2413731e-39
3473.7959 2010.0054 -270 4.0573392e-39
3507.4561 2048.3066 -280 9.303505e-39
3554.7766 2090.2681 -290 2.213442e-39
3562.0972 2062.9478 -290 2.6747551e-39
3584.4175 2061.6079 -290 4.5129013e-39
3610.3984 2046.6079 -290 2.6725957e-39
3622.7188 2027.9475 -290 2.9481022e-39
3625.0393 1991.9668 -280 1.9368397e-39
3632.3599 1964.6462 -280 1.7517324e-39
3659.6802 1971.9668 -280 1.291829e-39
3692.001 1987.9475 -290 2.0290325e-39
3605.6611 1818.4028 -260 3.408353e-39
3604.3213 1796.0823 -250 2.2112588e-39
3606.6418 1760.1016 -250 2.6711551e-39
3613.9624 1732.781 -240 2.3952955e-39
3631.2827 1722.781 -240 1.7517296e-39
3673.6033 1756.0823 -250 1.5673355e-39
3685.9238 1737.4221 -250 1.5680558e-39
3728.2444 1770.7231 -260 1.5676971e-39
3794.2251 1825.0054 -270 2.2098267e-39
3811.5457 1815.0054 -270 2.7615585e-39
4033.5073 2079.4539 -330 2.5782448e-39
4109.4883 2151.0564 -350 3.0381426e-39
4140.4688 2144.7166 -350 2.5782434e-39
4119.1289 2087.7551 -340 2.21127e-39
4150.1099 2081.4153 -340 2.2105497e-39
4194.3916 1998.114 -330 1.2900326e-39
4180.3726 1913.832 -320 1.1981901e-39
4231.3535 1942.1333 -330 1.1056343e-39
3953.0518 1560.1014 -250 1.3833016e-39
3946.7122 1529.1206 -240 1.2900242e-39
3940.3723 1498.1399 -240 1.2903829e-39
3924.0327 1449.8386 -230 1.1067091e-39
3946.353 1448.4989 -230 1.1063518e-39
3945.0132 1426.1783 -230 1.8435427e-39
3928.6736 1377.8771 -220 1.6577249e-39
3870.0132 1296.2745 -200 1.1056315e-39
3863.6736 1265.2938 -200 8.2940474e-40
3867.3337 1251.6335 -200 9.2123883e-40
3870.9941 1237.9733 -190 9.219549e-40
3854.6543 1189.672 -180 8.2940474e-40
3815.9941 1142.7106 -170 8.290418e-40
3790.9941 1099.4093 -170 7.3756644e-40
3760.9941 1047.4478 -160 1.8428322e-39
3735.9939 1004.1465 -150 9.208787e-40
3715.9939 969.50549 -140 1.6580808e-39
3714.6543 947.18494 -140 6.4501068e-40
3723.3145 942.18494 -140 7.3720631e-40
3731.9746 937.18494 -140 9.2123883e-40
3749.2952 927.18494 -140 1.2903787e-39
3752.9556 913.52466 -140 7.3684757e-40
3803.9363 941.82593 -150 9.2123743e-40
3567.3335 732.01843 -90 5.5317518e-40
3580.9939 735.67871 -100 5.5317518e-40
3589.6541 730.67871 -100 5.5353531e-40
3752.5964 832.90295 -120 5.5281785e-40
3705.2759 790.94141 -110 5.5245631e-40
3690.2759 764.96069 -110 5.5245772e-40
3731.2568 775.94141 -120 5.5281505e-40
3772.2373 786.92212 -120 5.5245772e-40
4211.4233 1087.6141 -200 1.0134359e-39
4220.0835 1082.6141 -200 7.3720631e-40
4251.0645 1076.2744 -200 6.4501068e-40
4222.4043 1046.6334 -190 5.5281505e-40
4202.4043 1011.9924 -190 4.6097955e-40
4150.0835 961.37061 -180 5.5245631e-40
4191.0645 972.35144 -180 6.4465054e-40
4296.686 1015.2937 -200 4.6061942e-40
4342.667 1034.9347 -200 5.5281505e-40
4392.3081 1040.9154 -210 5.5281365e-40
4438.2891 1060.5564 -220 5.5281365e-40
4469.2695 1054.2167 -220 4.6097675e-40
4469.2695 1054.2167 -220 7.3684477e-40
4469.2695 1054.2167 -220 8.290418e-40
4469.2695 1054.2167 -220 1.0127114e-39
4469.2695 1054.2167 -220 6.4429181e-40
2299.2766 1475.6792 -110 1.1974684e-39
2300.2573 1417.3779 -100 1.1971083e-39
2318.5586 1349.0765 -90 1.1971097e-39
2329.5393 1308.0958 -80 1.1056343e-39
2339.5393 1325.4164 -90 1.2893039e-39
2349.5393 1342.7368 -90 1.3818597e-39
2354.5393 1351.3971 -90 1.1978285e-39
2364.5393 1368.7177 -100 2.8598596e-39
2374.5393 1386.0381 -100 1.7520827e-39
2388.1995 1389.6984 -100 1.2900256e-39
2393.1995 1398.3586 -110 1.1981901e-39
2411.8599 1410.6791 -110 2.1197806e-39
2420.52 1405.6791 -110 1.5666181e-39
2429.1804 1400.6791 -110 1.6577277e-39
2439.1804 1417.9996 -110 1.5662565e-39
2452.8406 1421.6598 -110 1.5666152e-39
2456.5007 1407.9996 -110 1.2911074e-39
2471.5007 1433.9803 -120 1.2911102e-39
2488.8213 1423.9803 -120 1.8421217e-39
2493.8213 1432.6406 -120 1.9346775e-39
2512.4817 1444.9611 -120 1.3833072e-39
2599.5396 1775.7495 -180 2.6736929e-39
2611.8599 1757.0891 -180 2.0279619e-39
2624.1804 1738.429 -180 1.106823e-38
2632.8408 1733.429 -180 1.1810097e-38
2645.1611 1714.7687 -170 1.2452228e-38
2657.4817 1696.1084 -170 1.3562879e-38
2807.5781 2256.0825 -270 1.4490627e-38
2819.8987 2237.4224 -270 1.4203607e-38
2839.8987 2272.0632 -280 1.485329e-38
2855.8794 2239.7429 -270 1.5403947e-38
2868.1997 2221.0825 -270 1.5957127e-38
2885.5205 2211.0825 -270 1.6052556e-38
2915.5205 2263.0439 -280 1.660895e-38
2939.1807 2284.0249 -290 1.7342199e-38
2943.8218 2212.0632 -280 1.6511016e-38
2956.1421 2193.4031 -270 1.7157093e-38
2915.4241 1962.8774 -240 1.7153865e-38
2927.7446 1944.2173 -230 1.7898235e-38
2945.0649 1934.2173 -230 1.752587e-38
2952.3855 1906.8967 -230 1.7069563e-38
2964.7061 1888.2363 -230 1.7800659e-38
2967.0266 1852.2556 -220 1.6788317e-38
2989.3472 1850.916 -230 1.6142957e-38
3029.3472 1920.198 -240 1.6051121e-38
3035.3279 1870.5569 -230 1.568091e-38
3038.988 1856.8967 -230 1.5409708e-38
3061.3086 1855.5569 -230 1.5217737e-38
3083.6292 1854.217 -240 1.5036239e-38
3097.2893 1857.8774 -240 1.3560022e-38
3125.9497 1887.5183 -240 1.2819939e-38
3185.9497 1991.4414 -260 1.1345167e-38
3208.2703 1990.1016 -270 9.4108332e-39
3215.5908 1962.7812 -260 9.130624e-39
3237.9111 1961.4414 -260 8.3008647e-39
3251.5715 1965.1016 -270 7.9309976e-39
3268.8921 1955.1016 -270 7.3796161e-39
3286.2124 1945.1016 -270 7.1015914e-39
3303.533 1935.1016 -270 7.2845352e-39
3320.8535 1925.1016 -270 7.1912619e-39
3271.8342 1780.1978 -240 6.8246332e-39
3284.1548 1761.5376 -240 7.0075881e-39
3389.1548 1943.4028 -280 6.9161086e-39
3411.4751 1942.0632 -280 6.3650998e-39
3453.0776 1814.1208 -260 4.5118223e-39
3465.3982 1795.4604 -260 3.7782103e-39
3457.7188 1742.1592 -250 5.4326842e-39
3525.0393 1818.7617 -270 1.9368383e-39
3547.3599 1817.4221 -270 1.4765804e-39
3564.6802 1807.4221 -270 1.3836645e-39
3553.3406 1767.781 -260 1.9361222e-39
3562.0007 1762.781 -260 4.2359459e-39
3589.3213 1770.1016 -270 2.1194205e-39
3586.6416 1725.4604 -260 2.2116175e-39
3578.9624 1672.1593 -250 2.5796784e-39
3577.6226 1649.8387 -250 1.5676971e-39
3624.9429 1691.8003 -260 1.4751385e-39
3622.2637 1647.1592 -250 1.3836617e-39
3644.584 1645.8195 -250 1.5669754e-39
3686.9045 1679.1207 -260 1.6588067e-39
3737.8853 1707.422 -270 2.2109001e-39
3731.5454 1676.4413 -260 2.3020181e-39
3743.8662 1657.781 -260 2.1183443e-39
3737.5264 1626.8002 -260 1.9343146e-39
3754.8467 1616.8002 -260 1.6584507e-39
3762.1675 1589.4797 -260 1.5662565e-39
3779.4878 1579.4797 -250 1.290034e-39
3739.4878 1510.1976 -240 1.3825841e-39
3766.8083 1517.5182 -240 1.2900256e-39
3769.1289 1481.5374 -240 1.2903871e-39
3888.77 1608.7617 -270 1.1056329e-39
3935.7314 1570.1014 -270 1.1056315e-39
3943.0518 1542.7809 -260 1.9364726e-39
3941.7122 1520.4603 -260 1.8453587e-39
3935.3723 1489.4796 -250 1.5680572e-39
3947.6929 1470.8193 -250 1.4758602e-39
3946.353 1448.4989 -250 1.2911088e-39
3945.0132 1426.1783 -240 1.9375418e-39
3866.353 1309.9348 -220 1.3814967e-39
3836.353 1257.9733 -210 1.2900186e-39
3840.0132 1244.3131 -210 9.2159897e-40
3843.6736 1230.6528 -210 9.2159897e-40
3860.9941 1220.6528 -210 7.3792657e-40
3840.9941 1186.0118 -200 8.2940334e-40
3839.6543 1163.6913 -200 7.3756644e-40
3833.3145 1132.7106 -190 8.290418e-40
3779.6543 1059.7683 -170 1.3814953e-39
3717.3337 991.82593 -160 6.4501348e-40
3710.9939 960.84521 -150 1.1978257e-39
3714.6543 947.18494 -150 6.4465475e-40
3723.3145 942.18494 -150 6.4501208e-40
3731.9746 937.18494 -150 6.4537081e-40
3754.2952 935.84521 -150 1.1052728e-39
3776.6157 934.50549 -160 7.3720631e-40
3798.936 933.16565 -160 6.4501208e-40
3821.2568 931.82593 -160 6.4537081e-40
3872.2375 960.1272 -170 5.5281645e-40
3621.9746 746.65942 -110 6.4465475e-40
3738.936 829.24268 -140 6.4500928e-40
3737.5964 806.92212 -130 6.4501068e-40
3751.2568 810.5824 -130 5.5317658e-40
3749.917 788.26196 -130 5.5281645e-40
3777.2373 795.5824 -130 6.4465335e-40
4113.1221 1017.3514 -200 1.013796e-39
4079.4619 979.05017 -190 7.3720631e-40
4157.7632 1014.6719 -200 6.4501208e-40
4156.4233 992.35144 -200 5.5281505e-40
4122.7632 954.05017 -190 5.5281505e-40
4112.7632 936.72961 -190 4.6133828e-40
4116.4233 923.06934 -180 5.5245772e-40
4189.7246 950.03088 -190 5.5245491e-40
4212.0449 948.69116 -200 5.5245631e-40
4271.686 971.99243 -200 4.6061942e-40
4331.3271 995.29358 -210 5.5245491e-40
4223.0259 907.71033 -190 4.6097675e-40
4223.0259 907.71033 -190 1.0130729e-39
4223.0259 907.71033 -190 8.2868027e-40
2294.2766 1467.0189 -120 1.0134373e-39
2303.9175 1403.7177 -110 1.1971083e-39
2319.5393 1290.7753 -90 1.0134387e-39
2323.1995 1277.1151 -90 1.1974712e-39
2336.8599 1280.7753 -90 1.2893053e-39
2340.8789 1347.7368 -100 1.2893025e-39
2355.8792 1373.7177 -110 1.2900256e-39
2365.8792 1391.0381 -110 2.4882058e-39
2374.5393 1386.0381 -110 1.1981901e-39
2388.1995 1389.6984 -110 1.3822212e-39
2393.1995 1398.3586 -120 1.5666096e-39
2406.8599 1402.0188 -120 1.2010697e-39
2420.52 1405.6791 -120 1.3829415e-39
2429.1804 1400.6791 -120 1.6591654e-39
2439.1804 1417.9996 -120 1.6588081e-39
2447.8406 1412.9996 -120 1.5676928e-39
2461.5007 1416.6598 -120 1.5694907e-39
2470.1611 1411.6598 -120 1.7546036e-39
2487.4817 1401.6598 -120 1.9375586e-39
2492.4817 1410.3201 -130 1.9353978e-39
2512.4817 1444.9611 -130 2.1194275e-39
2598.1997 1753.429 -190 1.2432766e-38
2610.5203 1734.7688 -190 1.8453643e-39
2614.1804 1721.1084 -190 1.0240241e-38
2631.501 1711.1084 -190 1.0981769e-38
2643.8215 1692.4481 -190 1.1528471e-38
2647.4817 1678.788 -190 1.2267459e-38
2743.1997 2004.5762 -240 1.2639498e-38
2782.219 2132.1594 -270 1.310012e-38
2808.5588 2197.7812 -280 1.4206462e-38
2833.5588 2241.0825 -290 1.4941868e-38
2854.5396 2217.4224 -290 1.3928098e-38
2871.8601 2207.4224 -290 1.5033009e-38
2884.1807 2188.762 -290 1.5402519e-38
2909.1807 2232.0632 -300 1.4578156e-38
2926.501 2222.0632 -300 1.5774875e-38
2926.1421 2141.4414 -280 1.5591218e-38
2908.1035 1990.198 -260 1.6141144e-38
2909.0845 1931.8967 -250 1.5958927e-38
2921.4048 1913.2363 -250 1.6236586e-38
2935.0649 1916.8967 -250 1.5588715e-38
2947.3855 1898.2363 -250 1.6423844e-38
2964.7061 1888.2363 -250 1.5682344e-38
2982.0266 1878.2363 -250 1.6609309e-38
2995.6868 1881.8967 -250 1.6143674e-38
3019.3472 1902.8774 -250 1.6142598e-38
3030.3279 1861.8967 -250 1.6142598e-38
3047.6484 1851.8967 -250 1.5869244e-38
3056.3086 1846.8967 -250 1.5033716e-38
3083.6292 1854.217 -250 1.4204326e-38
3087.2893 1840.5569 -250 1.3651862e-38
3104.6099 1830.5569 -250 1.3558234e-38
3158.27 1903.4993 -270 1.2269268e-38
3186.9304 1933.1401 -270 1.1438788e-38
3189.251 1897.1594 -270 1.1069633e-38
3206.5713 1887.1594 -270 1.0239871e-38
3223.8918 1877.1594 -270 9.8700009e-39
3241.2124 1867.1594 -270 9.5912406e-39
3244.8726 1853.499 -270 9.039157e-39
3245.8535 1795.1978 -260 9.0373395e-39
3263.1738 1785.1978 -260 8.577439e-39
3270.4944 1757.8774 -250 8.483814e-39
3274.1548 1744.217 -250 8.2990598e-39
3301.4751 1751.5376 -260 8.1146672e-39
3318.7957 1741.5376 -260 8.3923345e-39
3337.4561 1753.8582 -260 7.7451714e-39
3349.7764 1735.1978 -260 6.2750818e-39
3367.0969 1725.1978 -260 4.2478485e-39
3379.4175 1706.5376 -260 4.336433e-39
3391.7378 1687.8773 -250 2.1212324e-39
3405.3982 1691.5375 -260 8.8363415e-39
3417.7188 1672.8773 -260 4.4178316e-39
3445.0391 1680.1978 -260 1.8442811e-39
3482.3599 1704.8387 -270 1.3840233e-39
3509.6802 1712.1593 -270 1.291113e-39
3498.3403 1672.5183 -260 1.8442825e-39
3512.0007 1676.1785 -260 5.6177873e-39
3539.3213 1683.499 -270 3.1324822e-39
3556.6416 1673.499 -270 4.7894728e-39
3545.302 1633.858 -260 2.1190646e-39
3562.6226 1623.858 -260 1.5673327e-39
3609.9429 1665.8195 -270 1.1989117e-39
3612.2637 1629.8387 -270 1.3829429e-39
3639.584 1637.1592 -270 1.3822254e-39
3666.9045 1644.4797 -270 1.9339544e-39
3704.2251 1669.1207 -280 2.0254312e-39
3701.5454 1624.4797 -270 1.2907458e-39
3723.8662 1623.14 -280 1.3825827e-39
3717.5264 1592.1592 -270 1.2907472e-39
3729.8467 1573.4989 -270 1.2907472e-39
3728.5071 1551.1785 -260 2.3978193e-39
3735.8276 1523.8579 -260 1.1981943e-39
3729.4878 1492.8772 -250 1.3818639e-39
3728.1479 1470.5566 -250 1.3822212e-39
3730.4685 1434.5759 -250 1.2893081e-39
3767.7891 1459.2169 -250 1.1974712e-39
3813.7698 1478.8579 -260 1.105277e-39
3874.7505 1524.4796 -270 1.0134401e-39
3940.7314 1578.7616 -290 1.0134373e-39
3943.0518 1542.7809 -280 1.658085e-39
3946.7122 1529.1206 -280 1.3829373e-39
3940.3723 1498.1399 -280 1.4744112e-39
3957.6929 1488.1399 -270 1.382217e-39
3951.353 1457.1591 -270 1.4744112e-39
3945.0132 1426.1783 -260 1.5662467e-39
3824.0327 1276.6335 -230 1.2900214e-39
3822.6929 1254.3131 -220 1.1978243e-39
3830.0132 1226.9926 -220 8.290432e-40
3838.6736 1221.9926 -220 8.2976347e-40
3842.3337 1208.3323 -220 9.208815e-40
3835.9941 1177.3516 -210 9.2123883e-40
3853.3145 1167.3516 -210 5.5353812e-40
3856.9746 1153.6913 -210 5.5317378e-40
3666.353 963.52478 -160 1.1052714e-39
3670.0132 949.8645 -160 7.3684757e-40
3692.3337 948.52478 -160 9.2124024e-40
3700.9939 943.52478 -160 7.3649024e-40
3718.3145 933.52466 -160 6.4537081e-40
3726.9746 928.52466 -160 6.4429461e-40
3735.6348 923.52466 -160 8.301208e-40
3757.9556 922.18494 -170 9.219619e-40
3761.6157 908.52466 -160 6.4501348e-40
3802.5964 919.50549 -170 8.2904461e-40
3877.2375 968.78748 -180 5.5281645e-40
4016.5195 1050.031 -210 5.5281785e-40
4030.1797 1053.6912 -210 6.4465194e-40
3840.8977 885.84521 -170 6.4501208e-40
4051.1606 1030.0309 -210 6.4465194e-40
4105.8018 1044.672 -220 5.5317518e-40
3795.8977 807.90295 -150 6.4500787e-40
3804.5581 802.90295 -150 1.0137946e-39
4042.1414 954.40918 -200 7.3720911e-40
4106.7822 986.37073 -210 6.4501208e-40
4030.8015 914.76819 -190 6.4465054e-40
4090.4426 938.06946 -200 5.5281645e-40
4075.4424 912.08862 -190 5.5245631e-40
4092.7632 902.08862 -190 4.6062082e-40
4120.0835 909.40918 -200 4.6062082e-40
4118.7437 887.08862 -190 5.5245631e-40
4127.4043 882.08862 -190 4.6062082e-40
4219.3657 921.37061 -210 5.5245631e-40
4185.7051 883.06934 -200 5.5281365e-40
2294.2766 1467.0189 -130 1.1971055e-39
2310.2573 1434.6984 -120 1.1971069e-39
2313.9175 1421.0381 -120 1.1971097e-39
2324.8982 1380.0574 -120 1.2893011e-39
2333.5586 1375.0574 -120 1.2893039e-39
2342.2188 1370.0574 -120 1.289664e-39
2357.2188 1396.0381 -120 1.3818583e-39
2365.8792 1391.0381 -120 2.9498874e-39
2374.5393 1386.0381 -120 1.5655292e-39
2388.1995 1389.6984 -130 1.4736937e-39
2393.1995 1398.3586 -130 1.5666152e-39
2406.8599 1402.0188 -130 1.1063532e-39
2420.52 1405.6791 -130 1.2911046e-39
2425.52 1414.3394 -130 2.3052481e-39
2439.1804 1417.9996 -140 1.5673313e-39
2447.8406 1412.9996 -140 1.6609633e-39
2461.5007 1416.6598 -140 2.121217e-39
2473.8213 1397.9996 -130 2.4896379e-39
2477.4817 1384.3394 -130 2.0308318e-39
2487.4817 1401.6598 -140 2.8577072e-39
2601.7637 1439.6021 -150 1.17143e-38
2731.8601 1964.9353 -260 1.2821717e-38
2764.5396 2061.5378 -270 1.3097243e-38
2784.5396 2096.1787 -280 1.2727729e-38
2808.1997 2117.1594 -290 1.401236e-38
2820.5203 2098.4993 -290 1.3651841e-38
2847.8408 2105.8198 -290 1.3376002e-38
2872.8408 2149.1211 -300 1.3840929e-38
2896.501 2170.1018 -300 1.4297259e-38
2903.8215 2142.7812 -300 1.3834098e-38
2895.7832 2008.8582 -280 1.5309592e-38
2898.1035 1972.8774 -270 1.5313907e-38
2907.7446 1909.5762 -260 1.5401785e-38
2911.4048 1895.916 -260 1.4667474e-38
2933.7253 1894.5762 -260 1.5127708e-38
2946.0459 1875.916 -260 1.4483078e-38
2963.3662 1865.916 -260 1.4305867e-38
2972.0266 1860.916 -260 1.5677294e-38
2999.3472 1868.2363 -260 1.5037702e-38
3023.0073 1889.2173 -270 1.5038732e-38
3030.3279 1861.8967 -270 1.5496517e-38
3047.6484 1851.8967 -270 1.4299037e-38
3051.3086 1838.2363 -260 1.4302264e-38
3078.6292 1845.5569 -270 1.4482347e-38
3090.9497 1826.8967 -270 1.4205739e-38
3083.27 1773.5955 -260 1.3746923e-38
3116.9304 1811.8967 -270 1.2732056e-38
3155.5906 1858.8582 -280 1.2086331e-38
3172.9111 1848.8582 -280 1.2265672e-38
3195.2317 1847.5183 -280 1.2452947e-38
3198.8918 1833.8582 -280 1.0795201e-38
3211.2124 1815.1978 -280 1.0978882e-38
3225.8535 1760.5569 -270 1.0790162e-38
3228.1738 1724.5762 -260 9.9632657e-39
3235.4944 1697.2556 -260 9.4072263e-39
3247.8149 1678.5953 -260 9.4086528e-39
3270.1353 1677.2555 -260 9.039157e-39
3273.7957 1663.5953 -260 8.9466083e-39
3326.1162 1714.217 -270 8.6710878e-39
3339.7764 1717.8772 -270 8.9465858e-39
3347.0969 1690.5568 -270 8.6696556e-39
3359.4175 1671.8965 -270 8.4856385e-39
3371.7378 1653.2363 -260 2.4932939e-39
3390.3982 1665.5568 -270 2.2127049e-39
3407.7188 1655.5568 -270 2.0286738e-39
3430.0391 1654.217 -270 1.4762231e-39
3467.3599 1678.858 -280 1.383303e-39
3486.02 1691.1785 -280 1.1996362e-39
3493.3403 1663.858 -280 1.5676971e-39
3497.0007 1650.1978 -280 2.4878443e-39
3499.3213 1614.217 -270 8.5654929e-39
3536.6416 1638.858 -280 3.5009046e-39
3525.302 1599.217 -270 1.9361152e-39
3547.6226 1597.8772 -270 1.566974e-39
3584.9429 1622.5182 -280 1.198553e-39
3607.2637 1621.1785 -280 1.2911046e-39
3629.584 1619.8387 -280 1.1992691e-39
3510.9238 1434.3132 -240 2.2119945e-39
3684.2251 1634.4797 -290 1.2903857e-39
3677.8853 1603.4989 -280 1.1985516e-39
3710.2058 1619.4797 -290 1.106356e-39
3707.5264 1574.8387 -280 1.1981915e-39
3711.1865 1561.1785 -280 1.5669726e-39
3713.5071 1525.1976 -280 1.3843778e-39
3712.1672 1502.8772 -270 1.2900256e-39
3700.8276 1463.2362 -260 1.1059958e-39
3689.4878 1423.5951 -260 1.2896668e-39
3696.8081 1396.2747 -250 1.1971111e-39
3719.1289 1394.9349 -250 1.1978285e-39
3727.7891 1389.9348 -250 1.1052728e-39
3836.0903 1477.5182 -280 1.0130785e-39
3930.7314 1561.4412 -300 1.2903843e-39
3929.3916 1539.1206 -300 1.4744126e-39
3918.0518 1499.4796 -290 1.6584451e-39
3925.3723 1472.1592 -290 1.6591654e-39
3942.6929 1462.1591 -290 1.5662467e-39
3946.353 1448.4989 -290 1.5673271e-39
3935.0132 1408.8578 -280 1.3818568e-39
3819.0325 1267.9733 -240 1.3818583e-39
3822.6929 1254.3131 -240 1.0137932e-39
3835.0132 1235.6528 -240 6.4537221e-40
3838.6736 1221.9926 -240 7.3720631e-40
3842.3337 1208.3323 -240 8.2940334e-40
3835.9941 1177.3516 -230 8.2940334e-40
3863.3145 1184.672 -230 7.3720911e-40
3856.9746 1153.6913 -230 8.2940474e-40
3642.6926 942.54395 -170 8.2904601e-40
3665.0132 941.20422 -170 7.3720631e-40
3673.6733 936.20422 -170 8.2868727e-40
3690.9939 926.20422 -170 5.5281785e-40
3704.6543 929.8645 -170 6.4501348e-40
3721.9746 919.8645 -180 6.4501208e-40
3730.6348 914.8645 -180 8.2904461e-40
3747.9556 904.8645 -180 1.1981859e-39
3756.6157 899.8645 -180 5.5281925e-40
3788.936 915.84521 -180 9.208773e-40
3872.2375 960.1272 -200 6.4465194e-40
3880.8977 955.1272 -200 6.4501208e-40
3945.5388 987.08875 -210 4.6098235e-40
3901.8784 931.46692 -200 6.4501348e-40
3971.5195 972.08875 -210 6.4465335e-40
4049.8208 1007.7104 -220 6.4465054e-40
3800.8977 816.56311 -170 5.5281785e-40
3836.8784 818.88367 -170 1.0134345e-39
4018.481 933.42847 -210 7.3684898e-40
4040.8015 932.08862 -210 6.4536941e-40
4007.1411 893.78735 -200 7.3648464e-40
4085.4426 929.40918 -210 5.5245491e-40
4075.4424 912.08862 -210 4.6062082e-40
4060.4424 886.10791 -200 6.4429181e-40
2299.6355 1556.3009 -160 1.0145149e-39
2301.5969 1439.6984 -140 1.1971083e-39
