# .PCD v0.7 - Point Cloud Data file format
VERSION 0.7
FIELDS x y z rgb
SIZE 4 4 4 4
TYPE F F F F
COUNT 1 1 1 1
WIDTH 1263
HEIGHT 1
VIEWPOINT 0 0 0 1 0 0 0
POINTS 1263
DATA ascii
3792.9814 862.95911 620 3.4105082e-39
3796.8796 849.36475 610 3.5016263e-39
3800.7778 835.77051 610 3.4105082e-39
3804.6758 822.17615 610 3.686728e-39
3804.6758 822.17615 610 1.1078185e-38
3808.5737 808.58191 600 8.8608278e-39
2486.1272 341.10461 290 2.0016191e-38
2499.7217 345.00275 290 2.1948682e-38
2504.5696 353.7489 290 2.1673176e-38
2519.114 379.98749 300 2.1856847e-38
2534.6082 428.56659 320 2.2224189e-38
2548.2026 432.46466 320 2.2591531e-38
2554.0007 463.55139 330 2.240786e-38
2567.595 467.44946 330 2.2316024e-38
2582.1392 493.68805 340 2.2316024e-38
3998.1094 1686.8053 840 1.567654e-38
4020.4497 1685.8552 850 1.558541e-38
4014.6519 1654.7686 840 1.5491781e-38
4027.2959 1636.3262 830 1.5215552e-38
4044.7886 1626.63 830 1.5677247e-38
4067.1289 1625.6799 840 1.5123358e-38
4079.7732 1607.2375 830 1.4479417e-38
4078.8232 1584.8971 830 1.2538998e-38
4101.1636 1583.9471 830 1.0968756e-38
4137.0986 1586.8951 840 3.2268498e-39
4140.9966 1573.3009 840 4.5161439e-39
4163.3369 1572.3508 840 4.4243028e-39
4199.272 1575.299 840 7.7433385e-39
4226.4604 1583.0952 850 6.4468684e-39
4257.5469 1577.2971 850 2.3041789e-39
4275.0396 1567.6008 850 2.0279437e-39
4283.7856 1562.7528 850 1.4754944e-39
4310.0244 1548.2085 850 1.4751329e-39
4318.7705 1543.3604 850 1.4754902e-39
4336.2627 1533.6642 850 1.6595227e-39
4353.7554 1523.968 850 6.1760184e-39
4394.5381 1535.6622 860 3.5027123e-39
3906.3877 1108.8025 680 3.5016249e-39
3900.5898 1077.7158 670 5.6232005e-39
3849.1606 1026.1887 650 5.6221243e-39
3848.2104 1003.8481 650 5.1607959e-39
3852.1086 990.25391 650 3.5023479e-39
3847.2607 981.50769 640 3.8696871e-39
3814.2739 942.62488 630 3.5941806e-39
3794.8813 907.64001 620 3.5016277e-39
3780.3372 881.40149 610 3.5023451e-39
3784.2354 867.80713 610 3.5938219e-39
3792.9814 862.95911 600 3.501985e-39
3796.8796 849.36475 600 3.5023437e-39
3800.7778 835.77051 600 3.686372e-39
3791.0815 818.27808 590 6.5652571e-39
3799.8276 813.42993 590 1.7328425e-38
3803.7258 799.83569 590 1.5211518e-38
2486.1272 341.10461 280 1.8815872e-38
2499.7217 345.00275 280 2.0844504e-38
2504.5696 353.7489 290 2.102961e-38
2504.5696 353.7489 290 2.1213639e-38
2514.2659 371.24133 290 2.1397669e-38
2523.9622 388.7337 300 2.1305834e-38
2533.6582 406.22607 300 2.1305834e-38
2548.2026 432.46466 310 2.1673176e-38
2554.0007 463.55139 320 2.1305834e-38
2567.595 467.44946 320 2.1489505e-38
2582.1392 493.68805 330 2.1948682e-38
2597.6335 542.26715 350 2.1856847e-38
2602.4817 551.01331 350 2.2040518e-38
2631.5703 603.49048 370 2.2499695e-38
3998.1094 1686.8053 820 1.5309177e-38
4020.4497 1685.8552 830 1.521626e-38
4014.6519 1654.7686 820 1.5033313e-38
4027.2959 1636.3262 820 1.5492481e-38
4044.7886 1626.63 820 1.5125152e-38
4067.1289 1625.6799 820 1.4110643e-38
4079.7732 1607.2375 820 1.4385782e-38
4078.8232 1584.8971 810 1.3366611e-38
4101.1636 1583.9471 810 1.0787252e-38
4137.0986 1586.8951 820 3.7785915e-39
4140.9966 1573.3009 820 4.6079738e-39
4163.3369 1572.3508 820 4.2409934e-39
4194.4238 1566.5527 820 7.8355355e-39
4226.4604 1583.0952 830 6.6387972e-39
4243.9531 1573.3989 830 5.4398925e-39
4266.2935 1572.449 830 5.2540607e-39
4278.9375 1554.0066 830 2.4892834e-39
4301.2783 1553.0565 830 1.660243e-39
4318.7705 1543.3604 830 1.9353922e-39
4336.2627 1533.6642 830 1.4754916e-39
4353.7554 1523.968 830 6.2682112e-39
4431.4229 1560.9508 850 3.8707675e-39
3887.9453 1096.1582 660 3.4097922e-39
3868.553 1061.1735 650 5.4377289e-39
3835.5664 1022.2905 640 5.7135969e-39
3834.6162 999.95007 630 5.806517e-39
3838.5144 986.35583 630 3.6867336e-39
3837.5645 964.01526 620 3.5938219e-39
3790.9834 921.23438 610 3.5934632e-39
3776.439 894.99573 600 3.5027039e-39
3780.3372 881.40149 590 3.5934604e-39
3784.2354 867.80713 590 3.501985e-39
3792.9814 862.95911 590 3.4101495e-39
3796.8796 849.36475 590 3.6860147e-39
3800.7778 835.77051 590 9.8907962e-39
3791.0815 818.27808 580 1.8712453e-38
3794.9795 804.68384 580 1.6687377e-38
3803.7258 799.83569 580 1.7419173e-38
2813.573 2251.9368 780 1.5862749e-38
2815.571 2193.6614 770 1.6233702e-38
2490.0254 327.51031 280 2.3509886e-38
2494.8735 336.25653 280 2.3509886e-38
2494.8735 336.25653 280 2.3509886e-38
2504.5696 353.7489 280 2.3509886e-38
2514.2659 371.24133 290 2.3509886e-38
2523.9622 388.7337 290 2.3509886e-38
2533.6582 406.22607 300 2.3509886e-38
2543.3545 423.71851 310 2.2867037e-38
2553.0508 441.21088 310 2.1673176e-38
2567.595 467.44946 320 2.1122163e-38
2582.1392 493.68805 330 2.057115e-38
2596.6836 519.92664 340 2.0479314e-38
2602.4817 551.01331 340 2.038712e-38
2621.874 585.99811 350 1.9836466e-38
4020.4497 1685.8552 810 1.521411e-38
4028.2461 1658.6666 800 1.4387231e-38
4032.144 1645.0724 800 1.5491419e-38
4044.7886 1626.63 800 1.4663081e-38
4067.1289 1625.6799 800 1.4479415e-38
4084.6213 1615.9838 800 1.4386497e-38
4078.8232 1584.8971 790 1.3552078e-38
4106.0117 1592.6932 800 1.0970562e-38
4137.0986 1586.8951 800 4.2388494e-39
4154.5908 1577.199 800 4.6086899e-39
4176.9316 1576.249 800 4.6083311e-39
4204.1201 1584.0452 810 7.6507827e-39
4240.0547 1586.9933 810 4.8852936e-39
4243.9531 1573.3989 810 5.3480472e-39
4261.4453 1563.7028 810 5.7168479e-39
4274.0894 1545.2604 810 3.9618925e-39
4296.4302 1544.3104 810 1.4751329e-39
4318.7705 1543.3604 810 1.7527946e-39
4336.2627 1533.6642 810 1.7509953e-39
4367.3496 1527.8661 820 6.0841773e-39
3878.249 1078.6659 640 3.501985e-39
3858.8569 1043.681 630 5.4370128e-39
3844.3125 1017.4425 620 5.5302874e-39
3839.4644 1008.6963 620 5.8983553e-39
3833.6663 977.60962 610 3.5016305e-39
3819.1221 951.37097 600 3.6856588e-39
3786.1353 912.48816 590 3.4105096e-39
3776.439 894.99573 580 3.5941764e-39
3775.4893 872.65527 580 3.5012647e-39
3784.2354 867.80713 580 3.4101495e-39
3792.9814 862.95911 580 3.8714808e-39
3796.8796 849.36475 580 1.568082e-38
3800.7778 835.77051 570 1.9543302e-38
3791.0815 818.27808 570 1.9354949e-38
3794.9795 804.68384 570 1.7328048e-38
3803.7258 799.83569 560 1.7236221e-38
2800.9287 2270.3792 770 1.5680505e-38
2814.5229 2274.2771 770 1.6509916e-38
2820.4192 2202.4077 750 1.7246412e-38
2490.0254 327.51031 270 1.8634712e-38
4436.7671 4107.6685 1410 1.4757475e-38
4462.0557 4070.7837 1410 1.4757108e-38
4497.9902 4073.7319 1410 1.4387248e-38
4581.4561 4141.8013 1440 1.4110302e-38
4020.4497 1685.8552 790 1.4294309e-38
4028.2461 1658.6666 780 1.4847479e-38
4032.144 1645.0724 780 1.4752052e-38
4049.6365 1635.3762 780 1.4385429e-38
4067.1289 1625.6799 780 1.4016283e-38
4084.6213 1615.9838 780 1.4015559e-38
4078.8232 1584.8971 770 1.3924445e-38
4101.1636 1583.9471 780 1.0972719e-38
4137.0986 1586.8951 780 4.5168712e-39
4140.9966 1573.3009 780 4.6994562e-39
4158.4893 1563.6047 780 4.3331862e-39
4194.4238 1566.5527 780 7.8351712e-39
4235.2065 1578.2471 790 4.6101486e-39
4239.1045 1564.6528 790 5.0700352e-39
4256.5972 1554.9565 790 6.3604097e-39
4260.4951 1541.3623 790 1.8435623e-39
4277.9873 1531.6661 790 1.3832988e-39
4313.9224 1534.6141 790 1.4754888e-39
4331.415 1524.918 790 1.5673271e-39
3855.9087 1079.6158 620 4.3314009e-39
3854.9587 1057.2754 620 3.5023465e-39
3845.2625 1039.783 610 4.6083199e-39
3830.7183 1013.5444 610 6.0813018e-39
3829.7681 991.20386 600 5.4380876e-39
3815.2239 964.96533 590 3.777853e-39
3800.6797 938.72668 590 3.5948953e-39
3786.1353 912.48816 580 3.6849385e-39
3776.439 894.99573 570 3.5941834e-39
3775.4893 872.65527 570 3.6860161e-39
3784.2354 867.80713 570 4.2424213e-39
3792.9814 862.95911 570 1.3447219e-38
3796.8796 849.36475 560 1.769325e-38
3787.1833 831.87244 560 1.7786506e-38
3791.0815 818.27808 550 1.8347955e-38
3786.2334 809.53186 550 1.7130013e-38
3790.1313 795.93762 550 9.2159322e-39
2801.8787 2292.7197 750 1.6050031e-38
2815.4729 2296.6177 760 1.6326261e-38
2825.2673 2211.1538 740 1.7705595e-38
2828.2153 2175.219 730 2.1389777e-38
4475.4541 4280.5942 1420 1.5401777e-38
4481.3501 4208.7251 1400 1.4941144e-38
4506.6387 4171.8398 1400 1.4665634e-38
4541.623 4152.4478 1400 1.4573431e-38
4591.1523 4159.2939 1400 1.4478363e-38
4616.4409 4122.4092 1400 1.3650752e-38
5550.3838 3558.9814 1390 1.5123699e-38
5529.0918 3479.3157 1370 1.4387927e-38
4025.2979 1694.6014 770 1.4108116e-38
4028.2461 1658.6666 770 1.4018793e-38
4036.9922 1653.8186 760 1.4108487e-38
4049.6365 1635.3762 760 1.4293569e-38
4067.1289 1625.6799 760 1.3740405e-38
4084.6213 1615.9838 760 1.3924805e-38
4073.9751 1576.1509 750 1.3464184e-38
4101.1636 1583.9471 760 1.1524092e-38
4137.0986 1586.8951 760 4.9785626e-39
4154.5908 1577.199 760 4.5161383e-39
4176.9316 1576.249 760 4.5164957e-39
3667.4885 1069.7235 580 7.2845155e-39
3694.6772 1077.5197 590 7.2816457e-39
3717.0176 1076.5697 590 6.1763757e-39
4233.3066 1533.566 760 4.8870915e-39
4185.7754 1468.4446 740 4.614452e-39
4208.1162 1467.4946 750 4.7934413e-39
4309.0742 1525.8679 770 1.6598885e-39
4331.415 1524.918 770 1.4758503e-39
3838.4163 1089.312 610 4.8874208e-39
3837.4663 1066.9716 610 5.2522726e-39
3836.5164 1044.6311 600 3.5027067e-39
3826.8201 1027.1387 600 3.1324864e-39
3825.8701 1004.7982 590 5.438089e-39
3811.3257 978.55957 580 5.6221201e-39
3796.7815 952.32104 570 5.2533474e-39
3800.6797 938.72668 570 3.5941778e-39
3781.2871 903.74194 560 3.685656e-39
3776.439 894.99573 560 3.8707647e-39
3775.4893 872.65527 560 1.217123e-38
3784.2354 867.80713 550 1.2628961e-38
3788.1333 854.21289 550 1.6407172e-38
3796.8796 849.36475 550 1.5020293e-38
3787.1833 831.87244 550 1.5301183e-38
3777.4873 814.38 540 1.677237e-38
3781.3853 800.78564 540 1.2718642e-38
3790.1313 795.93762 540 1.2995212e-38
2265.5164 5574.1851 1390 2.3509886e-38
2807.6768 2323.8064 740 1.7623436e-38
2825.1692 2314.1101 740 1.660285e-38
2821.3691 2224.748 720 1.7342917e-38
2837.9116 2192.7114 720 2.3233662e-38
4486.1982 4217.4712 1370 1.521882e-38
4506.6387 4171.8398 1360 1.4573798e-38
4541.623 4152.4478 1360 1.4480878e-38
4586.3047 4150.5479 1360 1.3835872e-38
4601.8965 4096.1704 1350 1.3741519e-38
5612.3613 3753.2979 1400 1.5768366e-38
5614.3594 3695.0225 1390 1.5490686e-38
5611.5093 3628.001 1370 1.4569807e-38
5533.9395 3488.0618 1330 1.4293222e-38
5540.7861 3438.5327 1320 1.429178e-38
4025.2979 1694.6014 750 1.3465256e-38
4033.0942 1667.4128 750 1.4015194e-38
4036.9922 1653.8186 750 1.3740763e-38
4049.6365 1635.3762 740 1.3831886e-38
4067.1289 1625.6799 740 1.3463101e-38
4084.6213 1615.9838 740 1.3738969e-38
4073.9751 1576.1509 730 1.3189744e-38
4101.1636 1583.9471 740 1.1708846e-38
4141.9463 1595.6414 750 5.71432e-39
3659.6924 1096.9121 580 4.6086927e-39
3673.2866 1100.8102 580 4.7005254e-39
3677.1848 1087.2159 580 7.2837855e-39
3694.6772 1077.5197 580 7.7437014e-39
3708.2715 1081.4177 580 6.4558367e-39
3679.1829 1028.9406 560 6.4526067e-39
3869.4048 1186.4702 620 5.5302917e-39
4166.3833 1433.4598 710 6.9146512e-39
4290.6318 1513.2236 750 6.4547619e-39
3852.9604 1115.5507 600 5.3480612e-39
3828.7202 1071.8197 590 6.0852507e-39
3819.0239 1054.3273 590 6.3589691e-39
3822.9219 1040.733 580 3.87005e-39
3821.9722 1018.3925 580 3.409432e-39
3821.022 996.052 580 5.1636573e-39
3792.8833 965.91528 560 5.7150346e-39
3791.9333 943.57483 560 6.2689245e-39
3795.8315 929.98059 560 3.7789236e-39
3786.1353 912.48816 550 3.8704032e-39
3776.439 894.99573 550 7.6723053e-39
3780.3372 881.40149 540 1.4288833e-38
3784.2354 867.80713 540 1.5392654e-38
3788.1333 854.21289 540 1.6679814e-38
3783.2852 845.46667 540 1.5488082e-38
3782.3354 823.12622 530 1.5116804e-38
3777.4873 814.38 530 1.5296536e-38
3781.3853 800.78564 530 1.1143767e-38
3790.1313 795.93762 530 9.9491729e-39
2266.4663 5596.5254 1360 2.3509886e-38
2803.7788 2337.4006 730 1.2265679e-38
2821.271 2327.7043 730 1.7802812e-38
2825.2673 2211.1538 700 1.7988635e-38
2837.9116 2192.7114 700 2.3050708e-38
4491.0459 4226.2173 1330 1.5402484e-38
4511.4863 4180.5864 1320 1.4755687e-38
4541.623 4152.4478 1320 1.4386896e-38
4581.4561 4141.8013 1320 1.4205007e-38
4592.2002 4078.6782 1310 1.4110658e-38
4981.6851 4080.0205 1360 1.1249333e-38
5607.5127 3744.5515 1360 1.4938238e-38
5576.5244 3647.3933 1340 1.4751323e-38
5597.915 3624.103 1330 1.4200306e-38
5538.7876 3496.8081 1300 1.3554932e-38
5540.7861 3438.5327 1290 1.3095749e-38
4025.2979 1694.6014 730 1.3463096e-38
4033.0942 1667.4128 730 1.3278347e-38
4045.7383 1648.9705 730 1.3001034e-38
4054.4846 1644.1223 730 1.337054e-38
4067.1289 1625.6799 720 1.3186867e-38
4089.4692 1624.73 730 1.3738605e-38
4073.9751 1576.1509 710 1.3187941e-38
4101.1636 1583.9471 720 1.1618806e-38
3655.7944 1110.5063 570 5.8979966e-39
3664.5405 1105.6583 570 4.7016058e-39
3686.8809 1104.7083 570 4.7923609e-39
3690.7791 1091.114 570 6.2710685e-39
3694.6772 1077.5197 560 8.2043152e-39
3703.4233 1072.6716 560 7.4663929e-39
3679.1829 1028.9406 550 6.08778e-39
3757.8005 1088.2639 570 5.4395366e-39
3834.5181 1102.9064 590 7.0046959e-39
3810.2778 1059.1754 570 7.1890885e-39
3814.1758 1045.5811 570 6.6362805e-39
3818.0737 1031.9868 570 4.2391829e-39
3817.124 1009.6462 560 3.5016277e-39
3812.2759 1000.9001 560 5.8994231e-39
3788.0352 957.16907 550 5.8994203e-39
3783.1873 948.42297 550 6.6366252e-39
3782.2373 926.0824 540 3.962603e-39
3786.1353 912.48816 540 6.7546818e-39
3776.439 894.99573 530 1.8248956e-38
3780.3372 881.40149 530 1.5759281e-38
3784.2354 867.80713 530 1.5759642e-38
3788.1333 854.21289 530 1.5119306e-38
3783.2852 845.46667 520 1.7235147e-38
3773.5891 827.97424 520 1.5484173e-38
3777.4873 814.38 520 7.002891e-39
3781.3853 800.78564 510 5.8976196e-39
3790.1313 795.93762 510 6.2664063e-39
2303.4492 5518.8579 1310 2.3509886e-38
2814.4248 2377.2334 720 2.1565482e-38
2827.0691 2358.791 720 1.9089944e-38
2820.4192 2202.4077 680 1.9369037e-38
2834.0134 2206.3057 680 1.9652795e-38
4491.0459 4226.2173 1290 1.5309222e-38
4516.335 4189.3325 1290 1.4390855e-38
4546.4717 4161.1938 1280 1.4389764e-38
4581.4561 4141.8013 1280 1.4113176e-38
4587.3525 4069.9321 1270 1.4386162e-38
4976.8369 4071.2744 1310 1.0696878e-38
5011.8218 4051.8818 1310 1.0512841e-38
5038.0605 4037.3374 1310 9.9596812e-39
5572.5283 3763.9438 1320 1.5213024e-38
5612.3613 3753.2979 1320 1.4108457e-38
5581.3726 3656.1396 1300 1.3276913e-38
5597.915 3624.103 1290 1.2263826e-38
5557.2305 3509.4524 1270 1.198545e-38
4025.2979 1694.6014 720 1.1987964e-38
4033.0942 1667.4128 710 1.2079079e-38
4045.7383 1648.9705 710 1.2631527e-38
4054.4846 1644.1223 710 1.263261e-38
4067.1289 1625.6799 710 1.2818438e-38
4089.4692 1624.73 710 1.2632966e-38
4073.9751 1576.1509 700 1.3277257e-38
4106.0117 1592.6932 700 1.2262747e-38
3660.6426 1119.2526 550 5.8997888e-39
3669.3887 1114.4044 550 4.7005282e-39
3691.729 1113.4545 560 4.7930811e-39
3695.6272 1099.8602 550 5.6246257e-39
3699.5254 1086.2659 550 8.203239e-39
3698.5752 1063.9254 550 3.6853029e-39
3697.6252 1041.585 540 5.9865811e-39
3729.6621 1058.1273 550 7.1865648e-39
3738.4082 1053.2792 550 7.190515e-39
3825.772 1107.7544 570 7.4667502e-39
3829.6702 1094.1602 570 7.3741972e-39
3810.2778 1059.1754 560 7.0983278e-39
3809.3276 1036.8348 550 7.3738343e-39
3804.4795 1028.0887 550 4.2391857e-39
3798.6816 997.00195 550 3.6852987e-39
3784.1372 970.76343 540 5.162207e-39
3774.4409 953.271 530 6.1767274e-39
3773.491 930.93054 530 7.0050434e-39
3782.2373 926.0824 530 6.1943193e-39
3781.2871 903.74194 520 1.5582466e-38
3776.439 894.99573 520 1.5296891e-38
3780.3372 881.40149 520 1.5759997e-38
3784.2354 867.80713 520 1.5576329e-38
3779.3872 859.06091 510 1.6035151e-38
3778.437 836.72046 510 1.5761093e-38
3768.741 819.22803 510 8.6588278e-39
3772.6392 805.63379 500 5.5288399e-39
3781.3853 800.78564 500 8.4830405e-39
3790.1313 795.93762 500 1.0231872e-38
2260.6685 5565.439 1270 2.3509886e-38
2849.3115 2460.7974 720 1.7897158e-38
2837.9116 2192.7114 660 1.9928301e-38
2897.0388 2320.0063 700 2.3509886e-38
4495.8945 4234.9634 1260 1.521954e-38
4521.1826 4198.0786 1250 1.4573455e-38
4551.3193 4169.9399 1250 1.4574151e-38
4581.4561 4141.8013 1250 1.411282e-38
4582.5044 4061.1855 1230 1.3651485e-38
4916.5635 4127.5513 1280 1.0047212e-38
4971.9888 4062.5278 1270 9.4950905e-39
4983.6831 4021.7451 1270 9.5901686e-39
5018.668 4002.3525 1270 1.0329512e-38
5068.1973 4009.1987 1270 1.0052217e-38
5108.0298 3998.5527 1280 9.3150152e-39
5138.1665 3970.4141 1270 1.0143338e-38
5572.5283 3763.9438 1280 1.4199942e-38
5586.2207 3664.8857 1260 1.1709219e-38
5611.5093 3628.001 1260 1.0693977e-38
5566.9263 3526.9448 1230 1.0786897e-38
4049.5386 1738.3324 710 1.1065275e-38
4025.2979 1694.6014 700 1.1526254e-38
4033.0942 1667.4128 690 1.1893238e-38
4045.7383 1648.9705 690 1.1708853e-38
4054.4846 1644.1223 690 1.1802487e-38
4067.1289 1625.6799 690 1.2356375e-38
4089.4692 1624.73 690 1.2445697e-38
4073.9751 1576.1509 680 1.2171631e-38
3661.5923 1141.593 550 1.2080154e-38
3665.4905 1127.9988 540 6.0831053e-39
3682.9829 1118.3026 540 4.7934427e-39
3691.729 1113.4545 540 4.7923665e-39
3695.6272 1099.8602 540 4.7008855e-39
3699.5254 1086.2659 540 7.8337447e-39
3698.5752 1063.9254 530 3.1306885e-39
3679.1829 1028.9406 530 4.3295863e-39
3729.6621 1058.1273 540 5.0700254e-39
3733.5601 1044.533 530 5.7157507e-39
3784.0391 1073.7197 540 7.7404602e-39
3824.822 1085.4139 550 8.2947088e-39
3805.4297 1050.4292 540 8.3883366e-39
3790.8853 1024.1906 540 8.9407901e-39
3771.4929 989.20581 530 5.1593595e-39
3756.9487 962.96729 520 3.5016277e-39
3747.2524 945.47485 520 3.5938163e-39
3755.9985 940.62671 510 6.6351861e-39
3759.8967 927.03247 510 7.1894346e-39
3777.3892 917.33618 510 1.6406117e-38
3772.541 908.59009 510 1.7795573e-38
3771.5911 886.24951 510 8.6624221e-39
3775.4893 872.65527 500 1.3177825e-38
3770.6411 863.90906 500 1.5665288e-38
3774.5391 850.31482 500 1.6964285e-38
3764.8428 832.82239 500 1.576362e-38
3768.741 819.22803 490 6.1742163e-39
3772.6392 805.63379 490 8.2993639e-39
3781.3853 800.78564 490 1.1798836e-38
3790.1313 795.93762 490 1.1703768e-38
2900.8389 2409.3682 690 2.3509886e-38
2903.7869 2373.4333 690 2.3509886e-38
4495.8945 4234.9634 1220 1.5312102e-38
4521.1826 4198.0786 1210 1.5311012e-38
4551.3193 4169.9399 1210 1.4391564e-38
4581.4561 4141.8013 1210 1.689773e-38
4577.6562 4052.4395 1190 1.1706e-38
4623.2871 4072.8799 1200 1.2630113e-38
4648.5757 4035.9951 1190 1.2815953e-38
4882.627 4066.3281 1230 5.0729303e-39
4956.3965 4116.9053 1240 5.1662175e-39
4976.8369 4071.2744 1240 5.1647784e-39
4978.835 4012.999 1230 4.9811046e-39
5018.668 4002.3525 1230 5.9030455e-39
5053.6528 3982.9604 1230 1.0971653e-38
5108.0298 3998.5527 1240 4.7959734e-39
5109.0781 3917.937 1220 1.0600355e-38
5201.29 3981.1582 1240 1.0230811e-38
5267.3613 3955.9678 1240 1.0416313e-38
5572.5283 3763.9438 1240 6.2602953e-39
5586.2207 3664.8857 1220 9.6798237e-39
5626.0537 3654.2395 1220 9.4057535e-39
5571.7744 3535.6909 1200 1.032699e-38
4035.9441 1734.4343 690 1.0603582e-38
4025.2979 1694.6014 680 1.0602865e-38
4033.0942 1667.4128 670 1.0879805e-38
4050.5864 1657.7167 670 1.087945e-38
4054.4846 1644.1223 670 1.0880878e-38
4067.1289 1625.6799 670 1.1431182e-38
4089.4692 1624.73 670 1.1708838e-38
4073.9751 1576.1509 660 1.1894315e-38
3661.5923 1141.593 530 1.2447873e-38
3665.4905 1127.9988 530 6.083827e-39
3682.9829 1118.3026 530 4.7005282e-39
3696.5771 1122.2007 530 4.7005268e-39
3700.4751 1108.6063 530 4.4239413e-39
3704.3735 1095.0121 530 7.926655e-39
3717.0176 1076.5697 530 2.1201394e-39
3720.9158 1062.9753 520 1.9371942e-39
3752.9524 1079.5178 530 5.3488109e-39
3761.6987 1074.6697 530 3.9665869e-39
3788.8872 1082.4658 530 3.504164e-39
3787.9373 1060.1254 530 3.5041556e-39
3721.9639 982.35962 510 3.6878224e-39
3712.2676 964.86719 500 4.5146992e-39
3716.1658 951.27295 500 5.251558e-39
3720.064 937.67859 500 3.8700486e-39
3723.9619 924.08435 500 3.3179511e-39
3746.3022 923.1344 500 6.5433492e-39
3755.0486 918.28625 500 9.3206807e-39
3763.7949 913.43811 500 1.511718e-38
3767.6929 899.84387 500 1.8351953e-38
3771.5911 886.24951 490 1.0414861e-38
3775.4893 872.65527 490 8.3868974e-39
3770.6411 863.90906 490 1.2169431e-38
3769.6909 841.5686 490 1.4287037e-38
3759.9946 824.07617 480 1.0223275e-38
3763.8931 810.48193 480 5.6199649e-39
3772.6392 805.63379 480 1.1891026e-38
3781.3853 800.78564 480 1.1521901e-38
3790.1313 795.93762 480 1.2165106e-38
2757.688 1779.8384 540 1.7257897e-38
2867.9502 2267.5291 650 2.3509886e-38
2897.0388 2320.0063 660 2.3509886e-38
4495.8945 4234.9634 1180 1.5220276e-38
4521.1826 4198.0786 1170 1.5126982e-38
4551.3193 4169.9399 1170 1.4851474e-38
4581.4561 4141.8013 1170 2.3509886e-38
4577.6562 4052.4395 1150 7.5622319e-39
4613.5908 4055.3877 1160 7.467874e-39
4737.9375 4032.1953 1170 7.7451742e-39
4849.6401 4027.4453 1180 7.2859841e-39
4927.3076 4064.4282 1190 7.1008754e-39
4929.3057 4006.1528 1180 7.0086783e-39
4944.8984 3951.7754 1170 6.6395371e-39
4979.8828 3932.3833 1170 6.5484177e-39
5001.2734 3909.0928 1170 1.0788331e-38
5059.5488 3911.0908 1180 1.051319e-38
5051.8506 3835.3232 1160 1.032772e-38
5158.6069 3924.7832 1190 9.4997512e-39
5212.9844 3940.3755 1200 6.4616058e-39
5243.1211 3912.2368 1200 4.7059834e-39
5282.9541 3901.5908 1200 8.6663696e-39
5582.2246 3781.4363 1200 9.2177679e-39
5617.209 3762.0439 1210 9.3117656e-39
5576.5244 3647.3933 1180 9.3128362e-39
5578.5225 3589.1182 1170 8.7578646e-39
5599.9131 3565.8276 1170 1.0235509e-38
4059.2346 1755.8248 670 1.0508875e-38
4025.2979 1694.6014 660 1.0418466e-38
4033.0942 1667.4128 650 1.0694339e-38
4045.7383 1648.9705 650 1.078689e-38
4054.4846 1644.1223 650 1.0786533e-38
4067.1289 1625.6799 650 1.0509946e-38
4089.4692 1624.73 650 1.0880165e-38
4073.9751 1576.1509 640 1.1339698e-38
3675.1865 1145.4912 520 1.2726975e-38
3683.9329 1140.6431 520 6.2689329e-39
3692.6792 1135.7949 520 4.7934427e-39
3715.0195 1134.845 520 4.7916462e-39
3718.9177 1121.2506 520 4.055163e-39
3717.9678 1098.9102 520 7.1901591e-39
3721.8657 1085.3159 510 7.0054161e-39
3744.2063 1084.3658 520 4.7041786e-39
3757.8005 1088.2639 520 3.2304694e-39
3780.1411 1087.314 520 2.6819732e-39
3802.4814 1086.364 520 1.9368397e-39
3741.3562 1017.3444 500 1.9361138e-39
3638.498 914.29004 470 1.9371928e-39
3652.0923 918.18811 470 2.7651486e-39
3669.5847 908.49194 470 2.7665878e-39
3683.1792 912.39001 480 3.0410138e-39
3705.5195 911.44006 480 4.0547944e-39
3727.8599 910.49011 480 4.0547902e-39
3750.2007 909.54004 480 6.9246733e-39
3758.9468 904.69189 480 1.9818445e-38
3767.6929 899.84387 480 1.354517e-38
3771.5911 886.24951 480 1.2447502e-38
3766.7429 877.50342 480 1.0874384e-38
3765.793 855.16284 480 7.7397372e-39
3769.6909 841.5686 470 8.5691433e-39
3759.9946 824.07617 470 6.5426373e-39
3763.8931 810.48193 470 5.5284812e-39
3772.6392 805.63379 470 1.2348428e-38
3781.3853 800.78564 470 1.1612291e-38
3785.2832 787.19141 460 1.1243503e-38
2747.042 1740.0055 520 1.7162833e-38
2851.5059 2196.6096 610 2.3509886e-38
2862.25 2133.4861 600 2.3509886e-38
2955.1179 2527.917 680 2.3509886e-38
4500.7422 4243.7095 1140 1.5679442e-38
4526.0312 4206.8247 1140 1.4943671e-38
4551.3193 4169.9399 1130 1.475785e-38
4586.3047 4150.5479 1130 2.3509886e-38
4582.5044 4061.1855 1120 7.7462588e-39
4618.4395 4064.1338 1120 7.4703866e-39
4849.6401 4027.4453 1140 6.1785617e-39
4884.625 4008.0527 1140 6.0860046e-39
4900.2173 3953.6758 1130 5.9938076e-39
4915.8096 3899.2983 1120 5.7175808e-39
4932.3521 3867.2617 1120 5.2558852e-39
4957.6406 3830.377 1110 1.0696862e-38
5007.1699 3837.2231 1120 1.0786891e-38
5018.8643 3796.4402 1110 1.0602504e-38
5144.0625 3898.5444 1140 8.5792425e-39
5203.2881 3922.8833 1150 8.2068488e-39
5233.4248 3894.7446 1150 9.309623e-39
5273.2578 3884.0981 1150 8.7564268e-39
5327.6348 3899.6909 1160 9.4943534e-39
5582.2246 3781.4363 1170 5.2630542e-39
5612.3613 3753.2979 1160 4.7005632e-39
5586.2207 3664.8857 1150 7.737226e-39
4020.4497 1685.8552 640 1.0141881e-38
4028.2461 1658.6666 630 1.0418461e-38
4036.9922 1653.8186 630 1.0786167e-38
4049.6365 1635.3762 630 1.0325553e-38
4067.1289 1625.6799 630 6.4586939e-39
4089.4692 1624.73 630 1.0786527e-38
4073.9751 1576.1509 620 1.0695765e-38
4142.8965 1617.9818 640 1.2727348e-38
3707.2234 1162.0336 510 6.1774603e-39
3720.8176 1165.9316 510 4.7001638e-39
3738.3101 1156.2355 510 4.6101276e-39
3742.208 1142.6411 510 4.0540826e-39
3746.1062 1129.0469 510 8.0177632e-39
3745.1562 1106.7064 510 5.9948852e-39
3753.9023 1101.8583 500 7.9644886e-39
3771.395 1092.1621 500 1.3476858e-38
3775.293 1078.5677 500 6.0911067e-39
3797.6333 1077.6178 510 3.3212315e-39
3629.752 919.13818 460 2.1205121e-39
3638.498 914.29004 460 1.3833002e-39
3660.8384 913.34009 460 1.4751315e-39
3669.5847 908.49194 460 1.7510037e-39
3683.1792 912.39001 460 2.3967276e-39
3705.5195 911.44006 470 2.3974479e-39
3727.8599 910.49011 470 3.9626058e-39
3736.6062 905.64197 470 7.201263e-39
3758.9468 904.69189 470 1.8532429e-38
3762.8447 891.09766 470 1.7419536e-38
3757.9966 882.35144 470 1.0045337e-38
3761.8948 868.7572 460 1.0422756e-38
3760.9448 846.41663 460 6.8181438e-39
3756.0967 837.67053 460 6.3589621e-39
3759.9946 824.07617 460 6.4507962e-39
3763.8931 810.48193 450 7.3802817e-39
3767.791 796.88757 450 1.1887806e-38
3776.5371 792.03955 450 1.1978917e-38
3785.2832 787.19141 450 1.1520463e-38
2304.688 2179.5767 540 2.3509886e-38
2321.1321 2250.4963 550 2.3509886e-38
2361.8169 2365.147 580 1.2266012e-38
2728.6975 1624.4049 480 1.8814078e-38
2855.4041 2183.0151 590 2.3509886e-38
2862.25 2133.4861 580 2.3509886e-38
2955.1179 2527.917 660 2.3509886e-38
4500.7422 4243.7095 1100 1.5129161e-38
4526.0312 4206.8247 1100 1.4944401e-38
4556.168 4178.686 1100 1.4755692e-38
4586.3047 4150.5479 1090 2.3509886e-38
4587.3525 4069.9321 1080 7.6555079e-39
4623.2871 4072.8799 1080 7.3774833e-39
4854.4883 4036.1914 1100 6.3629488e-39
4836.144 3920.5908 1080 6.2703944e-39
4861.4326 3883.7061 1070 6.0852829e-39
4873.127 3842.9231 1070 5.9930817e-39
4893.5674 3797.2922 1060 5.346999e-39
4914.958 3774.0017 1060 1.0787972e-38
4969.335 3789.594 1070 1.0787616e-38
5004.3198 3770.2017 1070 5.4392549e-39
5111.0762 3859.6616 1090 2.5822147e-39
5170.3013 3884.0005 1100 2.6744089e-39
5205.2861 3864.6079 1100 2.5825749e-39
5245.1191 3853.9617 1110 3.0421069e-39
5313.0908 3873.4521 1120 3.4090859e-39
5607.5127 3744.5515 1120 9.2191972e-39
5586.2207 3664.8857 1110 8.7585904e-39
4020.4497 1685.8552 620 1.0232992e-38
4028.2461 1658.6666 610 9.8667233e-39
4036.9922 1653.8186 610 9.9603552e-39
4049.6365 1635.3762 610 1.0325193e-38
4067.1289 1625.6799 610 5.5378222e-39
4084.6213 1615.9838 610 9.9592874e-39
4060.3809 1572.2528 600 1.0786164e-38
4124.4541 1605.3375 610 1.3004298e-38
3716.9194 1179.5259 500 6.8203144e-39
3739.2603 1178.5759 500 4.7008827e-39
3748.0063 1173.7278 500 4.5172145e-39
3765.4985 1164.0316 500 3.9626072e-39
3769.3967 1150.4374 500 7.6522093e-39
3786.8892 1140.7411 500 4.8914327e-39
3767.4966 1105.7563 490 1.5419752e-38
3757.8005 1088.2639 490 1.2456981e-38
3756.8506 1065.9235 490 5.9974607e-39
3774.3428 1056.2273 490 3.0442803e-39
3783.0891 1051.3792 480 2.0286766e-39
3638.498 914.29004 450 1.5673299e-39
3652.0923 918.18811 450 1.3829387e-39
3664.7368 899.74573 450 1.1059902e-39
3678.3311 903.64392 450 1.4751329e-39
3700.6714 902.69385 450 1.8446315e-39
3714.2656 906.59192 450 2.2126965e-39
3731.7583 896.89575 450 1.4027016e-38
3740.5044 892.04761 450 1.5024998e-38
3749.2505 887.19958 450 9.7698333e-39
3753.1484 873.60522 450 1.5205383e-38
3757.0469 860.01099 450 8.7531674e-39
3752.1987 851.26477 450 6.8199375e-39
3751.2485 828.92432 440 5.5288469e-39
3755.1467 815.32996 440 6.1749282e-39
3755.1467 815.32996 440 1.2075778e-38
3759.0449 801.73572 440 1.2626082e-38
3776.5371 792.03955 440 1.1152751e-38
3780.4353 778.44519 440 8.8442798e-39
2313.4341 2174.7288 520 2.3509886e-38
2316.2842 2241.7502 530 2.3509886e-38
2336.6265 2299.0754 550 2.3509886e-38
2344.3247 2374.843 560 9.6947209e-39
2361.8169 2365.147 560 1.1527734e-38
2376.3613 2391.3855 560 5.7190662e-39
2703.5071 1558.3335 460 1.9373701e-38
2728.6975 1624.4049 470 2.0197351e-38
2850.5559 2174.269 570 2.3509886e-38
2862.25 2133.4861 570 2.3509886e-38
2955.1179 2527.917 640 2.3509886e-38
4495.8945 4234.9634 1060 1.5772731e-38
4521.1826 4198.0786 1060 1.4944756e-38
4551.3193 4169.9399 1060 1.4758199e-38
4586.3047 4150.5479 1060 2.3509886e-38
4587.3525 4069.9321 1040 7.8399006e-39
4632.9834 4090.3726 1050 7.5622333e-39
4854.4883 4036.1914 1060 6.5459051e-39
5086.8354 3815.9307 1050 2.307067e-39
5146.0605 3840.2693 1060 2.4907394e-39
5185.8936 3829.623 1060 2.5825706e-39
5225.7266 3818.9768 1060 2.2141525e-39
5289.7998 3852.0618 1070 2.398178e-39
5372.3154 3897.7905 1090 2.6736859e-39
5589.0703 3731.9072 1080 2.4896505e-39
5571.6763 3638.6472 1060 8.9436964e-39
5055.5835 2975.7383 910 8.9422516e-39
5048.8354 2922.311 900 8.4830587e-39
5056.6318 2895.1226 890 1.0048596e-38
4020.4497 1685.8552 600 9.8663631e-39
4028.2461 1658.6666 590 1.0233712e-38
4036.9922 1653.8186 590 1.0140084e-38
4049.6365 1635.3762 590 1.0233351e-38
4067.1289 1625.6799 590 1.0234432e-38
4084.6213 1615.9838 590 1.0509933e-38
4055.5327 1563.5066 580 1.0511015e-38
4106.0117 1592.6932 590 1.3372717e-38
3716.9194 1179.5259 490 6.9121555e-39
3757.7026 1191.2202 490 4.4239427e-39
3761.6006 1177.626 490 4.424663e-39
3770.3467 1172.7778 490 4.0548014e-39
3787.8391 1163.0817 490 8.2028649e-39
3796.5854 1158.2335 490 7.2888217e-39
3777.1929 1123.2488 480 1.6055067e-38
3757.8005 1088.2639 480 1.0518389e-38
3752.0024 1057.1772 470 5.2588083e-39
3714.1675 1009.5482 460 2.767692e-39
3657.8906 949.2749 440 1.9357621e-39
3661.7886 935.68054 440 1.5673355e-39
3652.0923 918.18811 440 1.2911018e-39
3664.7368 899.74573 440 1.2907416e-39
3673.4829 894.89771 440 1.1063532e-39
3687.0771 898.79578 440 1.1996264e-39
3709.4175 897.8457 440 1.843914e-39
3731.7583 896.89575 440 2.1205023e-39
3740.5044 892.04761 440 1.2993432e-38
3749.2505 887.19958 440 1.1519747e-38
3753.1484 873.60522 440 8.4787343e-39
3743.4524 856.11292 440 9.305967e-39
3747.3506 842.51855 430 9.8656176e-39
3751.2485 828.92432 430 6.3611187e-39
3746.4004 820.1781 430 4.3321044e-39
3750.2986 806.58374 430 1.299558e-38
3759.0449 801.73572 430 1.1887806e-38
3762.9429 788.14142 430 1.1430406e-38
3771.689 783.29327 430 7.6500583e-39
2294.9917 2162.0845 500 2.3509886e-38
2305.6379 2201.9172 510 2.3509886e-38
2325.9802 2259.2424 520 2.3509886e-38
2336.6265 2299.0754 530 2.3509886e-38
2348.2227 2361.2488 540 8.2138889e-39
2361.8169 2365.147 540 7.0177714e-39
2380.2593 2377.7913 540 8.1237013e-39
2393.8538 2381.6892 550 8.2140921e-39
2704.457 1580.674 450 1.9558807e-38
2728.6975 1624.4049 460 2.3326215e-38
2840.8596 2156.7766 550 2.3509886e-38
2862.25 2133.4861 550 2.3509886e-38
2955.1179 2527.917 620 2.3509886e-38
4495.8945 4234.9634 1020 1.5405026e-38
4526.0312 4206.8247 1020 1.4762161e-38
4551.3193 4169.9399 1020 1.4116088e-38
4586.3047 4150.5479 1020 2.3509886e-38
4592.2002 4078.6782 1010 7.9320976e-39
4642.6797 4107.8647 1020 7.3789168e-39
3818.9932 2106.2302 630 5.1622476e-39
3870.4224 2157.7576 640 1.0512813e-38
3949.9897 2239.4214 660 1.0511738e-38
3952.938 2203.4866 650 9.4050543e-39
3988.8728 2206.4346 660 2.4910925e-39
4016.0615 2214.2307 660 7.3724246e-39
4019.0093 2178.2961 660 4.3400652e-39
5275.2559 3825.823 1030 4.4322342e-39
5362.6196 3880.2983 1040 2.7680479e-39
5589.0703 3731.9072 1040 2.3052565e-39
5576.5244 3647.3933 1030 8.8504161e-39
5027.4448 2945.6016 870 8.850063e-39
5043.9873 2913.5649 860 7.376707e-39
5070.2256 2899.0208 860 9.4972233e-39
4015.6016 1677.109 580 9.6801768e-39
4028.2461 1658.6666 580 9.4979421e-39
4032.144 1645.0724 570 9.9578357e-39
4049.6365 1635.3762 570 9.6823334e-39
4067.1289 1625.6799 570 9.867082e-39
4079.7732 1607.2375 570 1.0049687e-38
4055.5327 1563.5066 560 1.01426e-38
4106.0117 1592.6932 570 1.3376327e-38
4137.0986 1586.8951 570 7.0976272e-39
3790.6892 1230.1031 490 4.4250147e-39
3784.8911 1199.0164 480 4.6987317e-39
3788.7891 1185.4221 480 3.7789362e-39
3797.5354 1180.574 480 8.0195484e-39
3815.0278 1170.8778 480 8.0231442e-39
3814.0776 1148.5374 480 1.171798e-38
3771.395 1092.1621 460 7.2921652e-39
3691.8271 1010.4982 440 4.4283147e-39
3677.2827 984.25964 440 2.3067096e-39
3671.4849 953.17297 430 1.7528072e-39
3680.231 948.32483 430 1.5669712e-39
3665.6865 922.0863 430 1.3825799e-39
3669.5847 908.49194 420 1.1989061e-39
3673.4829 894.89771 420 1.290743e-39
3682.229 890.04956 420 1.0145149e-39
3704.5696 889.09961 430 1.3829387e-39
3718.1638 892.99768 430 2.0275864e-39
3726.9102 888.14954 430 2.3034502e-39
3744.4023 878.45337 430 9.7676599e-39
3753.1484 873.60522 430 9.2166637e-39
3748.3005 864.85901 420 7.1869235e-39
3747.3506 842.51855 420 8.7545939e-39
3737.6543 825.02625 420 7.2783961e-39
3741.5522 811.43188 420 6.6366168e-39
3750.2986 806.58374 420 1.2350568e-38
3754.1968 792.9895 410 1.0785773e-38
3762.9429 788.14142 410 1.086755e-38
3766.8408 774.54712 410 7.279838e-39
2295.9417 2184.4248 490 2.3509886e-38
2310.4861 2210.6633 500 2.3509886e-38
2321.1321 2250.4963 500 2.3509886e-38
2335.6765 2276.7349 510 2.3509886e-38
2351.1709 2325.314 520 7.0141812e-39
2365.7151 2351.5525 520 9.1332066e-39
2379.3093 2355.4507 520 1.2649979e-38
2392.9036 2359.3489 530 7.289996e-39
2714.1533 1598.1664 440 1.9559166e-38
2728.6975 1624.4049 440 2.3509886e-38
2849.606 2151.9285 530 2.3509886e-38
2862.25 2133.4861 530 2.3509886e-38
2955.1179 2527.917 600 2.3509886e-38
4515.1885 4372.9043 1010 1.5683779e-38
4495.8945 4234.9634 990 1.4946209e-38
4526.0312 4206.8247 980 1.4575982e-38
4556.168 4178.686 980 1.4390141e-38
4586.3047 4150.5479 980 2.3509886e-38
4597.0488 4087.4243 970 7.9303025e-39
4652.376 4125.3569 980 7.3782148e-39
4148.2715 3112.7966 790 7.1938067e-39
4159.9658 3072.0137 780 7.1927207e-39
3833.5374 2132.469 610 5.0704107e-39
3865.5742 2149.0112 620 1.0417742e-38
3916.0532 2178.198 630 1.0511029e-38
3933.5454 2168.5017 620 1.0418835e-38
3955.8862 2167.5518 630 8.3818836e-39
4006.3652 2196.7385 640 5.434866e-39
4028.7056 2195.7883 640 5.1571987e-39
4064.6404 2198.7366 640 2.5818518e-39
4062.7402 2154.0557 630 5.8976715e-39
5569.6782 3696.9226 990 2.2134252e-39
5553.2339 3626.0029 980 8.4812735e-39
5022.5967 2936.8555 830 8.8493469e-39
5043.9873 2913.5649 830 6.2693126e-39
5070.2256 2899.0208 830 8.9454872e-39
4015.6016 1677.109 560 9.6798195e-39
4028.2461 1658.6666 560 9.6801796e-39
4032.144 1645.0724 560 9.6812516e-39
4049.6365 1635.3762 560 9.6819789e-39
4067.1289 1625.6799 550 1.0048589e-38
4079.7732 1607.2375 550 1.0324464e-38
4050.6846 1554.7604 540 1.0142597e-38
4101.1636 1583.9471 550 1.4297211e-38
4123.5039 1582.9971 550 7.4653349e-39
4131.3003 1555.8085 550 4.3328219e-39
3817.8779 1237.8993 470 4.3321044e-39
3816.9277 1215.5588 470 4.6140891e-39
3820.8257 1201.9645 470 7.928443e-39
3824.7241 1188.3702 470 6.8213808e-39
3823.7739 1166.0297 460 7.6580751e-39
3822.824 1143.6892 460 3.9593968e-39
3677.2827 984.25964 430 2.3981836e-39
3681.1809 970.66528 420 1.9368439e-39
3685.0791 957.07104 420 1.568053e-39
3665.6865 922.0863 410 1.3829415e-39
3669.5847 908.49194 410 1.2911018e-39
3673.4829 894.89771 410 1.2907416e-39
3682.229 890.04956 410 1.2903815e-39
3690.9751 885.20142 410 1.1059888e-39
3713.3157 884.25146 410 1.4747727e-39
3722.062 879.40332 410 1.8442727e-39
3730.8081 874.5553 410 5.8993979e-39
3739.5542 869.70715 410 1.0596703e-38
3743.4524 856.11292 410 5.9912642e-39
3747.3506 842.51855 410 6.5419128e-39
3737.6543 825.02625 410 8.9404159e-39
3741.5522 811.43188 400 1.2176597e-38
3745.4507 797.83765 400 1.2903033e-38
3754.1968 792.9895 400 1.2994873e-38
3758.0947 779.3952 400 6.3611173e-39
3766.8408 774.54712 400 7.3713092e-39
2294.9917 2162.0845 470 2.3509886e-38
2308.5859 2165.9824 470 2.3509886e-38
2323.1304 2192.2209 480 2.3509886e-38
2337.6746 2218.4597 480 2.3509886e-38
2348.3208 2258.2925 490 6.7350384e-39
2361.915 2262.1907 490 5.8130513e-39
2381.3074 2297.1753 500 6.3651432e-39
2395.8518 2323.4141 500 5.4435457e-39
2406.498 2363.2468 510 4.8918068e-39
2719.9514 1629.2531 430 2.0020137e-38
2747.042 1740.0055 450 2.3509886e-38
2839.9097 2134.4363 510 2.3509886e-38
2862.25 2133.4861 510 2.3509886e-38
2955.1179 2527.917 580 2.3509886e-38
4440.3711 4402.9429 970 1.6608592e-38
4515.1885 4372.9043 970 1.5498315e-38
4495.8945 4234.9634 950 1.5129876e-38
4526.0312 4206.8247 940 1.4300109e-38
4556.168 4178.686 940 1.4390148e-38
4591.1523 4159.2939 940 2.3509886e-38
4601.8965 4096.1704 930 7.8395432e-39
4657.2236 4134.1035 940 7.7462574e-39
4162.8159 3139.0352 760 7.1023341e-39
4164.814 3080.76 750 6.7335474e-39
4191.0527 3066.2156 750 6.8232207e-39
4183.3545 2990.448 740 6.7310195e-39
4273.5684 3111.9446 770 6.5469869e-39
4265.8701 3036.177 750 6.4537067e-39
4253.3242 2951.6631 740 6.0856416e-39
4294.1069 2963.3574 750 5.8097722e-39
3833.5374 2132.469 590 4.9774948e-39
3865.5742 2149.0112 590 9.9578245e-39
3906.3569 2160.7056 600 1.0047914e-38
3923.8494 2151.0093 600 4.4225176e-39
3941.3418 2141.3132 600 2.9502672e-39
3968.5303 2149.1094 600 2.7655186e-39
3976.3267 2121.9207 600 2.0293913e-39
4002.5652 2107.3765 600 2.3041817e-39
3987.0708 2058.7974 590 6.2656917e-39
4009.4114 2057.8474 590 5.8007983e-39
5547.2397 3800.8289 970 2.6733173e-39
5582.2246 3781.4363 970 3.7850893e-39
5551.2358 3684.2781 950 2.6736929e-39
5009.0024 2932.9573 800 8.573832e-39
5030.3931 2909.6667 800 7.3753001e-39
5051.7832 2886.3762 800 9.3110355e-39
4010.7537 1668.3629 540 9.3121159e-39
4028.2461 1658.6666 540 9.8638492e-39
4032.144 1645.0724 540 9.5894231e-39
4049.6365 1635.3762 540 9.5897776e-39
4067.1289 1625.6799 540 9.8667247e-39
4079.7732 1607.2375 530 1.005003e-38
4055.5327 1563.5066 530 1.0692169e-38
4101.1636 1583.9471 530 1.4390133e-38
4118.6562 1574.2509 530 7.7422973e-39
4136.1484 1564.5547 530 3.9643995e-39
3836.3203 1250.5436 460 4.1477145e-39
3840.2183 1236.9493 460 6.7299082e-39
3844.1162 1223.355 460 8.2035922e-39
3848.0144 1209.7607 460 7.0050504e-39
3842.2163 1178.6741 450 2.3045572e-39
3677.2827 984.25964 410 2.7694927e-39
3681.1809 970.66528 410 1.9379271e-39
3685.0791 957.07104 410 1.7528044e-39
3670.5347 930.8324 400 1.4754944e-39
3669.5847 908.49194 400 1.2914591e-39
3664.7368 899.74573 400 1.1989061e-39
3682.229 890.04956 400 1.2903829e-39
3690.9751 885.20142 400 1.1063504e-39
3713.3157 884.25146 400 1.1070734e-39
3722.062 879.40332 400 1.4747713e-39
3730.8081 874.5553 400 1.6595227e-39
3739.5542 869.70715 400 8.8453434e-39
3757.0469 860.01099 400 9.4943114e-39
3742.5024 833.77234 400 5.5288455e-39
3732.8062 816.28003 390 5.7135913e-39
3736.7043 802.68567 390 7.7400875e-39
3745.4507 797.83765 390 1.2529574e-38
3740.6025 789.09143 390 7.556062e-39
3749.3486 784.24329 390 7.1883598e-39
3766.8408 774.54712 390 7.8376767e-39
2302.7878 2134.8958 450 1.1067126e-38
2306.686 2121.3015 450 9.4076102e-39
2325.1284 2133.9458 450 2.3483241e-38
2339.6726 2160.1843 460 1.5850846e-38
2347.3708 2235.9519 470 7.6526465e-39
2360.9651 2239.8501 470 1.1708883e-38
2380.3574 2274.835 480 8.7752477e-39
2394.9019 2301.0735 480 8.0225122e-39
2405.5481 2340.9062 490 6.2736609e-39
2427.8884 2339.9563 490 5.9038022e-39
2743.0457 1856.5559 450 1.8176611e-38
2731.5476 1691.4264 420 2.0020137e-38
2768.3342 1819.6711 450 1.5787812e-38
2829.2634 2094.6033 490 2.0479314e-38
2862.25 2133.4861 500 2.3509886e-38
2955.1179 2527.917 560 2.3509886e-38
4420.0283 4345.6177 920 1.4574917e-38
4505.4922 4355.4121 920 1.4017413e-38
4491.0459 4226.2173 910 1.42018e-38
4521.1826 4198.0786 900 1.3556419e-38
4551.3193 4169.9399 900 1.4568415e-38
4586.3047 4150.5479 900 2.3509886e-38
4601.8965 4096.1704 900 7.7491441e-39
4652.376 4125.3569 900 7.1963234e-39
4153.1196 3121.5427 730 7.0101357e-39
4155.1177 3063.2676 720 6.9175771e-39
4161.9639 3013.7385 720 6.9168429e-39
4159.1138 2946.717 700 6.6398986e-39
4186.3027 2954.5132 710 6.3618768e-39
4202.8447 2922.4766 700 5.9945292e-39
4196.0967 2869.0493 700 6.1781946e-39
4222.3354 2854.5051 700 5.8079828e-39
3830.5894 2168.4036 570 5.4406296e-39
3838.3855 2141.2151 570 4.8863796e-39
3860.7261 2140.2651 570 8.5755963e-39
3901.5088 2151.9595 580 3.7785957e-39
3914.1533 2133.5171 580 2.4889359e-39
3926.7974 2115.0747 570 2.0290353e-39
3944.2898 2105.3784 570 2.0283179e-39
3956.9341 2086.936 570 1.9364824e-39
3969.5786 2068.4937 570 3.5952666e-39
3972.5264 2032.5588 570 6.8159914e-39
3990.019 2022.8625 570 2.3063411e-39
4045.3462 2060.7954 580 2.6744005e-39
5514.2529 3761.9458 920 2.0293927e-39
5534.6934 3716.3149 920 2.2130623e-39
5001.2061 2960.146 770 5.5338608e-39
4994.458 2906.7188 760 8.6660291e-39
4997.4062 2870.7839 760 8.2979612e-39
5023.645 2856.2397 760 9.5876168e-39
4010.7537 1668.3629 520 9.5879812e-39
4028.2461 1658.6666 520 9.863845e-39
4032.144 1645.0724 520 9.7723724e-39
4049.6365 1635.3762 520 9.589063e-39
4071.9771 1634.4261 520 1.0048955e-38
4079.7732 1607.2375 520 9.9578413e-39
4055.5327 1563.5066 510 1.0234062e-38
4101.1636 1583.9471 510 1.4851845e-38
4118.6562 1574.2509 510 8.1110939e-39
4140.9966 1573.3009 510 3.5959715e-39
4140.0464 1550.9604 510 4.1469957e-39
3905.2417 1292.3745 460 6.8213878e-39
3862.5586 1235.9993 450 7.8358873e-39
3866.4568 1222.405 450 7.0972488e-39
3663.6885 980.36157 400 1.014875e-39
3672.4348 975.51343 400 3.0442761e-39
3681.1809 970.66528 400 2.2130637e-39
3685.0791 957.07104 400 1.8446497e-39
3684.1289 934.73059 390 1.5684145e-39
3674.4329 917.23816 390 1.3825827e-39
3659.8887 890.99963 390 1.2914633e-39
3682.229 890.04956 390 1.2903829e-39
3690.9751 885.20142 390 1.1063546e-39
3713.3157 884.25146 390 9.219605e-40
3722.062 879.40332 390 1.3825771e-39
3730.8081 874.5553 390 1.6591612e-39
3739.5542 869.70715 390 2.9488014e-39
3757.0469 860.01099 390 7.1865592e-39
3733.7563 838.62048 380 9.4014053e-39
3719.2119 812.38196 380 5.2522572e-39
3723.1099 798.7876 380 7.1033291e-39
3731.8562 793.93945 380 9.8591422e-39
3735.7544 780.34521 380 7.4660243e-39
3739.6523 766.75092 370 7.9284346e-39
3748.3984 761.90283 370 1.2713968e-38
2301.8379 2112.5552 430 8.3927324e-39
2310.584 2107.7073 430 8.1154225e-39
2324.1785 2111.6052 440 8.1222608e-39
2337.7727 2115.5034 440 1.0237333e-38
2352.3169 2141.7419 440 1.0516084e-38
2363.9131 2203.9153 450 1.3554913e-38
2375.5093 2266.0886 460 1.1893297e-38
2399.7498 2309.8196 470 9.0352068e-39
2406.498 2363.2468 470 5.9045098e-39
2424.9404 2375.8911 480 5.8119554e-39
2437.5847 2357.4487 480 6.0867445e-39
2747.8938 1865.3022 430 1.8728341e-38
2734.3977 1758.4479 420 2.0387479e-38
2775.0825 1873.0984 440 1.5972559e-38
2832.2114 2058.6685 470 2.1305834e-38
2862.25 2133.4861 480 2.3509886e-38
2955.1179 2527.917 540 2.3509886e-38
4444.269 4389.3486 890 1.2088161e-38
4505.4922 4355.4121 890 1.1162238e-38
4491.0459 4226.2173 870 1.0333904e-38
4521.1826 4198.0786 870 9.871831e-39
4551.3193 4169.9399 860 9.6860076e-39
4586.3047 4150.5479 860 2.3509886e-38
4601.8965 4096.1704 860 7.5643997e-39
4647.5278 4116.6108 870 7.4703992e-39
4130.877 3019.5366 680 7.0079805e-39
4132.8755 2961.2612 680 6.6406245e-39
4134.8735 2902.9861 670 6.1800065e-39
4152.3657 2893.2898 670 6.3611607e-39
4168.9082 2861.2532 670 6.1782058e-39
4171.8564 2825.3184 660 5.9019721e-39
4193.2471 2802.0278 660 5.4402806e-39
3864.5259 2229.627 560 4.9803731e-39
3852.9297 2167.4536 550 4.7945455e-39
3870.4224 2157.7576 550 7.749109e-39
3887.9146 2148.0613 550 2.2130707e-39
3909.3052 2124.7708 550 2.0297556e-39
3917.1013 2097.5823 550 2.2130679e-39
3924.8975 2070.3936 550 2.0293941e-39
3937.5417 2051.9512 540 2.1208694e-39
3955.0342 2042.2551 540 3.8707745e-39
3967.6785 2023.8125 540 5.4352192e-39
3985.1709 2014.1165 540 5.6307577e-39
4007.5112 2013.1665 540 4.4336775e-39
4885.7041 2875.5339 720 2.02975e-39
4968.2197 2921.2629 730 3.5041388e-39
4961.4717 2867.8359 720 8.8500588e-39
4969.2676 2840.6472 720 8.6663836e-39
5023.645 2856.2397 730 9.7698515e-39
3997.1592 1664.4647 500 9.5883357e-39
4014.6519 1654.7686 500 9.5897748e-39
4032.144 1645.0724 500 9.7734472e-39
4049.6365 1635.3762 500 9.8642037e-39
4067.1289 1625.6799 500 9.8642107e-39
4079.7732 1607.2375 500 1.0232262e-38
4060.3809 1572.2528 490 9.9578399e-39
4106.0117 1592.6932 500 1.5220266e-38
4118.6562 1574.2509 500 8.9397937e-39
4140.9966 1573.3009 500 3.4115872e-39
4163.3369 1572.3508 500 3.9626114e-39
4194.4238 1566.5527 500 7.0972586e-39
4203.1699 1561.7047 500 7.3749133e-39
3650.0942 976.46338 380 1.0137974e-39
3667.5867 966.76721 380 2.4910967e-39
3676.333 961.91919 380 2.491461e-39
3685.0791 957.07104 380 2.028678e-39
3684.1289 934.73059 380 1.568053e-39
3674.4329 917.23816 380 1.5673355e-39
3673.4829 894.89771 370 1.2911046e-39
3682.229 890.04956 370 1.290743e-39
3690.9751 885.20142 370 1.1985474e-39
3713.3157 884.25146 380 1.1981887e-39
3722.062 879.40332 380 1.198546e-39
3730.8081 874.5553 380 1.1989075e-39
3739.5542 869.70715 380 1.4747713e-39
3757.0469 860.01099 380 5.0671485e-39
3715.314 825.9762 370 6.6351847e-39
3714.3638 803.63574 370 8.9397041e-39
3718.262 790.04138 360 8.3876107e-39
3713.4138 781.29523 360 7.7404532e-39
3722.1602 776.44714 360 8.2936228e-39
3721.21 754.10663 360 9.8638128e-39
3729.9561 749.25854 360 9.6772775e-39
2293.0918 2117.4033 420 6.4584137e-39
2315.4321 2116.4534 420 8.2072412e-39
2329.0264 2120.3516 420 1.0147664e-38
2337.7727 2115.5034 420 1.0145507e-38
2356.2151 2128.1477 420 1.0236984e-38
2366.8613 2167.9805 430 1.0605046e-38
2379.4075 2252.4944 440 1.0238422e-38
2395.8518 2323.4141 450 8.6765052e-39
2412.2961 2394.3335 460 6.6431707e-39
2426.8403 2420.572 470 6.9175911e-39
2441.3848 2446.8108 470 5.904521e-39
2461.7271 2504.136 480 4.1546215e-39
2478.1714 2575.0557 490 3.6903952e-39
2741.0476 1914.8313 420 1.7898593e-38
2743.9956 1878.8965 420 1.9099271e-38
2745.9939 1820.6213 410 2.158134e-38
2779.9304 1881.8445 420 1.6527518e-38
2832.2114 2058.6685 450 2.1765011e-38
2862.25 2133.4861 460 2.3509886e-38
2955.1179 2527.917 520 2.3509886e-38
4300.7261 4171.644 810 1.3194886e-38
4505.4922 4355.4121 850 1.1070758e-38
4491.0459 4226.2173 830 1.0608691e-38
4516.335 4189.3325 830 1.0238818e-38
4551.3193 4169.9399 830 9.8711079e-39
4581.4561 4141.8013 820 2.3509886e-38
4601.8965 4096.1704 820 8.2076139e-39
4666.9199 4151.5957 830 7.6547876e-39
4121.1812 3002.0442 650 6.8253787e-39
4118.3311 2935.0227 640 6.639907e-39
4110.6328 2859.2551 630 6.6384623e-39
4108.7329 2814.574 630 6.1796421e-39
4126.2256 2804.8779 630 5.9930943e-39
4137.9194 2764.095 620 5.9930915e-39
4154.4619 2732.0583 620 5.8083345e-39
4147.7139 2678.6311 610 5.2551635e-39
3872.3223 2202.4385 540 4.6101542e-39
3880.1184 2175.2498 530 6.4572688e-39
3901.5088 2151.9595 530 2.581856e-39
3914.1533 2133.5171 530 2.1212324e-39
3917.1013 2097.5823 530 2.5814846e-39
3911.3032 2066.4956 520 6.0762754e-39
3923.9475 2048.0532 520 2.4896519e-39
3936.5918 2029.6108 520 4.5165013e-39
3949.2361 2011.1682 520 4.8834873e-39
3961.8804 1992.7258 520 6.6384231e-39
3992.967 1986.9277 520 8.4819909e-39
4793.4922 2812.3125 680 8.7607386e-39
4838.1729 2810.4126 680 8.6660277e-39
4921.6387 2878.4822 690 8.574188e-39
4938.1812 2846.4453 690 8.9411782e-39
4931.4326 2793.0183 680 9.0319347e-39
4990.6582 2817.3567 690 9.7712864e-39
3997.1592 1664.4647 480 9.7734444e-39
4014.6519 1654.7686 480 9.6812474e-39
4032.144 1645.0724 480 9.772727e-39
4049.6365 1635.3762 480 9.7723696e-39
4067.1289 1625.6799 480 9.7709291e-39
4079.7732 1607.2375 480 7.4567043e-39
4060.3809 1572.2528 470 2.9488266e-39
4106.0117 1592.6932 480 1.4944055e-38
4118.6562 1574.2509 480 9.3082287e-39
4154.5908 1577.199 480 3.1357178e-39
4176.9316 1576.249 480 3.9629659e-39
4204.1201 1584.0452 480 7.282003e-39
4211.916 1556.8566 480 6.7284691e-39
3650.0942 976.46338 370 1.1070748e-39
3653.9924 962.86914 370 2.1226505e-39
3681.1809 970.66528 370 2.5829364e-39
3698.6733 960.96912 370 1.5673313e-39
3693.8252 952.2229 370 1.7520841e-39
3674.4329 917.23816 370 1.7517198e-39
3664.7368 899.74573 360 1.4751385e-39
3682.229 890.04956 360 1.2911046e-39
3690.9751 885.20142 360 1.1981887e-39
3699.7214 880.35339 360 1.2900214e-39
3717.2139 870.65723 360 9.219577e-40
3725.96 865.80908 360 1.2911004e-39
3729.8582 852.21472 360 1.3829358e-39
3738.6045 847.3667 360 4.1476977e-39
3692.0234 804.58569 350 5.8954672e-39
3672.6309 769.60095 350 4.6987247e-39
3667.7827 760.85474 350 1.013716e-38
3671.6809 747.26044 340 7.4660117e-39
3680.4272 742.41235 340 7.6493296e-39
3689.1733 737.56421 340 1.2716124e-38
