# .PCD v0.7 - Point Cloud Data file format
VERSION 0.7
FIELDS x y z rgb
SIZE 4 4 4 4
TYPE F F F F
COUNT 1 1 1 1
WIDTH 1248
HEIGHT 1
VIEWPOINT 0 0 0 1 0 0 0
POINTS 1248
DATA ascii
3912.1689 1422.0819 10 4.1477229e-39
3957.7998 1442.5225 0 2.1194177e-39
3984.9885 1450.3186 0 1.1049098e-39
3988.8867 1436.7242 0 9.2159757e-40
3992.7847 1423.13 0 9.2123743e-40
3996.6829 1409.5358 0 6.4501208e-40
4005.4292 1404.6876 0 1.105986e-39
4014.1753 1399.8395 0 2.9466518e-39
4018.0732 1386.2452 0 2.6718684e-39
4026.8193 1381.3971 0 9.219563e-40
4054.0081 1389.1934 0 1.1056259e-39
4062.7544 1384.3452 0 9.2124024e-40
4076.3486 1388.2433 0 7.3648744e-40
4093.8408 1378.5471 0 7.3648604e-40
2637.7803 2505.7947 -30 1.1074406e-39
2643.5784 2536.8813 -30 1.1989159e-39
2658.1226 2563.1199 -40 1.3833058e-39
2664.7727 2719.5034 -50 1.1077993e-39
2676.3689 2781.6768 -60 1.3836673e-39
2690.9131 2807.9153 -60 1.5680642e-39
2700.6094 2825.4077 -60 9.3153319e-39
2722.95 2824.4578 -60 9.2340244e-39
2736.5442 2828.3557 -70 2.0387856e-39
2750.1384 2832.2539 -70 2.5840126e-39
2763.7327 2836.1521 -70 1.5691376e-39
2784.1733 2790.521 -60 1.6606172e-39
2796.8176 2772.0786 -60 1.7528114e-39
3283.5273 3691.3792 -170 3.9687561e-39
3303.968 3645.748 -170 3.9691204e-39
3304.0659 3542.792 -160 8.0149157e-39
3341.9009 3590.4209 -170 1.9797548e-38
3364.2412 3589.4709 -170 1.7872982e-38
3642.9734 3617.9038 -180 6.9637121e-39
3659.5159 3585.8672 -180 7.9288662e-39
3671.21 3545.0842 -180 3.8751522e-39
3692.6006 3521.7937 -180 5.7118425e-39
3713.991 3498.5032 -180 4.980757e-39
3725.6853 3457.7205 -170 3.7818579e-39
3733.4814 3430.5317 -170 3.4137957e-39
3754.8721 3407.2412 -170 3.3219588e-39
3786.9087 3423.7837 -170 3.1372074e-39
3798.603 3383.0007 -170 2.9535322e-39
3800.6011 3324.7256 -170 3.2275981e-39
3791.9531 3226.6174 -160 3.3194322e-39
3803.6472 3185.8345 -150 3.2272366e-39
3806.5952 3149.8997 -150 3.3179931e-39
3832.834 3135.3555 -150 2.8584471e-39
3850.3262 3125.6592 -150 2.6747775e-39
3892.0591 3159.6938 -160 2.5829406e-39
4025.906 3359.9065 -180 2.0308486e-39
4067.6389 3393.9412 -190 2.1226813e-39
4079.333 3353.1584 -180 2.1226813e-39
3877.8091 2824.5867 -120 2.2134364e-39
3726.666 2428.1577 -80 2.3081474e-39
3690.8296 2322.2534 -70 2.305988e-39
3703.4736 2303.811 -70 1.9372096e-39
3707.3718 2290.2168 -70 2.0293983e-39
3724.8643 2280.5205 -70 1.7538946e-39
3722.9644 2235.8396 -60 1.7531743e-39
3697.7737 2169.7681 -50 1.9372026e-39
3700.7217 2133.8335 -50 2.7655214e-39
3704.6199 2120.239 -50 3.0417565e-39
3708.5181 2106.6448 -50 1.9364838e-39
3707.5679 2084.3042 -50 2.3049062e-39
3701.77 2053.2175 -40 2.3974591e-39
3709.5662 2026.0291 -40 4.8788126e-39
3723.1604 2029.9271 -40 2.8569967e-39
3750.3489 2037.7233 -40 2.4889387e-39
3777.5376 2045.5195 -50 2.768394e-39
3786.2837 2040.6714 -50 5.0668136e-39
3798.928 2022.229 -50 5.8079688e-39
3807.6743 2017.3809 -50 2.1197988e-39
3825.1665 2007.6847 -50 3.0428229e-39
3833.9128 2002.8365 -50 2.0279577e-39
3851.4053 1993.1404 -50 1.937211e-39
3850.4551 1970.7999 -40 1.9361236e-39
3887.3398 1996.0885 -50 1.9354062e-39
3914.5286 2003.8846 -50 1.8450028e-39
3923.2749 1999.0366 -50 1.7528072e-39
3950.4634 2006.8328 -50 1.66025e-39
3967.9558 1997.1366 -50 1.8442839e-39
3990.2964 1996.1865 -50 2.5818462e-39
4003.8906 2000.0846 -50 3.5045073e-39
4016.5347 1981.6422 -50 1.8428392e-39
4058.2676 2015.677 -60 1.6595297e-39
4099.0508 2027.3713 -60 2.8533828e-39
5282.9678 3131.8804 -220 1.9346705e-39
5206.3481 3014.2817 -210 1.6595241e-39
5204.4482 2969.6008 -200 1.750638e-39
5235.5347 2963.8027 -210 1.7513582e-39
5308.3545 2992.0393 -210 1.7517142e-39
5297.708 2952.2065 -210 1.935388e-39
3994.4885 1673.7235 -20 1.6573675e-39
4003.2349 1668.8754 -20 1.5644544e-39
4002.2847 1646.5349 -20 1.843914e-39
3992.5886 1629.0425 -20 1.8439154e-39
3991.6387 1606.702 -20 1.6591626e-39
3995.5366 1593.1078 -20 1.6598815e-39
3976.1443 1558.1229 -10 1.8421119e-39
3966.4482 1540.6306 -10 9.2159757e-40
3960.6499 1509.5438 -10 1.2903759e-39
3950.9536 1492.0515 0 6.6362665e-39
3936.4094 1465.8129 0 6.9121331e-39
3935.4595 1443.4724 0 4.0551588e-39
3907.3208 1413.3357 0 2.3952843e-39
3957.7998 1442.5225 0 2.1190576e-39
3998.583 1454.2167 0 1.0137918e-39
3993.7349 1445.4705 0 1.0134317e-39
3992.7847 1423.13 0 9.208787e-40
3987.9365 1414.3838 0 8.290418e-40
3996.6829 1409.5358 0 5.5281645e-40
4014.1753 1399.8395 0 1.1052672e-39
4009.3271 1391.0933 0 2.3949242e-39
4018.0732 1386.2452 0 1.7513624e-39
4040.4138 1385.2952 0 9.2159476e-40
4062.7544 1384.3452 0 1.3822128e-39
4071.5005 1379.4971 0 6.4501208e-40
4080.2466 1374.6489 0 6.4500787e-40
2632.9321 2497.0486 -40 1.0148834e-39
2646.5264 2500.9465 -40 1.0155995e-39
2657.1726 2540.7795 -50 1.2911088e-39
2683.2151 2732.1477 -70 1.2914717e-39
2694.8113 2794.321 -80 1.3836687e-39
2709.3555 2820.5596 -80 8.6566544e-39
2722.95 2824.4578 -80 5.7075055e-39
2736.5442 2828.3557 -80 2.7658871e-39
2745.2903 2823.5078 -80 2.9509958e-39
2767.6309 2822.5576 -80 1.4769448e-39
2773.5271 2750.6882 -80 1.5687817e-39
2790.0693 2718.6514 -70 1.5691418e-39
3215.5559 3671.8887 -190 1.1793842e-38
3226.3003 3608.7654 -190 1.0692181e-38
3247.6909 3585.4749 -190 9.2228196e-39
3259.385 3544.6919 -180 9.0380626e-39
3270.1294 3481.5686 -180 1.0359067e-38
3286.6719 3449.5317 -170 8.6703605e-39
3325.4565 3519.5015 -180 1.8331084e-38
3342.949 3509.8052 -180 2.3498345e-38
3628.5271 3488.709 -200 3.8747836e-39
3634.4233 3416.8394 -190 3.7822167e-39
3651.9158 3407.1433 -190 5.7179662e-39
3679.1045 3414.9395 -190 3.5059899e-39
3706.293 3422.7356 -190 3.1382864e-39
3722.8354 3390.699 -190 2.9531777e-39
3745.1758 3389.7488 -190 2.9535294e-39
3777.2124 3406.2913 -200 2.8616953e-39
3793.7549 3374.2546 -190 2.585107e-39
3780.2588 3267.4001 -180 2.676581e-39
3782.2568 3209.125 -180 3.135041e-39
3798.7993 3177.0884 -180 3.3190707e-39
3806.5952 3149.8997 -170 3.2257919e-39
3827.9858 3126.6091 -170 2.4914764e-39
3845.4783 3116.9131 -170 2.3999899e-39
3872.6667 3124.7092 -170 2.1230428e-39
3904.7036 3141.2515 -180 1.9382915e-39
3901.8535 3074.23 -170 1.9379327e-39
3837.9763 2835.2329 -140 1.7538988e-39
3850.6206 2816.7905 -140 1.8460972e-39
3863.2649 2798.3481 -140 1.7542575e-39
3721.8181 2419.4116 -100 2.3981948e-39
3695.6775 2330.9995 -90 1.8464475e-39
3703.4736 2303.811 -80 1.8457329e-39
3707.3718 2290.2168 -80 1.9364866e-39
3715.168 2263.0283 -80 2.1230372e-39
3713.2681 2218.3472 -80 1.8450084e-39
3692.9255 2161.022 -70 1.7524555e-39
3695.8738 2125.0872 -70 2.4900247e-39
3704.6199 2120.239 -60 2.1205163e-39
3708.5181 2106.6448 -60 2.3960242e-39
3702.72 2075.5581 -60 2.8562807e-39
3701.77 2053.2175 -60 2.9484749e-39
3714.4141 2034.7751 -60 3.3165358e-39
3723.1604 2029.9271 -60 2.8580813e-39
3745.501 2028.9771 -60 3.8711459e-39
3777.5376 2045.5195 -60 4.3310422e-39
3786.2837 2040.6714 -60 4.0548127e-39
3798.928 2022.229 -60 2.3049076e-39
3807.6743 2017.3809 -60 2.3981794e-39
3825.1665 2007.6847 -60 2.8580771e-39
3833.9128 2002.8365 -60 2.4900121e-39
3851.4053 1993.1404 -60 2.766613e-39
3855.3032 1979.5461 -60 2.5825833e-39
3887.3398 1996.0885 -60 2.5818616e-39
3914.5286 2003.8846 -70 3.6896385e-39
3923.2749 1999.0366 -70 3.7803908e-39
3950.4634 2006.8328 -70 3.6882007e-39
3967.9558 1997.1366 -70 3.8704228e-39
3990.2964 1996.1865 -70 3.1324976e-39
3999.0425 1991.3385 -70 2.3048978e-39
3998.0923 1968.9979 -70 1.5669754e-39
4038.8755 1980.6923 -70 1.7513638e-39
4080.6082 2014.7271 -80 2.3038131e-39
5224.7905 3026.926 -240 1.0134359e-39
5251.0293 3012.3818 -240 1.0137946e-39
5253.9771 2976.447 -240 1.4729721e-39
5238.4829 2927.8679 -230 1.6577207e-39
3994.4885 1673.7235 -40 1.5651705e-39
4003.2349 1668.8754 -40 1.7517184e-39
4002.2847 1646.5349 -30 1.9357495e-39
3987.7405 1620.2963 -30 1.9353894e-39
3991.6387 1606.702 -30 1.7509995e-39
3995.5366 1593.1078 -30 1.7513582e-39
3976.1443 1558.1229 -20 1.7502778e-39
3961.6001 1531.8844 -20 9.2159757e-40
3947.0557 1505.6458 -20 1.1992564e-39
3946.1057 1483.3053 -20 6.6359077e-39
3936.4094 1465.8129 -10 6.728095e-39
3940.3076 1452.2186 -10 2.303453e-39
3925.7632 1425.98 -10 2.0275822e-39
3952.9519 1433.7762 -10 2.3038089e-39
4008.2791 1471.7091 -20 9.2159897e-40
4030.6196 1470.759 -20 9.2159757e-40
3992.7847 1423.13 -10 8.2940054e-40
3996.6829 1409.5358 -10 9.2123743e-40
3996.6829 1409.5358 -10 7.3720771e-40
4000.5811 1395.9414 -10 8.290404e-40
4004.479 1382.3472 -10 2.1183331e-39
4013.2251 1377.499 -10 1.9343062e-39
4035.5657 1376.5491 -10 9.2123743e-40
4057.9062 1375.599 -10 1.0130729e-39
4066.6523 1370.751 -10 9.208787e-40
4075.3984 1365.9028 -10 6.4501068e-40
2628.084 2488.3022 -60 1.2911046e-39
2650.4246 2487.3523 -60 1.3825841e-39
2655.2727 2496.0984 -60 1.3825869e-39
2669.8169 2522.3372 -60 1.3829429e-39
2697.7593 2758.3862 -90 1.8428462e-39
2709.3555 2820.5596 -100 1.4755014e-39
2722.95 2824.4578 -100 2.2112658e-39
2736.5442 2828.3557 -100 2.1215953e-39
2745.2903 2823.5078 -100 3.1332179e-39
2762.7827 2813.8115 -100 3.6881951e-39
2776.4751 2714.7534 -90 3.9640576e-39
2788.1694 2673.9705 -90 3.2293764e-39
2803.6638 2722.5496 -90 3.6889126e-39
3180.6694 3588.3247 -210 2.3482926e-38
3191.4136 3525.2014 -200 2.3505222e-38
3208.906 3515.5051 -200 1.633452e-38
3225.4482 3483.4685 -200 1.9377288e-38
3242.9407 3473.7725 -200 1.9079498e-38
3258.5332 3419.3953 -190 2.3509886e-38
3280.8735 3418.4451 -190 2.3509886e-38
3314.8103 3479.6685 -200 2.3509886e-38
3331.3528 3447.6318 -200 2.3509886e-38
3359.4912 3477.7686 -200 2.3509886e-38
3564.5518 3352.668 -200 4.2435507e-39
3582.0442 3342.9717 -200 3.6907399e-39
3587.9404 3271.1021 -200 3.2297533e-39
3625.7754 3318.7312 -200 3.3208826e-39
3637.4695 3277.9482 -200 2.9531763e-39
3664.6582 3285.7446 -200 2.9524504e-39
3666.6562 3227.4692 -200 4.7009135e-39
3683.1987 3195.4326 -190 4.33321e-39
3700.6909 3185.7363 -190 4.2420878e-39
3713.3352 3167.2939 -190 2.4925512e-39
3744.4219 3161.4958 -190 2.3081544e-39
3771.6106 3169.292 -200 2.8588072e-39
3784.2549 3150.8496 -190 3.1339578e-39
3796.8992 3132.4072 -190 2.949928e-39
3823.1377 3117.863 -190 2.3992752e-39
3835.782 3099.4207 -190 2.03085e-39
3862.9707 3107.2168 -190 1.8464546e-39
3880.4629 3097.5205 -190 2.7658857e-39
3818.4858 2903.2043 -170 2.6736901e-39
3815.6357 2836.1829 -160 2.8573569e-39
3828.28 2817.7405 -160 1.8457343e-39
3845.7725 2808.0442 -160 1.8453728e-39
3863.2649 2798.3481 -160 1.8457301e-39
3855.5669 2722.5803 -150 4.9803787e-39
3716.97 2410.6655 -110 1.9375712e-39
3690.8296 2322.2534 -100 1.6616976e-39
3708.3218 2312.5571 -100 2.0304745e-39
3712.22 2298.9629 -100 1.9372054e-39
3720.0161 2271.7744 -100 2.5836679e-39
3708.4199 2209.6011 -90 1.7528156e-39
3692.9255 2161.022 -80 1.6609759e-39
3695.8738 2125.0872 -80 4.9803815e-39
3704.6199 2120.239 -80 1.7524526e-39
3708.5181 2106.6448 -80 1.6606172e-39
3707.5679 2084.3042 -80 2.1205135e-39
3701.77 2053.2175 -70 2.3034684e-39
3714.4141 2034.7751 -70 2.3038244e-39
3723.1604 2029.9271 -70 2.1197974e-39
3735.8047 2011.4847 -70 2.3956627e-39
3772.6895 2036.7733 -80 2.4874982e-39
3781.4355 2031.9252 -80 2.3956641e-39
3798.928 2022.229 -80 2.3045474e-39
3802.8262 2008.6346 -80 2.3956627e-39
3825.1665 2007.6847 -80 2.4878569e-39
3833.9128 2002.8365 -80 2.2130665e-39
3851.4053 1993.1404 -80 2.4885842e-39
3855.3032 1979.5461 -80 2.5800623e-39
3887.3398 1996.0885 -80 2.5796896e-39
3914.5286 2003.8846 -80 4.2345348e-39
3923.2749 1999.0366 -80 3.4062146e-39
3945.6152 1998.0865 -80 3.1296236e-39
3972.8037 2005.8828 -80 2.2101924e-39
3990.2964 1996.1865 -80 1.7506464e-39
3994.1943 1982.5923 -80 2.0254326e-39
3998.0923 1968.9979 -80 1.5655362e-39
4025.281 1976.7942 -80 1.3818625e-39
4070.9121 1997.2346 -90 1.1974698e-39
4149.6279 1953.6017 -90 9.2124164e-40
4190.4106 1965.296 -90 9.2159757e-40
4171.0186 1930.3113 -90 8.2904601e-40
4216.6494 1950.7517 -90 9.2124024e-40
3994.4885 1673.7235 -50 8.2976207e-40
4003.2349 1668.8754 -50 5.5389825e-40
4002.2847 1646.5349 -50 9.208815e-40
3987.7405 1620.2963 -40 8.2904601e-40
3991.6387 1606.702 -40 1.0130715e-39
3995.5366 1593.1078 -40 1.4726105e-39
3971.2961 1549.3767 -40 1.658078e-39
3961.6001 1531.8844 -30 8.2904601e-40
3937.3594 1488.1534 -30 1.105986e-39
3927.6633 1470.661 -30 6.7280978e-39
3936.4094 1465.8129 -30 6.0805816e-39
3940.3076 1452.2186 -20 2.9495343e-39
3930.6113 1434.7262 -20 2.0286612e-39
3916.0669 1408.4877 -20 2.8576988e-39
4021.8733 1475.6072 -30 1.0134331e-39
4085.9468 1508.6919 -40 9.2123883e-40
4016.0752 1444.5205 -30 8.2940054e-40
4001.5308 1418.2819 -20 9.208801e-40
3996.6829 1409.5358 -20 8.290404e-40
4000.5811 1395.9414 -20 5.5245772e-40
4004.479 1382.3472 -20 9.2123603e-40
4008.377 1368.7528 -20 2.119775e-39
4021.9714 1372.6509 -20 1.5676872e-39
4044.312 1371.7009 -20 9.2123603e-40
4057.9062 1375.599 -20 1.0141491e-39
4075.3984 1365.9028 -20 6.4465194e-40
2636.8303 2483.4541 -70 1.2911088e-39
2645.5764 2478.6062 -70 1.6580906e-39
2654.3225 2473.7581 -70 1.4744182e-39
2667.917 2477.656 -70 1.5673341e-39
2687.3093 2512.6409 -80 1.2918276e-39
2704.5076 2811.8135 -110 1.4755028e-39
2718.1018 2815.7114 -110 2.1190716e-39
2736.5442 2828.3557 -120 2.3988955e-39
2745.2903 2823.5078 -120 3.4087244e-39
2766.6809 2800.2173 -110 5.0722058e-39
2781.3232 2723.4995 -110 5.0732862e-39
2788.1694 2673.9705 -100 5.2569558e-39
2854.5044 3391.8142 -190 5.4442309e-39
2878.6467 3538.5015 -200 5.9966872e-39
2892.241 3542.3997 -210 6.4576766e-39
2919.4297 3550.1958 -210 6.8282598e-39
2933.0239 3554.0938 -210 7.4736292e-39
2952.5144 3486.1223 -200 8.7668875e-39
2968.1067 3431.7451 -200 1.06083e-38
2985.5991 3422.0491 -200 1.144021e-38
3000.2415 3345.3313 -190 1.1989067e-38
3029.3301 3397.8086 -200 1.1621007e-38
3047.7725 3410.4529 -200 1.1070355e-38
3096.2534 3497.9148 -210 1.0053336e-38
3122.4922 3483.3704 -210 9.5959419e-39
3146.7327 3527.1013 -220 1.3116648e-38
3162.325 3472.7244 -210 1.4503191e-38
3168.2212 3400.8547 -210 1.7632414e-38
3191.5117 3422.2451 -210 2.158134e-38
3213.8521 3421.2952 -210 2.3509886e-38
3236.1926 3420.3452 -210 2.3509886e-38
3256.6331 3374.7141 -210 2.3509886e-38
3275.0754 3387.3584 -210 2.3509886e-38
3304.1641 3439.8357 -220 2.3509886e-38
3315.8584 3399.0527 -220 2.3509886e-38
3346.9451 3393.2546 -220 2.3509886e-38
3364.4375 3383.5583 -220 2.3509886e-38
3376.1318 3342.7756 -210 2.3509886e-38
3392.6741 3310.7388 -210 2.3509886e-38
3415.0146 3309.7888 -210 2.3509886e-38
3432.5071 3300.0928 -210 2.3509886e-38
3458.7456 3285.5483 -210 5.7147137e-39
3476.238 3275.8523 -210 3.3219588e-39
3503.4265 3283.6484 -210 5.0758436e-39
3517.021 3287.5464 -220 3.3219532e-39
3548.1077 3281.7483 -220 4.6112473e-39
3565.6001 3272.0522 -220 4.150988e-39
3567.5981 3213.7769 -210 4.2442626e-39
3600.5847 3252.6597 -220 2.862054e-39
3612.2791 3211.877 -210 2.7684235e-39
3629.7715 3202.1807 -210 4.3317737e-39
3651.1619 3178.8901 -210 4.4246882e-39
3667.7043 3146.8535 -210 4.332131e-39
3685.1968 3137.1572 -210 4.1488174e-39
3717.2334 3153.6997 -210 3.5963666e-39
3739.5737 3152.7498 -210 2.3067194e-39
3761.9143 3151.7998 -220 2.2152413e-39
3779.4067 3142.1035 -220 2.9502826e-39
3796.8992 3132.4072 -220 2.7662515e-39
3823.1377 3117.863 -220 2.2155944e-39
3830.9341 3090.6743 -210 2.1226799e-39
3858.1226 3098.4707 -220 2.7662402e-39
3874.665 3066.4338 -210 2.6740488e-39
3807.8396 2863.3713 -190 2.4896562e-39
3810.7876 2827.4365 -180 2.6733271e-39
3823.4321 2808.9941 -180 3.1332207e-39
3845.7725 2808.0442 -180 1.7531785e-39
3863.2649 2798.3481 -180 1.5698705e-39
3699.4775 2420.3616 -130 3.0467998e-39
3702.4258 2384.4268 -130 2.0297626e-39
3700.5256 2339.7458 -120 1.6613402e-39
3718.0181 2330.0498 -120 2.0290409e-39
3717.0681 2307.709 -120 2.4900135e-39
3729.7124 2289.2666 -120 3.1346752e-39
3698.7236 2192.1086 -100 1.939369e-39
3688.0776 2152.2759 -100 2.5822175e-39
3695.8738 2125.0872 -100 3.8671886e-39
3704.6199 2120.239 -100 2.0290381e-39
3708.5181 2106.6448 -100 2.1201534e-39
3707.5679 2084.3042 -90 2.3960228e-39
3715.3643 2057.1157 -90 2.4871366e-39
3714.4141 2034.7751 -90 2.3956613e-39
3723.1604 2029.9271 -90 2.4871366e-39
3735.8047 2011.4847 -90 2.5800497e-39
3749.3989 2015.3828 -90 2.6718866e-39
3776.5874 2023.179 -90 2.9470358e-39
3794.0801 2013.4828 -90 2.855559e-39
3802.8262 2008.6346 -90 2.8559205e-39
3830.0146 2016.4309 -90 2.2123518e-39
3833.9128 2002.8365 -90 2.0286766e-39
3851.4053 1993.1404 -90 2.5800609e-39
3860.1514 1988.2922 -90 2.3056292e-39
3892.188 2004.8347 -90 2.8569981e-39
3914.5286 2003.8846 -100 2.396027e-39
3928.123 2007.7827 -100 2.5789763e-39
3950.4634 2006.8328 -100 2.2119875e-39
3972.8037 2005.8828 -100 2.1197904e-39
3990.2964 1996.1865 -100 2.2098225e-39
3994.1943 1982.5923 -100 2.1172681e-39
3998.0923 1968.9979 -100 1.6580906e-39
4015.585 1959.3018 -100 1.4733378e-39
4047.6216 1975.8441 -100 1.8406784e-39
4064.1641 1943.8075 -100 1.564809e-39
4129.1875 1999.2327 -110 9.2160177e-40
4141.8315 1980.7903 -110 9.219605e-40
4150.5776 1975.9423 -110 1.1063504e-39
4172.918 1974.9922 -110 1.0134359e-39
4204.9551 1991.5347 -110 9.2123883e-40
4212.751 1964.3461 -110 9.2124024e-40
4221.4971 1959.4979 -110 7.3756924e-40
4369.9863 2082.9927 -130 8.2940334e-40
4377.7827 2055.8042 -130 9.2159757e-40
3980.8943 1669.8254 -60 9.208801e-40
3998.3867 1660.1292 -60 8.2940474e-40
3997.4365 1637.7887 -60 7.3756784e-40
3987.7405 1620.2963 -60 7.3720911e-40
3991.6387 1606.702 -60 7.3720771e-40
3995.5366 1593.1078 -60 7.3720911e-40
3971.2961 1549.3767 -50 1.3822114e-39
3961.6001 1531.8844 -50 8.2904601e-40
3923.7651 1484.2552 -40 1.10527e-39
3927.6633 1470.661 -40 6.4522297e-39
3936.4094 1465.8129 -40 4.8827684e-39
3940.3076 1452.2186 -40 3.1346458e-39
3944.2056 1438.6243 -40 2.5811175e-39
3916.0669 1408.4877 -30 3.0410124e-39
4040.3157 1488.2515 -50 1.0130757e-39
4114.0854 1538.8286 -60 8.2939913e-40
4108.2871 1507.7419 -50 9.2123743e-40
4006.3789 1427.0281 -40 8.290432e-40
3991.8347 1400.7896 -30 8.290432e-40
3995.7329 1387.1952 -30 6.4501208e-40
3999.6309 1373.601 -30 8.29039e-40
3999.6309 1373.601 -30 1.9375305e-39
4017.1233 1363.9048 -30 3.2235988e-39
4039.4639 1362.9547 -30 7.3756644e-40
4053.0581 1366.8528 -30 1.2903731e-39
4061.8042 1362.0046 -30 8.2868167e-40
2636.8303 2483.4541 -80 1.2907472e-39
2645.5764 2478.6062 -80 1.1989131e-39
2663.0688 2468.9099 -80 1.6584479e-39
2671.8149 2464.0618 -80 1.6584507e-39
2681.5112 2481.5542 -90 1.2911102e-39
2718.1018 2815.7114 -130 3.0385139e-39
2736.5442 2828.3557 -130 9.4590547e-39
2750.1384 2832.2539 -130 3.4116153e-39
2762.7827 2813.8115 -130 7.0101231e-39
2773.5271 2750.6882 -130 7.8391607e-39
2789.1194 2696.311 -120 7.9327997e-39
2844.8081 3374.3218 -210 8.4859776e-39
2870.9487 3462.7339 -220 8.7661617e-39
2894.239 3484.1243 -220 9.6874131e-39
2915.6296 3460.8337 -220 1.0054036e-38
2922.4758 3411.3047 -210 1.0791974e-38
2947.7644 3374.4199 -210 1.1070349e-38
2959.4587 3333.637 -210 1.2081984e-38
2982.749 3355.0276 -210 1.2178136e-38
2993.4934 3291.9041 -210 1.2452577e-38
3017.7339 3335.6353 -210 1.1992312e-38
3032.3762 3258.9175 -200 1.2177062e-38
3050.8186 3271.5618 -210 1.2729891e-38
3068.311 3261.8655 -210 1.3838031e-38
3080.0054 3221.0828 -200 1.5037695e-38
3106.2439 3206.5383 -200 2.0838764e-38
3123.7363 3196.8423 -200 2.3234379e-38
3147.0269 3218.2327 -210 2.3509886e-38
3166.4192 3253.2175 -210 2.3509886e-38
3188.7598 3252.2673 -210 2.3509886e-38
3216.8984 3282.4041 -220 2.3509886e-38
3234.3906 3272.708 -220 2.3509886e-38
3297.416 3386.4084 -240 2.3509886e-38
3302.4602 3189.2422 -210 2.3509886e-38
3314.1545 3148.4592 -210 2.3509886e-38
3338.395 3192.1902 -220 2.3509886e-38
3365.5835 3199.9863 -220 2.3509886e-38
3378.228 3181.5439 -220 2.3509886e-38
3410.2646 3198.0864 -220 2.3509886e-38
3417.1108 3148.5574 -220 2.1397669e-38
3419.1089 3090.282 -210 3.0468222e-39
3440.4995 3066.9917 -210 2.8609764e-39
3448.2957 3039.803 -210 3.1357612e-39
3469.686 3016.5125 -200 4.8835055e-39
3483.2803 3020.4106 -200 2.6758705e-39
3525.0132 3054.4453 -210 4.7055911e-39
3618.1753 3140.0073 -230 3.9633527e-39
3621.1233 3104.0725 -220 3.779323e-39
3707.5371 3136.2073 -230 4.6079906e-39
3734.7258 3144.0034 -240 2.3077914e-39
3757.0664 3143.0535 -240 2.2148797e-39
3779.4067 3142.1035 -240 2.7662529e-39
3801.7471 3141.1536 -240 2.4900247e-39
3827.9858 3126.6091 -240 2.0312031e-39
3826.0859 3081.9282 -240 1.9379327e-39
3862.9707 3107.2168 -240 2.6744089e-39
3874.665 3066.4338 -240 2.2137909e-39
3793.2954 2837.1328 -200 2.6747635e-39
3801.0913 2809.9443 -200 2.6736831e-39
3813.7358 2791.502 -200 3.5934758e-39
3831.228 2781.8057 -200 1.5698649e-39
3847.7705 2749.769 -200 1.7535331e-39
3694.6294 2411.6155 -150 1.7546121e-39
3702.4258 2384.4268 -140 1.937567e-39
3705.3738 2348.4922 -140 1.5687831e-39
3718.0181 2330.0498 -140 1.6602598e-39
3717.0681 2307.709 -130 2.0304745e-39
3729.7124 2289.2666 -130 2.3063467e-39
3693.8755 2183.3623 -120 2.0315703e-39
3683.2295 2143.5295 -110 2.9528161e-39
3691.0256 2116.3408 -110 3.227217e-39
3699.7717 2111.4927 -110 2.671888e-39
3708.5181 2106.6448 -110 2.671888e-39
3707.5679 2084.3042 -110 2.3038286e-39
3720.2124 2065.8618 -110 2.7630032e-39
3719.2622 2043.5214 -100 2.21127e-39
3723.1604 2029.9271 -100 2.6711663e-39
3730.9565 2002.7385 -100 2.9473931e-39
3744.5508 2006.6366 -100 3.4984061e-39
3776.5874 2023.179 -100 3.5909618e-39
3794.0801 2013.4828 -100 3.4987662e-39
3802.8262 2008.6346 -100 3.4987676e-39
3830.0146 2016.4309 -110 2.4882156e-39
3838.7607 2011.5828 -110 2.3971018e-39
3851.4053 1993.1404 -110 3.039237e-39
3864.9995 1997.0385 -110 3.2250618e-39
3892.188 2004.8347 -110 3.0410307e-39
3914.5286 2003.8846 -110 2.5796952e-39
3923.2749 1999.0366 -110 3.038151e-39
3945.6152 1998.0865 -110 2.3960186e-39
3972.8037 2005.8828 -120 2.3034628e-39
3990.2964 1996.1865 -120 2.3012978e-39
3994.1943 1982.5923 -110 1.8417602e-39
3988.3962 1951.5056 -110 1.6580934e-39
4064.1641 1943.8075 -110 1.6570032e-39
4119.4912 1981.7404 -120 1.104914e-39
4146.6797 1989.5365 -130 1.289664e-39
4155.4258 1984.6885 -130 1.0141533e-39
4177.7666 1983.7384 -130 1.1067105e-39
4213.7012 1986.6865 -130 1.1056287e-39
4222.4473 1981.8384 -130 1.1971027e-39
4258.3818 1984.7865 -130 1.2900242e-39
4360.29 2065.5005 -150 8.2940474e-40
4364.1885 2051.906 -150 9.208801e-40
4368.0864 2038.3118 -150 8.2868587e-40
3998.3867 1660.1292 -80 8.290432e-40
3997.4365 1637.7887 -70 8.2940194e-40
3992.5886 1629.0425 -70 7.3720911e-40
3991.6387 1606.702 -70 7.3756644e-40
4000.3848 1601.8539 -70 7.3756504e-40
3976.1443 1558.1229 -60 1.3818526e-39
3961.6001 1531.8844 -60 9.2123883e-40
3918.917 1475.5092 -50 1.0134345e-39
3914.0688 1466.7629 -50 6.72666e-39
3931.5615 1457.0667 -50 2.6729488e-39
3935.4595 1443.4724 -50 3.9629659e-39
3949.0537 1447.3705 -50 2.8569841e-39
4114.0854 1538.8286 -70 8.2976067e-40
4099.541 1512.5901 -60 8.290432e-40
4056.8582 1456.2147 -60 8.290418e-40
3991.8347 1400.7896 -50 8.290418e-40
3982.1387 1383.2971 -40 7.3720491e-40
3986.0366 1369.7029 -40 6.4429181e-40
3994.7827 1364.8547 -40 9.2123603e-40
4003.5291 1360.0066 -40 2.9495343e-39
4025.8696 1359.0566 -40 1.0163029e-39
4048.21 1358.1067 -40 3.1342829e-39
4061.8042 1362.0046 -40 1.2896584e-39
2631.9822 2474.708 -100 1.3818625e-39
2645.5764 2478.6062 -100 1.3825813e-39
2663.0688 2468.9099 -100 1.6580892e-39
2667.917 2477.656 -100 1.750289e-39
2686.3594 2490.3003 -100 2.4874883e-39
2718.1018 2815.7114 -150 1.8450238e-39
2741.3923 2837.1021 -150 2.3467404e-38
2750.1384 2832.2539 -150 2.1765011e-38
2762.7827 2813.8115 -150 8.3044773e-39
2775.427 2795.3691 -150 9.0420409e-39
2791.9695 2763.3325 -140 9.2267979e-39
2871.9966 3382.1182 -230 1.0331713e-38
2879.793 3354.9294 -230 1.0334233e-38
2904.1313 3295.7041 -220 1.107251e-38
2924.4739 3353.0295 -230 1.1716101e-38
2941.9663 3343.3333 -230 1.199124e-38
2975.051 3279.2598 -220 1.3467099e-38
2981.9954 3126.7747 -200 1.3652562e-38
2998.5376 3094.7378 -200 1.4576318e-38
3012.1321 3098.636 -200 1.5222068e-38
3028.6743 3066.5994 -200 1.6238021e-38
3052.9148 3110.3303 -210 1.6605722e-38
3064.6091 3069.5474 -200 1.7899311e-38
3082.1016 3059.8511 -200 1.9188236e-38
3113.0901 3157.0093 -220 2.0020137e-38
3135.4307 3156.0593 -220 2.1397669e-38
3136.4788 3075.4436 -210 2.2867037e-38
3176.2136 3167.7537 -220 2.3509886e-38
3195.606 3202.7383 -230 2.3509886e-38
3257.7793 3191.1421 -230 2.3509886e-38
3257.8774 3088.1858 -220 2.3509886e-38
3264.7236 3038.6567 -210 2.3509886e-38
3291.9121 3046.4531 -220 2.3509886e-38
3325.8489 3107.6763 -230 2.3509886e-38
3344.2913 3120.3206 -230 2.3509886e-38
3361.7837 3110.6245 -230 2.0387479e-38
3379.2759 3100.9282 -230 1.1354567e-38
3400.6665 3077.6377 -230 5.8144904e-39
3401.7146 2997.022 -220 4.3371799e-39
3415.3088 3000.9202 -220 2.6765866e-39
3441.5474 2986.3757 -220 2.7673403e-39
3454.1919 2967.9333 -220 2.4914708e-39
3472.6343 2980.5776 -220 2.4918352e-39
3490.1265 2970.8816 -220 3.3194238e-39
3512.467 2969.9314 -220 2.5843811e-39
3495.1709 2773.7151 -200 4.1477412e-39
3507.8152 2755.2727 -190 3.9626282e-39
3530.1555 2754.3228 -190 5.2522768e-39
3558.2942 2784.4595 -200 5.5281407e-39
3714.3833 3086.6782 -250 2.123403e-39
3752.2183 3134.3074 -260 2.0308458e-39
3774.5586 3133.3572 -260 1.9382943e-39
3796.8992 3132.4072 -260 2.3056306e-39
3808.5933 3091.6245 -260 1.8457371e-39
3751.4644 2906.0542 -230 1.8464518e-39
3758.3105 2856.5251 -220 2.3971074e-39
3800.9934 2912.9004 -230 2.2141469e-39
3788.4473 2828.3867 -220 2.489296e-39
3801.0913 2809.9443 -220 2.8577142e-39
3808.8877 2782.7556 -220 3.776072e-39
3821.532 2764.3132 -220 1.7535359e-39
3681.9851 2430.0579 -170 3.8815449e-39
3694.6294 2411.6155 -160 7.6612925e-39
3702.4258 2384.4268 -160 2.8584429e-39
3705.3738 2348.4922 -160 2.3049118e-39
3718.0181 2330.0498 -150 2.2148713e-39
3717.0681 2307.709 -150 2.4918142e-39
3720.0161 2271.7744 -150 2.8566408e-39
3689.0276 2174.6162 -130 2.5818602e-39
3678.3813 2134.7832 -130 2.2130665e-39
3691.0256 2116.3408 -130 1.8450042e-39
3699.7717 2111.4927 -130 1.6606144e-39
3708.5181 2106.6448 -130 2.7633564e-39
3707.5679 2084.3042 -120 2.7637207e-39
3725.0603 2074.6079 -120 3.1303466e-39
3724.1104 2052.2676 -120 3.0388671e-39
3728.0085 2038.6733 -120 3.1310585e-39
3730.9565 2002.7385 -110 3.3143735e-39
3734.8547 1989.1442 -110 3.682433e-39
3781.4355 2031.9252 -120 3.9586598e-39
3798.928 2022.229 -120 4.0504995e-39
3807.6743 2017.3809 -120 3.6824386e-39
3834.8628 2025.1771 -120 3.9579409e-39
3838.7607 2011.5828 -120 2.5804112e-39
3856.2534 2001.8866 -120 3.6831631e-39
3869.8477 2005.7847 -120 2.5800539e-39
3897.0361 2013.5808 -130 3.1314284e-39
3919.3767 2012.6309 -130 3.1303452e-39
3936.8691 2002.9347 -130 3.3132931e-39
3950.4634 2006.8328 -130 2.1190758e-39
3972.8037 2005.8828 -130 2.2101882e-39
3990.2964 1996.1865 -130 3.0363391e-39
3994.1943 1982.5923 -130 2.6679223e-39
3882.688 1781.4298 -100 2.115822e-39
3957.4077 1854.3474 -110 1.197467e-39
4059.3159 1935.0613 -130 1.9317922e-39
4114.6431 1972.9941 -140 1.196388e-39
4141.8315 1980.7903 -140 1.013796e-39
4164.1719 1979.8403 -140 1.2889424e-39
4177.7666 1983.7384 -140 1.2896584e-39
4213.7012 1986.6865 -150 1.1974656e-39
4222.4473 1981.8384 -150 9.2232204e-40
4249.6357 1989.6346 -150 8.3084387e-40
4360.29 2065.5005 -170 1.2903787e-39
4359.3403 2043.1599 -160 7.3720911e-40
4363.2383 2029.5656 -160 9.208773e-40
3998.3867 1660.1292 -90 1.0130729e-39
3997.4365 1637.7887 -90 8.2976347e-40
4001.3347 1624.1945 -90 6.4645121e-40
3996.4868 1615.4482 -80 6.4573235e-40
4009.1309 1597.0059 -80 8.290432e-40
3980.9924 1566.8691 -80 1.565881e-39
3961.6001 1531.8844 -70 8.290432e-40
3918.917 1475.5092 -60 1.1056301e-39
3922.8152 1461.9148 -60 6.2671266e-39
3931.5615 1457.0667 -60 2.4874785e-39
3940.3076 1452.2186 -60 5.162221e-39
3953.9019 1456.1167 -60 2.8562779e-39
4040.3157 1488.2515 -70 1.1052728e-39
4109.2373 1530.0824 -80 8.290418e-40
4094.6929 1503.8439 -80 8.2976067e-40
4084.9966 1486.3514 -70 9.2159616e-40
3991.8347 1400.7896 -60 8.2940194e-40
3977.2905 1374.5509 -50 7.3684757e-40
3981.1885 1360.9567 -50 6.4465194e-40
3989.9346 1356.1085 -50 9.2123743e-40
3998.6809 1351.2605 -50 3.5934604e-39
4012.2754 1355.1584 -50 1.0130701e-39
4034.6157 1354.2085 -50 9.208759e-40
4056.9561 1353.2585 -50 9.2195209e-40
2636.8303 2483.4541 -110 1.5676942e-39
2645.5764 2478.6062 -110 1.4758588e-39
2659.1707 2482.5042 -110 1.5673355e-39
2664.0188 2491.2505 -120 2.8580659e-39
2718.1018 2815.7114 -160 1.5680628e-39
2741.3923 2837.1021 -170 1.6617032e-39
2750.1384 2832.2539 -170 2.3026141e-38
2767.6309 2822.5576 -170 9.5056899e-39
2780.2751 2804.1152 -170 9.3161181e-39
2794.8193 2830.354 -170 1.0237364e-38
2813.1638 2945.9543 -190 1.0240597e-38
2853.8486 3060.605 -210 1.0242759e-38
2868.3928 3086.8435 -210 1.1067486e-38
2881.9871 3090.7417 -210 1.1438422e-38
2904.3276 3089.7917 -210 1.1622102e-38
2916.9719 3071.3494 -210 1.2635183e-38
2939.3125 3070.3992 -210 1.3193739e-38
2952.9067 3074.2974 -210 1.3652593e-38
2973.3472 3028.6665 -210 1.3472877e-38
2990.8396 3018.9702 -210 1.3842384e-38
2998.6357 2991.7815 -210 1.5684126e-38
3017.0781 3004.4258 -210 1.6600699e-38
3034.5706 2994.7297 -210 1.7065617e-38
3056.9111 2993.7798 -210 1.7897517e-38
3074.4033 2984.0835 -210 1.863543e-38
3098.644 3027.8145 -220 2.0195916e-38
3110.3381 2987.0315 -210 2.057115e-38
3122.9824 2968.5891 -210 2.0938492e-38
3147.2229 3012.3201 -220 2.0386761e-38
3159.8672 2993.8777 -220 2.2316024e-38
3176.4097 2961.8411 -220 2.3509886e-38
3189.054 2943.3987 -210 2.2775202e-38
3217.1926 2973.5354 -220 2.3509886e-38
3229.8369 2955.093 -220 2.3509886e-38
3252.1772 2954.1431 -220 2.3509886e-38
3265.7717 2958.041 -220 2.3509886e-38
3304.5564 3028.0107 -230 2.3509886e-38
3332.6951 3058.1472 -240 2.3509886e-38
3359.8835 3065.9436 -240 2.1765011e-38
3367.6797 3038.7549 -240 1.8633636e-38
3375.4761 3011.5664 -240 1.3104852e-38
3370.7261 2899.8638 -220 8.6743808e-39
3397.9146 2907.6602 -230 4.155304e-39
3415.407 2897.9639 -230 3.4181033e-39
3432.8994 2888.2676 -220 2.9571251e-39
3446.4937 2892.1658 -230 2.9546014e-39
3453.3398 2842.6367 -220 2.7694969e-39
3465.9841 2824.1943 -220 2.4911107e-39
3478.6284 2805.752 -220 2.4914652e-39
3475.7783 2738.7305 -210 2.5832979e-39
3492.3208 2706.6938 -210 5.3441067e-39
3515.6113 2728.0842 -210 9.0268592e-39
3542.7998 2735.8804 -210 6.9042354e-39
3580.6348 2783.5095 -220 2.2148769e-39
3593.2791 2765.0671 -220 2.0308402e-39
3608.8713 2710.6899 -210 2.3981864e-39
3775.8027 2846.8291 -250 3.1408003e-39
3773.9028 2802.1479 -240 4.4275749e-39
3796.2434 2801.198 -240 5.1600952e-39
3807.9375 2760.415 -240 3.6874833e-39
3681.9851 2430.0579 -180 3.3176119e-39
3689.7812 2402.8691 -180 2.7655256e-39
3697.5776 2375.6807 -180 1.9379243e-39
3705.3738 2348.4922 -170 2.3988955e-39
3718.0181 2330.0498 -170 2.490375e-39
3717.0681 2307.709 -170 2.3981794e-39
3724.8643 2280.5205 -170 2.6736803e-39
3698.7236 2192.1086 -150 2.2130637e-39
3678.3813 2134.7832 -140 2.1205149e-39
3691.0256 2116.3408 -140 2.0283165e-39
3699.7717 2111.4927 -140 1.9364782e-39
3703.6699 2097.8984 -140 1.6602528e-39
3707.5679 2084.3042 -140 2.94667e-39
3725.0603 2074.6079 -140 3.2221765e-39
3724.1104 2052.2676 -130 3.3143749e-39
3728.0085 2038.6733 -130 3.3172546e-39
3730.9565 2002.7385 -130 3.0417453e-39
3720.3103 1962.9056 -120 3.1332235e-39
3786.2837 2040.6714 -140 2.9491924e-39
3803.7761 2030.9752 -140 2.6726055e-39
3822.2185 2043.6195 -140 3.68244e-39
3839.7109 2033.9232 -140 3.8668243e-39
3843.6089 2020.329 -140 4.0501379e-39
3861.1016 2010.6328 -140 3.775e-39
3888.29 2018.429 -140 3.7753545e-39
3901.8843 2022.327 -140 3.0385125e-39
3919.3767 2012.6309 -140 2.02652e-39
3941.7173 2011.6809 -150 2.0261599e-39
3973.7539 2028.2233 -150 1.750289e-39
4000.9424 2036.0194 -150 1.7499289e-39
3859.3975 1760.0393 -110 1.3807821e-39
3947.7114 1836.855 -120 1.2889466e-39
4040.8735 1922.417 -140 1.3807793e-39
4096.2007 1960.3499 -150 1.1045539e-39
4123.3892 1968.146 -150 8.2904461e-40
4150.5776 1975.9423 -160 9.219577e-40
4172.918 1974.9922 -160 1.0137918e-39
4204.9551 1991.5347 -160 1.1052714e-39
4222.4473 1981.8384 -160 1.1052728e-39
4263.2305 1993.5327 -170 9.208787e-40
4360.29 2065.5005 -180 8.2976207e-40
4354.4922 2034.4137 -180 1.659157e-39
4363.2383 2029.5656 -180 8.290432e-40
3998.3867 1660.1292 -100 7.3756784e-40
3997.4365 1637.7887 -100 5.5317798e-40
4006.1829 1632.9406 -100 1.0134359e-39
4005.2329 1610.6001 -100 9.2159757e-40
4013.979 1605.7521 -100 8.2868447e-40
3994.5867 1570.7672 -90 1.5658824e-39
3961.6001 1531.8844 -80 8.290432e-40
3918.917 1475.5092 -70 1.0127156e-39
3922.8152 1461.9148 -70 6.2671252e-39
3931.5615 1457.0667 -70 1.6591556e-39
3935.4595 1443.4724 -70 6.5422814e-39
4040.3157 1488.2515 -80 1.1971055e-39
4127.6797 1542.7267 -100 1.0134317e-39
4094.6929 1503.8439 -90 8.2940334e-40
4103.439 1498.9957 -90 6.4536941e-40
3991.8347 1400.7896 -70 6.4537361e-40
3963.6963 1370.6528 -60 7.3720631e-40
3981.1885 1360.9567 -60 7.3684617e-40
3989.9346 1356.1085 -60 7.3684337e-40
3998.6809 1351.2605 -60 2.3048739e-39
4007.4272 1346.4124 -60 1.5648062e-39
4021.0215 1350.3104 -60 5.5281505e-40
4043.3618 1349.3604 -60 1.381854e-39
2632.9321 2497.0486 -130 1.1067147e-39
2650.4246 2487.3523 -130 1.5658936e-39
2659.1707 2482.5042 -130 1.5680544e-39
2668.8669 2499.9966 -130 3.4134033e-39
2726.8479 2810.8635 -180 1.3840247e-39
2736.5442 2828.3557 -180 1.475863e-39
2750.1384 2832.2539 -180 1.845007e-39
2767.6309 2822.5576 -180 1.0252838e-38
2776.377 2817.7097 -180 9.0420507e-39
2797.6694 2897.3755 -200 9.3175628e-39
2809.2656 2959.5488 -210 9.7778081e-39
2840.2542 3056.7068 -220 9.3179355e-39
2845.2004 2962.4968 -210 1.0149481e-38
2858.7947 2966.395 -210 1.0517558e-38
2883.9854 3032.4663 -220 1.097818e-38
2897.5796 3036.3645 -220 1.1439888e-38
2918.97 3013.074 -220 1.1809395e-38
2932.5642 3016.9722 -220 1.319231e-38
2955.8547 3038.3625 -230 1.3746197e-38
2962.7009 2988.8335 -220 1.3561844e-38
2979.2434 2956.7969 -220 1.4665666e-38
2989.9875 2893.6733 -210 1.4761809e-38
3014.228 2937.4043 -220 1.54061e-38
3022.0244 2910.2158 -220 1.6787593e-38
3045.3149 2931.6062 -220 1.7066334e-38
3063.7573 2944.2505 -220 1.7162474e-38
3087.9978 2987.9817 -230 1.835813e-38
3104.54 2955.9448 -230 1.7805323e-38
3122.0325 2946.2488 -230 1.9279354e-38
3141.4248 2981.2334 -230 1.9835031e-38
3157.9673 2949.1968 -230 1.9923279e-38
3170.6116 2930.7544 -230 2.0846656e-38
3178.4077 2903.5659 -230 2.1030327e-38
3200.7483 2902.6157 -230 2.0844863e-38
3218.2407 2892.9197 -230 2.2499695e-38
3235.7329 2883.2234 -230 2.2591531e-38
3258.0735 2882.2734 -230 2.2683366e-38
3270.7178 2863.8311 -230 2.1305834e-38
3294.0083 2885.2214 -230 1.8081906e-38
3312.4507 2897.8657 -240 1.8262707e-38
3329.9431 2888.1697 -240 1.5775974e-38
3352.2837 2887.2195 -240 1.328274e-38
3359.1299 2837.6904 -230 1.0795222e-38
3382.4204 2859.0811 -240 7.380363e-39
3404.7607 2858.1311 -240 6.2714734e-39
3413.5068 2853.283 -240 5.5335497e-39
3435.8474 2852.3328 -240 4.5197593e-39
3432.9976 2785.3115 -230 4.1502593e-39
3449.5398 2753.2747 -230 3.0453565e-39
3451.5378 2694.9995 -220 2.3992724e-39
3429.2954 2592.9932 -200 2.3992696e-39
3451.636 2592.0432 -200 2.4911079e-39
3470.0784 2604.6875 -210 2.5829434e-39
3481.7727 2563.9045 -200 2.3074355e-39
3485.6709 2550.3103 -200 1.93829e-39
3508.0112 2549.3604 -200 1.8460944e-39
3531.3018 2570.7507 -210 1.7542589e-39
3539.0979 2543.5623 -210 1.9379313e-39
3575.9827 2568.8508 -210 1.8464503e-39
3588.627 2550.4084 -210 1.937567e-39
3602.2212 2554.3064 -210 2.3985409e-39
3750.6123 2780.7576 -250 2.2137909e-39
3763.2568 2762.3152 -250 2.1219526e-39
3790.4453 2770.1113 -260 2.121238e-39
3803.0896 2751.6689 -250 1.9375642e-39
3674.189 2457.2463 -200 1.8453671e-39
3677.1372 2421.3115 -200 1.7538918e-39
3684.9331 2394.123 -200 1.8446455e-39
3697.5776 2375.6807 -190 1.7528114e-39
3705.3738 2348.4922 -190 2.4903834e-39
3718.0181 2330.0498 -190 2.0290395e-39
3717.0681 2307.709 -190 2.0293955e-39
3724.8643 2280.5205 -180 2.2127077e-39
3718.1162 2227.0933 -170 2.2134252e-39
3688.0776 2152.2759 -160 3.0446166e-39
3695.8738 2125.0872 -160 2.0286738e-39
3699.7717 2111.4927 -160 1.7520911e-39
3703.6699 2097.8984 -160 1.7517282e-39
3707.5679 2084.3042 -150 1.8435623e-39
3720.2124 2065.8618 -150 2.9470302e-39
3719.2622 2043.5214 -150 2.5832895e-39
3723.1604 2029.9271 -150 2.6751236e-39
3730.9565 2002.7385 -140 2.3971046e-39
3809.5742 2062.062 -160 2.3970962e-39
3832.8647 2083.4524 -160 2.6726069e-39
3864.9014 2099.9946 -170 2.1205149e-39
3881.4438 2067.958 -170 3.6820743e-39
3908.6323 2075.7544 -170 3.9590255e-39
3968.8076 2122.4333 -180 5.3473633e-39
4091.0581 2260.4724 -210 3.4058559e-39
4113.3984 2259.5225 -210 2.4860576e-39
4039.7273 2105.989 -180 1.9332412e-39
3799.2222 1713.3602 -110 1.5651677e-39
3859.3975 1760.0393 -120 1.4729777e-39
4031.1772 1904.9246 -150 1.3807778e-39
4086.5044 1942.8574 -160 1.012717e-39
4123.3892 1968.146 -170 8.2904741e-40
4145.7295 1967.196 -170 9.2124024e-40
4172.918 1974.9922 -170 1.0134373e-39
4200.1069 1982.7885 -180 1.1052714e-39
4212.751 1964.3461 -180 1.10527e-39
4239.9395 1972.1422 -180 1.0134331e-39
4337 2044.1099 -200 1.0134345e-39
4322.4556 2017.8713 -190 1.1971055e-39
4358.3901 2020.8193 -190 9.2123603e-40
3998.3867 1660.1292 -120 1.4726105e-39
3997.4365 1637.7887 -110 1.0155911e-39
4001.3347 1624.1945 -110 9.219563e-40
4005.2329 1610.6001 -110 6.4537221e-40
4013.979 1605.7521 -110 8.290432e-40
3994.5867 1570.7672 -100 1.3822086e-39
3966.4482 1540.6306 -100 8.290432e-40
3918.917 1475.5092 -80 8.290432e-40
3922.8152 1461.9148 -80 6.266042e-39
3931.5615 1457.0667 -80 1.2910919e-39
3935.4595 1443.4724 -80 6.082378e-39
4040.3157 1488.2515 -90 1.1978257e-39
4114.0854 1538.8286 -110 1.0134317e-39
4094.6929 1503.8439 -100 8.2940194e-40
4103.439 1498.9957 -100 8.2940054e-40
3991.8347 1400.7896 -80 8.290418e-40
3963.6963 1370.6528 -70 6.4536941e-40
3981.1885 1360.9567 -70 6.4501068e-40
3989.9346 1356.1085 -70 5.5281365e-40
3998.6809 1351.2605 -70 1.0130701e-39
4007.4272 1346.4124 -70 2.0272193e-39
4021.0215 1350.3104 -70 7.3756644e-40
4038.5137 1340.6143 -70 1.1063448e-39
2641.6782 2492.2004 -140 1.1996306e-39
2655.2727 2496.0984 -140 1.2911074e-39
2706.4075 2856.4944 -200 4.5219411e-39
2718.1018 2815.7114 -200 1.3836659e-39
2736.5442 2828.3557 -200 1.3833072e-39
2750.1384 2832.2539 -200 1.5680558e-39
2758.8845 2827.4058 -200 6.724509e-39
2777.3271 2840.05 -200 8.9484215e-39
2794.7214 2933.3101 -220 9.5030246e-39
2813.1638 2945.9543 -220 9.778178e-39
2826.7581 2949.8525 -220 9.2278867e-39
2848.1484 2926.562 -220 9.9658175e-39
2856.8948 2921.7139 -220 9.7803556e-39
2876.2871 2956.6987 -230 1.079378e-38
2898.6277 2955.7488 -230 1.20838e-38
2907.3738 2950.9006 -230 1.2546219e-38
2929.7144 2949.9507 -230 1.2273221e-38
2953.9548 2993.6816 -240 1.2820662e-38
2960.801 2944.1526 -230 1.3926652e-38
2977.3433 2912.1157 -230 1.4114283e-38
2989.0376 2871.333 -230 1.4302626e-38
3007.48 2883.9773 -230 1.4667837e-38
3016.2263 2879.1292 -230 1.5035889e-38
3043.4148 2886.9253 -230 1.4766851e-38
3051.2109 2859.7368 -230 1.5410067e-38
3079.3496 2889.8735 -240 1.7253592e-38
3091.9939 2871.4312 -230 1.6608233e-38
3104.6382 2852.9885 -230 1.8271316e-38
3112.4343 2825.8 -230 1.8820177e-38
3135.7249 2847.1904 -230 1.9094966e-38
3148.3691 2828.748 -230 1.9647414e-38
3165.8616 2819.052 -230 1.8546464e-38
3194.0002 2849.1887 -240 1.9468406e-38
3206.6445 2830.7463 -240 2.0563616e-38
3220.2388 2834.6443 -240 2.0198785e-38
3241.6292 2811.3538 -240 1.9185725e-38
3244.5774 2775.4189 -230 1.7989353e-38
3261.1196 2743.3823 -230 1.8076166e-38
3273.7639 2724.9399 -230 1.6420975e-38
3301.9026 2755.0767 -230 1.521957e-38
3294.2046 2679.3091 -220 1.3563262e-38
3311.6968 2669.6128 -220 1.291429e-38
3329.1892 2659.9165 -220 1.0975286e-38
3337.9355 2655.0686 -220 9.0384424e-39
3370.9221 2693.9514 -230 7.6540506e-39
3372.9202 2635.676 -220 6.6391728e-39
3395.2607 2634.7261 -220 5.0736547e-39
3407.905 2616.2837 -220 4.4257672e-39
3415.7012 2589.0952 -220 3.7807579e-39
3413.8013 2544.4141 -210 2.3070726e-39
3436.1416 2543.4641 -210 2.3059978e-39
3454.584 2556.1084 -220 2.3070726e-39
3456.582 2497.8333 -210 2.1226813e-39
3469.2266 2479.3906 -210 2.0297682e-39
3472.1746 2443.4561 -200 2.1233974e-39
3480.9209 2438.6079 -200 2.3081488e-39
3498.4131 2428.9116 -200 3.2286603e-39
3545.9441 2494.0332 -220 2.9538685e-39
3574.0828 2524.1697 -220 3.5996121e-39
3591.5752 2514.4736 -220 2.1215967e-39
3610.0176 2527.1179 -230 1.846086e-39
3642.0542 2543.6602 -230 1.8482454e-39
3675.1389 2479.5869 -220 2.3085061e-39
3673.239 2434.906 -220 2.3099354e-39
3672.2891 2412.5654 -210 2.4964917e-39
3680.0852 2385.377 -210 2.8714161e-39
3692.7295 2366.9346 -210 4.714317e-39
3705.3738 2348.4922 -210 1.93756e-39
3718.0181 2330.0498 -200 3.0417369e-39
3712.22 2298.9629 -200 3.9600933e-39
3724.8643 2280.5205 -200 2.0293885e-39
3722.9644 2235.8396 -190 1.8450042e-39
3688.0776 2152.2759 -180 2.0283137e-39
3695.8738 2125.0872 -170 1.7510079e-39
3699.7717 2111.4927 -170 1.7524442e-39
3703.6699 2097.8984 -170 1.7510093e-39
3707.5679 2084.3042 -170 1.7517282e-39
3720.2124 2065.8618 -170 2.674053e-39
3714.4141 2034.7751 -160 2.3049034e-39
3723.1604 2029.9271 -160 2.3045474e-39
3730.9565 2002.7385 -160 2.4885744e-39
3864.9014 2099.9946 -180 2.1205135e-39
3882.3938 2090.2986 -180 2.1197904e-39
3891.1401 2085.4504 -180 2.0283123e-39
3918.3286 2093.2466 -190 3.2236199e-39
4068.7178 2261.4224 -220 3.8668285e-39
4105.6025 2286.7109 -230 3.0399587e-39
4127.9429 2285.761 -230 2.3942179e-39
4102.7524 2219.6895 -220 2.3931403e-39
3837.0571 1760.9893 -130 1.7517198e-39
3869.0938 1777.5316 -140 1.6562871e-39
3919.5728 1806.7184 -150 1.4726147e-39
4064.1641 1943.8075 -180 1.4726133e-39
4086.5044 1942.8574 -180 1.1045511e-39
4118.541 1959.3999 -180 1.012717e-39
4145.7295 1967.196 -190 8.2904461e-40
4172.918 1974.9922 -190 9.208801e-40
4195.2588 1974.0422 -190 1.0130743e-39
4212.751 1964.3461 -190 9.208815e-40
4239.9395 1972.1422 -200 9.208801e-40
4318.5576 2031.4656 -210 8.2976207e-40
4003.2349 1668.8754 -130 9.2159757e-40
3997.4365 1637.7887 -130 9.2123883e-40
4001.3347 1624.1945 -120 1.0130743e-39
4005.2329 1610.6001 -120 8.290432e-40
4009.1309 1597.0059 -120 6.4537081e-40
3980.9924 1566.8691 -120 1.3818498e-39
3966.4482 1540.6306 -110 9.2159757e-40
3923.7651 1484.2552 -100 7.3756784e-40
3909.2207 1458.0167 -90 6.2653217e-39
3876.2341 1419.1338 -80 1.4751259e-39
3875.2842 1396.7933 -80 4.4239357e-39
4081.0986 1499.9458 -110 8.290432e-40
4103.439 1498.9957 -110 7.3720771e-40
3996.6829 1409.5358 -90 8.290418e-40
3963.6963 1370.6528 -80 8.2868307e-40
3972.4424 1365.8047 -80 7.3648744e-40
3989.9346 1356.1085 -80 6.4501068e-40
3998.6809 1351.2605 -80 9.2159476e-40
4007.4272 1346.4124 -80 1.8421133e-39
4016.1733 1341.5642 -80 8.2940054e-40
4024.9194 1336.7161 -80 1.0134303e-39
2642.6284 2514.5408 -160 9.230423e-40
2671.4226 2875.8867 -220 2.3041859e-39
2692.8132 2852.5964 -220 1.5044846e-38
2700.6094 2825.4077 -210 3.9673338e-39
2718.1018 2815.7114 -210 1.3833072e-39
2731.696 2819.6096 -210 1.2914717e-39
2754.0366 2818.6597 -220 1.3840275e-39
2763.7327 2836.1521 -220 2.948112e-39
2778.2771 2862.3906 -220 8.7640177e-39
2798.6194 2919.7158 -240 8.8537092e-39
2811.2637 2901.2734 -230 9.5945154e-39
2829.7061 2913.9177 -240 9.5041205e-39
2846.2485 2881.8811 -230 1.0513963e-38
2854.9946 2877.033 -230 1.0703014e-38
2872.4871 2867.3367 -230 1.1349468e-38
2890.9294 2879.981 -240 1.1902287e-38
2905.4739 2906.2197 -240 1.1349851e-38
2918.1182 2887.7773 -240 1.2731682e-38
2946.2566 2917.9138 -250 1.3837297e-38
2958.9009 2899.4714 -250 1.3009012e-38
2971.5452 2881.0291 -240 1.4022065e-38
2973.6414 2719.7976 -220 1.3835523e-38
2994.9338 2799.4634 -230 1.3929892e-38
3009.478 2825.7019 -240 1.4299025e-38
3026.9705 2816.0059 -240 1.4022799e-38
3048.3611 2792.7153 -240 1.5773069e-38
3058.0571 2810.2078 -240 1.531607e-38
3081.3477 2831.5981 -240 1.6236586e-38
3097.8901 2799.5615 -240 1.7252158e-38
3109.5845 2758.7786 -240 1.7154582e-38
3118.3306 2753.9304 -240 1.6971987e-38
3130.9749 2735.488 -240 1.7710976e-38
3158.1636 2743.2842 -240 1.8263065e-38
3177.5559 2778.269 -250 1.7713846e-38
3190.2002 2759.8267 -240 1.7624522e-38
3207.6926 2750.1304 -240 1.7714564e-38
3221.2869 2754.0286 -250 1.7528023e-38
3242.6772 2730.738 -240 1.6698992e-38
3240.7773 2686.0571 -240 1.7157093e-38
3263.1177 2685.1072 -240 1.5499032e-38
3281.5601 2697.7515 -240 1.6325552e-38
3256.4678 2528.7236 -210 1.4115726e-38
3270.062 2532.6218 -210 1.2734569e-38
3293.3525 2554.0122 -220 1.2267473e-38
3320.541 2561.8083 -220 1.0979612e-38
3359.3259 2631.7781 -240 9.3179117e-39
3326.4373 2489.939 -210 8.487051e-39
3339.0815 2471.4966 -210 7.9327926e-39
3351.7258 2453.054 -210 7.1955821e-39
3365.3203 2456.9521 -210 6.5473345e-39
3382.8125 2447.2559 -210 6.4551374e-39
3405.1531 2446.3059 -210 6.1789093e-39
3413.8994 2441.4578 -210 6.1799855e-39
3441.0879 2449.2542 -220 6.2711035e-39
3444.0359 2413.3193 -210 5.9008832e-39
3447.9341 2399.7251 -210 5.8090492e-39
3465.4265 2390.0288 -210 5.9941537e-39
3482.9189 2380.3325 -210 5.7168563e-39
3491.665 2375.4844 -210 3.3187022e-39
3514.0056 2374.5344 -210 2.3056278e-39
3577.0308 2488.2351 -230 1.7542519e-39
3610.0176 2527.1179 -240 3.2304386e-39
3627.5098 2517.4216 -240 5.1643958e-39
3614.9636 2432.9077 -230 4.8863796e-39
3643.1023 2463.0444 -240 5.0704051e-39
3665.4429 2462.0945 -240 4.9789213e-39
3668.3909 2426.1597 -230 4.5193851e-39
3672.2891 2412.5654 -230 4.5175915e-39
3680.0852 2385.377 -230 2.9488322e-39
3692.7295 2366.9346 -230 3.1350172e-39
3705.3738 2348.4922 -220 1.8450056e-39
3708.3218 2312.5571 -220 3.5005515e-39
3707.3718 2290.2168 -220 2.2116231e-39
3715.168 2263.0283 -210 3.3143637e-39
3722.9644 2235.8396 -210 1.9364824e-39
3692.9255 2161.022 -190 1.8439224e-39
3695.8738 2125.0872 -190 1.5680558e-39
3699.7717 2111.4927 -190 1.4755014e-39
3703.6699 2097.8984 -190 1.4755042e-39
3707.5679 2084.3042 -180 2.1215869e-39
3720.2124 2065.8618 -180 1.9368383e-39
3714.4141 2034.7751 -180 1.6602542e-39
3723.1604 2029.9271 -180 1.8435637e-39
3871.7476 2050.4658 -190 1.8435651e-39
3903.7842 2067.0081 -200 2.1194345e-39
4073.5659 2270.1685 -240 2.3985437e-39
4105.6025 2286.7109 -250 3.3158309e-39
4123.0947 2277.0146 -250 2.5771714e-39
4107.6006 2228.4355 -240 2.3009419e-39
4096.9546 2188.603 -230 2.3020125e-39
3855.4995 1773.6335 -150 2.6725957e-39
3869.0938 1777.5316 -150 1.5644516e-39
3957.4077 1854.3474 -170 1.5644502e-39
4064.1641 1943.8075 -190 1.5644488e-39
4077.7583 1947.7056 -190 8.2904461e-40
4100.0986 1946.7556 -200 1.10527e-39
4122.4395 1945.8055 -200 8.290432e-40
4149.6279 1953.6017 -200 1.0130729e-39
4171.9683 1952.6517 -200 1.0127156e-39
4184.6123 1934.2094 -200 1.0134331e-39
4170.0684 1907.9707 -200 1.0130757e-39
4215.6992 1928.4113 -200 9.2159757e-40
4242.8877 1936.2074 -210 9.208801e-40
3999.3367 1682.4697 -150 9.208787e-40
4008.083 1677.6216 -150 1.0138002e-39
4002.2847 1646.5349 -140 8.2904461e-40
3992.5886 1629.0425 -140 7.3720911e-40
3996.4868 1615.4482 -140 6.4573094e-40
4000.3848 1601.8539 -130 6.4537221e-40
3957.7019 1545.4786 -120 1.2900157e-39
3961.6001 1531.8844 -120 1.0137932e-39
3960.6499 1509.5438 -120 9.2123603e-40
3974.2441 1513.442 -120 5.9894565e-39
3829.6533 1376.3528 -90 1.1978243e-39
3838.3994 1371.5048 -80 4.6079724e-39
4067.5044 1496.0476 -120 9.2159616e-40
4089.8447 1495.0977 -130 9.208787e-40
4098.5908 1490.2495 -120 8.290418e-40
3954.95 1375.501 -90 9.2051857e-40
3967.5942 1357.0586 -90 6.4500928e-40
3976.3403 1352.2104 -90 6.4465194e-40
3985.0867 1347.3623 -90 8.290418e-40
4002.5791 1337.6661 -90 1.750275e-39
4016.1733 1341.5642 -90 8.2868307e-40
4024.9194 1336.7161 -100 6.4465054e-40
2638.7302 2528.1353 -180 1.1067147e-39
2664.6746 2822.4597 -230 1.1070748e-39
2678.2688 2826.3577 -230 1.3829471e-39
2695.7612 2816.6616 -230 3.6842295e-39
2708.4055 2798.2192 -230 3.603268e-39
2721.0498 2779.7769 -220 1.7510037e-39
2734.644 2783.6748 -220 1.199632e-39
2748.2385 2787.573 -230 1.2918318e-39
2766.6809 2800.2173 -230 2.2127035e-39
2776.377 2817.7097 -230 7.9346199e-39
2792.8213 2888.6292 -250 8.6743472e-39
2808.4138 2834.252 -240 9.318639e-39
2826.8562 2846.8962 -240 9.5016023e-39
2838.5503 2806.1135 -240 9.8718296e-39
2852.1448 2810.0115 -240 1.1160035e-38
2863.8389 2769.2285 -230 1.153205e-38
2882.2812 2781.8728 -240 1.2358941e-38
2899.7737 2772.1768 -240 1.2361819e-38
2917.2661 2762.4805 -240 1.1994843e-38
