# .PCD v0.7 - Point Cloud Data file format
VERSION 0.7
FIELDS x y z rgb
SIZE 4 4 4 4
TYPE F F F F
COUNT 1 1 1 1
WIDTH 129
HEIGHT 1
VIEWPOINT 0 0 0 1 0 0 0
POINTS 129
DATA ascii
2839.2688 5579.4751 190 3.7825684e-39
2873.1074 5743.6548 190 3.9662366e-39
2902.2939 5693.1753 190 4.0587951e-39
2931.4807 5642.6963 190 4.2431906e-39
2957.7192 5628.1523 190 4.4275777e-39
2989.854 5541.7383 190 4.7974434e-39
3014.1926 5482.5132 190 5.3495396e-39
3044.3293 5454.3745 190 5.7172459e-39
3079.2161 5537.9385 190 6.179659e-39
3110.3027 5532.1401 190 6.1818212e-39
3147.0894 5660.3848 190 4.4293909e-39
3181.0261 5721.6084 190 8.4841966e-39
3216.011 5702.2158 190 1.1158945e-38
3234.5513 5611.9038 190 1.1248269e-38
3271.436 5637.1924 190 9.9575288e-39
3310.2209 5707.1621 190 8.8641503e-39
3337.4097 5714.9585 190 1.7239151e-38
3373.3442 5717.9062 190 1.0964117e-38
3409.2791 5720.8545 190 2.3509886e-38
3443.314 5679.1216 190 2.3509886e-38
3461.8545 5588.8096 190 2.3509886e-38
3493.8911 5605.3521 190 1.2912891e-38
3527.9258 5563.6191 190 1.3928072e-38
3553.2144 5526.7344 190 1.558941e-38
3584.301 5520.936 190 1.7066334e-38
3618.3359 5479.2031 190 2.1466532e-38
3637.8264 5411.2319 190 2.3509886e-38
3667.0129 5360.7529 190 2.3509886e-38
3697.1497 5332.6143 190 2.3509886e-38
3722.4382 5295.7295 190 2.3509886e-38
3794.1118 5507.5381 190 2.3509886e-38
3854.189 5657.1733 190 2.3509886e-38
3890.1235 5660.1216 190 2.3509886e-38
3934.8047 5658.2217 190 2.3508809e-38
3709.6287 4468.1816 180 2.3507733e-38
3699.0806 4325.3921 180 2.3507016e-38
3725.3191 4310.8477 180 2.3504505e-38
3752.5078 4318.644 180 2.2491444e-38
3783.5942 4312.8457 180 2.221235e-38
3848.5195 4471.2275 180 2.1293996e-38
3868.9602 4425.5967 180 2.0372412e-38
3900.0469 4419.7983 180 1.9177474e-38
3895.395 4205.1396 180 1.8254815e-38
3827.7178 3876.7805 180 1.7979308e-38
3840.3621 3858.3381 180 1.7518337e-38
3866.6006 3843.7937 180 1.7058801e-38
3883.1431 3811.7571 180 1.6505635e-38
3895.7871 3793.3147 180 1.5951753e-38
3932.6719 3818.6033 180 1.4941545e-38
3959.8606 3826.3994 180 1.4386588e-38
3995.7954 3829.3474 180 1.3467133e-38
4049.1245 3925.5557 180 1.19895e-38
4116.0479 4025.6619 180 1.2723829e-38
4127.7422 3984.8789 180 1.5675098e-38
4114.2461 3878.0247 180 6.9238213e-39
3880.7832 3229.9543 170 4.9861983e-39
3897.3257 3197.9177 170 5.261695e-39
3919.6663 3196.9675 170 2.3509886e-38
3927.4624 3169.7791 170 2.0479314e-38
3944.9548 3160.0828 170 8.1263022e-39
3943.0547 3115.4019 170 5.6294041e-39
3920.8125 3013.3955 170 5.2598789e-39
3914.0642 2959.9685 170 4.5212348e-39
3925.7585 2919.1855 170 4.1524453e-39
3949.0491 2940.5759 170 3.6918273e-39
3736.7808 2475.1277 160 3.2304862e-39
3734.8809 2430.4468 160 2.7687808e-39
3752.373 2420.7505 160 2.3996409e-39
3761.1194 2415.9023 160 2.3999955e-39
3778.6118 2406.2061 160 3.136113e-39
3782.5098 2392.6118 160 3.3219588e-39
3791.2561 2387.7637 160 1.2264342e-38
3818.4446 2395.5601 160 8.3901639e-39
3865.0256 2438.3408 160 6.917196e-39
3883.468 2450.9854 160 5.1676412e-39
4166.6558 2899.9893 170 3.3205084e-39
4146.3135 2842.6641 170 2.7651598e-39
4163.8057 2832.9678 170 2.8591589e-39
3998.9705 2535.5972 170 3.0431817e-39
4006.7666 2508.4087 170 2.3059824e-39
4005.8167 2486.0681 160 2.0290395e-39
4013.6128 2458.8794 160 1.8460888e-39
4017.511 2445.2852 160 2.305995e-39
4011.7129 2414.1985 160 2.3059894e-39
3996.2185 2365.6196 160 1.9368439e-39
3946.7876 2255.8169 160 1.7528114e-39
3898.3066 2168.355 160 1.7531743e-39
3887.6604 2128.5222 160 1.7528184e-39
3891.5583 2114.9277 160 2.9524322e-39
3900.3047 2110.0798 160 1.751731e-39
3904.2026 2096.4854 160 1.5680558e-39
3926.5432 2095.5356 160 1.7528044e-39
3935.2896 2090.6875 160 1.3836673e-39
3939.1875 2077.0933 160 1.3843792e-39
3956.6799 2067.397 160 2.7622774e-39
3955.73 2045.0564 160 4.1401643e-39
3964.4761 2040.2083 160 1.4762189e-39
3978.0703 2044.1064 160 4.3317611e-39
3962.5762 1995.5273 160 5.6231991e-39
3491.0662 1433.6747 150 1.1056329e-39
3546.3933 1471.6075 150 1.1067105e-39
3592.9744 1514.3884 150 1.3825785e-39
3653.1497 1561.0676 160 1.3825771e-39
3718.1731 1616.4929 160 1.3825771e-39
3801.6387 1684.5624 160 1.4740567e-39
3885.1045 1752.632 160 1.2907416e-39
4389.7974 2147.4551 160 1.3822212e-39
4393.6953 2133.8608 160 1.2907402e-39
4397.5938 2120.2664 160 1.4740511e-39
4410.2378 2101.824 160 1.2907402e-39
4414.1357 2088.2297 160 1.2903815e-39
4037.5898 1759.5762 160 1.2903815e-39
4036.6399 1737.2357 160 1.1985446e-39
4045.3862 1732.3876 160 1.2900214e-39
4054.1323 1727.5396 160 3.0428271e-39
4058.0303 1713.9453 160 1.2900256e-39
4053.1821 1705.199 160 1.1059874e-39
4052.2324 1682.8586 160 1.381854e-39
4060.9785 1678.0105 160 1.1985432e-39
4064.8765 1664.4161 160 8.4809133e-39
4073.6228 1659.5681 160 8.4805504e-39
4031.8899 1625.5332 160 7.9252214e-39
4040.6362 1620.6852 160 3.4094292e-39
4062.9766 1619.7351 160 2.9480966e-39
4085.3169 1618.7852 160 2.6711453e-39
4094.0632 1613.937 160 2.6715069e-39
4107.6577 1617.8352 160 2.3963591e-39
4129.998 1616.8853 160 2.6718656e-39
4125.1499 1608.1389 160 2.8551779e-39
