# .PCD v0.7 - Point Cloud Data file format
VERSION 0.7
FIELDS x y z rgb
SIZE 4 4 4 4
TYPE F F F F
COUNT 1 1 1 1
WIDTH 906
HEIGHT 1
VIEWPOINT 0 0 0 1 0 0 0
POINTS 906
DATA ascii
2806.1318 4367.1841 340 1.7702008e-38
2826.5723 4321.5532 340 1.3132475e-38
2848.9128 4320.6035 340 2.3509886e-38
2870.3032 4297.3125 340 2.3509886e-38
2887.7957 4287.6162 340 2.3509886e-38
2907.2861 4219.645 340 2.3509886e-38
2934.4749 4227.4414 340 2.3509886e-38
2952.9172 4240.0854 340 1.3407981e-38
3052.3059 5945.7588 440 4.9803983e-39
3081.4927 5895.2798 440 3.6940035e-39
3115.4294 5956.5034 440 3.231568e-39
3143.5679 5986.6396 440 3.5074402e-39
3181.4028 6034.269 450 3.6007177e-39
3211.5396 6006.1304 450 3.6929133e-39
3248.4243 6031.4189 450 1.4558221e-38
3283.4089 6012.0264 450 1.2354191e-38
3309.6477 5997.4824 450 1.3644571e-38
3349.4805 5986.8359 450 8.5803397e-39
3358.4229 5776.0752 440 1.6124123e-38
3388.5596 5747.937 440 2.2655951e-38
3426.3943 5795.5659 440 2.2843595e-38
3456.531 5767.4272 440 1.1796422e-38
3490.5659 5725.6943 440 2.3509886e-38
3526.5005 5728.6426 440 2.194653e-38
3576.8816 5860.7856 450 2.3050708e-38
3608.9182 5877.3276 450 2.3509886e-38
3632.3069 5795.7622 450 2.3509886e-38
3668.2417 5798.71 450 2.3509886e-38
3693.5303 5761.8252 450 2.3509886e-38
4628.521 5117.7822 440 1.9836466e-38
4664.4561 5120.73 440 2.3509886e-38
4689.7446 5083.8452 440 2.3509886e-38
3954.2739 3261.9829 310 1.8352749e-38
3971.7661 3252.2866 310 9.6054175e-39
3994.1067 3251.3367 310 1.1720863e-38
4021.2954 3259.1328 320 7.6620646e-39
4014.5474 3205.7056 310 6.2776672e-39
4032.0396 3196.0095 310 5.2627838e-39
4014.6453 3102.7493 310 4.8922034e-39
4046.6821 3119.2917 310 4.4319287e-39
3917.7812 2824.8691 290 4.1556949e-39
3954.666 2850.1577 290 3.784753e-39
3977.0066 2849.2078 290 3.6921944e-39
3985.7529 2844.3596 290 3.507436e-39
3846.2061 2510.1042 270 2.9546126e-39
3854.9521 2505.2563 270 3.1386451e-39
3867.5964 2486.814 270 3.3255419e-39
3881.1909 2490.7119 270 6.736116e-39
3884.1389 2454.7771 270 4.2435437e-39
3888.9871 2463.5234 270 3.0435614e-39
3921.0237 2480.0657 270 2.1226827e-39
4631.2363 3286.9099 340 1.6609773e-39
4672.0195 3298.6042 340 2.1208764e-39
4660.4233 3236.4309 330 2.0290381e-39
4654.625 3205.3442 330 3.8776493e-39
4676.0156 3182.0537 330 2.0279563e-39
4698.3564 3181.1035 330 2.3038188e-39
4706.1523 3153.915 330 2.4874925e-39
4723.6445 3144.2188 330 2.6725999e-39
4721.7446 3099.5378 330 2.765157e-39
3964.0989 2124.616 250 3.5009228e-39
3976.7432 2106.1736 250 3.7782314e-39
3980.6414 2092.5791 250 4.6065529e-39
3989.3875 2087.7312 250 4.0541134e-39
3993.2856 2074.1367 250 5.9902048e-39
4002.0317 2069.2886 250 6.3600761e-39
4010.7778 2064.4407 250 5.6246691e-39
4033.1184 2063.4907 250 6.5498484e-39
4093.2937 2110.1697 250 5.7175556e-39
4147.6709 2125.7622 250 3.4108796e-39
4264.1235 2232.7144 260 3.3186966e-39
4370.8799 2322.1746 270 3.4116096e-39
4454.5415 2184.3315 270 1.3840191e-39
4453.5918 2161.9912 270 1.1070706e-39
4447.7935 2130.9043 260 9.230381e-40
4451.6914 2117.3101 260 8.2976347e-40
4460.4375 2112.4619 260 9.2159897e-40
4469.1841 2107.6138 260 8.2904461e-40
4486.6763 2097.9177 260 8.2940334e-40
4074.1956 1766.3162 230 9.208801e-40
4082.9419 1761.468 230 1.0134303e-39
4091.688 1756.62 230 2.6740362e-39
4095.5859 1743.0256 230 1.0137946e-39
4099.4844 1729.4314 230 1.1056287e-39
4094.6362 1720.6852 230 1.0137946e-39
4098.5342 1707.0908 230 1.1978229e-39
4088.8379 1689.5985 230 4.7077182e-39
4102.4321 1693.4966 230 8.9422432e-39
4106.3301 1679.9023 230 8.6660165e-39
4119.9248 1683.8004 230 5.8050765e-39
4100.5322 1648.8157 230 3.2246806e-39
2808.0317 4411.8652 320 2.3509886e-38
2822.6743 4335.1475 320 2.3509886e-38
2848.9128 4320.6035 320 2.2499695e-38
2870.3032 4297.3125 320 1.9264646e-38
2887.7957 4287.6162 320 1.9437532e-38
2907.2861 4219.645 310 8.313517e-39
2933.5247 4205.1006 310 1.6346717e-38
2947.1191 4208.999 310 7.3238794e-39
2975.0615 4445.0479 330 2.9549811e-39
3017.2231 6068.1074 410 4.151002e-39
3051.1599 6129.3311 410 3.2308449e-39
3082.3447 6020.5767 410 2.86351e-39
3116.1831 6184.7563 420 3.1386563e-39
3187.9546 6293.6084 430 3.3244839e-39
3222.0876 6148.9194 420 3.968417e-39
3256.0242 6210.1431 420 1.2258381e-38
3288.1589 6123.729 420 1.0879063e-38
3323.1438 6104.3364 420 1.0329134e-38
3346.5325 6022.771 420 9.8688897e-39
3363.271 5784.8218 400 1.1432617e-38
3393.4077 5756.6831 400 1.4835575e-38
3432.1924 5826.6528 410 1.2622199e-38
3457.481 5789.7676 410 8.7647576e-39
3496.3638 5756.7812 410 1.3661246e-38
3533.2485 5782.0698 410 2.1852542e-38
3578.7815 5905.4663 420 2.3509886e-38
3609.8682 5899.6685 420 2.3509886e-38
3638.105 5826.8486 410 2.3509886e-38
3673.0898 5807.4565 410 2.3509886e-38
3698.3784 5770.5718 410 2.3509886e-38
3715.9688 5657.9189 410 2.3509886e-38
3716.165 5452.0068 400 2.3509886e-38
3746.3018 5423.8682 400 2.3509886e-38
3782.2363 5426.8159 400 2.3509886e-38
3773.6863 5225.7515 390 2.3509886e-38
4623.6729 5109.0356 410 1.9377288e-38
4674.1523 5138.2227 410 2.3509886e-38
4700.3906 5123.6782 410 2.3509886e-38
3954.2739 3261.9829 290 2.2683366e-38
3971.7661 3252.2866 290 7.8497265e-39
3989.2585 3242.5903 290 1.0434049e-38
4016.4473 3250.3867 290 7.9408109e-39
4018.4453 3192.1113 290 6.0932843e-39
4031.0896 3173.6689 290 5.2627894e-39
4014.6453 3102.7493 290 4.8010826e-39
4036.9858 3101.7993 290 4.2479004e-39
3932.3257 2851.1079 270 3.9705848e-39
3959.5142 2858.9041 270 3.6939965e-39
3997.3491 2906.533 280 3.5081689e-39
4048.7781 2958.0603 280 3.41453e-39
3832.6118 2506.2061 250 3.0457362e-39
3836.5098 2492.6118 250 2.7698584e-39
3845.2561 2487.7637 250 3.1379277e-39
3862.7485 2478.0676 250 2.9542483e-39
3876.3428 2481.9658 250 5.9992642e-39
3884.1389 2454.7771 250 2.4014388e-39
3884.1389 2454.7771 250 3.0435614e-39
3906.4795 2453.8271 250 3.5949303e-39
4558.417 3258.6733 310 2.4900177e-39
4604.0479 3279.1138 310 2.2141511e-39
4583.7056 3221.7883 310 1.5687817e-39
4614.7925 3215.9902 310 2.4892918e-39
4622.5884 3188.8018 310 2.8566352e-39
4644.9287 3187.8518 310 3.2254191e-39
4662.4214 3178.1555 310 3.6856714e-39
4703.2041 3189.8499 310 4.605834e-39
4706.1523 3153.915 310 5.8036556e-39
4761.4795 3191.8479 310 7.5539362e-39
4774.124 3173.4055 310 8.9386699e-39
3955.3528 2129.4639 240 9.9549938e-39
3959.2507 2115.8696 240 1.0142642e-38
3967.9971 2111.0215 240 1.1156082e-38
3980.6414 2092.5791 240 1.1619941e-38
3989.3875 2087.7312 230 7.5611921e-39
3993.2856 2074.1367 230 7.3832132e-39
4002.0317 2069.2886 230 9.2268161e-39
4010.7778 2064.4407 230 7.9314096e-39
4033.1184 2063.4907 240 5.5403908e-39
4093.2937 2110.1697 240 5.7171912e-39
4134.0767 2121.864 240 3.3183238e-39
4264.1235 2232.7144 250 4.519416e-39
4366.0317 2313.4282 260 4.150625e-39
4497.2246 2240.707 260 9.2159897e-40
4454.5415 2184.3315 250 8.2940334e-40
4453.5918 2161.9912 250 8.2940474e-40
4439.0474 2135.7524 250 1.0134345e-39
4451.6914 2117.3101 250 8.2976347e-40
4460.4375 2112.4619 250 1.0134331e-39
4469.1841 2107.6138 250 1.0137918e-39
4473.082 2094.0195 250 1.0134345e-39
4082.9419 1761.468 220 9.2159757e-40
4082.9419 1761.468 220 1.0141547e-39
4091.688 1756.62 220 2.85771e-39
4095.5859 1743.0256 220 1.0134401e-39
4099.4844 1729.4314 220 1.1056301e-39
4094.6362 1720.6852 220 9.2159616e-40
4093.686 1698.3447 220 1.0137932e-39
4088.8379 1689.5985 220 4.4293293e-39
4102.4321 1693.4966 220 8.6660179e-39
4106.3301 1679.9023 220 8.6653018e-39
4119.9248 1683.8004 220 5.8972665e-39
4082.0898 1636.1714 220 3.3165147e-39
2804.1338 4425.4595 300 2.3509886e-38
2827.5222 4343.8936 290 2.3509886e-38
2853.761 4329.3496 290 2.158134e-38
2870.3032 4297.3125 290 1.7173236e-38
2887.7957 4287.6162 290 1.9377288e-38
2912.1343 4228.3911 290 7.6001034e-39
2928.6768 4196.3545 290 4.0602427e-39
2950.0671 4173.064 290 3.874048e-39
2969.3613 4311.0049 290 4.2399508e-39
3019.0251 6215.7446 380 4.2395879e-39
3088.8965 6279.9165 380 3.6939783e-39
3195.6528 6369.3765 390 3.4152432e-39
3222.0876 6148.9194 380 3.6943412e-39
3256.9744 6232.4834 390 4.0620532e-39
3293.0071 6132.4751 380 4.2453696e-39
3322.1938 6081.9961 380 4.7988937e-39
3349.4805 5986.8359 380 4.3390086e-39
3362.321 5762.481 370 5.1676903e-39
3393.4077 5756.6831 370 2.3506936e-38
3437.9905 5857.7393 370 2.3491115e-38
3463.2791 5820.8545 370 9.6805902e-39
3498.2639 5801.4619 370 1.1996728e-38
3531.2505 5840.3452 370 2.2405707e-38
3581.6316 5972.4878 380 2.3509886e-38
3614.7163 5908.4146 380 2.3509886e-38
3637.1548 5804.5083 380 2.3509886e-38
3662.4434 5767.6235 370 2.1397669e-38
3687.7322 5730.7388 370 2.341805e-38
3704.3726 5595.7456 370 2.3509886e-38
3711.3169 5443.2603 360 2.3509886e-38
3741.4536 5415.1216 360 2.3509886e-38
3766.7422 5378.2368 360 2.3509886e-38
3789.1807 5274.3306 360 2.3509886e-38
3830.0615 5183.0688 350 2.3509886e-38
4310.6118 5431.2046 380 2.3509886e-38
4447.5049 5492.5259 380 2.3509886e-38
4483.4395 5495.4741 380 2.3509886e-38
4548.561 5447.9434 380 2.3509886e-38
4553.5073 5353.7329 380 2.3509886e-38
4633.2715 5229.4844 370 1.8275262e-38
4613.9766 5091.5435 370 1.7902181e-38
4664.4561 5120.73 370 2.3509886e-38
4695.5425 5114.9321 370 2.3509886e-38
3954.2739 3261.9829 270 2.3509886e-38
3971.7661 3252.2866 270 7.20325e-39
3989.2585 3242.5903 270 8.492872e-39
4011.5991 3241.6404 270 9.045362e-39
4013.5972 3183.3652 270 6.2773127e-39
4026.2415 3164.9229 270 5.2627838e-39
4009.7971 3094.0032 270 4.7088771e-39
4027.2896 3084.3069 270 4.4308483e-39
3937.1738 2859.854 260 4.1538985e-39
3959.5142 2858.9041 260 3.8765801e-39
4036.1338 2976.5027 260 3.6918273e-39
4073.0186 3001.7913 260 3.2312121e-39
3827.7637 2497.46 240 3.0453747e-39
3831.6616 2483.8657 240 2.7684249e-39
3840.408 2479.0176 240 2.9549685e-39
3857.9004 2469.3213 240 2.9528105e-39
3871.4946 2473.2195 240 4.7999685e-39
3879.2908 2446.0308 240 2.3085187e-39
3879.2908 2446.0308 240 2.1226869e-39
3896.7832 2436.3347 240 2.0308486e-39
3934.6179 2483.9639 240 1.9379341e-39
4236.3462 2842.6558 260 2.6754908e-39
4278.0791 2876.6907 260 2.4914638e-39
4608.896 3287.8599 290 1.8453685e-39
4621.5405 3269.4175 290 1.5687803e-39
4062.8628 2447.1772 240 3.5963624e-39
4066.7607 2433.5828 240 4.7009093e-39
4068.759 2375.3076 240 1.2261324e-38
4058.1128 2335.4746 240 1.5399251e-38
4052.3147 2304.3879 230 1.5954978e-38
4051.3647 2282.0474 230 1.5496871e-38
3956.3027 2151.8047 220 1.5497597e-38
3950.5046 2120.7178 220 1.4485612e-38
3954.4028 2107.1235 220 1.4392694e-38
3963.1489 2102.2754 220 1.3933509e-38
3967.0469 2088.6812 220 1.3284181e-38
3984.5393 2078.9849 220 8.3938465e-39
3993.2856 2074.1367 220 4.9879443e-39
4002.0317 2069.2886 220 1.0151321e-38
4010.7778 2064.4407 220 8.5829097e-39
4037.9666 2072.2368 220 4.7985182e-39
4107.8379 2136.4082 230 5.6253543e-39
4125.3306 2126.7122 230 3.8715032e-39
4175.8096 2155.8989 230 3.1350101e-39
4207.8462 2172.4412 230 9.2268357e-40
4370.8799 2322.1746 240 1.0141575e-39
4421.3589 2351.3613 240 9.2160317e-40
4473.9341 2219.3164 240 1.0137946e-39
4454.5415 2184.3315 240 1.0134331e-39
4447.7935 2130.9043 240 9.2159897e-40
4451.6914 2117.3101 240 9.2160037e-40
4460.4375 2112.4619 240 9.2159897e-40
4469.1841 2107.6138 240 8.2976067e-40
4473.082 2094.0195 230 8.2976207e-40
4074.1956 1766.3162 210 9.2159897e-40
4078.0938 1752.7219 210 1.1052714e-39
4091.688 1756.62 210 2.951349e-39
4095.5859 1743.0256 210 1.1056329e-39
4099.4844 1729.4314 210 9.219563e-40
4094.6362 1720.6852 210 1.0130743e-39
4093.686 1698.3447 210 8.2976207e-40
4088.8379 1689.5985 210 3.9694273e-39
4102.4321 1693.4966 210 8.5731076e-39
4101.4824 1671.1561 210 8.5734649e-39
4115.0767 1675.0542 210 5.8054394e-39
4073.3438 1641.0194 210 3.2253981e-39
2804.1338 4425.4595 270 2.3509886e-38
2832.3704 4352.6396 270 2.3509886e-38
2845.0146 4334.1973 270 1.9928301e-38
2866.4053 4310.9072 270 1.28254e-38
2892.6438 4296.3623 270 1.1522729e-38
2912.1343 4228.3911 270 8.300925e-39
2932.5747 4182.7603 270 3.3233923e-39
2972.3096 4275.0703 270 2.9535336e-39
3018.075 6193.4043 340 2.8613422e-39
3050.9636 6335.2437 350 3.1390137e-39
3089.9446 6199.3003 340 4.2449927e-39
3190.8047 6360.6299 350 3.2308478e-39
3218.1895 6162.5137 340 3.507436e-39
3260.8723 6218.8892 350 8.8515372e-39
3283.311 6114.9829 340 8.025731e-39
3311.5476 6042.1631 340 4.9926639e-39
3337.8843 5924.6626 340 4.0627776e-39
3361.3708 5740.1406 330 6.269712e-39
3387.6096 5725.5962 330 2.3509872e-38
3432.1924 5826.6528 340 2.350982e-38
3462.3291 5798.5142 330 9.7720557e-39
3493.4158 5792.7158 340 1.1995622e-38
3539.9968 5835.4971 340 2.2497901e-38
3580.6816 5950.1475 340 2.3509886e-38
3608.9182 5877.3276 340 2.3509886e-38
3636.2048 5782.168 340 2.3509886e-38
3661.4937 5745.2832 340 1.9366168e-38
3681.9341 5699.6519 340 2.1673176e-38
3703.4226 5573.4053 330 2.1765011e-38
3721.0129 5460.7529 330 2.3507733e-38
3746.3018 5423.8682 330 2.3509886e-38
3760.9438 5347.1504 320 2.3509886e-38
3784.3325 5265.5845 320 2.3509886e-38
3875.4966 5409.4219 330 2.3509886e-38
3983.9565 5749.4751 340 2.3509886e-38
4018.9414 5730.083 340 2.3509886e-38
4059.7241 5741.7773 350 2.3509886e-38
4085.0127 5704.8926 340 2.3509886e-38
4110.3013 5668.0078 340 2.3509886e-38
4123.0439 5546.6089 340 2.3509886e-38
4220.104 5618.5767 340 2.3509886e-38
4219.252 5493.2798 340 2.3509886e-38
4249.3887 5465.1411 340 2.3509886e-38
4284.3735 5445.749 340 2.3509886e-38
4295.1177 5382.6255 340 2.3509886e-38
4320.4062 5345.7407 340 2.3509886e-38
4350.543 5317.6021 340 2.3509886e-38
4359.3872 5209.7979 330 2.3509886e-38
4405.9683 5252.5786 330 2.3509886e-38
4462.2451 5312.8521 340 2.3509886e-38
4503.0283 5324.5464 340 2.3509886e-38
4467.2896 5115.686 330 2.3509886e-38
4538.1113 5202.1978 330 2.3509886e-38
4593.4385 5240.1309 340 2.2224189e-38
4613.8789 5194.4995 340 1.5602706e-38
4599.4326 5065.3047 330 1.4860847e-38
4654.7598 5103.2378 330 2.3509886e-38
4690.6943 5106.1855 330 2.3509886e-38
3954.2739 3261.9829 250 2.3234379e-38
3966.918 3243.5405 250 6.3720474e-39
3979.5625 3225.0981 250 7.0159385e-39
4006.751 3232.8943 250 1.0333599e-38
4008.749 3174.6189 250 7.3840245e-39
4016.5454 3147.4304 250 5.7237703e-39
4009.7971 3094.0032 250 4.8918306e-39
4022.4414 3075.5608 250 4.6148752e-39
3927.4775 2842.3616 240 4.4286819e-39
3964.3623 2867.6501 240 3.9694946e-39
4133.0957 3151.4265 250 3.5081633e-39
4165.1328 3167.969 250 3.4145215e-39
3822.9155 2488.7139 220 2.9538993e-39
3826.8137 2475.1196 220 2.5843937e-39
3835.5598 2470.2715 220 3.1379248e-39
3857.9004 2469.3213 220 2.7687822e-39
3866.6465 2464.4731 220 4.0605972e-39
3874.4426 2437.2847 220 2.1234086e-39
3874.4426 2437.2847 220 2.2145238e-39
3891.9351 2427.5884 220 2.214521e-39
3910.3774 2440.2329 220 1.846093e-39
4094.7034 2669.6318 230 3.042474e-39
4183.9673 2768.7881 240 2.5850916e-39
4211.1558 2776.5845 240 2.5843671e-39
4210.2061 2754.2439 240 2.0294025e-39
4103.5479 2561.8276 230 2.0297626e-39
4063.813 2469.5176 230 2.5807672e-39
4062.8628 2447.1772 220 4.4264818e-39
4061.9128 2424.8364 220 5.5339126e-39
4056.1147 2393.75 220 8.8507973e-39
4050.3167 2362.6631 220 1.2819193e-38
4044.5186 2331.5767 220 1.5774509e-38
4038.7205 2300.4897 220 1.6696481e-38
4037.7705 2278.1494 220 1.8170871e-38
3951.4546 2143.0583 210 1.7899311e-38
3950.5046 2120.7178 210 1.531859e-38
3954.4028 2107.1235 210 1.0816857e-38
3963.1489 2102.2754 210 5.195848e-39
3967.0469 2088.6812 210 2.3233164e-39
3984.5393 2078.9849 210 1.9397348e-39
3993.2856 2074.1367 210 1.5684187e-39
4002.0317 2069.2886 210 1.291106e-39
4024.3723 2068.3389 210 1.2907444e-39
4056.4089 2084.8811 210 4.3353526e-39
4121.4326 2140.3064 210 5.2576536e-39
4148.6211 2148.1025 220 3.7789474e-39
4185.5059 2173.3911 220 3.2261254e-39
4189.4038 2159.7969 220 1.0138016e-39
4370.8799 2322.1746 230 1.013796e-39
4393.2202 2321.2246 230 9.219591e-40
4473.9341 2219.3164 230 9.2159897e-40
4444.8457 2166.8394 220 1.0137932e-39
4472.0342 2174.6353 220 1.0134359e-39
4452.6416 2139.6506 220 1.0134359e-39
4451.6914 2117.3101 220 8.2976207e-40
4460.4375 2112.4619 220 8.2976207e-40
4469.1841 2107.6138 220 8.2940334e-40
4473.082 2094.0195 220 9.2124024e-40
4074.1956 1766.3162 200 1.0134345e-39
4078.0938 1752.7219 200 1.0134345e-39
4086.8398 1747.8738 200 2.9517049e-39
4095.5859 1743.0256 200 1.2896612e-39
4099.4844 1729.4314 200 9.219591e-40
4094.6362 1720.6852 200 8.2940334e-40
4093.686 1698.3447 200 9.2124024e-40
4088.8379 1689.5985 200 3.3240593e-39
4097.584 1684.7505 200 8.5731034e-39
4092.7361 1676.0042 200 8.3887149e-39
4101.4824 1671.1561 200 5.9891062e-39
2804.1338 4425.4595 250 2.6783858e-39
2823.6243 4357.4883 250 2.9614523e-39
2849.8628 4342.9434 250 3.6097098e-39
2871.2532 4319.6533 250 5.2786241e-39
2888.7456 4309.957 250 6.8625495e-39
2908.2361 4241.9854 240 6.2903419e-39
2927.7266 4174.0137 240 3.0468124e-39
2945.219 4164.3179 240 2.5836721e-39
3016.3713 5942.811 300 2.677311e-39
3054.0098 6196.3525 300 2.9531749e-39
3087.0947 6132.2788 300 2.9542525e-39
3113.3333 6117.7349 300 3.045732e-39
3147.3679 6076.002 300 3.2297702e-39
3191.9509 6177.0581 310 3.5070689e-39
3216.2896 6117.833 300 3.4148803e-39
3258.9724 6174.208 310 3.4159607e-39
3285.3091 6056.7075 300 3.5999974e-39
3308.6975 5975.1416 300 4.0602553e-39
3340.8323 5888.728 300 4.1535299e-39
3361.3708 5740.1406 300 5.6268635e-39
3387.6096 5725.5962 300 5.3538766e-39
3431.2424 5804.312 300 5.5404146e-39
3462.3291 5798.5142 300 6.7346544e-39
3498.2639 5801.4619 300 2.341805e-38
3531.2505 5840.3452 300 2.2864885e-38
3573.9336 5896.7202 300 2.3509886e-38
3607.0183 5832.647 300 2.3509886e-38
3625.5586 5742.335 300 2.3509886e-38
3655.6953 5714.1963 300 1.9824269e-38
3684.8821 5663.7173 300 1.9740684e-38
3698.5745 5564.6592 300 2.1213998e-38
3717.115 5474.3472 290 1.9558089e-38
3747.2515 5446.2085 290 2.1030327e-38
3760.9438 5347.1504 290 2.3509886e-38
3786.2324 5310.2656 290 2.3509886e-38
3808.6711 5206.3594 290 2.3509886e-38
3891.9407 5480.3413 300 2.3509886e-38
3983.9565 5749.4751 310 2.3509886e-38
4019.8914 5752.4233 310 2.3509886e-38
4059.7241 5741.7773 310 2.3509886e-38
4084.063 5682.5518 310 2.3509886e-38
4098.7051 5605.8345 300 2.3509886e-38
3886.0754 4500.3076 270 2.3509886e-38
3907.4658 4477.0176 270 2.3509886e-38
4231.2402 5143.6284 290 2.3509886e-38
4241.9849 5080.5049 290 2.3509886e-38
4262.4253 5034.874 290 2.3509886e-38
3985.624 3999.219 250 2.3509886e-38
4002.1665 3967.1824 250 2.3509886e-38
3993.5181 3869.0742 250 2.3509886e-38
4029.4531 3872.0222 250 2.2499695e-38
4097.3262 3994.469 260 2.1030327e-38
4583.8403 5119.6821 300 1.7161398e-38
4579.0903 5007.9795 290 1.7897158e-38
4644.1133 5063.4048 300 2.1948682e-38
4689.7446 5083.8452 300 2.3509886e-38
3954.2739 3261.9829 230 1.6622223e-38
3966.918 3243.5405 230 5.9106923e-39
3979.5625 3225.0981 230 6.0921913e-39
4001.9028 3224.1479 230 1.4300507e-38
4003.9009 3165.8728 230 9.4130571e-39
4006.8491 3129.938 230 6.3684349e-39
4009.7971 3094.0032 230 5.1684189e-39
4017.5933 3066.8147 230 4.7989077e-39
3932.3257 2851.1079 220 4.4311972e-39
3993.4509 2920.1274 220 4.0609742e-39
4152.4883 3186.4114 230 3.8765731e-39
3795.7271 2480.9175 210 3.5989128e-39
3813.2192 2471.2214 210 3.0453761e-39
3821.9656 2466.3733 210 2.4932715e-39
3825.8638 2452.7791 210 3.0457236e-39
3848.2041 2451.8291 210 2.5847483e-39
3856.9502 2446.981 210 3.5985373e-39
3855.0503 2402.2998 200 2.3996339e-39
3859.8984 2411.0461 200 2.3070768e-39
3887.0869 2418.8423 210 1.9379313e-39
3905.5293 2431.4866 210 1.8460888e-39
4183.9673 2768.7881 220 2.9502812e-39
4201.4595 2759.092 220 2.3056292e-39
4205.3574 2745.4976 220 2.0308346e-39
4089.0034 2535.5889 210 2.1212408e-39
4068.6609 2478.2637 210 1.8460916e-39
4067.7109 2455.9233 210 4.6112318e-39
4071.6089 2442.3291 210 5.6268243e-39
4060.9629 2402.4961 210 6.0006473e-39
4045.4685 2353.917 210 5.4611922e-39
4039.6704 2322.8303 210 2.9704711e-39
4033.8723 2291.7437 200 1.8511363e-39
3947.5566 2156.6526 200 1.6631311e-39
3946.6064 2134.312 200 1.5684201e-39
3950.5046 2120.7178 200 1.4758616e-39
3954.4028 2107.1235 200 1.2914703e-39
3963.1489 2102.2754 200 1.3833016e-39
3967.0469 2088.6812 200 1.2914661e-39
3984.5393 2078.9849 200 1.5684313e-39
3998.1338 2082.8831 200 1.2914647e-39
4006.8799 2078.0349 200 1.1985502e-39
4024.3723 2068.3389 200 1.1067147e-39
4056.4089 2084.8811 200 4.2445807e-39
4126.2803 2149.0527 200 5.5320811e-39
4158.3174 2165.595 200 3.8704256e-39
4185.5059 2173.3911 200 3.1350101e-39
4520.5151 2262.0974 210 8.2976347e-40
4444.8457 2166.8394 210 8.2940334e-40
4476.8818 2183.3816 210 7.3756784e-40
4452.6416 2139.6506 210 8.2940474e-40
4456.5396 2126.0564 210 9.208787e-40
4460.4375 2112.4619 210 8.2940334e-40
4469.1841 2107.6138 210 9.2123883e-40
4481.8281 2089.1714 210 1.0134331e-39
4074.1956 1766.3162 190 1.1971083e-39
4078.0938 1752.7219 190 1.1059888e-39
4086.8398 1747.8738 190 3.1353857e-39
4095.5859 1743.0256 190 1.1978271e-39
4099.4844 1729.4314 190 1.2900186e-39
4094.6362 1720.6852 190 1.1978285e-39
4093.686 1698.3447 190 1.2900214e-39
4088.8379 1689.5985 190 3.2307847e-39
4102.4321 1693.4966 190 8.3890708e-39
4092.7361 1676.0042 190 8.3887135e-39
4110.2285 1666.308 190 6.0820235e-39
2804.1338 4425.4595 220 2.6765824e-39
2823.6243 4357.4883 220 2.7684193e-39
2849.8628 4342.9434 220 2.7680563e-39
2862.5071 4324.501 220 2.6773012e-39
2893.5938 4318.7031 220 2.12341e-39
2908.2361 4241.9854 220 4.2446115e-39
2932.5747 4182.7603 220 3.3233881e-39
3022.1694 5973.8975 260 3.2293988e-39
3049.4561 5878.7373 260 3.5063416e-39
3081.4927 5895.2798 260 3.5978142e-39
3107.8293 5777.7793 260 3.5985457e-39
3133.1179 5740.8945 260 3.8762116e-39
3168.9546 5846.7988 260 4.0595252e-39
3212.5876 5925.5146 260 4.1531614e-39
3249.3743 6053.7593 270 4.7992469e-39
3278.561 6003.2803 260 4.6137794e-39
3306.7976 5930.4609 260 5.0754848e-39
3339.8823 5866.3872 260 6.9197491e-39
3361.3708 5740.1406 260 7.1037845e-39
3391.5076 5712.002 260 7.1992339e-39
3426.3943 5795.5659 260 8.3044829e-39
3457.481 5789.7676 260 6.5491758e-39
3498.2639 5801.4619 260 7.7697165e-39
3530.3005 5818.0044 260 2.221988e-38
3567.1853 5843.293 260 2.3509886e-38
3591.5239 5784.0679 260 2.3509886e-38
3619.7607 5711.248 260 2.3509886e-38
3649.8972 5683.1099 260 2.0283792e-38
3679.084 5632.6304 260 1.872296e-38
3702.4727 5551.0649 260 1.9832161e-38
3721.9629 5483.0933 260 1.4028588e-38
3748.2017 5468.5488 260 2.3509886e-38
3766.7422 5378.2368 260 2.3509886e-38
3796.8789 5350.0986 260 2.3509886e-38
3821.2173 5290.873 260 2.3509886e-38
3890.9907 5458.001 260 2.3509886e-38
3977.2085 5696.0483 270 2.3509886e-38
4018.9414 5730.083 270 2.3509886e-38
4054.876 5733.0312 270 2.3509886e-38
4079.2148 5673.8057 270 2.3509886e-38
4092.9072 5574.7476 270 2.3509886e-38
3832.7463 4404.0996 240 2.3509886e-38
3854.1367 4380.8096 240 2.3509886e-38
3880.3755 4366.2646 240 2.3509886e-38
3943.4006 4479.9658 240 2.3509886e-38
4268.0273 5271.873 260 2.3508809e-38
4247.7827 5111.5918 260 2.2862015e-38
3933.2449 3925.3513 230 2.0561464e-38
3964.3315 3919.5532 230 2.037851e-38
3981.824 3909.8569 230 2.037851e-38
3992.5684 3846.7336 220 1.9824628e-38
4019.7568 3854.5298 230 1.8996673e-38
4062.4397 3910.905 230 1.7983254e-38
4594.6826 4953.6025 260 1.5684497e-38
4659.7061 5009.0278 260 2.1305834e-38
3954.2739 3261.9829 210 1.2931584e-38
3966.918 3243.5405 210 5.9074497e-39
3979.5625 3225.0981 210 6.0010691e-39
4001.9028 3224.1479 210 1.8826275e-38
4003.9009 3165.8728 210 1.2643164e-38
4002.001 3121.1919 210 7.6602555e-39
4009.7971 3094.0032 210 5.5375658e-39
3914.8333 2860.804 200 5.0758604e-39
3932.3257 2851.1079 200 4.7067065e-39
4004.0972 2959.9602 210 4.429042e-39
3790.8789 2472.1714 190 3.5989114e-39
3808.3711 2462.4751 190 2.9538993e-39
3812.2693 2448.8809 190 2.6762306e-39
3821.0156 2444.0327 190 2.7702157e-39
3843.356 2443.0828 190 2.4918352e-39
3847.2542 2429.4885 190 3.6918119e-39
3859.8984 2411.0461 190 2.8584513e-39
3874.4426 2437.2847 190 2.0301283e-39
3901.6313 2445.0811 190 2.1226771e-39
3915.2256 2448.979 190 1.9386502e-39
3937.5662 2448.0291 190 3.0421167e-39
4179.1191 2760.042 200 3.596724e-39
4206.3076 2767.8384 200 3.1350298e-39
4104.4976 2584.168 200 1.7524597e-39
4079.3071 2518.0967 200 1.3847491e-39
4073.509 2487.01 200 1.8453728e-39
4072.5591 2464.6694 190 1.938646e-39
4085.2034 2446.2271 190 1.7520925e-39
4060.9629 2402.4961 190 1.4755028e-39
4045.4685 2353.917 190 1.6595368e-39
4039.6704 2322.8303 190 1.8432049e-39
4052.3147 2304.3879 190 2.0268773e-39
3937.8604 2139.1602 190 1.9357565e-39
3946.6064 2134.312 190 1.659171e-39
3950.5046 2120.7178 190 1.5673369e-39
3954.4028 2107.1235 190 1.566974e-39
3963.1489 2102.2754 190 2.11871e-39
3967.0469 2088.6812 190 1.7520953e-39
3984.5393 2078.9849 190 1.3829499e-39
3998.1338 2082.8831 190 1.1067161e-39
4006.8799 2078.0349 190 1.1989117e-39
4024.3723 2068.3389 190 2.945584e-39
4056.4089 2084.8811 190 4.3356987e-39
4126.2803 2149.0527 190 5.5324384e-39
4153.4688 2156.8486 190 3.4108908e-39
4185.5059 2173.3911 190 3.1342913e-39
4431.251 2162.9412 190 1.1985474e-39
4490.4766 2187.2798 190 1.2903871e-39
4457.4897 2148.397 190 1.382217e-39
4456.5396 2126.0564 190 1.1981887e-39
4460.4375 2112.4619 190 1.3818583e-39
4469.1841 2107.6138 190 1.3818583e-39
4486.6763 2097.9177 190 1.1989061e-39
4074.1956 1766.3162 180 1.382217e-39
4078.0938 1752.7219 180 1.2907402e-39
4086.8398 1747.8738 180 2.9520734e-39
4095.5859 1743.0256 180 1.1056357e-39
4099.4844 1729.4314 180 1.1985432e-39
4094.6362 1720.6852 180 1.1978285e-39
4093.686 1698.3447 180 1.1981859e-39
4088.8379 1689.5985 180 2.8627238e-39
4102.4321 1693.4966 180 8.5727418e-39
4092.7361 1676.0042 180 8.2050383e-39
4101.4824 1671.1561 180 6.3571684e-39
4068.4956 1632.2732 180 3.593103e-39
2804.1338 4425.4595 200 3.1371976e-39
2823.6243 4357.4883 200 3.2286757e-39
2849.8628 4342.9434 200 3.1368346e-39
2871.2532 4319.6533 200 2.9531707e-39
2888.7456 4309.957 200 2.0312116e-39
2912.1343 4228.3911 200 4.1484656e-39
2934.4749 4227.4414 200 2.6773054e-39
3018.2712 5987.4917 230 3.9669554e-39
3045.7542 5686.4194 220 4.2424703e-39
3075.7927 5761.2368 220 4.3357464e-39
3099.1812 5679.6709 220 4.8878383e-39
3127.418 5606.8516 220 4.9814689e-39
3162.4026 5587.459 220 5.4428128e-39
3187.6914 5550.5742 220 6.086027e-39
3229.228 5790.5215 220 6.3636971e-39
3265.1628 5793.4697 220 5.9967195e-39
3293.3013 5823.6064 230 7.836302e-39
3333.1343 5812.9604 230 9.5876659e-39
3351.6748 5722.6484 220 1.1246816e-38
3386.6594 5703.2559 220 1.0419233e-38
3436.0906 5813.0581 230 1.2167697e-38
3467.1772 5807.2603 230 8.5720664e-39
3499.2139 5823.8027 230 9.874052e-39
3534.1987 5804.4102 230 2.2955285e-38
3565.2854 5798.6123 230 2.3509886e-38
3589.624 5739.3867 230 2.3509886e-38
3617.8606 5666.5674 230 2.3509886e-38
3647.9973 5638.4287 230 1.6512051e-38
3668.4377 5592.7979 220 1.7065258e-38
3702.4727 5551.0649 220 1.7618782e-38
3727.7612 5514.1802 220 1.3474347e-38
3757.8979 5486.0415 220 2.3509886e-38
3772.5403 5409.3237 220 2.3509886e-38
3807.5249 5389.9312 220 2.3509886e-38
3831.8635 5330.7061 220 2.3509886e-38
3885.1926 5426.9141 220 2.3509886e-38
3956.866 5638.7227 230 2.3509886e-38
4008.2952 5690.25 230 2.3509886e-38
4044.23 5693.1982 230 2.3509886e-38
4068.5684 5633.9727 230 2.3509886e-38
3826.9482 4373.0132 210 2.3509886e-38
3843.4905 4340.9766 210 2.3509886e-38
3869.729 4326.4321 210 2.3508092e-38
3912.4121 4382.8076 210 2.3506298e-38
3964.791 4456.6748 210 2.304461e-38
3926.3987 3974.8804 200 1.9822116e-38
3937.1431 3911.7571 200 1.9179268e-38
3954.6353 3902.0608 200 1.8441714e-38
3980.874 3887.5166 200 1.834952e-38
3987.7202 3837.9875 200 1.7889266e-38
4014.9087 3845.7837 200 1.6876565e-38
4051.7935 3871.0723 200 1.6694329e-38
4098.3745 3913.8533 200 1.5678757e-38
3954.2739 3261.9829 190 1.0531306e-38
3966.918 3243.5405 190 5.538656e-39
3979.5625 3225.0981 190 7.2907037e-39
4001.9028 3224.1479 190 2.3509886e-38
4008.749 3174.6189 190 1.8364945e-38
3997.1528 3112.4456 190 8.6776823e-39
4014.6453 3102.7493 190 5.9070658e-39
3909.0352 2829.7173 180 5.2606048e-39
3932.3257 2851.1079 180 4.891095e-39
4004.0972 2959.9602 190 4.5219537e-39
3790.8789 2472.1714 180 3.5070703e-39
3803.5232 2453.729 180 3.044653e-39
3812.2693 2448.8809 180 2.4921939e-39
3821.0156 2444.0327 180 2.7684221e-39
3838.5078 2434.3367 180 2.3992752e-39
3842.406 2420.7422 180 3.5988988e-39
3855.0503 2402.2998 180 4.1481097e-39
3879.2908 2446.0308 180 4.4192876e-39
3911.3276 2462.5732 180 5.4298382e-39
3924.9219 2466.4714 180 5.3372838e-39
3947.2622 2465.5215 180 4.6054683e-39
4214.0059 2843.606 190 2.5843727e-39
4203.3594 2803.7729 190 2.584014e-39
4072.4609 2567.6257 180 2.2152273e-39
4090.9033 2580.27 180 2.2127119e-39
4079.3071 2518.0967 180 1.4758686e-39
4073.509 2487.01 180 1.5687789e-39
4077.4072 2473.4155 180 1.8460874e-39
4090.0513 2454.9731 180 2.1223156e-39
4051.2666 2385.0037 180 2.1223226e-39
4030.9243 2327.6785 180 2.1226771e-39
4020.2778 2287.8457 180 1.9379285e-39
4024.1763 2274.2512 180 2.0297598e-39
3937.8604 2139.1602 170 1.9390047e-39
3946.6064 2134.312 170 2.3059908e-39
3950.5046 2120.7178 170 1.7535302e-39
3954.4028 2107.1235 170 1.9368453e-39
3963.1489 2102.2754 170 1.9368425e-39
3980.6414 2092.5791 170 1.8450028e-39
3989.3875 2087.7312 170 1.5680544e-39
3998.1338 2082.8831 170 1.5687718e-39
4002.0317 2069.2886 170 2.0362296e-39
4010.7778 2064.4407 170 2.7684038e-39
4042.8147 2080.9829 170 1.7531575e-39
4079.6995 2106.2715 170 2.7673094e-39
4163.165 2174.3413 180 3.5020004e-39
4203.9482 2186.0354 180 3.1342913e-39
4426.4028 2154.1948 180 1.2907416e-39
4457.4897 2148.397 180 1.1985488e-39
4456.5396 2126.0564 180 1.2907402e-39
4465.2861 2121.2083 180 1.2903801e-39
4482.7783 2111.5122 180 1.1985432e-39
4486.6763 2097.9177 180 1.1981859e-39
4074.1956 1766.3162 170 1.1981859e-39
4082.9419 1761.468 170 1.2900228e-39
4086.8398 1747.8738 170 2.8591561e-39
4095.5859 1743.0256 170 1.0141589e-39
4099.4844 1729.4314 170 1.1059902e-39
4094.6362 1720.6852 170 1.2900228e-39
4093.686 1698.3447 170 1.29002e-39
4088.8379 1689.5985 170 2.8612791e-39
4102.4321 1693.4966 170 8.2968682e-39
4101.4824 1671.1561 170 8.111049e-39
4110.2285 1666.308 170 6.1742177e-39
4063.6475 1623.5271 170 3.1324878e-39
2799.2856 4416.7129 170 3.1364787e-39
2827.5222 4343.8936 170 3.1368332e-39
2848.9128 4320.6035 170 3.1368374e-39
2866.4053 4310.9072 170 3.0446432e-39
2883.8975 4301.2109 170 2.0304927e-39
2912.1343 4228.3911 170 4.5190334e-39
2925.6304 4335.2456 170 3.5041752e-39
3015.5193 5817.5142 190 4.0584336e-39
3046.7041 5708.7598 190 4.1509908e-39
3073.8926 5716.5562 190 4.4282993e-39
3103.0793 5666.0767 190 4.7956427e-39
3131.3159 5593.2573 190 5.0733058e-39
3156.6045 5556.3726 190 5.4428114e-39
3186.7412 5528.2339 190 5.811238e-39
3228.376 5665.2251 190 6.3644132e-39
3254.6147 5650.6807 190 5.3517088e-39
3293.3994 5720.6504 190 9.1284674e-39
3330.2842 5745.939 190 9.7713313e-39
3349.7747 5677.9673 190 1.1341162e-38
3380.8613 5672.1689 190 1.0418506e-38
3430.2925 5781.9717 190 1.1799634e-38
3461.3792 5776.1733 190 8.2057978e-39
3497.314 5779.1216 190 9.3215845e-39
3523.5525 5764.5771 190 2.2769103e-38
3553.6892 5736.4385 190 2.3509886e-38
3582.876 5685.9595 190 2.3509886e-38
3602.3662 5617.9883 190 2.3509886e-38
3637.3511 5598.5957 190 1.4110308e-38
3667.4878 5570.457 190 1.5586888e-38
3698.5745 5564.6592 190 1.6233345e-38
3728.7112 5536.5205 190 1.6602134e-38
3758.8479 5508.3818 190 2.3509886e-38
3777.3882 5418.0698 190 2.3509886e-38
3807.5249 5389.9312 190 2.3509886e-38
3831.8635 5330.7061 190 2.3509886e-38
3870.6484 5400.6758 190 2.3509886e-38
3955.916 5616.3823 190 2.3509886e-38
3996.699 5628.0767 190 2.3509886e-38
4027.7856 5622.2788 190 2.3509886e-38
3805.5576 4396.3037 180 2.3509886e-38
3822.1001 4364.2666 180 2.3506657e-38
3843.4905 4340.9766 180 2.350307e-38
3874.5771 4335.1782 180 2.3132858e-38
3918.2102 4413.894 180 2.2028321e-38
3919.5525 4024.4094 180 1.8715068e-38
3915.7524 3935.0476 180 1.8531397e-38
3922.5986 3885.5186 180 1.8071144e-38
3949.7871 3893.3147 180 1.7702008e-38
3971.1777 3870.0242 180 1.6965889e-38
3973.1758 3811.7488 180 1.6137935e-38
4005.2124 3828.2913 180 1.5862068e-38
4042.0972 3853.5798 180 1.512415e-38
4074.134 3870.1223 180 1.4755358e-38
4115.8667 3904.157 180 1.3833048e-38
3959.1221 3270.729 170 6.9234808e-39
3966.918 3243.5405 170 5.1695105e-39
3984.4106 3233.8442 170 1.0885209e-38
4006.751 3232.8943 170 2.3509886e-38
4008.749 3174.6189 170 1.873444e-38
4016.5454 3147.4304 170 7.8479146e-39
4019.4934 3111.4956 170 5.5368441e-39
3914.8333 2860.804 170 5.0758506e-39
3937.1738 2859.854 170 4.614864e-39
4013.7935 2977.4526 170 4.2460773e-39
3786.0308 2463.4253 160 3.5070731e-39
3798.675 2444.9829 160 2.8606219e-39
3807.4211 2440.1348 160 2.4918324e-39
3816.1675 2435.2866 160 2.4921939e-39
3833.6597 2425.5903 160 2.3999941e-39
3837.5579 2411.9961 160 3.3223147e-39
3855.0503 2402.2998 160 9.6870334e-39
3874.4426 2437.2847 160 8.8511378e-39
3911.3276 2462.5732 160 7.4707215e-39
3920.0737 2457.7251 160 5.2609172e-39
3937.5662 2448.0291 160 4.4286497e-39
4218.854 2852.3521 170 2.3056278e-39
4203.3594 2803.7729 170 2.9491966e-39
4072.4609 2567.6257 160 3.0428327e-39
4086.0552 2571.5239 160 1.8453728e-39
4079.3071 2518.0967 160 1.9368509e-39
4073.509 2487.01 160 1.9368425e-39
4077.4072 2473.4155 160 2.2141511e-39
4090.0513 2454.9731 160 1.8457315e-39
4051.2666 2385.0037 160 2.0297654e-39
3997.9375 2288.7954 160 1.6609787e-39
3996.9875 2266.4551 160 1.9371984e-39
3943.6584 2170.2471 160 1.937204e-39
3937.8604 2139.1602 160 1.4758658e-39
3946.6064 2134.312 160 2.4918128e-39
3955.3528 2129.4639 160 1.5676985e-39
3959.2507 2115.8696 160 1.7520813e-39
3986.4395 2123.666 160 1.7524456e-39
3995.1855 2118.8179 160 1.660257e-39
3994.2356 2096.4773 160 1.568769e-39
4002.9819 2091.6294 160 4.1455818e-39
4002.0317 2069.2886 160 3.0377825e-39
4010.7778 2064.4407 160 1.6609745e-39
4033.1184 2063.4907 160 3.0435334e-39
4060.3071 2071.2869 160 3.9640449e-39
4171.9111 2169.4932 160 3.3186825e-39
4490.4766 2187.2798 160 1.3822184e-39
4462.3379 2157.1431 160 1.3822184e-39
4456.5396 2126.0564 160 1.2903801e-39
4460.4375 2112.4619 160 1.2903787e-39
4477.9302 2102.7659 160 1.2903801e-39
4486.6763 2097.9177 160 1.1067105e-39
4082.9419 1761.468 160 1.2900228e-39
4082.9419 1761.468 160 1.2903843e-39
4086.8398 1747.8738 160 3.13502e-39
4095.5859 1743.0256 160 1.1063504e-39
4099.4844 1729.4314 160 1.1063504e-39
4094.6362 1720.6852 160 1.2900214e-39
4093.686 1698.3447 160 1.1981831e-39
4088.8379 1689.5985 160 2.5850552e-39
4102.4321 1693.4966 160 8.1114078e-39
4106.3301 1679.9023 160 8.0206443e-39
4119.9248 1683.8004 160 6.0823794e-39
4142.2651 1682.8503 160 2.7647857e-39
