# .PCD v0.7 - Point Cloud Data file format
VERSION 0.7
FIELDS x y z rgb
SIZE 4 4 4 4
TYPE F F F F
COUNT 1 1 1 1
WIDTH 319
HEIGHT 1
VIEWPOINT 0 0 0 1 0 0 0
POINTS 319
DATA ascii
2767.9199 -560.66003 134.384 9.2197031e-39
1939.75 2617.8901 139.925 9.2197031e-39
1926.45 2626.625 137.08551 9.2197031e-39
1934.64 2626.5801 139.203 9.2197031e-39
1927.8101 2631.925 137.80499 9.2197031e-39
1930.29 2632.3599 138.478 9.2197031e-39
1918.62 2641.8999 136.117 9.2197031e-39
1920.4301 2643.5801 136.701 9.2197031e-39
1862.46 2907.24 139.938 9.2197031e-39
1857.35 2913.0466 139.01534 9.2197031e-39
1857.14 2920.75 139.494 9.2197031e-39
1849.89 2942.98 139.157 9.2197031e-39
1565.59 3930.1799 133.867 9.2197031e-39
1564.37 3977.4199 136.819 9.2197031e-39
1565.59 4013.8301 139.653 9.2197031e-39
2816.4199 -632.43994 141.97099 9.2197031e-39
1941.25 2622.9424 140.66275 9.2197031e-39
1963.39 2629.4199 146.842 9.2197031e-39
1939.51 2637.5898 141.226 9.2197031e-39
1941.2676 2637.365 141.66501 9.2197031e-39
1954.14 2636.1868 144.916 9.2197031e-39
1964.486 2635.936 147.57639 9.2197031e-39
1943.9424 2643.5947 142.78824 9.2197031e-39
1952.0649 2641.72 144.76151 9.2197031e-39
1961.34 2644.9102 147.383 9.2197031e-39
1875.3199 2909.4167 143.41667 9.2197031e-39
1897.4301 2907.3467 148.99733 9.2197031e-39
1900.5699 2909.1201 149.93401 9.2197031e-39
1875.3149 2913.2075 143.67751 9.2197031e-39
1882.0901 2915.5049 145.591 9.2197031e-39
1895.4867 2914.0566 148.959 9.2197031e-39
1859.7 2921.03 140.17799 9.2197031e-39
1861.53 2929.22 141.218 9.2197031e-39
1885.2219 2924.4561 147.021 9.2197031e-39
1891.8275 2925.615 148.81125 9.2197031e-39
1865.2968 2933.78 142.508 9.2197031e-39
1866.0732 2945.1699 143.49699 9.2197031e-39
1559.55 4087.49 143.187 9.2197031e-39
1562.23 4124.0601 146.41 9.2197031e-39
2914.6201 -862.41003 151.481 9.2197031e-39
2944.53 -856.80005 159.61 9.2197031e-39
1908.24 2945.0601 154.405 9.2197031e-39
1557.72 4200.9297 150.562 9.2197031e-39
1559.16 4250.3301 154.354 9.2197031e-39
1553.62 4344.1299 159.407 9.2197031e-39
2978.8601 -854.80005 168.63699 9.2197031e-39
1553.73 4410.3701 164.02 9.2197031e-39
3075.95 -1063.35 179.339 9.2197031e-39
1547.27 4525.1201 170.28799 9.2197031e-39
1539.34 4650.6299 176.91901 9.2197031e-39
3103.3101 -1032.49 188.558 9.2197031e-39
1555.85 4654.4199 181.455 9.2197031e-39
1571 4656.8203 185.543 9.2197031e-39
3443.26 558.8418 386.66199 9.2197031e-39
3445.0601 593.80011 389.54599 9.2197031e-39
3445.8101 633.21271 392.46701 9.2197031e-39
3446.05 668.71851 394.98599 9.2197031e-39
3452.3501 699.117 398.71899 9.2197031e-39
3449.8601 736.74902 400.67899 9.2197031e-39
3450.98 772.44299 403.43799 9.2197031e-39
3448.1201 808.95898 405.224 9.2197031e-39
3450.1299 842.039 408.035 9.2197031e-39
3446.96 877.45898 409.664 9.2197031e-39
3451.27 906.47498 412.78699 9.2197031e-39
3447.8601 940.82996 414.28101 9.2197031e-39
3446.1299 975.62299 416.241 9.2197031e-39
3443.1299 1008.135 417.715 9.2197031e-39
3446.47 1035.9561 420.505 9.2197031e-39
3448.05 1062.332 422.73801 9.2197031e-39
3443.8999 1097.229 424.07901 9.2197031e-39
3437.9299 1130.5549 424.83801 9.2197031e-39
3441.1299 1156.485 427.45999 9.2197031e-39
3441.3 1182.394 429.29901 9.2197031e-39
3442.45 1209.564 431.47501 9.2197031e-39
3441.28 1235.96 432.99899 9.2197031e-39
3441.03 1263.598 434.84698 9.2197031e-39
3434.8999 1293.832 435.35001 9.2197031e-39
3441.1699 1314.433 438.39899 9.2197031e-39
3437.27 1341.682 439.27399 9.2197031e-39
3438.6001 1366.161 441.31201 9.2197031e-39
3442.2 1385.916 443.612 9.2197031e-39
3439.99 1412.842 444.90201 9.2197031e-39
3436.3401 1438.256 445.716 9.2197031e-39
3441.03 1458.533 448.33401 9.2197031e-39
3436.8201 1483.7051 448.98499 9.2197031e-39
3433.3301 1510.0811 449.90799 9.2197031e-39
3436.24 1528.7891 451.95401 9.2197031e-39
3439.1699 1549.438 454.14001 9.2197031e-39
3433.8301 1574.083 454.465 9.2197031e-39
3437.8301 1593.3879 456.83701 9.2197031e-39
3431.1699 1618.348 456.83801 9.2197031e-39
3433.1001 1638.6799 458.746 9.2197031e-39
3433.8999 1657.59 460.26199 9.2197031e-39
3437.01 1676.6801 462.38699 9.2197031e-39
3427.6699 1702.1899 461.73401 9.2197031e-39
3430.3101 1721.11 463.72601 9.2197031e-39
3432.73 1738.09 465.526 9.2197031e-39
3431.6699 1759.09 466.70599 9.2197031e-39
3431.23 1777.5699 467.87 9.2197031e-39
3433.8899 1795.77 469.819 9.2197031e-39
3433.0701 1814.13 470.87601 9.2197031e-39
3431.1299 1834.78 471.80301 9.2197031e-39
3432.45 1851.47 473.29999 9.2197031e-39
3431.79 1870.96 474.47601 9.2197031e-39
3431.05 1888.52 475.5 9.2197031e-39
3429.97 1907.85 476.56 9.2197031e-39
3428.8701 1925.26 477.479 9.2197031e-39
3425.9299 1961.67 479.23599 9.2197031e-39
3423.1799 1981.09 479.86899 9.2197031e-39
3436.0601 1939.8101 480.34601 9.2197031e-39
3429.25 1994.23 482.349 9.2197031e-39
3427.02 2013.09 483.07501 9.2197031e-39
3424.8701 2030.0699 483.694 9.2197031e-39
3422.25 2048.73 484.30701 9.2197031e-39
3428.6599 2061.46 486.849 9.2197031e-39
3425.7 2080.01 487.36401 9.2197031e-39
3430.0701 2093.5698 489.435 9.2197031e-39
2750.3999 4640.6699 489.72601 9.2197031e-39
2735.99 4650.1499 486.65201 9.2197031e-39
2720.6899 4704.7598 486.47101 9.2197031e-39
3427.6599 2111.5898 490.056 9.2197031e-39
3424.54 2128.1499 490.396 9.2197031e-39
3430.8301 2142.3198 493.005 9.2197031e-39
3425.6001 2159.48 492.83701 9.2197031e-39
3430.7 2174.03 495.16501 9.2197031e-39
3426.0701 2190.6699 495.116 9.2197031e-39
3422.6299 2208.22 495.44199 9.2197031e-39
3426.8701 2221.3799 497.45001 9.2197031e-39
3423.1201 2238.8 497.68301 9.2197031e-39
3427.1101 2251.97 499.629 9.2197031e-39
3423.04 2269.24 499.76999 9.2197031e-39
2774.3501 4647.1602 496.37701 9.2197031e-39
2739.1799 4703.5 491.17099 9.2197031e-39
3426.79 2282.4102 501.65201 9.2197031e-39
3421.48 2299.8198 501.48001 9.2197031e-39
3417.5 2315.1802 501.51401 9.2197031e-39
3422.1599 2329.4102 503.70499 9.2197031e-39
3425.4299 2342.5801 505.461 9.2197031e-39
3420.4299 2359.3901 505.332 9.2197031e-39
3423.46 2372.55 507.02499 9.2197031e-39
3428.5601 2386.6401 509.32101 9.2197031e-39
3421.8999 2402.1201 508.66699 9.2197031e-39
3418.8601 2431.73 509.92899 9.2197031e-39
3198.8101 3254.7 509.90799 9.2197031e-39
2807.29 4675.4399 506.85999 9.2197031e-39
3425.8 2416.4399 510.668 9.2197031e-39
3421.55 2446.25 511.629 9.2197031e-39
3416.24 2460.95 511.27399 9.2197031e-39
3418.6699 2475.4399 512.90601 9.2197031e-39
3420.76 2488.6001 514.35699 9.2197031e-39
3424.8601 2502.8101 516.401 9.2197031e-39
3417.1399 2517.5898 515.42603 9.2197031e-39
3419.0701 2532.1001 516.92798 9.2197031e-39
3412.05 2546.52 516.10999 9.2197031e-39
3422.3799 2559.8101 519.703 9.2197031e-39
3415.1299 2574.1099 518.81403 9.2197031e-39
3216.1699 3206.8401 511.091 9.2197031e-39
3210.5801 3217.73 510.396 9.2197031e-39
3216.3601 3233.8601 513.00897 9.2197031e-39
3213.29 3245.6899 513.03302 9.2197031e-39
3143.05 3560.9399 516.664 9.2197031e-39
3146.3799 3579.76 518.82703 9.2197031e-39
2825.22 4668.0303 510.98901 9.2197031e-39
2852.6899 4683.2598 519.15302 9.2197031e-39
2773.6101 4878.2002 512.16998 9.2197031e-39
3416.55 2588.6001 520.18597 9.2197031e-39
3415.8 2601.96 520.91602 9.2197031e-39
3416.01 2616.5601 521.98102 9.2197031e-39
3417.9299 2629.6299 523.38202 9.2197031e-39
3417.8999 2644.23 524.383 9.2197031e-39
3418.6299 2657.3999 525.48297 9.2197031e-39
3419.3101 2671.9399 526.66602 9.2197031e-39
3419.8201 2685.1299 527.71002 9.2197031e-39
3409.6101 2700.1599 526.10699 9.2197031e-39
3410.8601 2713.23 527.33502 9.2197031e-39
3411.1101 2740.8201 529.30798 9.2197031e-39
3280.0801 3213.05 528.065 9.2197031e-39
3167.73 3561.1101 523.06403 9.2197031e-39
2869.8201 4673.6602 522.922 9.2197031e-39
2888.96 4671.77 527.74597 9.2197031e-39
3419.76 2727.46 530.62402 9.2197031e-39
3419.76 2755.22 532.54602 9.2197031e-39
3410.8899 2768.4199 531.16101 9.2197031e-39
3419.3 2782.98 534.34601 9.2197031e-39
3409.23 2796 532.64203 9.2197031e-39
3418.3601 2810.73 536.02301 9.2197031e-39
3409.05 2823.6101 534.50403 9.2197031e-39
3408.26 2838.0801 535.29999 9.2197031e-39
3408.3899 2851.24 536.24597 9.2197031e-39
3406.3899 2865.6399 536.72498 9.2197031e-39
3406.3101 2878.8101 537.61298 9.2197031e-39
3403.75 2906.3401 538.85699 9.2197031e-39
3402.23 2920.77 539.461 9.2197031e-39
3400.73 2933.8301 539.97803 9.2197031e-39
3197.3401 3562.22 530.80499 9.2197031e-39
3219.72 3560.1201 536.45398 9.2197031e-39
2915.3799 4679.1201 535.09497 9.2197031e-39
2934.6899 4676.77 539.93103 9.2197031e-39
2768.23 5209.6899 533.71301 9.2197031e-39
2753.73 5232.48 531.53601 9.2197031e-39
2754.9399 5308.3301 537.09802 9.2197031e-39
3413.7 2893.96 540.57501 9.2197031e-39
3408.5601 2949.3701 543.08002 9.2197031e-39
3406.8401 2962.49 543.54102 9.2197031e-39
3412.48 2977.99 546.073 9.2197031e-39
3402.8701 2990.04 544.41998 9.2197031e-39
3409.1899 3005.8 547.14697 9.2197031e-39
3406.0601 3018.78 547.23401 9.2197031e-39
3403.54 3033.24 547.58099 9.2197031e-39
3401.1399 3046.3301 547.86603 9.2197031e-39
3397.4199 3060.5701 547.88898 9.2197031e-39
3396.7 3073.99 548.63 9.2197031e-39
3330.28 3317.1899 548.26501 9.2197031e-39
3295.3401 3455.79 548.81097 9.2197031e-39
3292.4199 3470.98 549.10498 9.2197031e-39
3267.3999 3537.6201 547.23798 9.2197031e-39
3253.75 3562.76 545.44397 9.2197031e-39
2956.1299 4674.1001 545.29498 9.2197031e-39
2816.1001 5209.1299 546.065 9.2197031e-39
2793.5 5210.0298 540.27802 9.2197031e-39
2751.3899 5366.75 540.21997 9.2197031e-39
2750.5701 5443.96 545.349 9.2197031e-39
2748.6499 5513.9902 549.69897 9.2197031e-39
3402.1899 3090.1599 551.17102 9.2197031e-39
3399.3301 3103.24 551.336 9.2197031e-39
3398.8799 3118.3 552.26202 9.2197031e-39
3395.8 3131.3501 552.367 9.2197031e-39
3398.8401 3147.3601 554.26099 9.2197031e-39
3395.52 3160.4199 554.30603 9.2197031e-39
3402.9299 3177.8 557.42798 9.2197031e-39
3397.51 3190.3899 556.89398 9.2197031e-39
3402.75 3207.45 559.42999 9.2197031e-39
3398.9399 3220.55 559.35303 9.2197031e-39
3394.6299 3234.97 559.23297 9.2197031e-39
3308.8899 3447.26 551.72803 9.2197031e-39
3308.0901 3494.0901 554.76099 9.2197031e-39
3299.6499 3506.79 553.453 9.2197031e-39
3288.3201 3516.3301 551.18103 9.2197031e-39
3290.76 3534.8101 553.091 9.2197031e-39
3282.2 3563.22 552.841 9.2197031e-39
3260.6599 3669.4399 554.61499 9.2197031e-39
3139.96 4190.7402 559.43903 9.2197031e-39
2976.5 4673.0303 550.495 9.2197031e-39
3002.54 4677.5 557.54303 9.2197031e-39
2841.1599 5208.04 552.47699 9.2197031e-39
2863.8701 5206.6699 558.26099 9.2197031e-39
2744.1799 5587.8301 553.651 9.2197031e-39
2737.78 5650.5801 556.336 9.2197031e-39
3399 3359.6201 568.98798 9.2197031e-39
3393.97 3372.71 568.59198 9.2197031e-39
3176.1201 4180.29 568.07703 9.2197031e-39
3162.6699 4191.9902 565.40302 9.2197031e-39
3022.0701 4674.2598 562.37701 9.2197031e-39
3048.3799 4678.1299 569.45398 9.2197031e-39
2889.4299 5205.98 564.83099 9.2197031e-39
2737.3101 5746.5898 562.85699 9.2197031e-39
2736.1799 5836.3301 568.77301 9.2197031e-39
3396.3501 3390.3899 570.43298 9.2197031e-39
3399.1001 3406.8201 572.28101 9.2197031e-39
3401.1201 3424.7 574.04102 9.2197031e-39
3396.45 3438.1899 573.76703 9.2197031e-39
3398.1299 3456.2 575.44702 9.2197031e-39
3400.23 3472.9299 577.14801 9.2197031e-39
3204.96 4187.4199 576.03497 9.2197031e-39
3111.8301 4496.8999 573.33899 9.2197031e-39
3067.53 4673.5898 574.09601 9.2197031e-39
2737.49 5950.9902 577.04401 9.2197031e-39
3229.8301 4187.2998 582.46503 9.2197031e-39
3154.1001 4524.8203 586.21399 9.2197031e-39
3126.04 4653.27 587.83801 9.2197031e-39
3095.6699 4679.3301 581.78003 9.2197031e-39
3115.46 4675.1499 586.61298 9.2197031e-39
2733.5601 6042.1299 582.33398 9.2197031e-39
2727.8301 6143.8701 587.89001 9.2197031e-39
3372.7 3762.49 590.05499 9.2197031e-39
3370.05 3779.1899 590.526 9.2197031e-39
3367.96 3798.3601 591.31097 9.2197031e-39
3366.55 3816.25 592.18201 9.2197031e-39
3372.71 3841.73 595.54102 9.2197031e-39
3362.24 3853.5 593.64398 9.2197031e-39
3364.76 3876.9199 595.91699 9.2197031e-39
3365.6299 3897.3899 597.55902 9.2197031e-39
3362.22 3916.9099 598.02698 9.2197031e-39
3359.5801 3935.1399 598.60498 9.2197031e-39
3286.9399 4195.5601 597.82001 9.2197031e-39
3267.1899 4202.0498 593.15698 9.2197031e-39
3245.1399 4338.1899 596.86798 9.2197031e-39
3179.1799 4524.98 592.71802 9.2197031e-39
3204.6699 4528.3701 599.54901 9.2197031e-39
3171.5801 4616.2402 597.065 9.2197031e-39
3153.97 4660.9297 595.59698 9.2197031e-39
2730.79 6275.8301 597.78601 9.2197031e-39
2712.1201 6338.3901 597.28198 9.2197031e-39
3363.3201 3960.8201 601.34998 9.2197031e-39
3358.73 3977.96 601.34698 9.2197031e-39
3361.8899 4003.8899 603.95898 9.2197031e-39
3356.8701 4021.1201 603.85303 9.2197031e-39
3358.7 4046.6599 606.09399 9.2197031e-39
3357.6599 4067.8101 607.28601 9.2197031e-39
3353.0701 4088.4199 607.52502 9.2197031e-39
3352.98 4111 609.065 9.2197031e-39
3326.21 4210.7197 609.034 9.2197031e-39
3230.6001 4528.6602 606.28101 9.2197031e-39
3190.3799 4676.7402 606.117 9.2197031e-39
2710.3 6465.96 605.638 9.2197031e-39
3355.04 4138.3101 611.487 9.2197031e-39
3348.71 4155.7803 611.05701 9.2197031e-39
3350.1399 4183.3203 613.33301 9.2197031e-39
3348.25 4205.5898 614.38397 9.2197031e-39
3250.9399 4524.4697 611.258 9.2197031e-39
3279.51 4527.1899 618.84003 9.2197031e-39
3328.8799 4462.73 627.16101 9.2197031e-39
3307 4498.1396 623.94897 9.2197031e-39
3311.6799 4536.8799 627.84003 9.2197031e-39
3333.03 4499.7998 630.802 9.2197031e-39
2817.3501 7724.5601 720.43103 9.2197031e-39
2857.74 7717.5801 730.40399 9.2197031e-39
2903.4399 7715.1099 742.06403 9.2197031e-39
2945.27 7714.1802 752.82703 9.2197031e-39
