# .PCD v0.7 - Point Cloud Data file format
VERSION 0.7
FIELDS x y z rgb
SIZE 4 4 4 4
TYPE F F F F
COUNT 1 1 1 1
WIDTH 316
HEIGHT 1
VIEWPOINT 0 0 0 1 0 0 0
POINTS 316
DATA ascii
1938.37 -758.63 134.16701 9.2197031e-39
2046.9668 2579.6965 138.62967 9.2197031e-39
2039.67 2589.2 136.60699 9.2197031e-39
2046.0065 2586.0066 138.32666 9.2197031e-39
2051.5701 2581.2 139.853 9.2197031e-39
2042.4451 2593.365 137.319 9.2197031e-39
2037.9301 2605.1401 136.022 9.2197031e-39
2057.8 2879.02 139.32401 9.2197031e-39
2057.4202 2881.78 139.20166 9.2197031e-39
2059.46 2918.23 139.479 9.2197031e-39
2177.23 7971.1001 133.75101 9.2197031e-39
1962.9 -983.25 142.396 9.2197031e-39
2054.7852 2571.5449 140.784 9.2197031e-39
2076.2732 2577.2131 146.498 9.2197031e-39
2080.3501 2579.51 147.57401 9.2197031e-39
2057.0535 2585.0466 141.29266 9.2197031e-39
2065.1401 2586.1948 143.45 9.2197031e-39
2076.145 2581.855 146.4285 9.2197031e-39
2056.645 2594.105 141.11549 9.2197031e-39
2064.3982 2593.1633 143.2 9.2197031e-39
2078.3601 2590.3901 146.959 9.2197031e-39
2073.49 2609.77 145.51401 9.2197031e-39
2092.5701 2849.24 148.85699 9.2197031e-39
2068.96 2867.3101 142.39799 9.2197031e-39
2073.6399 2864.5974 143.673 9.2197031e-39
2094.2151 2866.2449 149.17101 9.2197031e-39
2073.8674 2875.1851 143.6555 9.2197031e-39
2084.48 2876.9048 146.485 9.2197031e-39
2095.48 2873.905 149.45399 9.2197031e-39
2066.7629 2885.053 141.67972 9.2197031e-39
2087.6599 2881.04 147.306 9.2197031e-39
2093.3 2882.5024 148.80751 9.2197031e-39
2062.9299 2893.3201 140.592 9.2197031e-39
2222.02 7961.6699 145.81799 9.2197031e-39
1994.89 -983.68994 150.967 9.2197031e-39
2025.5601 -984.83997 159.19 9.2197031e-39
2090.1299 2562.8501 150.315 9.2197031e-39
2099.7 2869.0701 150.619 9.2197031e-39
2107.47 2881.8301 152.608 9.2197031e-39
2265.6899 7971.8901 157.438 9.2197031e-39
2057.5601 -984.70996 167.761 9.2197031e-39
2297.52 7718.98 167.82899 9.2197031e-39
2088.22 -983.30005 175.964 9.2197031e-39
2338.6499 7716.5498 178.86301 9.2197031e-39
2381.04 7706.6499 190.28999 9.2197031e-39
2422.1399 7704.4702 201.315 9.2197031e-39
2464.8201 7699.7798 212.782 9.2197031e-39
2505.78 7695.8701 223.782 9.2197031e-39
2549.3999 7700.3599 235.433 9.2197031e-39
2590.25 7694.7002 246.416 9.2197031e-39
2634.01 7698.3901 258.10901 9.2197031e-39
2675.97 7700.9102 269.33099 9.2197031e-39
2953.48 2832.7 379.57101 9.2197031e-39
2948.7852 2844.8252 378.22449 9.2197031e-39
2953.54 2858.1399 379.39999 9.2197031e-39
2949.6201 2865.8501 378.293 9.2197031e-39
2946.55 2899.1899 377.22501 9.2197031e-39
2953.6499 2909.24 379.052 9.2197031e-39
2951.23 2917.1799 378.345 9.2197031e-39
2947.73 2925.23 377.349 9.2197031e-39
2948.96 2933.9199 377.61401 9.2197031e-39
2946.27 2942.1399 376.832 9.2197031e-39
2944.9951 2954.7251 376.39801 9.2197031e-39
2940.76 2966.6001 375.17499 9.2197031e-39
2945.28 2976.71 376.311 9.2197031e-39
2939.51 2983.72 374.716 9.2197031e-39
2941.0601 2993.1299 375.061 9.2197031e-39
2940.75 3001.6899 374.91599 9.2197031e-39
2949.54 3013.4399 377.18301 9.2197031e-39
2942.5901 3020.0701 375.272 9.2197031e-39
2983.8601 2818.6699 387.81201 9.2197031e-39
2981.1799 2827.24 387.03101 9.2197031e-39
2970.4399 2877.6899 383.78101 9.2197031e-39
2972.0901 2886.4299 384.159 9.2197031e-39
2959.3101 2893.1001 380.68701 9.2197031e-39
2964.99 3036.54 381.14999 9.2197031e-39
2989.1299 3053.71 387.48801 9.2197031e-39
3031.3799 4666.2402 386.91101 9.2197031e-39
3052.3701 4667.0498 392.52701 9.2197031e-39
3073.1899 4665.48 398.116 9.2197031e-39
3107.0901 4374.0498 409.34601 9.2197031e-39
3108.45 4408.04 409.45999 9.2197031e-39
3104.6399 4433.3799 408.25201 9.2197031e-39
3093.1101 4448.2197 405.05301 9.2197031e-39
3096.9099 4487.1699 405.785 9.2197031e-39
3098.1499 4672.7803 404.74799 9.2197031e-39
3093.6001 3099.6001 415.13199 9.2197031e-39
3125.98 4202.0498 415.673 9.2197031e-39
3119.6699 4219.6201 413.853 9.2197031e-39
3134.8501 4385.9502 416.69199 9.2197031e-39
3120.8201 4636.0898 411.08899 9.2197031e-39
3119.1499 4670.71 410.388 9.2197031e-39
3045.7 -243.02502 426.95999 9.2197031e-39
3138.8999 3547.5 423.96301 9.2197031e-39
3160.1101 3547.6101 429.64401 9.2197031e-39
3130.5901 3556.0601 421.67401 9.2197031e-39
3128.9299 3570.29 421.12299 9.2197031e-39
3144.53 4199.8203 420.65799 9.2197031e-39
3161.3899 4196.23 425.202 9.2197031e-39
3178.1899 4191.2402 429.73801 9.2197031e-39
3156.5601 4327.1104 422.94199 9.2197031e-39
3181.1799 4333.23 429.491 9.2197031e-39
3150.6799 4378.2197 420.98901 9.2197031e-39
3174.3201 4382.96 427.28699 9.2197031e-39
3176.5 4656.2998 425.85501 9.2197031e-39
3162.6101 4669.73 422.034 9.2197031e-39
3063.02 -213.24402 431.37799 9.2197031e-39
3076.9199 -171.73499 434.79599 9.2197031e-39
3183.8101 3189.1201 438.63599 9.2197031e-39
3178.0601 3198.97 437.02301 9.2197031e-39
3179.5701 3211.3 437.33701 9.2197031e-39
3162.47 3228.01 432.633 9.2197031e-39
3177.22 3222.6101 436.62201 9.2197031e-39
3164.3899 3241.1799 433.05099 9.2197031e-39
3181.9199 3548.3899 435.48001 9.2197031e-39
3194.48 4186.4902 434.13501 9.2197031e-39
3211.28 4181.1104 438.67499 9.2197031e-39
3104.3101 -171.69501 442.13199 9.2197031e-39
3201.01 2817.03 445.987 9.2197031e-39
3218.3 3190.8401 447.86099 9.2197031e-39
3204.1201 3548.3999 441.42401 9.2197031e-39
3226.1101 3548.52 447.314 9.2197031e-39
3231.3401 4180.5498 444.05301 9.2197031e-39
3151.8201 -221.20697 455.22299 9.2197031e-39
3245.53 2831.47 457.80399 9.2197031e-39
3226.75 3157.4099 450.36899 9.2197031e-39
3239.6799 3287.73 452.87201 9.2197031e-39
3242.8 3302.55 453.59799 9.2197031e-39
3258.23 3322.9199 457.582 9.2197031e-39
3266.4199 3438.8799 458.92001 9.2197031e-39
3252.74 3445.78 455.20499 9.2197031e-39
3251.8601 3459.52 454.86801 9.2197031e-39
3247.22 3516.27 453.20599 9.2197031e-39
3265.99 3513.3601 458.255 9.2197031e-39
3250.9099 3549.48 453.94901 9.2197031e-39
3271.45 3547.8301 459.46301 9.2197031e-39
3264.7 4194.3701 452.88699 9.2197031e-39
3288.8899 4197.6797 459.34 9.2197031e-39
3192 -251.96698 466.21301 9.2197031e-39
3256.23 2798.8401 460.91299 9.2197031e-39
3279.8301 3432.26 462.56 9.2197031e-39
3279.75 3491.51 462.10101 9.2197031e-39
3276.78 3504.55 461.20999 9.2197031e-39
3317.6201 4204.6396 466.98499 9.2197031e-39
3208.48 -218.01599 470.375 9.2197031e-39
3304.8201 2813.22 473.82001 9.2197031e-39
3309.8501 3362.1499 471.11899 9.2197031e-39
3343.8401 3452.6499 479.556 9.2197031e-39
3342.24 3751.3501 476.92401 9.2197031e-39
3347.26 3774.3101 478.099 9.2197031e-39
3353.1299 3797.5601 479.5 9.2197031e-39
3350 3814.6499 478.535 9.2197031e-39
3345.5601 3830.01 477.23199 9.2197031e-39
3351.77 3855.3999 478.70801 9.2197031e-39
3347.6699 3871.49 477.492 9.2197031e-39
3347.4099 3891.98 477.26999 9.2197031e-39
3342.9299 3908.1299 475.952 9.2197031e-39
3345.1101 3931.3999 476.36401 9.2197031e-39
3342.3899 3949.6201 475.5 9.2197031e-39
3344.73 3973.78 475.95001 9.2197031e-39
3342.26 3992.8 475.146 9.2197031e-39
3344.02 4017.1899 475.439 9.2197031e-39
3338.97 4034.26 473.95999 9.2197031e-39
3342.24 4060.9399 474.63901 9.2197031e-39
3336.73 4078.0901 473.03699 9.2197031e-39
3339.3701 4105.0098 473.54599 9.2197031e-39
3340.8101 4130.1396 473.74399 9.2197031e-39
3340.75 4155.1699 473.54401 9.2197031e-39
3336.25 4174.7002 472.19501 9.2197031e-39
3334.9299 4199.1602 471.66199 9.2197031e-39
3250.8201 -251.664 481.966 9.2197031e-39
3339.7 3211.0801 480.229 9.2197031e-39
3366.6201 3234.22 487.26801 9.2197031e-39
3349.8301 3396.1699 481.577 9.2197031e-39
3379.5801 3426.5601 489.319 9.2197031e-39
3354.8601 3443.8201 482.57101 9.2197031e-39
3382.4399 3442.96 489.966 9.2197031e-39
3394.8201 2584.3599 499.616 9.2197031e-39
3396.0701 2596.9302 499.858 9.2197031e-39
3390.4299 2634.26 498.07001 9.2197031e-39
3392.21 2646.72 498.45599 9.2197031e-39
3394.8301 2658.6299 499.06799 9.2197031e-39
3395.4399 2671.1899 499.13901 9.2197031e-39
3395.9199 2683.23 499.17999 9.2197031e-39
3396.3201 2695.8 499.194 9.2197031e-39
3396.6001 2707.8501 499.17999 9.2197031e-39
3394.8501 2720.4399 498.61899 9.2197031e-39
3396.8601 2732.48 499.06799 9.2197031e-39
3396.8301 2745.05 498.96899 9.2197031e-39
3388.01 2756.95 496.51901 9.2197031e-39
3396.47 2769.6699 498.69 9.2197031e-39
3396.1399 2781.72 498.51199 9.2197031e-39
3395.6899 2794.28 498.29901 9.2197031e-39
3343.1799 -399.84998 507.79501 9.2197031e-39
3409.0701 1752.87 509.565 9.2197031e-39
3410.1499 1788.39 509.59201 9.2197031e-39
3410.6399 1805.52 509.59601 9.2197031e-39
3410.5701 1840.64 509.319 9.2197031e-39
3409.99 1858.61 509.03201 9.2197031e-39
3409.74 1875.47 508.84 9.2197031e-39
3410.4399 1892.27 508.90399 9.2197031e-39
3411.5 1907.99 509.073 9.2197031e-39
3410.1799 1925.67 508.58701 9.2197031e-39
3409.22 1942.25 508.20801 9.2197031e-39
3408.3601 1959.28 507.853 9.2197031e-39
3406.2 1976.17 507.14899 9.2197031e-39
3413.54 1988.41 509.02499 9.2197031e-39
3403.3201 2009.28 506.13501 9.2197031e-39
3410.3899 2021.51 507.936 9.2197031e-39
3406.6899 2038.55 506.82101 9.2197031e-39
3404.8 2055.1299 506.19199 9.2197031e-39
3402.5 2071.0898 505.457 9.2197031e-39
3408.1599 2083.75 506.88101 9.2197031e-39
3404.6799 2100.01 505.828 9.2197031e-39
3410.0901 2112.6899 507.185 9.2197031e-39
3407.1899 2128.4199 506.29199 9.2197031e-39
3404.3401 2144.5601 505.409 9.2197031e-39
3408.27 2157.0898 506.37 9.2197031e-39
3405.1201 2173.1001 505.40701 9.2197031e-39
3408.8101 2185.6099 506.30399 9.2197031e-39
3413.49 2198.3301 507.46399 9.2197031e-39
3407.8999 2214.3198 505.84799 9.2197031e-39
3412.3301 2227.03 506.94199 9.2197031e-39
3408.27 2242.1802 505.741 9.2197031e-39
3404.22 2257.74 504.543 9.2197031e-39
3408.1201 2269.8799 505.49701 9.2197031e-39
3412.0701 2282.5898 506.46201 9.2197031e-39
3407.46 2297.4302 505.116 9.2197031e-39
3411.1699 2310.1299 506.01801 9.2197031e-39
3405.3601 2325.0898 504.35001 9.2197031e-39
3407.9099 2338.03 504.93701 9.2197031e-39
3403.6799 2352.28 503.70001 9.2197031e-39
3406.9299 2364.9302 504.47601 9.2197031e-39
3410.8701 2376.8501 505.44501 9.2197031e-39
3405.46 2391.6802 503.88599 9.2197031e-39
3400.72 2405.6299 502.51401 9.2197031e-39
3402.5701 2418.47 502.914 9.2197031e-39
3405.1399 2430.5898 503.51199 9.2197031e-39
3400.1399 2444.8501 502.069 9.2197031e-39
3411.02 2455.23 504.90601 9.2197031e-39
3404.8401 2469.5898 503.14401 9.2197031e-39
3397.47 2483.47 501.07001 9.2197031e-39
3399.5901 2496.0601 501.54401 9.2197031e-39
3402.47 2508 502.228 9.2197031e-39
3404.3799 2520.6299 502.64499 9.2197031e-39
3396.54 2534.1602 500.44601 9.2197031e-39
3398.22 2546.74 500.80399 9.2197031e-39
3399.73 2558.8198 501.11899 9.2197031e-39
3402.1599 2571.3101 501.677 9.2197031e-39
3397.1699 2608.98 500.06201 9.2197031e-39
3398.21 2621.5601 500.24701 9.2197031e-39
3367.05 -383.53998 514.06897 9.2197031e-39
3413.47 568.01862 519.48401 9.2197031e-39
3415.7 604.3811 519.81201 9.2197031e-39
3417.1799 680.54218 519.64801 9.2197031e-39
3419.1899 789.05298 519.38702 9.2197031e-39
3417.24 826.17102 518.59003 9.2197031e-39
3417.8 893.29504 518.24402 9.2197031e-39
3422.8101 920.255 519.38702 9.2197031e-39
3417.74 958.28699 517.74799 9.2197031e-39
3421.95 985.04401 518.67999 9.2197031e-39
3420.25 1017.335 517.98602 9.2197031e-39
3423.1001 1044.671 518.547 9.2197031e-39
3419.9399 1077.429 517.45801 9.2197031e-39
3416.9199 1110.5339 516.40503 9.2197031e-39
3419.3201 1135.488 516.86401 9.2197031e-39
3415.46 1168.2681 515.58899 9.2197031e-39
3415.2 1195.2009 515.32098 9.2197031e-39
3416.47 1221.089 515.46899 9.2197031e-39
3417.53 1245.629 515.57397 9.2197031e-39
3415.4399 1274.171 514.80298 9.2197031e-39
3414.51 1299.906 514.36298 9.2197031e-39
3419.9399 1319.7329 515.67102 9.2197031e-39
3417.7 1345.963 514.88 9.2197031e-39
3417.73 1370.511 514.70398 9.2197031e-39
3414.1399 1397.1489 513.547 9.2197031e-39
3419.9199 1415.363 514.961 9.2197031e-39
3416.4399 1441.078 513.83899 9.2197031e-39
3419.5801 1461.194 514.53302 9.2197031e-39
3416.23 1485.9861 513.45099 9.2197031e-39
3413 1511.151 512.401 9.2197031e-39
3413.45 1531.771 512.37097 9.2197031e-39
3418.5601 1549.019 513.60999 9.2197031e-39
3414.0601 1573.2891 512.22699 9.2197031e-39
3414.96 1593.558 512.31702 9.2197031e-39
3419.01 1610.1431 513.28101 9.2197031e-39
3412.5801 1635.77 511.36899 9.2197031e-39
3413.9099 1654.04 511.59 9.2197031e-39
3417.74 1671 512.48999 9.2197031e-39
3418.6699 1689.17 512.60699 9.2197031e-39
3411.9199 1713.62 510.61801 9.2197031e-39
3413.99 1730.46 511.047 9.2197031e-39
3416.3301 1765.65 511.41599 9.2197031e-39
3418.5901 1818.27 511.63199 9.2197031e-39
3418.1599 -426.57996 528.078 9.2197031e-39
3423.8999 -368.84399 529.18799 9.2197031e-39
3424.8999 -299.88098 528.94702 9.2197031e-39
3426.72 -237.97803 528.979 9.2197031e-39
3424.8 -167.67999 527.94397 9.2197031e-39
3422.95 -102.64801 526.96997 9.2197031e-39
3422.45 -39.997009 526.37402 9.2197031e-39
3421.8301 18.351013 525.77698 9.2197031e-39
3419.9099 79.64801 524.81201 9.2197031e-39
3421.26 130.53601 524.79797 9.2197031e-39
3421.8301 183.522 524.56 9.2197031e-39
3420.24 236.642 523.73999 9.2197031e-39
3419.22 289.21201 523.08099 9.2197031e-39
3420.53 334.17099 523.099 9.2197031e-39
3418.01 386.32401 522.03998 9.2197031e-39
3417.97 430.92102 521.70001 9.2197031e-39
3418.1001 475.87201 521.40302 9.2197031e-39
3418.3501 517.59302 521.16199 9.2197031e-39
3418.72 640.32672 520.35602 9.2197031e-39
3419.72 715.40283 520.07098 9.2197031e-39
3422.1899 747.99597 520.492 9.2197031e-39
3423.6599 852.52899 520.11401 9.2197031e-39
