# .PCD v0.7 - Point Cloud Data file format
VERSION 0.7
FIELDS x y z rgb
SIZE 4 4 4 4
TYPE F F F F
COUNT 1 1 1 1
WIDTH 327
HEIGHT 1
VIEWPOINT 0 0 0 1 0 0 0
POINTS 327
DATA ascii
-742.04199 -82.273987 134.22 9.2197031e-39
2177.02 2317.1602 139.88 9.2197031e-39
2179.52 2325.74 138.541 9.2197031e-39
2183.1001 2328.5601 138.57401 9.2197031e-39
2178.8101 2334.9199 136.52701 9.2197031e-39
2185.7949 2335.6851 137.56599 9.2197031e-39
3096.99 3088.0601 138.636 9.2197031e-39
3128.96 3137.4399 133.939 9.2197031e-39
3144.27 3137.73 136.5 9.2197031e-39
-749.46802 -130.97998 142.983 9.2197031e-39
2197.95 2299.01 147.205 9.2197031e-39
2201.3899 2299.26 147.743 9.2197031e-39
2195.05 2305.8137 145.30612 9.2197031e-39
2206.355 2307.3301 146.93051 9.2197031e-39
2178.4065 2314.6033 140.64433 9.2197031e-39
2185.8535 2317.03 141.42065 9.2197031e-39
2193.6001 2318.3501 142.4745 9.2197031e-39
2212.49 2311.2551 147.17349 9.2197031e-39
2196.5249 2323.0049 142.0175 9.2197031e-39
2201.0701 2325.8198 142.217 9.2197031e-39
2422.72 2472.3599 149.991 9.2197031e-39
2408.95 2494.6401 143.04251 9.2197031e-39
2413.9238 2495.1738 143.78439 9.2197031e-39
2423.5701 2493.27 145.82899 9.2197031e-39
2434.1899 2497.5698 146.76151 9.2197031e-39
2415.53 2501.77 142.701 9.2197031e-39
2448.73 2520.22 144.586 9.2197031e-39
2472.8301 2534.54 145.76401 9.2197031e-39
2492.25 2546.99 146.52499 9.2197031e-39
2515.9099 2562.0801 147.468 9.2197031e-39
2953.76 2919.5901 148.813 9.2197031e-39
2953.8201 2928.04 147.08299 9.2197031e-39
2955.98 2938.5901 145.278 9.2197031e-39
2959.8101 2950.1499 143.55099 9.2197031e-39
2969.5901 2966.99 141.756 9.2197031e-39
2991.8999 2993.6599 140.084 9.2197031e-39
-744.58197 -172.09399 152.291 9.2197031e-39
2474.5701 2510.52 151.011 9.2197031e-39
2503.0901 2519.51 154.04401 9.2197031e-39
2521.47 2524.3 156.20599 9.2197031e-39
2531.54 2525.6299 157.657 9.2197031e-39
2570.6899 2595.1802 150.032 9.2197031e-39
2618.9099 2625.6401 152.017 9.2197031e-39
2651.8799 2648.5601 152.94299 9.2197031e-39
2690.6001 2675.45 154.035 9.2197031e-39
2720.23 2698.03 154.459 9.2197031e-39
2759.8401 2727.21 155.23199 9.2197031e-39
2801.4199 2758.8701 155.83099 9.2197031e-39
2835.04 2786.2 155.959 9.2197031e-39
2864.74 2812.1799 155.69501 9.2197031e-39
2917.54 2853.8701 156.14999 9.2197031e-39
2933.8601 2872.73 155.05901 9.2197031e-39
2949.26 2891.0601 153.92 9.2197031e-39
2954.3601 2903.0801 152.317 9.2197031e-39
2954.6201 2911.47 150.631 9.2197031e-39
-727.50299 -200.84998 161.142 9.2197031e-39
2561.3301 2533.8398 161.069 9.2197031e-39
2603.95 2544.2949 166.215 9.2197031e-39
2627.9299 2547.53 169.65601 9.2197031e-39
-732.14398 -296.15302 179.983 9.2197031e-39
-739.65002 -257.995 170.83501 9.2197031e-39
2643.95 2549.45 172.005 9.2197031e-39
2667.6699 2553.27 175.282 9.2197031e-39
2678.0801 2552.8999 177.14 9.2197031e-39
-725.98499 -338.31097 189.724 9.2197031e-39
2715.3 2559.8599 182.084 9.2197031e-39
2788.05 2576.1899 191.17999 9.2197031e-39
2964.79 2618.8501 212.666 9.2197031e-39
3413.6699 2718.6299 269.00101 9.2197031e-39
3434.1799 2692.9399 277.80801 9.2197031e-39
3432.28 2702.5701 275.49899 9.2197031e-39
3433.0901 2713.3501 273.41501 9.2197031e-39
3442.6499 2643.0898 289.53101 9.2197031e-39
3442.0801 2653.47 287.293 9.2197031e-39
3439.55 2662.98 284.89899 9.2197031e-39
3438.79 2673.3501 282.634 9.2197031e-39
3437.0601 2683.02 280.345 9.2197031e-39
3441 2592.27 299.71799 9.2197031e-39
3438.98 2601.8501 297.39899 9.2197031e-39
3437.8101 2612.03 295.10001 9.2197031e-39
3437.5801 2621.8701 293.034 9.2197031e-39
3435.24 2631.8701 290.57401 9.2197031e-39
3446.3401 2552.52 308.823 9.2197031e-39
3443.6799 2562.0801 306.39801 9.2197031e-39
3442.8601 2572.3198 304.14801 9.2197031e-39
3441.02 2581.9302 301.85101 9.2197031e-39
3448.5801 2502.0601 319.60501 9.2197031e-39
3448.3101 2512.3599 317.43399 9.2197031e-39
3445.99 2522.02 315.047 9.2197031e-39
3445.53 2532.29 312.85199 9.2197031e-39
3445.01 2542.0698 310.74899 9.2197031e-39
3448.6001 2451.97 329.92899 9.2197031e-39
3446.8 2461.75 327.604 9.2197031e-39
3440.97 2471.8799 324.51901 9.2197031e-39
3439.98 2481.5898 322.34799 9.2197031e-39
3439.8799 2491.8301 320.22299 9.2197031e-39
3444.4299 2401.4199 339.63 9.2197031e-39
3445.0601 2411.72 337.61499 9.2197031e-39
3445.5801 2421.53 335.68201 9.2197031e-39
3447.99 2431.8198 333.97601 9.2197031e-39
3448.3401 2441.6499 332.009 9.2197031e-39
3443.0601 2361.1099 347.69901 9.2197031e-39
3450.9199 2371.02 347.005 9.2197031e-39
3442.9399 2381.3198 343.51501 9.2197031e-39
3445.72 2391.53 341.88599 9.2197031e-39
3443.76 2310.4302 358.26199 9.2197031e-39
3445.1399 2320.26 356.47299 9.2197031e-39
3446.5 2330.6001 354.57599 9.2197031e-39
3447.71 2340.4399 352.754 9.2197031e-39
3450.8501 2350.6499 351.189 9.2197031e-39
3446.95 2258.1602 369.57901 9.2197031e-39
3448.8701 2268.53 367.76999 9.2197031e-39
3450.6101 2278.4199 366.03101 9.2197031e-39
3452.3501 2288.8198 364.186 9.2197031e-39
3451.97 2298.96 362.03201 9.2197031e-39
3447.23 2216.1602 378.28 9.2197031e-39
3447.6001 2226.8999 376.13101 9.2197031e-39
3451.6299 2236.45 374.85199 9.2197031e-39
3445.04 2248.3 371.28299 9.2197031e-39
3453.5901 2172.0898 388.44901 9.2197031e-39
3447.6799 2184.4199 384.896 9.2197031e-39
3450.1399 2194.3301 383.27701 9.2197031e-39
3452.6399 2204.75 381.556 9.2197031e-39
3452.5601 2128.71 397.21201 9.2197031e-39
3455.6499 2139.1802 395.58401 9.2197031e-39
3448.0601 2151.73 391.69699 9.2197031e-39
3450.9399 2162.1499 390.043 9.2197031e-39
3453.95 2072.72 408.98499 9.2197031e-39
3455.5 2083.28 407.07501 9.2197031e-39
3459 2093.79 405.509 9.2197031e-39
3453.79 2106.22 402.05499 9.2197031e-39
3457.0801 2116.7 400.45801 9.2197031e-39
3453.75 2026.84 418.40302 9.2197031e-39
3449.26 2039.6899 414.98801 9.2197031e-39
3455.885 2054.855 412.99652 9.2197031e-39
3454.45 1979.37 428.30499 9.2197031e-39
3458.6699 1989.4 426.961 9.2197031e-39
3454.8 2003.02 423.48999 9.2197031e-39
3457.8999 2013.38 421.888 9.2197031e-39
3460.3501 1928.14 439.87 9.2197031e-39
3456.95 1941.65 436.504 9.2197031e-39
3460.8201 1952.6 434.91199 9.2197031e-39
3457.1499 1965.96 431.53 9.2197031e-39
3457.01 1879.1899 449.38501 9.2197031e-39
3453.29 1893.38 445.82199 9.2197031e-39
3458.49 1903.9301 444.539 9.2197031e-39
3455.3601 1917.58 441.19199 9.2197031e-39
3456.29 1840.23 457.28699 9.2197031e-39
3455.8899 1853.87 454.409 9.2197031e-39
3451.5901 1868.64 450.62799 9.2197031e-39
3456.1001 1786.58 468.30899 9.2197031e-39
3462.26 1797.2 467.17801 9.2197031e-39
3459.48 1811.92 463.66901 9.2197031e-39
3460.26 1825.25 461.05399 9.2197031e-39
3460.1799 1742.71 478.048 9.2197031e-39
3458.8899 1757.24 474.83099 9.2197031e-39
3457.73 1772.21 471.54901 9.2197031e-39
3462.4099 1697.61 487.72198 9.2197031e-39
3461.1299 1713.4 484.24899 9.2197031e-39
3461.8201 1727.08 481.54901 9.2197031e-39
3469.8401 1648.05 499.20499 9.2197031e-39
3463.1201 1667.34 494.08099 9.2197031e-39
3463.8401 1682.24 491.133 9.2197031e-39
3463.2 1605.3979 506.85599 9.2197031e-39
3463.04 1621.6599 503.479 9.2197031e-39
3469.53 1632.4199 502.37201 9.2197031e-39
3467.9099 1553.713 518.31201 9.2197031e-39
3468.76 1569.151 515.27698 9.2197031e-39
3469.03 1585.614 511.93201 9.2197031e-39
3464.1899 1505.4299 527.62299 9.2197031e-39
3466.01 1521.557 524.61298 9.2197031e-39
3468.01 1536.527 521.87 9.2197031e-39
3467.3201 1450.344 539.51001 9.2197031e-39
3469.3501 1466.178 536.59497 9.2197031e-39
3470.8799 1483.093 533.37097 9.2197031e-39
642.185 -935.33997 547.10602 9.2197031e-39
3468.8201 1412.325 547.599 9.2197031e-39
3470.54 1428.9299 544.47302 9.2197031e-39
678.38 -932.02002 552.62201 9.2197031e-39
3465.76 1357.245 558.42401 9.2197031e-39
3470.05 1373.266 555.85699 9.2197031e-39
3472.9399 1389.386 553.03302 9.2197031e-39
3466.22 1317.012 566.79199 9.2197031e-39
3468.8401 1335.131 563.508 9.2197031e-39
3466.8799 1254.494 579.78699 9.2197031e-39
3464.9199 1277.0701 574.79999 9.2197031e-39
3469.4299 1293.9861 572.08698 9.2197031e-39
3470 1207.739 589.95398 9.2197031e-39
3467.99 1231.2671 584.763 9.2197031e-39
644.862 -1158.91 593.62799 9.2197031e-39
3471.1599 1161.176 599.74701 9.2197031e-39
3471.1201 1183.553 595.13 9.2197031e-39
530.10901 -1326.88 608.58002 9.2197031e-39
665.07098 -1198.5699 605.26202 9.2197031e-39
974.87299 -963.44995 609.88599 9.2197031e-39
3472.3301 1112.7109 609.93298 9.2197031e-39
3471.6201 1136.7429 604.86102 9.2197031e-39
-298.11899 -2057.9199 617.32501 9.2197031e-39
1049.73 -940.87 618.05798 9.2197031e-39
1102.01 -883.97998 615.29303 9.2197031e-39
3471.51 1064.499 619.72699 9.2197031e-39
3472.1101 1088.0339 614.97998 9.2197031e-39
-247.532 -2055.78 625.552 9.2197031e-39
-156.23599 -1983.5601 626.31 9.2197031e-39
653.349 -1308.48 625.901 9.2197031e-39
3469.98 1015.12 629.638 9.2197031e-39
3471.8501 1038.126 625.21997 9.2197031e-39
-94.313904 -1957.3 631.50702 9.2197031e-39
1110.8199 -953.26001 631.07703 9.2197031e-39
1149.09 -933.95996 633.65503 9.2197031e-39
1181.29 -936.32996 639.65997 9.2197031e-39
3470.2 987.76501 635.31299 9.2197031e-39
-48.850601 -1964.6499 640.81 9.2197031e-39
3.4286201 -1953.8701 647.54303 9.2197031e-39
3472.51 930.15002 647.58002 9.2197031e-39
3469.48 962.31104 640.43298 9.2197031e-39
51.831299 -1954.04 655.87097 9.2197031e-39
1579.13 -698.29004 658.763 9.2197031e-39
3473.1399 871.95703 659.67798 9.2197031e-39
3470.4299 905.20996 652.36102 9.2197031e-39
99.547501 -1950.1699 663.24701 9.2197031e-39
1266.61 -968.32996 660.86902 9.2197031e-39
1303.61 -953.43994 664.138 9.2197031e-39
1335.1 -951.14001 669.05701 9.2197031e-39
1608.63 -696.75 663.50098 9.2197031e-39
1637.33 -691.81006 667.39801 9.2197031e-39
3470.3 846.79602 664.375 9.2197031e-39
1202.42 -1074.96 671.84198 9.2197031e-39
1366.39 -954.62 675.13397 9.2197031e-39
1691.29 -704.62 679.28198 9.2197031e-39
1665.33 -696.51001 673.16302 9.2197031e-39
3477.21 806.20099 673.92297 9.2197031e-39
1397.23 -953.66003 680.21997 9.2197031e-39
1431.64 -944.12 684.15002 9.2197031e-39
1463.92 -935.85999 687.97803 9.2197031e-39
1504.22 -898.77002 687.23798 9.2197031e-39
1714.7 -735.02002 689.55499 9.2197031e-39
3478.2 741.34302 687.45502 9.2197031e-39
3477.47 775.29401 680.33502 9.2197031e-39
1737.9 -761.16003 698.91699 9.2197031e-39
3475.1001 679.09351 699.75 9.2197031e-39
3473.1399 716.51312 691.70599 9.2197031e-39
1795.66 -756.63 707.87598 9.2197031e-39
1858.74 -710.12 709.09802 9.2197031e-39
3480.46 637.18292 709.30402 9.2197031e-39
1826.97 -741.38 710.09802 9.2197031e-39
1889.5699 -692.34998 710.71698 9.2197031e-39
1915.9399 -697.62 716.32202 9.2197031e-39
3478.5901 603.40741 715.94202 9.2197031e-39
1940.97 -728.18005 726.90503 9.2197031e-39
3475.47 572.48291 721.77899 9.2197031e-39
1738.27 -938.94995 735.61102 9.2197031e-39
1965.45 -755.5 736.72803 9.2197031e-39
3478.74 528.6308 731.37598 9.2197031e-39
3479.6001 448.24298 748.08698 9.2197031e-39
3480.6699 487.55902 740.16803 9.2197031e-39
3480.78 405.97198 756.99701 9.2197031e-39
3479.9199 363.814 765.53699 9.2197031e-39
3474.5801 330.448 771.49597 9.2197031e-39
3479.49 275.29901 783.70001 9.2197031e-39
1970.33 -1016.53 791.34802 9.2197031e-39
3478.96 230.61899 792.815 9.2197031e-39
1996.02 -1064.09 805.54797 9.2197031e-39
2028.63 -1049.8101 808.19 9.2197031e-39
3479.46 180.09601 803.31097 9.2197031e-39
2057.8701 -1059.67 815.23199 9.2197031e-39
2090.5701 -1037.97 816.362 9.2197031e-39
2120.8701 -1026.74 819.23798 9.2197031e-39
2153.4299 -990.76001 817.40302 9.2197031e-39
3481.5 127.32401 814.534 9.2197031e-39
3065.6399 -272.54797 825.68597 9.2197031e-39
3478.1899 80.690002 823.57397 9.2197031e-39
3055.26 -331.66998 836.08899 9.2197031e-39
3092.3799 -276.245 831.02802 9.2197031e-39
3117.3101 -269.078 833.82098 9.2197031e-39
3480.3301 24.036987 835.61499 9.2197031e-39
3147.1499 -281.52698 841.49902 9.2197031e-39
3170.3501 -268.33197 842.75403 9.2197031e-39
3196.55 -268.25 847.22498 9.2197031e-39
3476.72 -25.554016 845.21301 9.2197031e-39
3224 -267.48102 851.77002 9.2197031e-39
3251.3301 -269.63202 856.89301 9.2197031e-39
3281.6299 -275.60199 863.31403 9.2197031e-39
3306.5 -269.92902 866.40503 9.2197031e-39
3482.0901 -93.138977 860.05798 9.2197031e-39
2905.8201 -626.16003 871.16602 9.2197031e-39
2933.77 -620.55005 874.79797 9.2197031e-39
2957.8401 -603.63 875.435 9.2197031e-39
2986.48 -601.35999 879.87402 9.2197031e-39
3480.3799 -151.02802 871.69299 9.2197031e-39
3043.71 -601.09998 889.62402 9.2197031e-39
3012.25 -592.56006 882.474 9.2197031e-39
3354.5801 -320.49298 885.06097 9.2197031e-39
3379.2 -312.35999 887.60303 9.2197031e-39
3481.27 -213.87 884.79303 9.2197031e-39
2206.7 -1312.91 892.90399 9.2197031e-39
3068.49 -588.06006 891.18201 9.2197031e-39
3095.1799 -577.25 893.52698 9.2197031e-39
2908.1399 -781.29004 903.52698 9.2197031e-39
3484.6399 -288.13599 900.67401 9.2197031e-39
3486.1001 -357.71002 915.25702 9.2197031e-39
3485.1799 -428.09998 929.60303 9.2197031e-39
3485.1201 -499.96997 944.40002 9.2197031e-39
2642.8899 -1383.62 982.19397 9.2197031e-39
2677.48 -1380.12 987.39697 9.2197031e-39
2156.02 -1869.8201 998.96899 9.2197031e-39
2711.3799 -1385.26 994.26398 9.2197031e-39
2745.0901 -1373.39 997.59302 9.2197031e-39
2778.6101 -1374.08 1003.48 9.2197031e-39
2814.79 -1380.95 1011.09 9.2197031e-39
2849.3501 -1386.8101 1018.22 9.2197031e-39
2231.0601 -1914.9299 1021.12 9.2197031e-39
2918.71 -1385.73 1029.88 9.2197031e-39
2883.03 -1374.72 1021.5 9.2197031e-39
2270.05 -1959.97 1037.08 9.2197031e-39
2953.3 -1378.8 1034.37 9.2197031e-39
2307.73 -1957.7 1043.0601 9.2197031e-39
2636.48 -1700.99 1046.49 9.2197031e-39
2988.8101 -1386.28 1042 9.2197031e-39
2347.47 -1968.72 1052.14 9.2197031e-39
2385.21 -1964.8201 1057.8 9.2197031e-39
2424.5 -1950.6899 1061.62 9.2197031e-39
2462.5701 -1958.8501 1069.8199 9.2197031e-39
2502.2 -1955.77 1075.98 9.2197031e-39
2539.3401 -1942.76 1079.66 9.2197031e-39
2579.49 -1948.76 1087.77 9.2197031e-39
2617.3799 -1947.77 1094.0601 9.2197031e-39
