# .PCD v0.7 - Point Cloud Data file format
VERSION 0.7
FIELDS x y z rgb
SIZE 4 4 4 4
TYPE F F F F
COUNT 1 1 1 1
WIDTH 321
HEIGHT 1
VIEWPOINT 0 0 0 1 0 0 0
POINTS 321
DATA ascii
-750.78003 -25.653015 135.51801 9.2197031e-39
2201.4099 2216.77 136.689 9.2197031e-39
2237.365 2230.915 139.51001 9.2197031e-39
2242.04 2237.0901 138.95233 9.2197031e-39
2237.8252 2241.98 137.22501 9.2197031e-39
2247.9551 2247.9648 137.59399 9.2197031e-39
2253.9299 2258.47 136.32401 9.2197031e-39
2979.3501 2797.01 139.271 9.2197031e-39
2974.8149 2806.6099 136.48901 9.2197031e-39
2970.1399 2816.1499 133.696 9.2197031e-39
-750.78101 -60.077026 142.856 9.2197031e-39
2247.9302 2205.155 146.716 9.2197031e-39
2254.5576 2206.6577 147.47174 9.2197031e-39
2234.28 2218.6899 141.61501 9.2197031e-39
2248.6934 2212.8433 145.20067 9.2197031e-39
2253.2 2219.8398 144.44099 9.2197031e-39
2264.6299 2214.3733 147.46266 9.2197031e-39
2233.325 2220.9399 140.98001 9.2197031e-39
2246.8979 2226.7461 141.9456 9.2197031e-39
2252.3767 2225.1233 143.18166 9.2197031e-39
2476.6599 2396.6567 143.02 9.2197031e-39
2484.6074 2394.2576 144.821 9.2197031e-39
2496.9199 2396.6602 146.30833 9.2197031e-39
2486.1101 2403.3701 143.123 9.2197031e-39
2513.6001 2417.72 144.52699 9.2197031e-39
2541.99 2432.48 145.98801 9.2197031e-39
2559.0901 2443.0898 146.50301 9.2197031e-39
2583.49 2456.8999 147.519 9.2197031e-39
2624.3 2480.3501 149.142 9.2197031e-39
2993.9399 2768.71 147.674 9.2197031e-39
3003.98 2766.0901 149.86 9.2197031e-39
2986.7651 2774.98 145.17099 9.2197031e-39
2982.8201 2783.4399 142.72701 9.2197031e-39
2981.6899 2792.01 140.716 9.2197031e-39
-766.08899 -121.57703 153.48199 9.2197031e-39
2561.6299 2414.73 152.96001 9.2197031e-39
2583.1001 2419.51 155.42599 9.2197031e-39
2607.29 2425.54 158.067 9.2197031e-39
2673.1201 2507.8101 151.216 9.2197031e-39
2713.0701 2532.8599 152.35899 9.2197031e-39
2739.0701 2550.01 152.924 9.2197031e-39
2779.99 2577.3799 153.731 9.2197031e-39
2820.28 2603.71 154.658 9.2197031e-39
2862.01 2633.6001 155.061 9.2197031e-39
2884.21 2651.2 154.912 9.2197031e-39
2937.95 2690.1001 155.342 9.2197031e-39
2974.9399 2717.9099 155.418 9.2197031e-39
2989.97 2735.6299 154.08 9.2197031e-39
2993.1699 2743.8201 152.853 9.2197031e-39
3006.0601 2760.95 151.293 9.2197031e-39
-762.05298 -153.85999 161.02 9.2197031e-39
2684.0701 2446.8101 165.996 9.2197031e-39
-749.41998 -230.75702 179.463 9.2197031e-39
-746.46198 -192.02399 171.687 9.2197031e-39
2737.1101 2460.47 171.69501 9.2197031e-39
2779.24 2468.6899 176.78101 9.2197031e-39
2820.23 2477.1899 181.621 9.2197031e-39
2853.0901 2481.21 186.09801 9.2197031e-39
2871.26 2482.29 188.819 9.2197031e-39
2904.29 2485.25 193.549 9.2197031e-39
2930.27 2487.6001 197.26401 9.2197031e-39
2947.98 2485.7 200.545 9.2197031e-39
3025.3501 2499.27 210.211 9.2197031e-39
3083.9399 2505.1899 218.46001 9.2197031e-39
3211.22 2527.1401 234.44099 9.2197031e-39
3395.74 2555.9102 258.26099 9.2197031e-39
3435.0701 2536.72 268.73499 9.2197031e-39
3431.9299 2544.0898 266.655 9.2197031e-39
3422.3601 2553.45 263.104 9.2197031e-39
3439.26 2487.96 279.81 9.2197031e-39
3437.0801 2498.8198 277.14099 9.2197031e-39
3436.1599 2506.5698 275.341 9.2197031e-39
3435.75 2517.6899 272.90302 9.2197031e-39
3434.7 2525.4302 271.08301 9.2197031e-39
3441.5 2450.21 288.22101 9.2197031e-39
3440.8599 2465.2 284.92349 9.2197031e-39
3439.05 2480.0601 281.46201 9.2197031e-39
3444.6001 2404.6899 298.42801 9.2197031e-39
3444.3701 2412.52 296.72198 9.2197031e-39
3443.96 2423.6099 294.29199 9.2197031e-39
3435.7 2430.78 291.423 9.2197031e-39
3442.98 2442.5 290.10699 9.2197031e-39
3444.71 2355.7 308.89099 9.2197031e-39
3446.8501 2366.8599 306.86099 9.2197031e-39
3446.9099 2374.71 305.194 9.2197031e-39
3444.8999 2385.76 302.51501 9.2197031e-39
3444.8201 2393.6001 300.82999 9.2197031e-39
3444.77 2309.8901 318.66699 9.2197031e-39
3445.23 2317.74 317.06799 9.2197031e-39
3446.78 2328.8599 314.94901 9.2197031e-39
3446.1299 2336.73 313.164 9.2197031e-39
3446.49 2347.8701 310.85001 9.2197031e-39
3448.4099 2260.26 329.83801 9.2197031e-39
3439.74 2272.0698 325.91299 9.2197031e-39
3440.48 2279.8999 324.36401 9.2197031e-39
3442.72 2294.875 321.535 9.2197031e-39
3442.4299 2214.3 338.66599 9.2197031e-39
3443.6001 2222.1602 337.17801 9.2197031e-39
3445.1499 2233.3101 335.052 9.2197031e-39
3446.1699 2241.2 333.53799 9.2197031e-39
3447.53 2252.3701 331.37701 9.2197031e-39
3447.6599 2174.6099 347.974 9.2197031e-39
3449.1101 2182.53 346.522 9.2197031e-39
3449.1201 2194.01 344.07599 9.2197031e-39
3449.46 2202.0601 342.41699 9.2197031e-39
3442.1299 2116.1499 359.54099 9.2197031e-39
3444.01 2124.04 358.164 9.2197031e-39
3446.5701 2135.23 356.194 9.2197031e-39
3450.24 2142.8 355.17599 9.2197031e-39
3443.9099 2155.53 351.43399 9.2197031e-39
3445.5 2163.4199 350.01001 9.2197031e-39
3450.3201 2073.79 369.89899 9.2197031e-39
3443.9299 2083.77 366.73401 9.2197031e-39
3446.9099 2094.98 364.828 9.2197031e-39
3447.99 2103.1201 363.26801 9.2197031e-39
3447.3999 2033.15 378.09 9.2197031e-39
3452.72 2040.33 377.423 9.2197031e-39
3444.79 2054.6201 373.09 9.2197031e-39
3446.1699 2062.79 371.573 9.2197031e-39
3448.1899 1978.03 389.96899 9.2197031e-39
3452.26 1989.3199 388.22198 9.2197031e-39
3446.6699 1999.9301 385.05399 9.2197031e-39
3449.5901 2011.48 383.064 9.2197031e-39
3453.1699 2019.1801 382.004 9.2197031e-39
3448.98 1934.03 399.47699 9.2197031e-39
3455.3401 1944.6899 398.23801 9.2197031e-39
3450.1899 1955.62 395.07001 9.2197031e-39
3454.49 1966.9399 393.35501 9.2197031e-39
3449.78 1888.6899 409.27301 9.2197031e-39
3454.78 1900.03 407.66599 9.2197031e-39
3450.97 1910.91 404.729 9.2197031e-39
3446.6201 1925.71 400.867 9.2197031e-39
3455.0701 1853.66 417.599 9.2197031e-39
3449.04 1865.97 413.99701 9.2197031e-39
3455.1699 1876.9399 412.65302 9.2197031e-39
3459.55 1803.67 428.98401 9.2197031e-39
3454.9299 1815.9399 425.617 9.2197031e-39
3461.5601 1826.96 424.345 9.2197031e-39
3456.6899 1839.08 420.96899 9.2197031e-39
3454.9399 1756.3 438.33401 9.2197031e-39
3459.45 1764.38 437.34399 9.2197031e-39
3457.9299 1779.8199 433.80399 9.2197031e-39
3453.5601 1792.25 430.44601 9.2197031e-39
3455.9099 1704.14 449.612 9.2197031e-39
3453.2 1716.54 446.52701 9.2197031e-39
3460.8201 1727.52 445.42401 9.2197031e-39
3457 1740.28 442.08401 9.2197031e-39
3458.1499 1660.21 459.33899 9.2197031e-39
3453.4702 1684.495 453.40198 9.2197031e-39
3454.55 1623.21 466.64401 9.2197031e-39
3452.6799 1636.02 463.608 9.2197031e-39
3452.8799 1652.12 460.20901 9.2197031e-39
3461.73 1572.6431 478.58899 9.2197031e-39
3456.3401 1593.4561 473.27701 9.2197031e-39
3460.4199 1602.661 471.97699 9.2197031e-39
3463.23 1529.04 488.12799 9.2197031e-39
3460.74 1543.452 484.651 9.2197031e-39
3463.76 1558.9409 481.83801 9.2197031e-39
3464.3401 1478.467 499.08801 9.2197031e-39
3461.99 1498.8879 494.354 9.2197031e-39
3459.8401 1513.4509 490.89999 9.2197031e-39
3464.8301 1431.775 509.121 9.2197031e-39
3462.6399 1447.281 505.46201 9.2197031e-39
3466.8799 1463.1169 502.77301 9.2197031e-39
3467.1799 1395.8311 517.16602 9.2197031e-39
3466.8799 1410.2849 514.03699 9.2197031e-39
3466.6599 1340.106 528.961 9.2197031e-39
3463.51 1363.9551 523.36499 9.2197031e-39
3462.8301 1379.155 520.01398 9.2197031e-39
3465.8999 1303.8821 536.56 9.2197031e-39
3464.78 1326.6799 531.51801 9.2197031e-39
3465.74 1249.6631 548.09302 9.2197031e-39
3466.98 1264.6589 545.09802 9.2197031e-39
3473.51 1281.068 542.659 9.2197031e-39
658.19702 -919.33997 554.75 9.2197031e-39
3465.3601 1209.915 556.505 9.2197031e-39
3468.3899 1223.678 554.06201 9.2197031e-39
3468.5801 1164.9089 566.62201 9.2197031e-39
3470.6899 1180.193 563.70599 9.2197031e-39
641.03497 -1010.23 571.34003 9.2197031e-39
3465.3201 1125.095 574.58002 9.2197031e-39
3467.8401 1140.4861 571.70898 9.2197031e-39
3464.02 1054.369 589.44702 9.2197031e-39
3467.3899 1077.762 585.00702 9.2197031e-39
3469.75 1094.016 581.92499 9.2197031e-39
795.164 -984.23999 590.81799 9.2197031e-39
3467.5 1030.675 595.06299 9.2197031e-39
565.57202 -1246.77 609.51703 9.2197031e-39
635.349 -1168.46 604.15002 9.2197031e-39
3471.1899 977.185 607.06598 9.2197031e-39
3469.6201 999.67401 602.01599 9.2197031e-39
1073.6801 -892.93994 616.565 9.2197031e-39
3469.1299 928.41296 617.12799 9.2197031e-39
3468.77 950.35803 612.39203 9.2197031e-39
-438.55399 -2069.99 622.01898 9.2197031e-39
-384.89301 -2053.27 627.164 9.2197031e-39
646.37903 -1236.4399 620.43201 9.2197031e-39
1096.64 -902.13 622.25201 9.2197031e-39
3471.55 871.57397 629.638 9.2197031e-39
3467.1201 899.85101 622.89001 9.2197031e-39
-317.52899 -2041.8501 635.664 9.2197031e-39
-236.03999 -1976.0901 634.875 9.2197031e-39
1115.9 -950.63 635.71802 9.2197031e-39
3467.1399 821.16699 639.66803 9.2197031e-39
3474.4199 835 637.901 9.2197031e-39
-169.075 -1961.1101 642.54999 9.2197031e-39
-130.29201 -1964.1899 649.50403 9.2197031e-39
1139.3 -959.51001 641.40997 9.2197031e-39
1179.67 -951.81995 646.32397 9.2197031e-39
3471.3 781.15601 648.87299 9.2197031e-39
-71.417397 -1960.77 658.33002 9.2197031e-39
1271.29 -945.69995 659.88898 9.2197031e-39
1582.23 -690.87 656.039 9.2197031e-39
3466.3201 763.32202 651.867 9.2197031e-39
-33.3372 -1963.8999 665.17902 9.2197031e-39
1223.37 -1010.87 666.005 9.2197031e-39
1307.91 -945.90002 665.87903 9.2197031e-39
1614.03 -694.56995 661.98999 9.2197031e-39
1636.92 -695.18005 665.83502 9.2197031e-39
3473.5801 690.61578 668.54602 9.2197031e-39
3470.47 721.34998 661.48798 9.2197031e-39
31.2374 -1947.8799 672.24597 9.2197031e-39
70.883598 -1946.6499 678.41998 9.2197031e-39
1330.79 -955.31006 671.599 9.2197031e-39
1368.5 -951.07996 676.81799 9.2197031e-39
1396.98 -941.08997 679.31201 9.2197031e-39
1688.05 -714.89001 678.33698 9.2197031e-39
1666.15 -709.85999 673.70801 9.2197031e-39
3475.8999 648.97931 677.79797 9.2197031e-39
1430.35 -950.40002 686.71301 9.2197031e-39
1457.52 -943.70996 689.698 9.2197031e-39
3473.3101 625.18958 682.44897 9.2197031e-39
1498.91 -921.85999 691.75702 9.2197031e-39
1731.87 -773.32996 697.909 9.2197031e-39
1712.29 -755.10999 690.84698 9.2197031e-39
3477.25 549.39648 699.24597 9.2197031e-39
3473.8899 583.99487 691.32599 9.2197031e-39
1792.4301 -748.78003 702.50598 9.2197031e-39
1826.33 -740.59998 706.26398 9.2197031e-39
1853.58 -713.42004 704.89301 9.2197031e-39
1886.3199 -708.48999 709.15698 9.2197031e-39
3476.51 507.80301 707.99402 9.2197031e-39
1939.35 -718.14001 719.82202 9.2197031e-39
1909.59 -703.19995 711.80701 9.2197031e-39
3476.3401 477.00702 714.53101 9.2197031e-39
1957.76 -750.45996 729.70099 9.2197031e-39
3475.3 433.409 723.65698 9.2197031e-39
1733.95 -937.97998 733.34698 9.2197031e-39
3478.55 394.84 732.40601 9.2197031e-39
3476.5701 350.01901 741.64001 9.2197031e-39
3475.23 265.92499 759.34998 9.2197031e-39
3479.1399 310.263 750.53101 9.2197031e-39
3477.53 224.14001 768.63 9.2197031e-39
3476.6101 170.897 779.83197 9.2197031e-39
3475.8501 132.20599 787.95801 9.2197031e-39
1956.2 -1040.9301 791.37097 9.2197031e-39
1980.6899 -1043.8101 795.95898 9.2197031e-39
2014.97 -1052.0699 803.28601 9.2197031e-39
2040.37 -1045.73 806.05701 9.2197031e-39
3054.3899 -273.81702 806.09998 9.2197031e-39
3477.1201 70.770996 801.26001 9.2197031e-39
2075.74 -1041.66 810.93103 9.2197031e-39
2100.5 -1040.75 814.75702 9.2197031e-39
2135.6201 -1038.02 819.875 9.2197031e-39
3108.3301 -285.77802 817.40601 9.2197031e-39
3084.5 -275.90399 811.43201 9.2197031e-39
3135.4099 -276.10901 819.74103 9.2197031e-39
3479.3301 23.083008 811.78497 9.2197031e-39
2160.3301 -1036.6899 823.60199 9.2197031e-39
3156.6799 -276.26202 823.22498 9.2197031e-39
3181.5901 -259.64801 823.72699 9.2197031e-39
3480.24 -42.359985 825.88397 9.2197031e-39
3070.29 -413.71997 838.50702 9.2197031e-39
3209.51 -279.69702 832.534 9.2197031e-39
3236.8401 -269.93298 834.888 9.2197031e-39
3481.74 -92.197021 836.75098 9.2197031e-39
3269.47 -301.30902 846.87402 9.2197031e-39
2875.47 -650.54004 857.36798 9.2197031e-39
2905.46 -638.28003 859.62299 9.2197031e-39
2925.46 -623.94995 859.81403 9.2197031e-39
3309.1899 -324.65399 858.29797 9.2197031e-39
3323.48 -302.52002 855.90002 9.2197031e-39
3350.73 -290.68597 857.79999 9.2197031e-39
3481.29 -159.92102 851.117 9.2197031e-39
2955.48 -613.13 862.37903 9.2197031e-39
2975.9399 -602.29004 863.39099 9.2197031e-39
3008.02 -601.40002 868.409 9.2197031e-39
3479.6201 -206.60199 860.79797 9.2197031e-39
2870.8 -757.62 879.43799 9.2197031e-39
3032.48 -608.18994 873.828 9.2197031e-39
3064.3 -604.81995 878.27197 9.2197031e-39
3079.3301 -572.53003 873.83002 9.2197031e-39
3398.95 -356.80701 879.72302 9.2197031e-39
3480.8301 -283.68402 877.427 9.2197031e-39
2208.8899 -1323.2 892.56403 9.2197031e-39
3483.6101 -344.96301 890.94 9.2197031e-39
3482.96 -424.43005 907.77502 9.2197031e-39
3484.48 -487.95996 921.56598 9.2197031e-39
2169.71 -1597.95 944.77502 9.2197031e-39
2638.53 -1362.13 970.60602 9.2197031e-39
2666.3601 -1367.8101 976.33398 9.2197031e-39
2733.5701 -1376.0699 989.005 9.2197031e-39
2704.77 -1363.13 981.57001 9.2197031e-39
2772.0901 -1370.7 994.112 9.2197031e-39
2800.3201 -1375.38 999.69202 9.2197031e-39
2838.8401 -1369.33 1004.66 9.2197031e-39
2866.1499 -1365.79 1008.34 9.2197031e-39
2906.9099 -1374.49 1016.81 9.2197031e-39
2935.6499 -1379.11 1022.46 9.2197031e-39
2260.2 -1966.77 1038.09 9.2197031e-39
2229.1201 -1955.3201 1030.6 9.2197031e-39
2304.6899 -1964.99 1044.9301 9.2197031e-39
2336.0901 -1962.1899 1049.4399 9.2197031e-39
2380.5601 -1962.5801 1056.74 9.2197031e-39
2411.98 -1962.1799 1061.75 9.2197031e-39
2456.3799 -1956.9099 1067.83 9.2197031e-39
2532.3101 -1954.8101 1079.71 9.2197031e-39
2487.54 -1948.1499 1071.02 9.2197031e-39
2563.78 -1954.29 1084.71 9.2197031e-39
2634.96 -1879.26 1080.27 9.2197031e-39
2608.22 -1950.4199 1091.1 9.2197031e-39
