# .PCD v0.7 - Point Cloud Data file format
VERSION 0.7
FIELDS x y z rgb
SIZE 4 4 4 4
TYPE F F F F
COUNT 1 1 1 1
WIDTH 322
HEIGHT 1
VIEWPOINT 0 0 0 1 0 0 0
POINTS 322
DATA ascii
3298.05 1726.0601 136.98801 9.2197031e-39
3302.5901 1736.24 134 9.2197031e-39
2231.79 2186.3999 139.507 9.2197031e-39
2217.02 2196.73 138.57401 9.2197031e-39
1946.53 2314.0559 139.0784 9.2197031e-39
1950.335 2317.2852 137.875 9.2197031e-39
1961.3149 2315.4951 137.125 9.2197031e-39
1971.95 2314.1299 136.311 9.2197031e-39
1959.2 2320.03 136.244 9.2197031e-39
166.735 3101 138.737 9.2197031e-39
172.88499 3117.6001 134 9.2197031e-39
3302.26 1674.27 149.23 9.2197031e-39
3307.27 1684.47 146.185 9.2197031e-39
3304.05 1698.5699 143.07899 9.2197031e-39
3306.1201 1710.05 140.039 9.2197031e-39
2319.5 2105.9399 149.741 9.2197031e-39
2287.54 2126.55 148.14799 9.2197031e-39
2205.915 2158.1748 149.22501 9.2197031e-39
2215.71 2154.5698 149.049 9.2197031e-39
2184.915 2167.3149 149.257 9.2197031e-39
2195.2434 2163.3933 149.10167 9.2197031e-39
2206.2324 2163.4375 147.9015 9.2197031e-39
2211.7651 2165.645 146.76099 9.2197031e-39
2199.49 2178.04 145.052 9.2197031e-39
2205.6101 2175.47 145.01967 9.2197031e-39
2197.22 2184.54 143.702 9.2197031e-39
2204.7126 2183.8398 143.06474 9.2197031e-39
1964.08 2279.3301 145.69299 9.2197031e-39
1932.625 2286.6123 147.31026 9.2197031e-39
1940.6801 2287.4302 146.237 9.2197031e-39
1952.22 2281.3398 146.48199 9.2197031e-39
1930.0601 2291.4102 146.41 9.2197031e-39
1945.8566 2294.1917 144.02068 9.2197031e-39
1954.86 2295.96 142.6125 9.2197031e-39
1946.3976 2304.6299 141.4025 9.2197031e-39
1953.29 2301.1399 141.51349 9.2197031e-39
1933.395 2312.645 140.8455 9.2197031e-39
122.53 3080.96 148.431 9.2197031e-39
154.28799 3087.0601 143.5 9.2197031e-39
3310.5801 1631.38 158.843 9.2197031e-39
3307.97 1645.76 155.599 9.2197031e-39
3305.1899 1660.0601 152.395 9.2197031e-39
2608.3601 1953.61 155.82899 9.2197031e-39
2581.05 1964.66 156.07401 9.2197031e-39
2550.6101 1978.3 156.026 9.2197031e-39
2533 1984.26 156.46899 9.2197031e-39
2493.8601 2004.83 155.66299 9.2197031e-39
2452.6201 2027.7 154.517 9.2197031e-39
2424.99 2042.2 153.952 9.2197031e-39
2360.79 2082.8901 150.925 9.2197031e-39
2337.1899 2096.27 150.19701 9.2197031e-39
2209.48 2135.3999 154.423 9.2197031e-39
2193.865 2159.2852 150.25699 9.2197031e-39
3313.9299 1589.666 168.705 9.2197031e-39
3310.05 1605.23 165.31 9.2197031e-39
3308.6201 1619.2671 162.02299 9.2197031e-39
-102.681 3109.3799 165.832 9.2197031e-39
-87.213203 3124.5901 160.429 9.2197031e-39
3314.23 1562.2209 175.39999 9.2197031e-39
3313.29 1576.4619 172.011 9.2197031e-39
3422.6201 683.85437 378.98999 9.2197031e-39
3423.55 710.01849 372.47601 9.2197031e-39
3423.8401 654.5354 386.04501 9.2197031e-39
3429.01 619.68951 394.02802 9.2197031e-39
3432.29 556.45673 409.173 9.2197031e-39
3431.8101 586.97931 401.74301 9.2197031e-39
3426.8899 532.89197 415.534 9.2197031e-39
3431.3201 495.84399 424.13599 9.2197031e-39
3431.0601 464.18201 431.92599 9.2197031e-39
3433.75 394.07098 448.82199 9.2197031e-39
3435.5901 425.194 440.99399 9.2197031e-39
3437.1599 354.74701 458.09299 9.2197031e-39
3441.0801 313.61099 467.75201 9.2197031e-39
3442.1599 275.56201 476.96301 9.2197031e-39
3441.01 239.83899 485.84399 9.2197031e-39
3442.03 199.85699 495.535 9.2197031e-39
3448.29 150.556 506.94199 9.2197031e-39
3446.95 111.905 516.56201 9.2197031e-39
3445.54 72.29303 526.42499 9.2197031e-39
3449.1299 23.252991 538.05701 9.2197031e-39
3449.95 -22.588989 549.20697 9.2197031e-39
3451.53 -71.156006 560.94098 9.2197031e-39
3454.3 -123.33398 573.43201 9.2197031e-39
3457.2 -177.435 586.38 9.2197031e-39
3461.1299 -235.20398 600.11603 9.2197031e-39
3459.48 -284.49902 612.37903 9.2197031e-39
-343.78299 1398.604 611.28601 9.2197031e-39
-467.069 1429.224 617.11902 9.2197031e-39
-502.263 1442.5901 617.651 9.2197031e-39
3460.71 -340.91998 626.07703 9.2197031e-39
3245.46 -298.66498 639.00702 9.2197031e-39
3210.47 -279.89001 638.19098 9.2197031e-39
3149.6799 -260.22998 639.94897 9.2197031e-39
3466.8799 -408.93005 642.08099 9.2197031e-39
3186.3401 -285.14203 642.08899 9.2197031e-39
3131.3401 -278.59998 646.43597 9.2197031e-39
-569.80103 1369.7109 642.823 9.2197031e-39
3466.2 -465.77002 656.086 9.2197031e-39
3322.3701 -407.41003 657.34302 9.2197031e-39
3109.1201 -287.70697 651.07202 9.2197031e-39
3446.78 -486.5 663.26801 9.2197031e-39
3380.3201 -470.51001 666.53998 9.2197031e-39
3403.6201 -458.26001 661.01501 9.2197031e-39
3079.6599 -345.789 668.49799 9.2197031e-39
3046.3 -325.875 667.22498 9.2197031e-39
3096.3899 -321.362 660.70001 9.2197031e-39
-768.875 1384.845 660.65198 9.2197031e-39
3026.5801 -342.57397 673.45203 9.2197031e-39
-858.47101 1385.1279 670.276 9.2197031e-39
-933.17297 1391.272 676.85199 9.2197031e-39
-738.5 1285.074 681.823 9.2197031e-39
-1008.02 1398.6221 683.14801 9.2197031e-39
-1078.23 1408.474 688.33002 9.2197031e-39
-720.117 1236.166 691.823 9.2197031e-39
-1146.63 1419.954 692.91602 9.2197031e-39
-732.20502 1203.656 701.09998 9.2197031e-39
-1898.01 1689.48 708.14203 9.2197031e-39
-1904.92 1723.53 700.54401 9.2197031e-39
-1967.54 1750.46 700.71698 9.2197031e-39
-2089.03 1771.36 708.73901 9.2197031e-39
-728.78802 1148.2729 714.30603 9.2197031e-39
-745.75098 1170.1379 710.78198 9.2197031e-39
3053.97 -575.34998 727.54999 9.2197031e-39
3074.3101 -553.77002 720.06 9.2197031e-39
-739.84198 1115.106 723.633 9.2197031e-39
3034.53 -600.51001 735.82202 9.2197031e-39
3014.1101 -623.68005 743.71002 9.2197031e-39
2953.95 -608.56995 746.51398 9.2197031e-39
2976.5601 -592.39001 740.10199 9.2197031e-39
2902.76 -621.54004 755.23297 9.2197031e-39
2928.1101 -614.21997 750.69598 9.2197031e-39
-777.86902 1010.737 753.33197 9.2197031e-39
2858.24 -660.14001 769.51202 9.2197031e-39
2881.9299 -645.65002 763.396 9.2197031e-39
-889.979 1023.327 762.375 9.2197031e-39
-4936.3501 2696.8 789.94598 9.2197031e-39
-1016.06 938.52698 796.80402 9.2197031e-39
-4934.3398 2636.73 804.453 9.2197031e-39
-801.39099 749.89099 819.81897 9.2197031e-39
-4932.7998 2576.75 818.98999 9.2197031e-39
-738.92902 685.87683 828.75299 9.2197031e-39
-764.76398 704.323 827.026 9.2197031e-39
-784.46002 726.32098 823.76501 9.2197031e-39
-913.89099 724.36902 838.24701 9.2197031e-39
-967.01501 764.45203 834.16901 9.2197031e-39
-4923.75 2516.55 832.76801 9.2197031e-39
2909.8999 -974.25 840.92102 9.2197031e-39
-983.37402 722.67603 846.17902 9.2197031e-39
-1041.96 761.60803 842.974 9.2197031e-39
-2402.3401 1336.4031 849.25897 9.2197031e-39
-4925.1099 2456.79 847.56403 9.2197031e-39
-789.961 589.86639 857.80902 9.2197031e-39
-800.41998 617.7948 852.09497 9.2197031e-39
-4916.98 2396.8398 861.38098 9.2197031e-39
-2633.51 1330.839 875.63397 9.2197031e-39
-4911.2998 2337.04 875.42499 9.2197031e-39
1847.83 -696.55005 887.75897 9.2197031e-39
-810.89801 472.922 888.742 9.2197031e-39
-757.76001 470.76401 883.52197 9.2197031e-39
-865.70697 510.52399 885.45398 9.2197031e-39
-2981.8999 1442.2581 886.01599 9.2197031e-39
1950.27 -791.02002 899.83197 9.2197031e-39
1924.55 -758.97998 894.76202 9.2197031e-39
1898.14 -746.10999 894.46503 9.2197031e-39
1872.49 -725.30005 892.13702 9.2197031e-39
1819.6899 -711.06995 894.362 9.2197031e-39
1793.5699 -702.18005 895.008 9.2197031e-39
1766.96 -698.84998 897.073 9.2197031e-39
1741.16 -688.56995 897.34198 9.2197031e-39
-765.54797 430.27499 894.289 9.2197031e-39
-2954.6499 1402.02 892.93103 9.2197031e-39
-4911.0601 2277.3301 890.03699 9.2197031e-39
1658.65 -697.67004 908.5 9.2197031e-39
1686.6 -692.31995 904.16498 9.2197031e-39
1713.92 -690.56006 900.77899 9.2197031e-39
-908.487 448.98901 905.16699 9.2197031e-39
-1390.51 668.46887 903.51703 9.2197031e-39
-2942.6499 1359.348 902.09302 9.2197031e-39
-3180.01 1456.448 903.97101 9.2197031e-39
-4900.3398 2217.6802 903.5 9.2197031e-39
1601.71 -711.41003 918.03101 9.2197031e-39
1630.86 -700.83997 912.28601 9.2197031e-39
-2941.9299 1314.582 912.98901 9.2197031e-39
-4900.0298 2158 918.09399 9.2197031e-39
1544.79 -720.30005 926.367 9.2197031e-39
1572.49 -720.75 923.48199 9.2197031e-39
2983.46 -1402.41 937.91803 9.2197031e-39
2116.3899 -1025.49 939.33698 9.2197031e-39
2145.5801 -1010.36 932.46802 9.2197031e-39
-1487.91 585.46307 934.40302 9.2197031e-39
-1566.49 626.22626 932.91302 9.2197031e-39
-4904.1499 2098.1802 933.20398 9.2197031e-39
2915.3101 -1403.01 945.43903 9.2197031e-39
2880.5901 -1399.51 948.33899 9.2197031e-39
2948.5901 -1399.52 940.98499 9.2197031e-39
2057.4199 -1030.73 947 9.2197031e-39
2028.09 -1020.83 947.74799 9.2197031e-39
2086.9399 -1026.78 942.83899 9.2197031e-39
1998.75 -1016.51 949.86298 9.2197031e-39
-4902.7598 2038.42 947.70398 9.2197031e-39
2812.98 -1399.25 955.591 9.2197031e-39
2846.1699 -1396.66 951.36401 9.2197031e-39
1968.71 -1032.3101 956.98602 9.2197031e-39
2713.0601 -1403.39 967.41498 9.2197031e-39
2746.4099 -1402.62 963.61798 9.2197031e-39
2780.8601 -1407.3199 961.04303 9.2197031e-39
2648.1699 -1415.63 977.43701 9.2197031e-39
2680.3501 -1407.72 972.01599 9.2197031e-39
-4348.8999 1669.28 978.26801 9.2197031e-39
-4986.6401 1914.41 987.177 9.2197031e-39
-5081.4302 1971.1 983.53497 9.2197031e-39
-4994.4902 1853.22 1003.03 9.2197031e-39
-4833.4102 1743.6 1012.47 9.2197031e-39
-4834.7998 1683.77 1027.29 9.2197031e-39
-5013.6602 1791.04 1020.34 9.2197031e-39
896.59003 -892.15002 1038.62 9.2197031e-39
-4531.3101 1537.443 1030.3199 9.2197031e-39
-4675.1899 1580.239 1035.4 9.2197031e-39
914.159 -932.84998 1046.7 9.2197031e-39
860.414 -900.93005 1044.6899 9.2197031e-39
827.90997 -899.46997 1047.85 9.2197031e-39
1423.47 -1206.0601 1058.5699 9.2197031e-39
794.95898 -898.57996 1051.2 9.2197031e-39
732.97699 -886.08997 1054.84 9.2197031e-39
765.27899 -889.35999 1052.15 9.2197031e-39
2665.29 -1771.79 1062.89 9.2197031e-39
2189.22 -1579.8501 1067.35 9.2197031e-39
-1399.17 -21.708008 1073.64 9.2197031e-39
900.15698 -1063.5699 1080.26 9.2197031e-39
-1369.8101 -91.271973 1087.52 9.2197031e-39
-1388.3199 -58.960022 1081.6 9.2197031e-39
-630.05499 -454.18994 1096.4399 9.2197031e-39
-650.755 -426.18005 1091.8101 9.2197031e-39
-1362.21 -131.25 1096.49 9.2197031e-39
-803.505 -427.41003 1108.64 9.2197031e-39
-1322.75 -194.86603 1107.8199 9.2197031e-39
-1356.54 -172.98602 1106.11 9.2197031e-39
2616.55 -1967.74 1116.2 9.2197031e-39
2654.29 -1964.05 1111.21 9.2197031e-39
2458.95 -1907.48 1118.48 9.2197031e-39
953.46301 -1209.03 1110.15 9.2197031e-39
-787.09198 -460.62 1115.01 9.2197031e-39
-1318.66 -238.297 1118.02 9.2197031e-39
-3981.8 953.33997 1114.05 9.2197031e-39
2502.47 -1970.0701 1129.11 9.2197031e-39
2541.27 -1977.05 1126.62 9.2197031e-39
2578.6699 -1970.1299 1120.88 9.2197031e-39
868.43597 -1252.3199 1129.96 9.2197031e-39
909.19 -1236.86 1121.76 9.2197031e-39
2426.8101 -1974.53 1138.39 9.2197031e-39
2351.1001 -1978.6599 1147.6 9.2197031e-39
2388.9399 -1976.27 1142.92 9.2197031e-39
2235.4399 -1926.5701 1147.34 9.2197031e-39
-1370.9399 -324.48999 1144.8101 9.2197031e-39
2275.24 -1980.53 1156.26 9.2197031e-39
2313.1799 -1979.76 1151.97 9.2197031e-39
917.63202 -1431.23 1168.5 9.2197031e-39
-1389.41 -386.98999 1162.13 9.2197031e-39
944.48499 -1463.1799 1173.42 9.2197031e-39
-195.274 -1100.52 1207.84 9.2197031e-39
-1291.58 -610.98999 1206.45 9.2197031e-39
-1330.64 -591.97998 1206.02 9.2197031e-39
-1370.38 -573.15002 1205.7 9.2197031e-39
-1400.22 -545.93005 1202.26 9.2197031e-39
-1439 -525.68005 1201.49 9.2197031e-39
-170.981 -1130.3101 1212.51 9.2197031e-39
-241.226 -1102.4 1213.27 9.2197031e-39
-1272.29 -646.75 1213.13 9.2197031e-39
-161.66299 -1183.4399 1224.53 9.2197031e-39
-140.63 -1219.59 1231.11 9.2197031e-39
903.177 -1725.6101 1242.22 9.2197031e-39
414.72699 -1530.25 1247.1801 9.2197031e-39
-107.794 -1308.9301 1249.46 9.2197031e-39
-124.266 -1263.84 1240.1899 9.2197031e-39
332.91501 -1528.28 1255.55 9.2197031e-39
374.88199 -1527.27 1250.76 9.2197031e-39
296.98901 -1515.78 1256.37 9.2197031e-39
257.763 -1509.9099 1259.1801 9.2197031e-39
-91.688499 -1355.67 1259.1801 9.2197031e-39
-1152.22 -862.56006 1253.04 9.2197031e-39
215.481 -1509.71 1263.7 9.2197031e-39
-72.956703 -1399.1 1267.8 9.2197031e-39
1190.91 -1998.9399 1278.09 9.2197031e-39
1233.3199 -1987.51 1270.7 9.2197031e-39
-49.754002 -1435.8201 1274.29 9.2197031e-39
1108.0601 -2008.3401 1289.36 9.2197031e-39
1150.1 -2001.47 1283.13 9.2197031e-39
1071.22 -1992.25 1289.4 9.2197031e-39
991.11298 -1986.3201 1296.62 9.2197031e-39
1031.54 -1988.05 1292.67 9.2197031e-39
-1137.65 -1020.66 1290.22 9.2197031e-39
-1488.64 -890.76001 1296.35 9.2197031e-39
946.35797 -2000.0901 1304.83 9.2197031e-39
868.90002 -1980.77 1308.48 9.2197031e-39
909.797 -1982.6799 1304.52 9.2197031e-39
-1178.0699 -1122.12 1319.47 9.2197031e-39
48.392101 -1754.5601 1341.8 9.2197031e-39
-1213.5601 -1221.05 1347.5601 9.2197031e-39
-1260.05 -1334.37 1380.37 9.2197031e-39
-132.183 -2013.8701 1424.91 9.2197031e-39
-297.34299 -1951.75 1427.55 9.2197031e-39
-234.73599 -2020.0801 1437.52 9.2197031e-39
-184.013 -2018.53 1431.66 9.2197031e-39
-281.46701 -2013.48 1440.96 9.2197031e-39
-1585.8199 -1756.51 1519.09 9.2197031e-39
-1007.93 -2042.3799 1526.64 9.2197031e-39
-951.85699 -2045.8999 1521.4399 9.2197031e-39
-1068.2 -2043.6899 1533.49 9.2197031e-39
-1484.92 -1864.3799 1534.62 9.2197031e-39
-1133.96 -2051.27 1542.46 9.2197031e-39
-1190.75 -2045.73 1547.25 9.2197031e-39
-1556.48 -1871.3201 1544.0601 9.2197031e-39
-1594.17 -1839.1201 1540.25 9.2197031e-39
-1253.05 -2046.4399 1554.16 9.2197031e-39
-1322.23 -2054.77 1563.6899 9.2197031e-39
-1385.17 -2053.95 1570.3 9.2197031e-39
-1527.99 -2069.3799 1589.53 9.2197031e-39
-1456.36 -2062.1101 1580 9.2197031e-39
-2323.54 -1698.53 1584.7 9.2197031e-39
-1602.5601 -2078.71 1599.89 9.2197031e-39
-2319.1599 -1766.4299 1600.87 9.2197031e-39
-2925.3601 -1630.46 1633.13 9.2197031e-39
