# .PCD v0.7 - Point Cloud Data file format
VERSION 0.7
FIELDS x y z rgb
SIZE 4 4 4 4
TYPE F F F F
COUNT 1 1 1 1
WIDTH 325
HEIGHT 1
VIEWPOINT 0 0 0 1 0 0 0
POINTS 325
DATA ascii
3300.54 1515.621 137.201 9.2197031e-39
3297.45 1530.22 134 9.2197031e-39
2138.845 2048.48 138.573 9.2197031e-39
2144.6201 2042.6801 139.33099 9.2197031e-39
2138.9299 2050.5 138.073 9.2197031e-39
1874.905 2168.0977 139.23651 9.2197031e-39
1894.16 2168.27 137.02299 9.2197031e-39
1869.92 2171.45 138.98399 9.2197031e-39
1878.3101 2171.3701 138.058 9.2197031e-39
1884.765 2171.675 137.255 9.2197031e-39
1895.61 2170.7349 136.26151 9.2197031e-39
1841.05 2194.5698 136.614 9.2197031e-39
-109.374 3087.72 139.28101 9.2197031e-39
-116.59 3112.79 134 9.2197031e-39
3293.6699 1478.952 146.89 9.2197031e-39
3302.6499 1487.926 143.69501 9.2197031e-39
3299.8701 1502.675 140.423 9.2197031e-39
2228.48 1962.75 149.312 9.2197031e-39
2127.21 2008.72 149.55 9.2197031e-39
2134.186 2008.152 148.9016 9.2197031e-39
2109.1499 2019.41 148.985 9.2197031e-39
2118.3235 2013.2799 149.44234 9.2197031e-39
2133.0469 2014.7433 147.42667 9.2197031e-39
2128.6001 2026.9 144.972 9.2197031e-39
2132.1602 2021.21 145.9545 9.2197031e-39
2141.27 2027.89 143.30499 9.2197031e-39
2126.896 2033.4099 143.582 9.2197031e-39
2131.0801 2032.77 143.267 9.2197031e-39
2153.1399 2035.64 140.08299 9.2197031e-39
1854.34 2136.8999 149.13699 9.2197031e-39
1867.985 2138.9551 147.0995 9.2197031e-39
1880.22 2135.8301 146.48199 9.2197031e-39
1858.8401 2142.7349 147.2115 9.2197031e-39
1863.6799 2145.49 145.99701 9.2197031e-39
1875.165 2146.6001 144.43275 9.2197031e-39
1875.2067 2153.95 142.64117 9.2197031e-39
1882.495 2154.7849 141.61749 9.2197031e-39
1866.7699 2165.4231 140.80267 9.2197031e-39
1874.14 2160.7 141.12199 9.2197031e-39
-143.65401 3059.6201 149.976 9.2197031e-39
-131.133 3075.8101 144.629 9.2197031e-39
3304.1899 1432.333 157.037 9.2197031e-39
3302.9199 1446.8889 153.64101 9.2197031e-39
3297.05 1463.6689 150.22301 9.2197031e-39
2483.75 1814.64 156.552 9.2197031e-39
2466.1899 1820.84 157.02499 9.2197031e-39
2429.02 1840.89 156.33701 9.2197031e-39
2398.77 1856.97 155.838 9.2197031e-39
2368.8301 1873.53 155.186 9.2197031e-39
2302.03 1917.5601 152.009 9.2197031e-39
2273.76 1934.8 151.004 9.2197031e-39
2256.1799 1944.6899 150.582 9.2197031e-39
2132.2 1988.23 153.96899 9.2197031e-39
2115.97 2009.6 150.60201 9.2197031e-39
2129.8999 2001.8101 150.925 9.2197031e-39
-255.49899 3085.3601 156.32001 9.2197031e-39
3307 1388.277 167.431 9.2197031e-39
3306.22 1403.026 163.93201 9.2197031e-39
3302.6599 1419.1541 160.414 9.2197031e-39
-271.80099 3069.5601 161.998 9.2197031e-39
3308.05 1358.599 174.52699 9.2197031e-39
3306.74 1373.97 170.937 9.2197031e-39
3422.6699 385.617 398.14301 9.2197031e-39
3419.51 419.51001 390.26001 9.2197031e-39
3419.78 358.55701 405.047 9.2197031e-39
3420.78 325.948 412.86099 9.2197031e-39
3426.1299 253.991 429.75201 9.2197031e-39
3427.3401 285.328 421.99701 9.2197031e-39
3429.77 215.37299 438.73001 9.2197031e-39
3427.5801 183.793 446.65302 9.2197031e-39
3434.1399 139.20599 456.75299 9.2197031e-39
3434.3301 102.50098 465.655 9.2197031e-39
3438.46 59.129028 475.733 9.2197031e-39
3430.8501 31.976013 483.19199 9.2197031e-39
3440.3501 -21.609009 495.14801 9.2197031e-39
3438.21 -58.887024 504.45099 9.2197031e-39
3439.77 -102.94702 514.98602 9.2197031e-39
3443.28 -151.37097 526.362 9.2197031e-39
3442.9299 -194.94098 536.99402 9.2197031e-39
3443.4299 -241.198 548.18298 9.2197031e-39
3446.23 -292.72302 560.39301 9.2197031e-39
3450.2 -347.87 573.35199 9.2197031e-39
3449.3999 -396.37 585.23199 9.2197031e-39
3451.6699 -451.92004 598.47998 9.2197031e-39
3260.6799 -355.00598 596.44299 9.2197031e-39
3192.1201 -323.10602 596.414 9.2197031e-39
3217.1101 -320.65601 593.00299 9.2197031e-39
3155.8799 -301.22198 595.17798 9.2197031e-39
3128.3101 -296.83099 597.21802 9.2197031e-39
-482.28299 1398.019 592.07098 9.2197031e-39
-509.15399 1413.994 591.21503 9.2197031e-39
3086.25 -316.07001 606.63501 9.2197031e-39
3108.1299 -308.33698 602.289 9.2197031e-39
-417.99799 1323.698 602.89398 9.2197031e-39
3419.6299 -500.03003 613.78802 9.2197031e-39
3447.8701 -498.13 610.14301 9.2197031e-39
3382.78 -485.04004 614.29498 9.2197031e-39
3075.8899 -350.76703 616.237 9.2197031e-39
3363.8101 -503.87 621.01202 9.2197031e-39
3060.45 -374.55701 623.76001 9.2197031e-39
3027.99 -357.25 623.211 9.2197031e-39
-608.15503 1336.759 621.14801 9.2197031e-39
-638.46399 1277.0381 639.08197 9.2197031e-39
-780.40802 1364.179 633.89301 9.2197031e-39
3032.5 -431.92004 640.85602 9.2197031e-39
-779.14502 1259.056 659.30603 9.2197031e-39
-917.422 1354.377 651.716 9.2197031e-39
-998.466 1361.0901 659.216 9.2197031e-39
-1072.9399 1370.7571 665.258 9.2197031e-39
-747.74799 1161.936 679.37799 9.2197031e-39
-747.53699 1188.964 672.784 9.2197031e-39
-1167.67 1376.917 674.43597 9.2197031e-39
-1224.05 1393.291 676.80902 9.2197031e-39
3088.1899 -642.55005 685.78302 9.2197031e-39
-756.01599 1131.849 687.62402 9.2197031e-39
-1907.87 1658.4 689.41901 9.2197031e-39
-1905.87 1692.8101 680.83002 9.2197031e-39
-1972.5699 1720.1801 681.69202 9.2197031e-39
3009.8999 -654.08997 697.40997 9.2197031e-39
3065.1001 -654.59998 691.31598 9.2197031e-39
3034.0801 -645.25 692.53601 9.2197031e-39
-753.80701 1105.256 693.84003 9.2197031e-39
-2104.24 1742.65 691.06799 9.2197031e-39
2962.2 -673.93005 707.60901 9.2197031e-39
-763.25098 1046.255 709.24701 9.2197031e-39
-754.091 1077.573 700.60101 9.2197031e-39
3003.6399 -714.67004 712.84302 9.2197031e-39
2911.6799 -685.48999 716.11298 9.2197031e-39
2939.5601 -687.75 713.52002 9.2197031e-39
2866.3101 -714.02002 728.16199 9.2197031e-39
2888.52 -697.96997 721.758 9.2197031e-39
-773.23401 985.83203 725.06097 9.2197031e-39
2841.97 -723.31006 733.16199 9.2197031e-39
-768.67401 959.125 731.039 9.2197031e-39
-955.45801 941.92798 756.26898 9.2197031e-39
-4944.9502 2673.7 784.84399 9.2197031e-39
-781.03998 684.6131 799.16699 9.2197031e-39
-794.41602 708.91028 794.76801 9.2197031e-39
-824.27197 725.11401 794.19299 9.2197031e-39
-910.39203 746.21497 798.76801 9.2197031e-39
-4937.0698 2613.5801 798.57202 9.2197031e-39
-753.651 636.349 807.81403 9.2197031e-39
-766.58502 660.8797 803.30798 9.2197031e-39
-970.44098 749.93799 804.63 9.2197031e-39
-1051.24 745.35901 814.84802 9.2197031e-39
-4942.5601 2554.47 813.56 9.2197031e-39
-4933.6201 2494.53 827.12299 9.2197031e-39
-800.49298 546.59308 834.91199 9.2197031e-39
-813.38898 572.03198 830.18103 9.2197031e-39
-1064.15 640.79218 841.72302 9.2197031e-39
-4934.0801 2435.2 841.59802 9.2197031e-39
1934.8101 -819.46997 858.76501 9.2197031e-39
1909.78 -784.96997 853.198 9.2197031e-39
1884.22 -774.52002 853.539 9.2197031e-39
1833.58 -753 854.013 9.2197031e-39
1859.09 -759.02002 852.60303 9.2197031e-39
1782.35 -746.10999 858.11298 9.2197031e-39
1808.16 -746.76001 855.362 9.2197031e-39
1757.49 -734.62 858.12097 9.2197031e-39
-799.86798 447.39099 858.95801 9.2197031e-39
-2586.04 1294.3779 854.336 9.2197031e-39
-4925.0601 2375.54 855.086 9.2197031e-39
2982.55 -1323.16 863.14502 9.2197031e-39
1731.74 -733.54004 860.76001 9.2197031e-39
1654.55 -728.01001 868.11401 9.2197031e-39
1680.4301 -728.79004 865.38702 9.2197031e-39
1706.4 -728.39001 862.362 9.2197031e-39
-774.87201 394.62701 868.96802 9.2197031e-39
-776.64301 427.54999 861.164 9.2197031e-39
-903.63098 454.935 868.81702 9.2197031e-39
-850.81799 451.276 863.755 9.2197031e-39
-4918.4902 2316.1099 868.79303 9.2197031e-39
1601.3 -735.34998 875.90002 9.2197031e-39
1627.84 -732.76001 872.27802 9.2197031e-39
-2998 1397.89 875.59497 9.2197031e-39
2978.27 -1427.86 889.08002 9.2197031e-39
1545.42 -755.10999 887 9.2197031e-39
1573.62 -744.41003 881.21997 9.2197031e-39
-2970.6299 1357.911 882.22998 9.2197031e-39
-3106.46 1427.2209 880.68701 9.2197031e-39
-4922.3301 2256.99 883.59698 9.2197031e-39
2912.3201 -1430.6499 897.18903 9.2197031e-39
2945.28 -1429.3999 893.172 9.2197031e-39
2126.8201 -1061.97 896.07898 9.2197031e-39
2098.03 -1046.47 895.55603 9.2197031e-39
-2973.2 1313.422 893.33502 9.2197031e-39
-4922.6602 2197.77 898.03101 9.2197031e-39
2846.5 -1432.26 904.99902 9.2197031e-39
2879.1599 -1430.6499 900.92603 9.2197031e-39
2069.99 -1060.86 902.216 9.2197031e-39
2013.1899 -1050.05 905.98602 9.2197031e-39
2041.54 -1054.6 903.89899 9.2197031e-39
-2990.95 1266.147 906.82703 9.2197031e-39
2715.1599 -1431.05 919.505 9.2197031e-39
2747.6699 -1430.5901 915.729 9.2197031e-39
2814.9199 -1438.3601 910.039 9.2197031e-39
2780.22 -1429.8401 911.88 9.2197031e-39
1956.12 -1069.34 917.10797 9.2197031e-39
1984.78 -1056.9 910.85498 9.2197031e-39
-1535.64 565.48999 913.16101 9.2197031e-39
-4941.3398 2138.5698 914.52899 9.2197031e-39
2650.22 -1431.1201 926.83899 9.2197031e-39
2683.5701 -1436.03 924.27502 9.2197031e-39
-4919.7402 2079.27 926.51001 9.2197031e-39
2621.05 -1449.99 934.71301 9.2197031e-39
-4911.5298 2020.11 939.96698 9.2197031e-39
2168.51 -1374.63 967.39001 9.2197031e-39
1468.47 -1044.04 965.909 9.2197031e-39
-4351.0098 1645.84 967.78601 9.2197031e-39
-4997.7402 1898.8 979.16998 9.2197031e-39
-5051.7202 1957.59 970.96301 9.2197031e-39
-4949.2202 1840.66 987.83801 9.2197031e-39
864.56201 -930.72998 1006.42 9.2197031e-39
894.79901 -933.93005 1003.79 9.2197031e-39
833.58197 -929.05005 1009.5 9.2197031e-39
-4850.77 1726.73 1004.44 9.2197031e-39
768.11298 -932.84998 1017.8 9.2197031e-39
798.23199 -937.83997 1015.62 9.2197031e-39
-4845.3901 1668 1018.11 9.2197031e-39
900.896 -1004.17 1020.18 9.2197031e-39
702.09003 -935.31995 1025.84 9.2197031e-39
736.10498 -932.03003 1021.21 9.2197031e-39
-4671.0498 1564.171 1023.71 9.2197031e-39
-1410.67 -40.620972 1046.42 9.2197031e-39
2671.0601 -1967.98 1055 9.2197031e-39
-1395.36 -73.487976 1052.6899 9.2197031e-39
-5379.9502 1759.79 1056.03 9.2197031e-39
2639.1599 -2002.3501 1066.95 9.2197031e-39
932.51898 -1196.46 1063.36 9.2197031e-39
-634.62201 -484.81006 1066.95 9.2197031e-39
-671.67603 -474.23999 1068.5601 9.2197031e-39
-767.948 -426.20996 1067.73 9.2197031e-39
-1372.7 -144.93201 1067.5 9.2197031e-39
-1395.22 -116.42999 1063.11 9.2197031e-39
2564.6899 -2002.6499 1075.42 9.2197031e-39
2602.73 -2008.46 1072.54 9.2197031e-39
894.95203 -1209.17 1070.6801 9.2197031e-39
864.67603 -1199.59 1071.76 9.2197031e-39
-1370.87 -187.49799 1077.65 9.2197031e-39
-4518.1201 1293.0139 1072.39 9.2197031e-39
2490.3201 -2001.6699 1083.5601 9.2197031e-39
2528.0901 -2007.1599 1080.64 9.2197031e-39
2451.1499 -1981.3201 1083.02 9.2197031e-39
-1319.6 -240.47601 1084.75 9.2197031e-39
-1360.54 -224.66803 1085.52 9.2197031e-39
2380.05 -2009.4399 1097.88 9.2197031e-39
2416.6499 -2005.23 1092.73 9.2197031e-39
920.008 -1339.9399 1099.65 9.2197031e-39
-4017.3201 983.20898 1091.27 9.2197031e-39
2306.53 -2015 1107.51 9.2197031e-39
2343.23 -2011.4099 1102.5 9.2197031e-39
2229.8999 -1961.96 1103.25 9.2197031e-39
2269.6499 -2016.3301 1111.99 9.2197031e-39
-866.64801 -564.22998 1112.41 9.2197031e-39
-1371.0699 -322.401 1110.46 9.2197031e-39
949.37799 -1470.95 1128.1899 9.2197031e-39
-872.17603 -618.08997 1126.13 9.2197031e-39
-1394.62 -385.82001 1128.53 9.2197031e-39
896.33698 -1528.28 1148.1 9.2197031e-39
-1409.5 -444.03003 1144.36 9.2197031e-39
-200.40199 -1147.1 1179.03 9.2197031e-39
-231.668 -1129.65 1178.3101 9.2197031e-39
-1330.59 -626.02002 1179.71 9.2197031e-39
-1369.41 -607.66003 1179.62 9.2197031e-39
-1399.77 -582.20996 1176.86 9.2197031e-39
-1436.1 -561.23999 1175.85 9.2197031e-39
-1480.0699 -545.77002 1177.05 9.2197031e-39
-181.87 -1183.58 1185.8101 9.2197031e-39
-1297.7 -648.92004 1181.5699 9.2197031e-39
-171.32001 -1232.95 1196.62 9.2197031e-39
-1307.59 -707.98999 1197.05 9.2197031e-39
-150.679 -1267.77 1202.76 9.2197031e-39
391.15601 -1564.71 1213.89 9.2197031e-39
354.341 -1557.74 1216.34 9.2197031e-39
-115.148 -1348.6801 1218.42 9.2197031e-39
-135.244 -1311.51 1211.65 9.2197031e-39
235.79601 -1551.24 1228.12 9.2197031e-39
275.28299 -1554.0901 1224.36 9.2197031e-39
315.48001 -1554.8 1220 9.2197031e-39
-99.548798 -1394.0601 1227.7 9.2197031e-39
1257.04 -2036.24 1230.9399 9.2197031e-39
1220.3101 -2025.75 1232.53 9.2197031e-39
198.358 -1543.6799 1230.5 9.2197031e-39
-81.3433 -1436.1299 1235.87 9.2197031e-39
1100.6 -2038.77 1249.1801 9.2197031e-39
1140 -2037.95 1244.55 9.2197031e-39
1179.1 -2037.73 1240.09 9.2197031e-39
1065.23 -2021.3201 1248.9301 9.2197031e-39
-59.652802 -1473.1499 1242.4301 9.2197031e-39
-420.60901 -1335.49 1249.64 9.2197031e-39
985.80298 -2023.1101 1258.3101 9.2197031e-39
1025.35 -2023.3401 1253.91 9.2197031e-39
909.211 -2011.3201 1264.08 9.2197031e-39
948.35303 -2014.1101 1260.35 9.2197031e-39
-1154.46 -1051.73 1263.35 9.2197031e-39
867.16803 -2018.4199 1270.54 9.2197031e-39
829.979 -2007.46 1272.0699 9.2197031e-39
-1186.42 -1141.6899 1288.8199 9.2197031e-39
-1529.63 -951.90002 1281.36 9.2197031e-39
14.2909 -1824.23 1319.4399 9.2197031e-39
-1243.25 -1259.6801 1323.91 9.2197031e-39
-1358.85 -1442.96 1381.5 9.2197031e-39
-195.005 -2047.77 1397.37 9.2197031e-39
-143.81799 -2041.77 1390.15 9.2197031e-39
-292.633 -2047.95 1408.42 9.2197031e-39
-244.18201 -2048.97 1403.21 9.2197031e-39
-323.64301 -2015.3201 1403.98 9.2197031e-39
-995.81598 -2069.72 1492.95 9.2197031e-39
-1481.33 -1848.5701 1493.9 9.2197031e-39
-1115.6 -2074.55 1507.62 9.2197031e-39
-1056.7 -2074.05 1500.86 9.2197031e-39
-1553.7 -1857.98 1504.34 9.2197031e-39
-1634.45 -1803.75 1500.26 9.2197031e-39
-1170.0699 -2068.21 1512.22 9.2197031e-39
-1621.95 -1861.4399 1512.88 9.2197031e-39
-1240.71 -2081.8999 1523.51 9.2197031e-39
-1307.0699 -2088.6201 1532.62 9.2197031e-39
-1435.4399 -2092.8701 1548.12 9.2197031e-39
-1375.04 -2096.03 1542.08 9.2197031e-39
-1498.5601 -2091.96 1555.01 9.2197031e-39
-2327.27 -1711.23 1555.84 9.2197031e-39
-1580.14 -2111.6899 1569 9.2197031e-39
-1643.35 -2108.3701 1575.3199 9.2197031e-39
-2325.8301 -1779.5701 1572.29 9.2197031e-39
-5220.5698 -972.64001 1702.33 9.2197031e-39
