# .PCD v0.7 - Point Cloud Data file format
VERSION 0.7
FIELDS x y z rgb
SIZE 4 4 4 4
TYPE F F F F
COUNT 1 1 1 1
WIDTH 308
HEIGHT 1
VIEWPOINT 0 0 0 1 0 0 0
POINTS 308
DATA ascii
3396 187.37299 138.522 9.2197031e-39
3391.1299 206.87701 134 9.2197031e-39
1686.52 767.39099 139.80099 9.2197031e-39
1635.3301 786.78748 139.3255 9.2197031e-39
1642.88 785.08801 139.101 9.2197031e-39
1624.52 795.31702 138.10001 9.2197031e-39
1365.1019 882.88416 138.40959 9.2197031e-39
1376.8726 884.82751 136.89575 9.2197031e-39
1381.33 883.15698 136.933 9.2197031e-39
-4872.3101 3035 134.00101 9.2197031e-39
3391.0601 153.20999 147.61099 9.2197031e-39
3389.3799 171.82199 143.039 9.2197031e-39
1609.54 754.20703 149.82201 9.2197031e-39
1616.9199 753.23645 149.42801 9.2197031e-39
1625.9375 754.77258 148.2565 9.2197031e-39
1632.52 753.70996 147.9545 9.2197031e-39
1597.98 763.737 148.409 9.2197031e-39
1603.1899 763.33099 148.06 9.2197031e-39
1624.0468 767.32599 145.23799 9.2197031e-39
1651.8199 768.159 142.617 9.2197031e-39
1623.8672 774.75354 143.37057 9.2197031e-39
1637.25 775.60101 141.99432 9.2197031e-39
1646.1276 776.81323 140.91725 9.2197031e-39
1623.21 780.70898 141.918 9.2197031e-39
1339.12 848.74597 149.31799 9.2197031e-39
1345.8251 855.03632 147.14198 9.2197031e-39
1359 859.16296 144.953 9.2197031e-39
1365.96 850.40002 146.57001 9.2197031e-39
1358.145 862.38049 144.2115 9.2197031e-39
1363.172 865.38135 143.01421 9.2197031e-39
1371.485 866.65149 141.97101 9.2197031e-39
1357.345 874.67297 141.16451 9.2197031e-39
1364.0901 872.414 141.15201 9.2197031e-39
1339.99 880.22699 141.26199 9.2197031e-39
1349.0699 880.05103 140.519 9.2197031e-39
1353.23 880.64801 140.006 9.2197031e-39
-4688.3701 2913.8701 148.75 9.2197031e-39
3398.51 113.952 156.918 9.2197031e-39
3395.3601 133.45901 152.246 9.2197031e-39
1619.1 746.90399 150.845 9.2197031e-39
3394.9399 78.427979 166.233 9.2197031e-39
3392.1699 98.05603 161.498 9.2197031e-39
-4989.9702 2953.5901 164.84801 9.2197031e-39
3398.9399 39.276978 175.812 9.2197031e-39
3396.5801 59.090027 170.994 9.2197031e-39
3402.1001 -0.2130127 185.549 9.2197031e-39
3401.0801 19.372986 180.672 9.2197031e-39
-4983.52 2891.23 180.099 9.2197031e-39
3402.9099 -19.872009 190.46201 9.2197031e-39
-4973.5898 2828.24 195.20599 9.2197031e-39
-4974.5298 2768.95 210.31799 9.2197031e-39
-4964.3301 2706.74 225.203 9.2197031e-39
-908.98401 749.22699 369.60199 9.2197031e-39
-908.26898 769.83899 364.314 9.2197031e-39
-918.31598 790.146 360.03799 9.2197031e-39
-910.508 728.539 374.978 9.2197031e-39
2984.54 -656.18994 388.077 9.2197031e-39
3001.24 -647.39001 384.396 9.2197031e-39
3024.96 -645.39001 381.82999 9.2197031e-39
-899.07397 667.37097 389.49301 9.2197031e-39
-887.18799 688.79388 383.03101 9.2197031e-39
-909.85602 707.92731 380.147 9.2197031e-39
2938.2 -685.93005 399.63699 9.2197031e-39
2957.1299 -679.77002 396.43301 9.2197031e-39
2971.9199 -669.12 392.448 9.2197031e-39
-896.48999 626.27216 399.68799 9.2197031e-39
-894.90198 647.0752 394.27701 9.2197031e-39
2874.8101 -695.73999 407.62399 9.2197031e-39
2888.3899 -684.35999 403.56 9.2197031e-39
2907.21 -678.70996 400.495 9.2197031e-39
-886.25201 585.94171 409.02399 9.2197031e-39
-898.87402 605.31769 405.207 9.2197031e-39
2796.8 -712.58997 418.66299 9.2197031e-39
2818.8201 -711.72998 416.53601 9.2197031e-39
2834.48 -703.08997 412.98499 9.2197031e-39
2859.1799 -704.77002 411.26801 9.2197031e-39
-889.09998 544.09088 419.88101 9.2197031e-39
-892.211 564.51221 414.974 9.2197031e-39
2779.5 -746.83997 428.84601 9.2197031e-39
2782.96 -723.18994 422.55099 9.2197031e-39
-882.32898 503.32001 429.63 9.2197031e-39
-884.82202 523.8277 424.647 9.2197031e-39
2784.24 -781.44995 437.20901 9.2197031e-39
-877.69 483.125 434.34698 9.2197031e-39
-878.63 441.021 445.10199 9.2197031e-39
-883.64301 461.21698 440.41699 9.2197031e-39
-860.57599 381.11401 458.72299 9.2197031e-39
-883.651 397.81799 456.48999 9.2197031e-39
-880.26801 419.638 450.66501 9.2197031e-39
-810.04602 328.75201 467.61301 9.2197031e-39
-825.72601 346.24399 464.539 9.2197031e-39
-802.90997 309.44601 471.888 9.2197031e-39
2900.3 -1062.35 498.35101 9.2197031e-39
2868.97 -1053.65 498.86499 9.2197031e-39
2919.51 -1053.98 494.56299 9.2197031e-39
2975.26 -1059.4399 491.10999 9.2197031e-39
2940.46 -1047.79 491.177 9.2197031e-39
-440.621 79.387024 498.77802 9.2197031e-39
2764.78 -1043.05 505.21701 9.2197031e-39
2714.6001 -1037.65 508.202 9.2197031e-39
-440.55801 59.763 503.74701 9.2197031e-39
2634.45 -1054.9 519.52899 9.2197031e-39
2694.1599 -1041.63 510.98499 9.2197031e-39
2645.7 -1036.3199 513.84399 9.2197031e-39
2669.6101 -1038.6899 512.37 9.2197031e-39
2544.53 -1050.86 526.30701 9.2197031e-39
2500.6001 -1048.3101 529.47101 9.2197031e-39
2518.8101 -1042.75 526.48297 9.2197031e-39
2560.4099 -1040.61 522.33099 9.2197031e-39
2582.5 -1041.36 520.60602 9.2197031e-39
2608.1299 -1047.85 520.02698 9.2197031e-39
2459.6899 -1050.12 533.47998 9.2197031e-39
2397.47 -1048.66 538.50897 9.2197031e-39
2418.1399 -1049.36 536.89203 9.2197031e-39
2436.72 -1045.4301 534.284 9.2197031e-39
2476.54 -1042.3101 530.039 9.2197031e-39
1804.96 -846.68994 538.71503 9.2197031e-39
1819.42 -840.57996 535.91199 9.2197031e-39
1851.55 -845.19995 534.29498 9.2197031e-39
1833.97 -835.31006 533.31299 9.2197031e-39
2301.7 -1057.53 549.06702 9.2197031e-39
2358.77 -1052.04 542.72302 9.2197031e-39
2378.1101 -1050.4399 540.64001 9.2197031e-39
2314.03 -1040.24 543.61401 9.2197031e-39
2336.71 -1047.15 543.39801 9.2197031e-39
2273.6299 -1036.6 546.19702 9.2197031e-39
2182.47 -995.70996 543.73999 9.2197031e-39
1879.64 -903.54004 546.64899 9.2197031e-39
1776.8101 -865.27002 545.86798 9.2197031e-39
1791.36 -858.43994 542.87299 9.2197031e-39
-929.82898 52.742004 547.97803 9.2197031e-39
2262.9299 -1058.1801 552.59399 9.2197031e-39
2236.75 -1040.4 550.35999 9.2197031e-39
2216.79 -1037.92 551.46399 9.2197031e-39
1734.17 -897.58997 557.76202 9.2197031e-39
1748.74 -888.21997 554.12097 9.2197031e-39
1763.3 -879.68994 550.69501 9.2197031e-39
1621.5601 -864.84998 559.23199 9.2197031e-39
1605.01 -845.08997 555.65802 9.2197031e-39
1589.52 -839.71997 555.64099 9.2197031e-39
1513.62 -822.57996 557.88202 9.2197031e-39
1558.66 -822.78003 554.02399 9.2197031e-39
1573.9399 -829.38 554.37097 9.2197031e-39
1528.5699 -817.93005 555.40503 9.2197031e-39
1543.52 -817.03003 553.87799 9.2197031e-39
-404.52399 -170.04102 558.87903 9.2197031e-39
-414.84 -154.03101 555.71503 9.2197031e-39
-446.86801 -149.117 557.24902 9.2197031e-39
-497.89099 -131.40198 557.18402 9.2197031e-39
-461.40201 -134.93701 554.91498 9.2197031e-39
-522.95697 -121.79999 556.92499 9.2197031e-39
-556.02301 -115.60498 558.22302 9.2197031e-39
-581.99103 -105.64697 557.95203 9.2197031e-39
-614.22998 -98.138977 558.84601 9.2197031e-39
-642.89697 -88.580017 558.90997 9.2197031e-39
-1234.0699 133.11301 554 9.2197031e-39
-1299.4301 141.758 557.479 9.2197031e-39
-1296.6 168.09799 550.55603 9.2197031e-39
2187.96 -1062.8199 560.27502 9.2197031e-39
2073.1101 -1053.39 567.85101 9.2197031e-39
2110.53 -1055.38 565.10999 9.2197031e-39
2129.6201 -1057.05 563.87598 9.2197031e-39
2146.6001 -1052.05 561.13397 9.2197031e-39
2167.05 -1057.0699 560.633 9.2197031e-39
2088.9199 -1045.13 564.38501 9.2197031e-39
1703.49 -906.32996 562.638 9.2197031e-39
1719.5601 -907.81006 561.62 9.2197031e-39
1638.76 -888.33997 563.69397 9.2197031e-39
1498.51 -839.70996 563.534 9.2197031e-39
-374.461 -218.48199 568.55103 9.2197031e-39
-392.905 -207.03302 567.24902 9.2197031e-39
-397.51501 -187.83899 562.78302 9.2197031e-39
-686.04797 -84.794006 561.69397 9.2197031e-39
-718.40198 -75.802002 562.22101 9.2197031e-39
-1015.63 0.37597656 568.698 9.2197031e-39
-1078.72 53.177979 560.78601 9.2197031e-39
-1290 92.63501 569.11401 9.2197031e-39
2021.97 -1066.09 575.508 9.2197031e-39
2057.72 -1063.4 571.724 9.2197031e-39
1964.1 -1050.92 576.68298 9.2197031e-39
1999.7 -1050.1899 573.409 9.2197031e-39
2036.96 -1054.48 571.26202 9.2197031e-39
1979.88 -1042.59 573.20099 9.2197031e-39
1942.27 -1033.47 574.15302 9.2197031e-39
1919.74 -1011.05 570.42297 9.2197031e-39
-372.828 -261.66101 579.35602 9.2197031e-39
-367.832 -236.58899 572.56598 9.2197031e-39
-1228.25 32.823975 578.91998 9.2197031e-39
-1228.4 58.440979 572.43903 9.2197031e-39
-1275.9 70.635986 573.46802 9.2197031e-39
1662.6801 -986.18994 586.42603 9.2197031e-39
-362.70999 -300.51599 588.328 9.2197031e-39
-370.806 -282.85699 584.55402 9.2197031e-39
1684.2 -1039.3101 598.02399 9.2197031e-39
1700.63 -1033.25 595.06403 9.2197031e-39
1480.96 -1005.92 607.19202 9.2197031e-39
1429.8101 -1031.64 618.151 9.2197031e-39
1463.6899 -1031.4301 615.159 9.2197031e-39
1446.88 -1027.73 615.67999 9.2197031e-39
1343.46 -1046.98 629.534 9.2197031e-39
1360.75 -1045.76 627.72302 9.2197031e-39
1378.26 -1040.52 624.87598 9.2197031e-39
1326.95 -1039.39 629.03998 9.2197031e-39
1395.84 -1032.23 621.25 9.2197031e-39
1412.5699 -1037.33 621.09003 9.2197031e-39
1257.5699 -1042.21 635.776 9.2197031e-39
1291.89 -1044.9399 633.49103 9.2197031e-39
1223.54 -1036.98 637.40198 9.2197031e-39
1241.62 -1032 634.57202 9.2197031e-39
1275.2 -1039.8101 633.63702 9.2197031e-39
1309.86 -1038.39 630.271 9.2197031e-39
-548.42102 -440 639.80103 9.2197031e-39
1203.2 -1055.15 643.77301 9.2197031e-39
1152.36 -1042.84 645.06201 9.2197031e-39
1119.0699 -1032.03 645.211 9.2197031e-39
1171.13 -1036.61 641.85602 9.2197031e-39
1188.63 -1036.89 640.40802 9.2197031e-39
1086.47 -1018.79 644.68402 9.2197031e-39
1104.36 -1017.92 642.90997 9.2197031e-39
1019.31 -1001.97 646.24597 9.2197031e-39
1002.61 -997.41003 646.539 9.2197031e-39
973.33301 -1037.33 659.19897 9.2197031e-39
1028.21 -1037.29 654.42902 9.2197031e-39
1046.86 -1035.0699 652.24597 9.2197031e-39
1065.21 -1033.61 650.28497 9.2197031e-39
-599.83099 -498.30005 659.04102 9.2197031e-39
1122.8101 -1102.9301 662.862 9.2197031e-39
860.89801 -1037.42 668.979 9.2197031e-39
918.93402 -1033.09 662.84497 9.2197031e-39
936.81097 -1035.59 661.92798 9.2197031e-39
955.49597 -1035.15 660.19501 9.2197031e-39
825.54901 -1029.09 669.93201 9.2197031e-39
885.60101 -1020.28 662.48798 9.2197031e-39
903.71698 -1022.15 661.39301 9.2197031e-39
848.03003 -1019.67 665.59399 9.2197031e-39
726.80701 -1031.41 679.08899 9.2197031e-39
765.95099 -1032.5 675.96802 9.2197031e-39
749.302 -1024.88 675.48297 9.2197031e-39
788.54797 -1024.64 672.01501 9.2197031e-39
806.55298 -1028.3101 671.383 9.2197031e-39
-648.68903 -556.51001 678.03998 9.2197031e-39
660.60199 -1044.24 688.08502 9.2197031e-39
686.29102 -1032.23 682.81097 9.2197031e-39
707.15399 -1030.59 680.58502 9.2197031e-39
597.58301 -1002.51 682.97302 9.2197031e-39
565.20697 -1025.46 691.60199 9.2197031e-39
-550.36902 -681.47998 701.18903 9.2197031e-39
469.715 -1083.27 714.54102 9.2197031e-39
386.99799 -1067.96 717.83801 9.2197031e-39
346.785 -1057.02 718.55402 9.2197031e-39
370.108 -1057.1899 716.57202 9.2197031e-39
398.70901 -1087.84 721.85999 9.2197031e-39
247.28 -1061.91 728.427 9.2197031e-39
271.02701 -1063.14 726.67798 9.2197031e-39
319.79999 -1062.36 722.24799 9.2197031e-39
298.314 -1058.39 723.10498 9.2197031e-39
165.036 -1071.77 738.06097 9.2197031e-39
145.338 -1063.09 737.57098 9.2197031e-39
196.811 -1062.6801 733 9.2197031e-39
219.674 -1066.05 731.87201 9.2197031e-39
104.079 -1084.04 746.461 9.2197031e-39
80.751099 -1079.48 747.32898 9.2197031e-39
383.90302 -1198.66 751.24103 9.2197031e-39
39.322701 -1098.6801 755.78998 9.2197031e-39
528.49298 -1287.92 761.323 9.2197031e-39
396.569 -1265.27 767.02899 9.2197031e-39
478.819 -1343.88 779.81897 9.2197031e-39
465.23999 -1321.58 775.34497 9.2197031e-39
324.72601 -1261.23 772.237 9.2197031e-39
365.48801 -1373.05 797.04797 9.2197031e-39
-276.35999 -1158.1 798.245 9.2197031e-39
-249.468 -1200.63 806.69299 9.2197031e-39
-264.311 -1180.86 802.96899 9.2197031e-39
-200.603 -1255.62 816.39398 9.2197031e-39
-222.228 -1243.63 815.23199 9.2197031e-39
-235.036 -1221.05 810.61798 9.2197031e-39
-359.755 -1214.54 819.789 9.2197031e-39
-146.492 -1304.96 824.20898 9.2197031e-39
-173.243 -1299.6 825.17102 9.2197031e-39
-189.166 -1280.3 821.65802 9.2197031e-39
-402.23801 -1223.95 825.86102 9.2197031e-39
-1199.8199 -950.66003 825.77802 9.2197031e-39
-455.008 -1243.4301 835.37701 9.2197031e-39
-1207.3199 -990.38 836.5 9.2197031e-39
-519.01801 -1273.41 848.53003 9.2197031e-39
-1208.6801 -1026.5 845.77399 9.2197031e-39
-1215.99 -1067.29 856.74902 9.2197031e-39
-589.82898 -1308.72 863.62598 9.2197031e-39
-1189.6 -1120.88 868.04602 9.2197031e-39
-1214.04 -1102.1 865.40399 9.2197031e-39
-663.5 -1345.05 879.22803 9.2197031e-39
-1175.35 -1184.24 882.87 9.2197031e-39
-1208.99 -1247.9 901.92902 9.2197031e-39
-1203.35 -1282.14 910.12 9.2197031e-39
-4141.6401 -321.25201 921.46002 9.2197031e-39
-929.71997 -1570.8301 959.56403 9.2197031e-39
-1437.03 -1508.6201 987.80902 9.2197031e-39
-1633.04 -1758.53 1068.17 9.2197031e-39
-1786.09 -1836.71 1101.27 9.2197031e-39
-1759.2 -1912.75 1118.22 9.2197031e-39
-1622.4301 -2150.3701 1166.59 9.2197031e-39
-1565.5699 -2148.8601 1161.27 9.2197031e-39
-1736.26 -2150.52 1176.5 9.2197031e-39
-1676.02 -2147.8101 1170.59 9.2197031e-39
-1855.47 -2151.5801 1187.11 9.2197031e-39
-1796.08 -2151.77 1182.01 9.2197031e-39
-1925.37 -2159.6101 1195.21 9.2197031e-39
-1986.85 -2159.03 1200.4 9.2197031e-39
