# .PCD v0.7 - Point Cloud Data file format
VERSION 0.7
FIELDS x y z rgb
SIZE 4 4 4 4
TYPE F F F F
COUNT 1 1 1 1
WIDTH 301
HEIGHT 1
VIEWPOINT 0 0 0 1 0 0 0
POINTS 301
DATA ascii
2981.98 -535.26001 138.319 9.2197031e-39
3005.9199 -528.15002 134 9.2197031e-39
1406.76 148.42599 139.743 9.2197031e-39
1365.7 168.38651 139.2545 9.2197031e-39
1343.85 183.423 137.911 9.2197031e-39
1093.4451 287.69376 139.2205 9.2197031e-39
1094.975 293.83667 137.54832 9.2197031e-39
1110.3199 292.88501 136.133 9.2197031e-39
-4623.2598 2811.21 134.00101 9.2197031e-39
3022.8601 -589.98999 147.36099 9.2197031e-39
2992.5901 -557.84998 142.72301 9.2197031e-39
1357.3101 129.98099 149.582 9.2197031e-39
1339.12 138.78201 149.377 9.2197031e-39
1344.9475 137.41299 149.08676 9.2197031e-39
1357.1266 134.041 148.60567 9.2197031e-39
1332.63 142.99051 149.0415 9.2197031e-39
1346.59 148.974 146.07201 9.2197031e-39
1352.41 142.06 147.145 9.2197031e-39
1374.78 148.76901 143.09399 9.2197031e-39
1314.85 158.48801 147.14799 9.2197031e-39
1346.1543 156.23985 144.33598 9.2197031e-39
1359.39 156.50299 142.85001 9.2197031e-39
1367.1234 155.81898 142.18634 9.2197031e-39
1372.605 157.01401 141.3045 9.2197031e-39
1344.015 162.7775 142.9615 9.2197031e-39
1351.4 160.85101 142.64 9.2197031e-39
1362.5449 164.39751 140.57249 9.2197031e-39
1371.91 162.29501 140.08299 9.2197031e-39
1077.11 259.44501 147.91 9.2197031e-39
1083.92 256.26401 147.959 9.2197031e-39
1095.9 256.67599 146.57001 9.2197031e-39
1075.6766 266.02267 146.44899 9.2197031e-39
1082.01 262.57199 146.61566 9.2197031e-39
1093.2433 267.59567 144.17534 9.2197031e-39
1094.9167 273.91235 142.44466 9.2197031e-39
1101.6951 274.98248 141.45401 9.2197031e-39
1077 285.94901 141.416 9.2197031e-39
1084.01 285.16101 140.85567 9.2197031e-39
-5024.3799 2924.1299 149.382 9.2197031e-39
2950.9299 -609.81006 159.95399 9.2197031e-39
2966.22 -599.31006 155.733 9.2197031e-39
2994.0701 -594.65002 151.59599 9.2197031e-39
1335.3049 135.463 150.6015 9.2197031e-39
2924.6001 -632.52002 168.358 9.2197031e-39
2933.8 -619.20996 164.10001 9.2197031e-39
-2065.8101 1560.9761 166.112 9.2197031e-39
-5014.3901 2857.74 164.604 9.2197031e-39
2898.8501 -655.06006 176.657 9.2197031e-39
2908.23 -641.98999 172.44099 9.2197031e-39
-1995.6 1501.563 173.153 9.2197031e-39
-5007.3999 2793.21 179.692 9.2197031e-39
2871.04 -675.97998 184.78101 9.2197031e-39
2893.72 -670.44995 180.98399 9.2197031e-39
-1974.1899 1462.192 180.51601 9.2197031e-39
-909.73102 351.444 338.797 9.2197031e-39
-916.14301 370.121 334.90201 9.2197031e-39
-808.83398 276.755 346.29001 9.2197031e-39
-900.38599 314.55099 346.849 9.2197031e-39
-911.10699 333.20001 343.42401 9.2197031e-39
1829.77 -925.45996 357.89499 9.2197031e-39
-834.01001 241.82501 357.57001 9.2197031e-39
-814.54102 259.35599 351.17499 9.2197031e-39
-978.01898 298.16101 359.21399 9.2197031e-39
2402.4199 -1209.35 366.052 9.2197031e-39
2438.52 -1202.89 360.59 9.2197031e-39
2354.3101 -1199.3199 368.76001 9.2197031e-39
2373.0701 -1197.86 366.38501 9.2197031e-39
2408.23 -1191.22 360.97699 9.2197031e-39
1793.4399 -955.54004 369.181 9.2197031e-39
1805.72 -954.56995 367.625 9.2197031e-39
1812.4399 -941.96997 363.80801 9.2197031e-39
1822.9 -937.28003 361.53299 9.2197031e-39
2252.1799 -1190.5699 377.58401 9.2197031e-39
2291.8999 -1193.66 374.07599 9.2197031e-39
2309.8301 -1192.08 371.763 9.2197031e-39
2333.2 -1197.42 370.561 9.2197031e-39
2227.6799 -1181.77 378.056 9.2197031e-39
2269.3899 -1188.61 375.255 9.2197031e-39
1905.29 -1046.76 379.556 9.2197031e-39
1766.86 -981.19995 378.336 9.2197031e-39
1774.91 -970.60999 374.871 9.2197031e-39
1784.83 -964.44995 372.29401 9.2197031e-39
2184.8301 -1198.22 386.698 9.2197031e-39
2160.8501 -1188.46 386.879 9.2197031e-39
2194.1899 -1185.47 382.56201 9.2197031e-39
2214.54 -1189.02 381.24899 9.2197031e-39
2120.2 -1151.65 382.21301 9.2197031e-39
1736.3199 -998.98999 385.983 9.2197031e-39
1748.4399 -997.68994 384.36099 9.2197031e-39
1755.99 -985.40002 380.534 9.2197031e-39
1559.66 -931.21997 388.328 9.2197031e-39
1569.5699 -926.80005 386.17999 9.2197031e-39
1511.59 -914.77002 389.45499 9.2197031e-39
1521.66 -911.68994 387.617 9.2197031e-39
1544.1899 -914.73999 385.94601 9.2197031e-39
1531.45 -907.57996 385.556 9.2197031e-39
2110.3701 -1190.37 392.77301 9.2197031e-39
2059.3701 -1188.99 397.91101 9.2197031e-39
2075.47 -1188.21 395.98999 9.2197031e-39
2090.6001 -1185.5601 393.716 9.2197031e-39
2125.5801 -1187.39 390.40701 9.2197031e-39
1725.4 -1036.13 396.27399 9.2197031e-39
1732.4399 -1021.22 391.858 9.2197031e-39
1604.53 -968.35999 392.62601 9.2197031e-39
1588.23 -952.38 390.45401 9.2197031e-39
1485.55 -944.53003 399.55801 9.2197031e-39
1494.05 -933.07996 395.83499 9.2197031e-39
1502.5699 -922.52002 392.32901 9.2197031e-39
1997.26 -1193.95 405.80301 9.2197031e-39
2012.74 -1192.9399 403.892 9.2197031e-39
2030.16 -1195.24 402.58499 9.2197031e-39
2048.6299 -1199.0699 401.54001 9.2197031e-39
1477.25 -957.82996 403.715 9.2197031e-39
1462.42 -997.70996 415.09799 9.2197031e-39
1471.29 -984.5 410.90399 9.2197031e-39
-1311.61 197.33701 419.80399 9.2197031e-39
1769.7 -1190.02 429.29001 9.2197031e-39
-862.74402 -11.020996 422.72198 9.2197031e-39
-1282.41 154.83499 427.10001 9.2197031e-39
-1266.8101 176.80801 420.03 9.2197031e-39
1762.3 -1208.97 434.73499 9.2197031e-39
1677.51 -1164.73 432.98599 9.2197031e-39
-387.939 -277.83002 437.20001 9.2197031e-39
-395.741 -264.72101 434.82001 9.2197031e-39
-392.12299 -248.09302 430.35001 9.2197031e-39
-900.047 -52.940002 437.01901 9.2197031e-39
-913.91699 -36.059021 434.366 9.2197031e-39
-1278.28 111.89999 437.19501 9.2197031e-39
-1272.01 133.737 431.16101 9.2197031e-39
1762.0699 -1249.1801 444.629 9.2197031e-39
1476.34 -1144.53 449.64099 9.2197031e-39
-493.27899 -262.41998 444.73499 9.2197031e-39
-893.42499 -89.468994 445.27399 9.2197031e-39
-898.776 -71.507996 441.44 9.2197031e-39
-1283.29 68.34198 448.42499 9.2197031e-39
-1313.09 88.15802 446.76199 9.2197031e-39
1762.75 -1294.11 455.58701 9.2197031e-39
-439.815 -310.70502 450.84299 9.2197031e-39
-900.77002 -128.45599 455.633 9.2197031e-39
-899.63202 -109.31897 450.814 9.2197031e-39
-1263.79 26.61499 456.57199 9.2197031e-39
-1309.73 44.549988 457.10599 9.2197031e-39
1757.41 -1323.33 463.332 9.2197031e-39
-623.29797 -283.14502 463.79199 9.2197031e-39
-897.65302 -165.95599 464.50299 9.2197031e-39
-901.729 -147.64801 460.44699 9.2197031e-39
-1208.11 -32.039978 464.98801 9.2197031e-39
-1283.88 3.0629883 464.51199 9.2197031e-39
1761.21 -1382.42 477.42899 9.2197031e-39
1165.5 -1120.62 477.17001 9.2197031e-39
-898.91998 -223.87 478.85501 9.2197031e-39
-897.71399 -204.31201 473.92499 9.2197031e-39
-904.07001 -186.38501 470.207 9.2197031e-39
-1284.99 -18.890015 470.01999 9.2197031e-39
3219.4099 -2063.1299 487.845 9.2197031e-39
1176.9 -1140.87 480.91501 9.2197031e-39
1152.6801 -1129.33 480.686 9.2197031e-39
973.39801 -1081.37 488.17499 9.2197031e-39
986.95001 -1075.3101 485.23099 9.2197031e-39
963.84802 -1067.41 485.77499 9.2197031e-39
-906.53101 -264.54797 489.65799 9.2197031e-39
-898.97699 -243.271 483.62399 9.2197031e-39
3178.6499 -2055.1399 490.26401 9.2197031e-39
1026.6899 -1135.88 495.82999 9.2197031e-39
1039.92 -1132.1801 493.5 9.2197031e-39
1064.79 -1134.98 491.51501 9.2197031e-39
1053.3199 -1126.4301 490.64999 9.2197031e-39
-898.99103 -301.98401 498.03699 9.2197031e-39
-898.53497 -282.20697 493.133 9.2197031e-39
985.29102 -1152.92 504.45999 9.2197031e-39
921.255 -1145.91 509.62 9.2197031e-39
936.24298 -1137.52 505.94901 9.2197031e-39
-889.82001 -339.09003 506.16 9.2197031e-39
-889.72302 -319.28302 501.28799 9.2197031e-39
1184.61 -1278.38 513.84003 9.2197031e-39
1103.33 -1266.75 519.71899 9.2197031e-39
1064.0601 -1250.26 519.89001 9.2197031e-39
893.74298 -1150.02 513.586 9.2197031e-39
867.94501 -1146.14 515.40399 9.2197031e-39
882.39801 -1142.05 512.84698 9.2197031e-39
907.64398 -1147.5601 511.48801 9.2197031e-39
831.59198 -1131.59 515.73798 9.2197031e-39
821.172 -1121.3 514.33301 9.2197031e-39
846.65399 -1126 512.74902 9.2197031e-39
859.01898 -1129.58 512.29901 9.2197031e-39
1127.1899 -1315.9 529.21997 9.2197031e-39
773.66803 -1141.36 524.36102 9.2197031e-39
706.75403 -1131.38 529.099 9.2197031e-39
749.05499 -1131.72 524.63898 9.2197031e-39
763.38202 -1130.66 522.83801 9.2197031e-39
790.05902 -1133.62 520.69897 9.2197031e-39
801.92798 -1139.53 520.87402 9.2197031e-39
724.96301 -1120.77 524.539 9.2197031e-39
737.64301 -1124.48 524.08801 9.2197031e-39
683.06702 -1118.83 528.56403 9.2197031e-39
563.88 -1060 526.92902 9.2197031e-39
-827.33398 -459.40002 528.979 9.2197031e-39
633.901 -1131.6 536.98102 9.2197031e-39
663.71198 -1130.6899 533.55603 9.2197031e-39
690.43903 -1136.38 532.08002 9.2197031e-39
649.784 -1129 534.63599 9.2197031e-39
573.966 -1099.59 535.56299 9.2197031e-39
565.729 -1085.8199 533.06897 9.2197031e-39
1194.9301 -1410.09 545.06201 9.2197031e-39
981.76801 -1335.36 549.62201 9.2197031e-39
971.98102 -1307.01 543.71503 9.2197031e-39
614.75702 -1141.08 541.36603 9.2197031e-39
588.13501 -1133.14 542.276 9.2197031e-39
602.24402 -1135.42 541.31897 9.2197031e-39
575.68903 -1127.25 542.16803 9.2197031e-39
490.45999 -1110.88 547.30798 9.2197031e-39
-878.95697 -497.68994 543.92297 9.2197031e-39
1209.13 -1447.6399 552.75201 9.2197031e-39
1063.9399 -1379.1801 551.54901 9.2197031e-39
510.65701 -1132.5601 550.45801 9.2197031e-39
468.728 -1121.01 552.12903 9.2197031e-39
496.37 -1129.41 551.21997 9.2197031e-39
436.73901 -1119.6 555.21997 9.2197031e-39
-414.785 -763.42004 559.27899 9.2197031e-39
-443.42499 -740.58997 556.75201 9.2197031e-39
-420.76001 -747.06006 555.90601 9.2197031e-39
-462.72101 -731.85999 556.68103 9.2197031e-39
-490.51401 -727.67004 558.64099 9.2197031e-39
-501.24799 -713.64001 556.34802 9.2197031e-39
-529.94 -709.27002 558.35901 9.2197031e-39
-567.52502 -688.93005 557.40503 9.2197031e-39
-880.06702 -539.80005 554.38 9.2197031e-39
-885.63098 -520.88 550.33301 9.2197031e-39
354.51901 -1142.49 569.67102 9.2197031e-39
408.51199 -1138.97 563.00598 9.2197031e-39
397.99399 -1128.24 561.50299 9.2197031e-39
-376.22699 -820.03003 569.03101 9.2197031e-39
-389.328 -808.12 567.51501 9.2197031e-39
-404.81601 -797.64001 566.60797 9.2197031e-39
-413.61801 -782.84998 563.92401 9.2197031e-39
-557.83301 -704.03003 560.07001 9.2197031e-39
-605.03601 -687.91003 561.18597 9.2197031e-39
-624.25403 -677.18994 560.61798 9.2197031e-39
-649.59802 -669.20996 561.38202 9.2197031e-39
-695.86298 -650.09998 561.66302 9.2197031e-39
-671.40997 -659.18005 561.26501 9.2197031e-39
-722.09497 -641.47998 562.36603 9.2197031e-39
-754.60999 -635.27002 564.33398 9.2197031e-39
-779.96997 -625.44995 564.64899 9.2197031e-39
-809.83801 -617.18005 565.82898 9.2197031e-39
-834.27502 -606.22998 565.76599 9.2197031e-39
-857.771 -594.56995 565.42798 9.2197031e-39
-876.65002 -580.79004 564.073 9.2197031e-39
-890.85797 -565 561.72498 9.2197031e-39
1255.75 -1562.55 575.95001 9.2197031e-39
290.94601 -1130.24 573.49597 9.2197031e-39
304.57401 -1136.96 573.67999 9.2197031e-39
325.70901 -1132.26 570.255 9.2197031e-39
338.79099 -1139.47 570.62 9.2197031e-39
1064.4301 -1525.6299 587.44501 9.2197031e-39
1239.71 -1645.76 598.09998 9.2197031e-39
-36.159801 -1106.77 602.88 9.2197031e-39
1520.4 -1840.29 615.69299 9.2197031e-39
1539.25 -1840.1899 613.64203 9.2197031e-39
1559.16 -1846.6699 613.09497 9.2197031e-39
1578.25 -1847.2 611.17297 9.2197031e-39
1481.25 -1827.4299 616.742 9.2197031e-39
1499.84 -1826.7 614.56403 9.2197031e-39
1424.16 -1814.1399 619.61298 9.2197031e-39
1443.2 -1819.7 618.93298 9.2197031e-39
1461.61 -1818.3201 616.617 9.2197031e-39
1222.27 -1717.1399 617.49597 9.2197031e-39
1087.6899 -1636.3601 612.125 9.2197031e-39
-110.832 -1135.64 617.98798 9.2197031e-39
-75.992302 -1124.28 611.45599 9.2197031e-39
1406.33 -1821.99 623.45398 9.2197031e-39
1350.36 -1813.55 627.39801 9.2197031e-39
1387.25 -1814.1599 623.58398 9.2197031e-39
1331.5699 -1805.24 627.37598 9.2197031e-39
1368.1801 -1804.22 623.19397 9.2197031e-39
1294.74 -1798.8301 629.76001 9.2197031e-39
1312.9301 -1796.77 627.29999 9.2197031e-39
1276.1 -1779.3601 626.98297 9.2197031e-39
-139.836 -1140.3101 622.25098 9.2197031e-39
-157.31 -1132.99 622.33099 9.2197031e-39
-217.481 -1141.9 630.98401 9.2197031e-39
-286.86499 -1131.97 636.00098 9.2197031e-39
-257.71899 -1130.08 632.40698 9.2197031e-39
-237.94701 -1136.4399 631.84302 9.2197031e-39
-332.879 -1148.3 644.953 9.2197031e-39
-401.27301 -1132.41 648.401 9.2197031e-39
-375.23901 -1135.24 646.29999 9.2197031e-39
-347.095 -1135.83 643.41901 9.2197031e-39
-482.89899 -1124.29 655.177 9.2197031e-39
-454.341 -1126.33 652.61102 9.2197031e-39
-428.14001 -1129.85 650.65997 9.2197031e-39
-534.146 -1114.3 658.23297 9.2197031e-39
-506.96201 -1118.26 656.284 9.2197031e-39
-661.526 -1032.89 651.935 9.2197031e-39
-576.17603 -1121.13 664.42401 9.2197031e-39
-638.18903 -1116.3101 669.90399 9.2197031e-39
-602.82098 -1115.74 665.96503 9.2197031e-39
-660.23297 -1106.76 669.92798 9.2197031e-39
-739.62799 -1111.13 679.53198 9.2197031e-39
-695.83502 -1106.4399 673.67401 9.2197031e-39
-4502.0801 185.21799 765.57001 9.2197031e-39
