# .PCD v0.7 - Point Cloud Data file format
VERSION 0.7
FIELDS x y z rgb
SIZE 4 4 4 4
TYPE F F F F
COUNT 1 1 1 1
WIDTH 274
HEIGHT 1
VIEWPOINT 0 0 0 1 0 0 0
POINTS 274
DATA ascii
3077.5801 -771.20996 132.45799 9.2197031e-39
3074.5701 -741.44995 135.897 9.2197031e-39
3081.1201 -749.16003 136.328 9.2197031e-39
3090.3301 -739.80005 139.739 9.2197031e-39
2583.51 85.752014 138.097 9.2197031e-39
2577.4299 105.96802 139.509 9.2197031e-39
2573.0151 112.7805 139.44101 9.2197031e-39
3086.1899 -730.56006 140.07201 9.2197031e-39
3078.47 -696.15002 143.077 9.2197031e-39
3005.3201 -583.88 141.88499 9.2197031e-39
2939.3501 -470.31995 142.517 9.2197031e-39
2904.3101 -417.95996 141.74899 9.2197031e-39
2888.6599 -383.70001 142.91499 9.2197031e-39
2868.9099 -354.79999 142.397 9.2197031e-39
2854.1899 -324.66602 143.203 9.2197031e-39
2844.5901 -310.62299 142.951 9.2197031e-39
2844.5701 -301.82397 144.16701 9.2197031e-39
2832.8701 -285.59601 143.737 9.2197031e-39
2825.55 -268.43597 144.439 9.2197031e-39
2819.1299 -259.48798 144.209 9.2197031e-39
2803.5701 -233.46301 144.25301 9.2197031e-39
2779.1399 -203.08398 142.869 9.2197031e-39
2759.77 -174.95697 142.33 9.2197031e-39
2785.9199 -167.31 149.38499 9.2197031e-39
2745.78 -155.98999 141.755 9.2197031e-39
2738.03 -144.83398 141.52699 9.2197031e-39
2765.2 -148.599 147.23199 9.2197031e-39
2730.3799 -132.87903 141.42999 9.2197031e-39
2741.23 -133.37799 143.85001 9.2197031e-39
2726.3599 -126.36099 141.41451 9.2197031e-39
2734.0559 -128.13579 142.93179 9.2197031e-39
2741.02 -129.24103 144.375 9.2197031e-39
2578.9399 108.72601 140.237 9.2197031e-39
2592.6948 105.4855 142.9395 9.2197031e-39
2618.8501 102.83301 148.5685 9.2197031e-39
2576.905 116.5005 140.8485 9.2197031e-39
2583.3867 115.28466 142.16566 9.2197031e-39
2591.4133 112.57134 143.62933 9.2197031e-39
2609.1599 119.73099 148.692 9.2197031e-39
2613.99 113.5755 148.94376 9.2197031e-39
2576.9399 120.79001 141.452 9.2197031e-39
2582.4951 120.62199 142.7025 9.2197031e-39
2592.8799 122.6095 145.358 9.2197031e-39
2606.6602 127.4015 149.1815 9.2197031e-39
2594.6719 135.3062 147.5304 9.2197031e-39
2602.5068 132.78267 148.97633 9.2197031e-39
2596.6599 142.85199 149.033 9.2197031e-39
76.692497 4262.1001 142.882 9.2197031e-39
84.3806 4266.6699 145.278 9.2197031e-39
2858.05 -220.99298 158.47301 9.2197031e-39
2827.6399 -199.862 154.433 9.2197031e-39
2805.0601 -180.25201 151.978 9.2197031e-39
2615.6499 157.37399 155.39999 9.2197031e-39
583.24902 3548.1299 159.944 9.2197031e-39
2933.05 -277.19598 167.867 9.2197031e-39
2888.5701 -246.62903 161.912 9.2197031e-39
600.573 3532.6799 161.772 9.2197031e-39
3012.29 -342.36798 176.99001 9.2197031e-39
678.646 3519 177.77 9.2197031e-39
690.30402 3512.8301 179.588 9.2197031e-39
3075.6201 -382.63 185.92101 9.2197031e-39
3066.47 -376.54999 184.668 9.2197031e-39
3069.8401 -367.16602 186.741 9.2197031e-39
3074.3601 -369.41803 187.466 9.2197031e-39
3089.6899 -370.33801 190.85201 9.2197031e-39
3112.48 -374.22198 195.53751 9.2197031e-39
3090.29 -369.49701 191.10699 9.2197031e-39
3098.3 -352.59998 195.286 9.2197031e-39
3095.6101 -349.46399 195.104 9.2197031e-39
3106.3301 -345.7135 198.082 9.2197031e-39
3103.9951 -332.573 199.37 9.2197031e-39
763.75098 3511.8201 196.28299 9.2197031e-39
3101.9399 -320.56 200.567 9.2197031e-39
3110.03 -324.43103 201.883 9.2197031e-39
3121.3652 -320.6355 205.009 9.2197031e-39
3133.8052 -316.573 208.42349 9.2197031e-39
833.08002 3516.45 212.81799 9.2197031e-39
838.54602 3521.4199 214.75999 9.2197031e-39
3253.3201 -372.552 228.054 9.2197031e-39
3246.1201 -367.06799 227.164 9.2197031e-39
3291.4551 -378.39899 235.98401 9.2197031e-39
916.703 3513.9399 231.64 9.2197031e-39
905.52399 3520.79 230.02699 9.2197031e-39
960.31799 3560.79 248.13699 9.2197031e-39
3413.6899 -425.80005 257.42899 9.2197031e-39
3394.51 -417.73999 254.151 9.2197031e-39
3498.2949 -451.47504 273.26099 9.2197031e-39
3504.5549 -436.08002 276.83099 9.2197031e-39
3496.8899 -413.5 278.20801 9.2197031e-39
3504.3501 -418.76001 279.18701 9.2197031e-39
3502.635 -399.14001 281.51648 9.2197031e-39
3499 -380.92999 283.20801 9.2197031e-39
3499.5901 -379.32202 283.569 9.2197031e-39
3495.3 -362.133 284.96799 9.2197031e-39
3503.22 -363.37903 286.612 9.2197031e-39
3500.7349 -346.16348 288.431 9.2197031e-39
3498.1899 -328.30148 290.32449 9.2197031e-39
3502.3052 -312.92151 293.4035 9.2197031e-39
3497.7 -294.84399 294.85449 9.2197031e-39
3492.74 -276.99802 296.194 9.2197031e-39
3497.8799 -262.23801 299.41901 9.2197031e-39
3492.28 -244.694 300.57098 9.2197031e-39
3495.76 -230.461 303.34201 9.2197031e-39
3485.5601 -226.37903 301.57101 9.2197031e-39
3498.335 -214.32648 306.17151 9.2197031e-39
3490.8599 -197.0455 306.85651 9.2197031e-39
3493.2051 -181.89999 309.49451 9.2197031e-39
3486.48 -166.091 310.14499 9.2197031e-39
3495.3799 -165.89899 312.21399 9.2197031e-39
3488.29 -151.01099 312.65302 9.2197031e-39
3488.46 -149.40698 312.91599 9.2197031e-39
3489.4302 -135.02802 315.1315 9.2197031e-39
3493.0701 -120.95697 317.91901 9.2197031e-39
3491.25 -119.13098 317.755 9.2197031e-39
3482.51 -103.07098 317.98099 9.2197031e-39
3492.1599 -105.56299 319.845 9.2197031e-39
3491.95 -90.286987 321.91699 9.2197031e-39
3491.04 -88.60199 321.94199 9.2197031e-39
3491.5 -74.218506 324.04248 9.2197031e-39
3481.98 -57.846985 324.133 9.2197031e-39
3492.7 -59.861023 326.31 9.2197031e-39
3482.9299 -44.424011 326.21201 9.2197031e-39
3491.6899 -42.992004 328.418 9.2197031e-39
3491.3999 -28.581512 330.35199 9.2197031e-39
3482.1101 -14.296997 330.20499 9.2197031e-39
3491.78 -12.536987 332.66599 9.2197031e-39
3489.98 2.6619873 334.36099 9.2197031e-39
3490.0801 1.0460205 334.16 9.2197031e-39
3489.4399 17.086517 336.23849 9.2197031e-39
3488.585 32.321991 338.15698 9.2197031e-39
3486.9849 47.515503 339.89801 9.2197031e-39
3485.125 62.686005 341.57651 9.2197031e-39
3483.0098 77.829498 343.19202 9.2197031e-39
3481.5898 93.076996 344.98248 9.2197031e-39
3477.9951 108.01649 346.23053 9.2197031e-39
3475.575 123.136 347.77499 9.2197031e-39
3481.6399 139.104 351.38 9.2197031e-39
3480.3401 140.52399 351.27899 9.2197031e-39
3478.02 155.01599 352.75848 9.2197031e-39
3473.5801 169.05099 353.68799 9.2197031e-39
3473.1799 170.64499 353.81601 9.2197031e-39
3478.8201 187.19901 357.40601 9.2197031e-39
3475.0352 202.40601 358.64749 9.2197031e-39
3478.6699 218.923 361.77301 9.2197031e-39
3478.1699 220.53 361.88101 9.2197031e-39
3474.53 235.0985 363.06848 9.2197031e-39
3469.1799 250.91599 364.03601 9.2197031e-39
3478.9199 252.35599 366.46899 9.2197031e-39
3481.925 271.30652 369.78699 9.2197031e-39
3476.6802 286.64099 370.71149 9.2197031e-39
3478.365 304.72101 373.60748 9.2197031e-39
3480.585 323.34351 376.69849 9.2197031e-39
3474.3401 337.70401 377.26099 9.2197031e-39
3481.6101 342.78201 379.63 9.2197031e-39
3475.49 357.366 380.25201 9.2197031e-39
3475.7251 375.99402 382.89001 9.2197031e-39
3468.2251 391.09149 383.26599 9.2197031e-39
3467.75 408.845 385.61899 9.2197031e-39
3468.6201 411.33899 386.164 9.2197031e-39
3470.72 429.82401 389.211 9.2197031e-39
3469.8401 431.427 389.23099 9.2197031e-39
3469.8601 449.151 391.69501 9.2197031e-39
3468.9399 450.754 391.707 9.2197031e-39
3468.115 469.40552 394.10498 9.2197031e-39
3468.55 489.19501 396.95001 9.2197031e-39
3475.76 495.88901 399.53299 9.2197031e-39
3466.21 511.03299 399.444 9.2197031e-39
3475.3601 514.65601 402.04501 9.2197031e-39
3471.3701 534.90088 403.93851 9.2197031e-39
3468.52 556.30768 406.255 9.2197031e-39
3471.21 555.80237 406.80301 9.2197031e-39
3473.3701 581.31458 410.83649 9.2197031e-39
3473.5449 604.87036 414.14401 9.2197031e-39
3473.79 627.82355 417.38501 9.2197031e-39
3474.0701 630.63422 417.83899 9.2197031e-39
3475.605 655.33905 421.6185 9.2197031e-39
3469.3 676.94592 423.172 9.2197031e-39
3470.6299 675.3291 423.25299 9.2197031e-39
3465.29 696.79553 425.00699 9.2197031e-39
3470.48 704.12653 427.21301 9.2197031e-39
3472.405 731.42548 431.44153 9.2197031e-39
3464.48 750.42499 432.26099 9.2197031e-39
3470.77 759.31598 434.93701 9.2197031e-39
3469.5901 785.4715 438.29498 9.2197031e-39
3467.6799 813.32001 441.72101 9.2197031e-39
3469.9399 848.13098 447.06799 9.2197031e-39
3471.5801 846.50299 447.21899 9.2197031e-39
3466.53 873.07599 449.74799 9.2197031e-39
3466.1499 876.12 450.08301 9.2197031e-39
3463.4951 904.54346 453.41901 9.2197031e-39
3465.21 939.02502 458.595 9.2197031e-39
3463.3999 940.646 458.40399 9.2197031e-39
3457.95 966.08398 460.686 9.2197031e-39
3461.6599 974.41504 462.69101 9.2197031e-39
3460.8799 1008.776 467.28 9.2197031e-39
3457.8 1045.7991 471.70999 9.2197031e-39
3460.99 1045.718 472.42999 9.2197031e-39
3455.4351 1081.089 476.06549 9.2197031e-39
3456.165 1124.5375 482.26001 9.2197031e-39
3455.095 1167.5865 487.987 9.2197031e-39
3453.325 1211.796 493.715 9.2197031e-39
3452 1256.359 499.59399 9.2197031e-39
3452.74 1262.897 500.67001 9.2197031e-39
3448.4951 1305.3535 505.58749 9.2197031e-39
3444.5249 1353.469 511.354 9.2197031e-39
3441.9199 1403.635 517.716 9.2197031e-39
3444.03 1413.725 519.60101 9.2197031e-39
3441.3899 1463.925 525.96002 9.2197031e-39
3441.8601 1471.533 527.12402 9.2197031e-39
3442.1799 1530.739 535.41101 9.2197031e-39
3443.3201 1540.144 536.97601 9.2197031e-39
3436.1699 1596.2061 543.11499 9.2197031e-39
3440.04 1596.344 544.02197 9.2197031e-39
3438.8201 1668.5699 553.763 9.2197031e-39
3435.6799 1670.1801 553.26703 9.2197031e-39
3434.1399 1738.64 562.414 9.2197031e-39
3430.8701 1740.25 561.88702 9.2197031e-39
3427.3 1809.13 570.62402 9.2197031e-39
3426.6101 1817.01 571.55798 9.2197031e-39
3423.49 1892.62 581.33398 9.2197031e-39
3422.9099 1901.45 582.42499 9.2197031e-39
3417.6001 1989.12 593.37402 9.2197031e-39
3421.3301 1987.53 594.00598 9.2197031e-39
3415.2 2086.575 606.34399 9.2197031e-39
3413.0801 2193.8198 620.737 9.2197031e-39
3411.5701 2202.8101 621.63599 9.2197031e-39
3409.23 2313.6001 636.47302 9.2197031e-39
3407.0601 2321.71 637.09998 9.2197031e-39
3404.1299 2442.4399 653.17798 9.2197031e-39
3404.8 2460.8901 655.89203 9.2197031e-39
3400.6101 2591.6899 673.08002 9.2197031e-39
3398.8 2603.6499 674.32397 9.2197031e-39
3394.79 2751.1599 693.87 9.2197031e-39
3392 2761.27 694.63202 9.2197031e-39
3298.3101 3016.1699 708.521 9.2197031e-39
3294.1699 3024.3201 708.70398 9.2197031e-39
3389.55 2934.1799 718.06097 9.2197031e-39
3386.28 2944.3301 718.71899 9.2197031e-39
3261.8 3110.1799 713.19598 9.2197031e-39
3266.76 3165.5901 722.02002 9.2197031e-39
3182.72 3353.8899 728.87903 9.2197031e-39
3190.3601 3361.4099 731.67297 9.2197031e-39
3385.27 3147.6499 746.69702 9.2197031e-39
3383.7 3167.4199 749.08002 9.2197031e-39
3244.51 3361.2 744.05701 9.2197031e-39
3252.1399 3367.6001 746.69397 9.2197031e-39
3157.78 3550.1001 750.38397 9.2197031e-39
3157.71 3596.1699 756.76001 9.2197031e-39
2743.26 4434.8896 778.11902 9.2197031e-39
2735.51 4453.1602 778.87701 9.2197031e-39
2821.1499 4458.54 799.25598 9.2197031e-39
2813.3101 4468.0303 798.776 9.2197031e-39
3089.1699 4135.46 815.87097 9.2197031e-39
3096.5801 4132.3999 817.14301 9.2197031e-39
2894.8252 4463.3501 816.81152 9.2197031e-39
3160.98 4125.4902 830.94897 9.2197031e-39
3169.8501 4134.0303 834.16803 9.2197031e-39
2968.71 4465.9199 834.10498 9.2197031e-39
2976.9299 4465.0303 835.86499 9.2197031e-39
3052.3899 4436.1797 849.16101 9.2197031e-39
3047.1101 4468.6899 852.461 9.2197031e-39
1887.05 7771.0601 1044.71 9.2197031e-39
2007.24 7769.3101 1072.02 9.2197031e-39
2020.74 7778.9399 1076.45 9.2197031e-39
2286.3799 7526.75 1102.36 9.2197031e-39
2300.3301 7523 1105.03 9.2197031e-39
2140.95 7775.0601 1103.47 9.2197031e-39
2155.1699 7775.5298 1106.79 9.2197031e-39
2416.0901 7525.73 1131.95 9.2197031e-39
2429.9199 7523.71 1134.84 9.2197031e-39
2545.8701 7515.4702 1160.27 9.2197031e-39
2559.6399 7515.2002 1163.39 9.2197031e-39
2675.4199 7509.8599 1189.1899 9.2197031e-39
2689.1299 7502.3999 1191.3 9.2197031e-39
