# .PCD v0.7 - Point Cloud Data file format
VERSION 0.7
FIELDS x y z rgb
SIZE 4 4 4 4
TYPE F F F F
COUNT 1 1 1 1
WIDTH 336
HEIGHT 1
VIEWPOINT 0 0 0 1 0 0 0
POINTS 336
DATA ascii
-213.60201 -538.20996 134.306 9.2197031e-39
2267.8501 212.04401 139.23599 9.2197031e-39
2276.8398 212.8755 138.7695 9.2197031e-39
2284.29 217.056 139.27901 9.2197031e-39
2292.6799 214.995 138.11501 9.2197031e-39
3338.8799 506.79999 133.894 9.2197031e-39
3346.98 518.10602 136.186 9.2197031e-39
3343.74 525.21973 138.261 9.2197031e-39
-808.49701 -654.33997 149.505 9.2197031e-39
-205.297 -512.94995 140.16901 9.2197031e-39
2259.3799 214.923 140.617 9.2197031e-39
2266.01 218.47501 141.028 9.2197031e-39
2276.0801 218.35999 140.237 9.2197031e-39
2265.6541 222.6414 142.12662 9.2197031e-39
2272.4399 225.49799 142.347 9.2197031e-39
2282.7549 229.25 142.53049 9.2197031e-39
2263.3201 239.56601 146.653 9.2197031e-39
2274.5981 235.3636 144.71901 9.2197031e-39
2282.6799 232.12999 143.27649 9.2197031e-39
2256.3901 248.00349 149.347 9.2197031e-39
2264.3301 244.14151 147.75299 9.2197031e-39
2275.3899 241.81799 146.31799 9.2197031e-39
2265.175 250.76801 149.392 9.2197031e-39
2274.8201 253.03801 149.24533 9.2197031e-39
2282.8301 255.1245 149.17499 9.2197031e-39
2536.3601 302.043 142.036 9.2197031e-39
2545.8198 306.77701 142.53621 9.2197031e-39
2553.6201 305.97601 141.74001 9.2197031e-39
2547.0068 313.31866 144.12767 9.2197031e-39
2586.27 321.142 143.16499 9.2197031e-39
2611.98 332.32599 144.09399 9.2197031e-39
2622.71 335.465 144.088 9.2197031e-39
2594.28 346.75699 149.14301 9.2197031e-39
2640.6299 342.05099 144.423 9.2197031e-39
2666.9199 351.97299 144.983 9.2197031e-39
2729.6201 378.32202 147.007 9.2197031e-39
2776.5 396.01501 148.005 9.2197031e-39
2800.6699 403.19501 148.02 9.2197031e-39
2830.6499 412.022 148.019 9.2197031e-39
2855.1201 418.38202 147.8 9.2197031e-39
2900.25 432.28601 147.957 9.2197031e-39
2936.1899 442.13901 147.76801 9.2197031e-39
2957.5901 445.181 146.929 9.2197031e-39
2973.29 446.19598 146.00101 9.2197031e-39
3034.24 463.117 145.735 9.2197031e-39
3098.1499 480.55099 145.37601 9.2197031e-39
3267.3501 533.0238 146.05099 9.2197031e-39
3350.6499 536.43512 140.619 9.2197031e-39
3332.1799 547.53802 144.87199 9.2197031e-39
3341.5601 541.67242 142.65401 9.2197031e-39
-813.56299 -627.91003 156.683 9.2197031e-39
2271.3201 258.58801 150.937 9.2197031e-39
2280.3899 258.547 150.239 9.2197031e-39
2611.79 360.03201 151.229 9.2197031e-39
2633.1399 376.505 153.84599 9.2197031e-39
2646.8701 388.17499 155.806 9.2197031e-39
-821.99103 -599.5 164.623 9.2197031e-39
2681.6899 414.88202 160.033 9.2197031e-39
2724.3899 447.651 165.22301 9.2197031e-39
-820.75702 -571.53003 171.71899 9.2197031e-39
-831.57202 -543.72998 179.68201 9.2197031e-39
2785.05 494.634 172.705 9.2197031e-39
-827.88 -515.35999 186.69501 9.2197031e-39
2874.23 563.30188 183.60201 9.2197031e-39
-825.49103 -484.60999 194.418 9.2197031e-39
2981.2 647.9848 197.267 9.2197031e-39
-823.21503 -456.85999 201.37801 9.2197031e-39
-829.06 -428.08997 209.214 9.2197031e-39
-829.216 -401.02002 216.185 9.2197031e-39
-830.60303 -371.45697 223.888 9.2197031e-39
3324.8701 911.48901 238.97099 9.2197031e-39
3340.8101 936.25696 244.13 9.2197031e-39
3357.78 961.19501 249.254 9.2197031e-39
3357.3301 974.29901 252.657 9.2197031e-39
3357.3501 986.68201 255.838 9.2197031e-39
3358.1101 1001.139 259.496 9.2197031e-39
3366.24 1020.608 263.88501 9.2197031e-39
3366.5701 1035.264 267.62701 9.2197031e-39
3366.6499 1048.562 271.03799 9.2197031e-39
3371.8401 1067.918 275.621 9.2197031e-39
3364.8501 1075.426 278.07901 9.2197031e-39
3369.5901 1094.9709 282.74399 9.2197031e-39
3374.0701 1113.21 287.09299 9.2197031e-39
3371.73 1126.9299 290.79599 9.2197031e-39
3377.1799 1146.741 295.47501 9.2197031e-39
3375.8601 1161.958 299.487 9.2197031e-39
3373.02 1174.353 302.888 9.2197031e-39
3376.9099 1195.262 307.96701 9.2197031e-39
3381.3401 1215.525 312.84 9.2197031e-39
3377.74 1229.5701 316.72299 9.2197031e-39
3388.46 1257.231 323.01999 9.2197031e-39
3385.72 1272.87 327.24701 9.2197031e-39
3389.7 1294.328 332.461 9.2197031e-39
3385.8201 1309.3459 336.61499 9.2197031e-39
3388.5801 1330.265 341.78299 9.2197031e-39
3391.3799 1353.5801 347.56299 9.2197031e-39
3388.3799 1368.7119 351.67999 9.2197031e-39
3395.6399 1398.292 358.733 9.2197031e-39
3391.5 1412.793 362.77301 9.2197031e-39
3399.21 1444.219 370.267 9.2197031e-39
3398.26 1463.4709 375.28799 9.2197031e-39
3399.6001 1488.2471 381.55399 9.2197031e-39
3414.3201 1528.787 390.85901 9.2197031e-39
3411.1899 1549.171 396.336 9.2197031e-39
3411.27 1571.969 402.189 9.2197031e-39
3415.0701 1602.8369 409.83499 9.2197031e-39
3409.26 1618.616 414.33099 9.2197031e-39
3413.3601 1651.33 422.42999 9.2197031e-39
3412.5801 1675.3 428.64899 9.2197031e-39
3415.1599 1707.5 436.729 9.2197031e-39
3412.53 1730.01 442.715 9.2197031e-39
3414.1699 1762.46 450.92999 9.2197031e-39
3410.8 1785.11 457.00699 9.2197031e-39
3412.54 1819.45 465.70099 9.2197031e-39
3408.9399 1843.0699 472.04501 9.2197031e-39
3406.6201 1872.58 479.80701 9.2197031e-39
3408.29 1906.47 488.39001 9.2197031e-39
3408.9399 1942.98 497.724 9.2197031e-39
-754.26099 756.62701 508.05399 9.2197031e-39
3404.6799 1968.5699 504.62399 9.2197031e-39
-770.20697 788.66003 517.495 9.2197031e-39
3402.8101 2002.72 513.54303 9.2197031e-39
-758.04602 813.20703 522.88397 9.2197031e-39
-743.15503 839.88403 528.61298 9.2197031e-39
3402.4199 2037.04 522.39398 9.2197031e-39
-715.98798 861.19702 532.03302 9.2197031e-39
3401.75 2075.71 532.38599 9.2197031e-39
-742.45001 896.06201 542.99902 9.2197031e-39
-740.09198 922.47998 549.60999 9.2197031e-39
3398.8999 2107.6401 540.80701 9.2197031e-39
-721.34399 948.05701 554.76398 9.2197031e-39
3399.7 2151.77 552.09003 9.2197031e-39
-723.354 975.51099 561.97302 9.2197031e-39
-725.34302 1005.927 569.94098 9.2197031e-39
3395.76 2183.8701 560.63702 9.2197031e-39
-730.659 1034.54 577.698 9.2197031e-39
3396.5 2230.8999 572.66901 9.2197031e-39
-746.41199 1068.969 587.73999 9.2197031e-39
3393.1399 2266.6899 582.12201 9.2197031e-39
-777.88202 1105.238 599.44501 9.2197031e-39
3390.3301 2309.54 593.349 9.2197031e-39
3389.46 2353.5 604.71399 9.2197031e-39
-825.237 1149.616 614.43701 9.2197031e-39
3388.01 2402.8198 617.50098 9.2197031e-39
-886.211 1196.019 630.98199 9.2197031e-39
-866.03302 1222.433 636.24298 9.2197031e-39
3390.3899 2457.78 631.448 9.2197031e-39
-875.888 1254.8831 645.32898 9.2197031e-39
3386.0701 2504.6802 643.828 9.2197031e-39
3384.8501 2555.4199 656.96198 9.2197031e-39
-832.06897 1335.812 662.81201 9.2197031e-39
3384.4199 2616.1099 672.59302 9.2197031e-39
3382.1899 2668.9199 686.336 9.2197031e-39
3381.51 2734.46 703.23401 9.2197031e-39
3380.54 2795.75 719.05902 9.2197031e-39
3375.29 2855.1699 734.72998 9.2197031e-39
3375.27 2924.99 752.677 9.2197031e-39
3294.8701 3005.1499 779.36798 9.2197031e-39
3374.24 3003.1001 772.83197 9.2197031e-39
3245.55 3019.5701 786.81 9.2197031e-39
3273.45 3027.26 786.67401 9.2197031e-39
3373.0801 3076.9399 791.89801 9.2197031e-39
3371.1699 3160.95 813.63397 9.2197031e-39
-2085.72 1673.29 844.48401 9.2197031e-39
3293.24 3284.1699 851.20801 9.2197031e-39
3276.6899 3324.45 862.815 9.2197031e-39
3134.1201 3345.0801 878.914 9.2197031e-39
3165.77 3349.5601 877.66901 9.2197031e-39
3192.6899 3345.8301 874.66998 9.2197031e-39
3224.52 3349.75 873.26703 9.2197031e-39
3252.97 3351.1799 871.48102 9.2197031e-39
3159.03 3583.1599 938.21899 9.2197031e-39
3129.3799 3597.5801 944.17102 9.2197031e-39
1499.1801 3172.96 958.47803 9.2197031e-39
1525.85 3176.1299 957.27197 9.2197031e-39
1530.05 3265.0901 979.82001 9.2197031e-39
3132.1599 3758.1201 985.22302 9.2197031e-39
1544.98 3311.6599 990.65802 9.2197031e-39
1406.42 3364.45 1014.72 9.2197031e-39
1532.46 3471.6799 1032.73 9.2197031e-39
1534.75 3575.3899 1059.22 9.2197031e-39
104.315 3194.8899 1069.74 9.2197031e-39
1539.42 3689.47 1088.1899 9.2197031e-39
-587.35303 3117.3401 1102.1801 9.2197031e-39
-576.12097 3155.52 1111.14 9.2197031e-39
3122.24 4270.6797 1117.72 9.2197031e-39
3164.8701 4290.79 1119.66 9.2197031e-39
3201.02 4293.8896 1117.72 9.2197031e-39
-574.21997 3208.6201 1124.65 9.2197031e-39
1532.15 3847.0801 1129.25 9.2197031e-39
-568.81097 3253.8601 1135.87 9.2197031e-39
1223.27 3823.8799 1146.67 9.2197031e-39
-571.60901 3313.6299 1151.4399 9.2197031e-39
-569.62598 3364.1399 1164.27 9.2197031e-39
2996.8701 4431.79 1168.62 9.2197031e-39
3037.71 4436.8301 1166.8199 9.2197031e-39
3114.1599 4434.7803 1160.51 9.2197031e-39
3074.6699 4440.0498 1164.85 9.2197031e-39
-556.138 3408.8701 1174.75 9.2197031e-39
1527.3101 4020.9199 1174.3 9.2197031e-39
2766.79 4405.7598 1179.35 9.2197031e-39
2885.0901 4436.9902 1178.42 9.2197031e-39
2920.8899 4433.7598 1174.88 9.2197031e-39
2960.97 4434.6699 1172.08 9.2197031e-39
2733.1599 4433.8799 1189.12 9.2197031e-39
2809.24 4438.0098 1184.4301 9.2197031e-39
2844.6699 4431.5303 1180.08 9.2197031e-39
-573.30499 3481.8501 1194.8101 9.2197031e-39
-575.34302 3545.6499 1211.36 9.2197031e-39
1521.73 4196.27 1219.79 9.2197031e-39
-584.62701 3613.03 1229.38 9.2197031e-39
-577.08002 3668.75 1243.13 9.2197031e-39
1789.3101 4385.5601 1248.1801 9.2197031e-39
-578.19598 3729.4399 1258.8101 9.2197031e-39
1528.72 4345.4502 1257.6 9.2197031e-39
1748.25 4414.0303 1258.6 9.2197031e-39
1556.12 4390.98 1267.23 9.2197031e-39
1593.4 4409.6396 1269.2 9.2197031e-39
1631.01 4407.3203 1265.76 9.2197031e-39
1672.04 4406.3301 1262.4 9.2197031e-39
1707.8 4412.8701 1261.37 9.2197031e-39
1821.33 4442.4297 1260.37 9.2197031e-39
-581.54199 3800.3899 1277.3 9.2197031e-39
-3204.99 3056 1284.63 9.2197031e-39
219.409 4075.48 1287.36 9.2197031e-39
260.211 4080.2 1285.48 9.2197031e-39
302.504 4089.74 1284.73 9.2197031e-39
347.754 4085.1399 1280.12 9.2197031e-39
386.284 4100.6602 1281.1899 9.2197031e-39
1843.91 4548.3799 1285.89 9.2197031e-39
-3201.72 3112.8899 1299.01 9.2197031e-39
-580.24902 3860.9199 1292.76 9.2197031e-39
38.378502 4065.04 1298.38 9.2197031e-39
78.098198 4073.97 1297.67 9.2197031e-39
129.675 4070.3799 1292.84 9.2197031e-39
169.22701 4078.46 1291.92 9.2197031e-39
892.70203 4317.0601 1298.46 9.2197031e-39
932.15802 4318.0703 1295.74 9.2197031e-39
-59.794601 4067.53 1306.46 9.2197031e-39
-9.9723501 4061.8301 1301.22 9.2197031e-39
764.68701 4313.46 1307.24 9.2197031e-39
809.51599 4313.4502 1303.84 9.2197031e-39
847.43201 4319.7197 1302.58 9.2197031e-39
1875.16 4630.8301 1304.72 9.2197031e-39
-3197.79 3176.03 1314.9399 9.2197031e-39
-585.22302 3937.0601 1312.71 9.2197031e-39
592.37201 4309.4697 1319.26 9.2197031e-39
635.42499 4316.5303 1317.8101 9.2197031e-39
677.45801 4315.4199 1314.34 9.2197031e-39
722.599 4316.29 1311.15 9.2197031e-39
949.35602 4392.8604 1313.66 9.2197031e-39
989.54901 4392.4297 1310.51 9.2197031e-39
-586.34003 4003.46 1329.86 9.2197031e-39
461.89001 4306.5801 1328.4 9.2197031e-39
504.858 4306.25 1325.0601 9.2197031e-39
550.09198 4309.77 1322.54 9.2197031e-39
-3203.6899 3238.8 1331.52 9.2197031e-39
324.836 4301.4697 1337.46 9.2197031e-39
372.30899 4303.3701 1334.35 9.2197031e-39
414.71201 4305.6299 1331.72 9.2197031e-39
-3206.95 3307.1001 1349.3199 9.2197031e-39
-3203.6799 3366.21 1364.26 9.2197031e-39
-593.521 4154.2998 1369.17 9.2197031e-39
1886.96 4859.5498 1362.61 9.2197031e-39
-5370.0498 2790.79 1380.41 9.2197031e-39
-3206.26 3435.5701 1382.29 9.2197031e-39
-267.70499 4304.0498 1382.99 9.2197031e-39
-324.42801 4313.7598 1389.78 9.2197031e-39
-4797.9302 3025.1699 1397.33 9.2197031e-39
-3202.49 3495.5801 1397.4301 9.2197031e-39
-597.42102 4236.5898 1390.62 9.2197031e-39
-387.92001 4324.4102 1397.33 9.2197031e-39
-3138.47 3527.03 1400.66 9.2197031e-39
-595.591 4305.8101 1408.27 9.2197031e-39
-545.75 4318.27 1407.7 9.2197031e-39
-493.41699 4319.0098 1403.9301 9.2197031e-39
-438.189 4322.4297 1400.63 9.2197031e-39
-5326.9399 2925.6001 1411.8 9.2197031e-39
-5004.6201 3035.03 1415.52 9.2197031e-39
-4798.5298 3101.02 1416.87 9.2197031e-39
-3124.4199 3581.3601 1413.5601 9.2197031e-39
-5197.9399 3029.22 1428.66 9.2197031e-39
-4794.6099 3168.47 1433.91 9.2197031e-39
-3125.1101 3651.6899 1431.6899 9.2197031e-39
-5384.5801 3025.1001 1441.74 9.2197031e-39
-3128.1001 3717.6499 1448.87 9.2197031e-39
-4797.2798 3246.3101 1454.12 9.2197031e-39
1889.73 5251.4702 1463.13 9.2197031e-39
-4801.02 3318.01 1472.83 9.2197031e-39
-3141.97 3798.1101 1470.6 9.2197031e-39
-3147.4099 3867.46 1488.84 9.2197031e-39
-4801.1201 3396.0701 1492.91 9.2197031e-39
-3151.95 3944.05 1508.87 9.2197031e-39
-1962.3101 4287.25 1507 9.2197031e-39
-1888.53 4287.04 1501.36 9.2197031e-39
-4803.3301 3468.3501 1511.65 9.2197031e-39
-2116.6499 4283.0303 1517.6 9.2197031e-39
-2040.78 4283.4199 1511.95 9.2197031e-39
-3157.3201 4015.23 1527.5699 9.2197031e-39
-2203.8301 4284.2002 1524.5 9.2197031e-39
-4803.5498 3547.8 1532.09 9.2197031e-39
-2360.1499 4273.73 1533.65 9.2197031e-39
-2284.8301 4285.6104 1531 9.2197031e-39
-3158.3601 4091.49 1547.25 9.2197031e-39
-2541.04 4278.2998 1548.52 9.2197031e-39
-2451.55 4281.1899 1542.49 9.2197031e-39
-4805.0898 3621.05 1551.03 9.2197031e-39
-2620.3999 4272.9502 1553.15 9.2197031e-39
-3161.1899 4162.8301 1565.8 9.2197031e-39
-2806.76 4272.73 1567.21 9.2197031e-39
-2719.03 4274.3203 1560.97 9.2197031e-39
-4812.46 3705.3401 1573.25 9.2197031e-39
-2903.1499 4269.04 1573.5601 9.2197031e-39
-3159.55 4239.2197 1585.3101 9.2197031e-39
-3089.53 4259.3101 1585.17 9.2197031e-39
-2995.51 4267.98 1580.28 9.2197031e-39
-4807.0801 3776.6101 1591.16 9.2197031e-39
2825.96 7417.8198 1949.05 9.2197031e-39
2887.49 7419.2998 1944.77 9.2197031e-39
2696.8701 7418.3398 1958.96 9.2197031e-39
2758.1699 7416.9902 1953.97 9.2197031e-39
2629.45 7427.9702 1966.54 9.2197031e-39
2370.95 7435.6299 1988.08 9.2197031e-39
2438.8501 7442.8301 1984.79 9.2197031e-39
2569.52 7500.9399 1989.83 9.2197031e-39
2309.4399 7433.8599 1992.29 9.2197031e-39
2501.05 7500.71 1994.96 9.2197031e-39
2235.6201 7670.3799 2058.6699 9.2197031e-39
2101.95 7664.6299 2067.3101 9.2197031e-39
2171.76 7677.1401 2065.24 9.2197031e-39
1967.8101 7665.3198 2077.6399 9.2197031e-39
2037.95 7670.3101 2073.6201 9.2197031e-39
1903.75 7667.9702 2083.1799 9.2197031e-39
1832.86 7671.4199 2089.4299 9.2197031e-39
1699.05 7658.8501 2096.3301 9.2197031e-39
1769.1801 7666.23 2092.9199 9.2197031e-39
