# .PCD v0.7 - Point Cloud Data file format
VERSION 0.7
FIELDS x y z rgb
SIZE 4 4 4 4
TYPE F F F F
COUNT 1 1 1 1
WIDTH 327
HEIGHT 1
VIEWPOINT 0 0 0 1 0 0 0
POINTS 327
DATA ascii
1076.85 1168.474 134 9.2197031e-39
1078.58 1182.916 137.03999 9.2197031e-39
1085.17 1193.375 138.485 9.2197031e-39
1102.85 1191.094 135.464 9.2197031e-39
1097.1 1206.696 139.826 9.2197031e-39
1757.83 1601.127 135.97501 9.2197031e-39
1767.245 1613.9716 137.56424 9.2197031e-39
1773.8966 1618.0609 137.55234 9.2197031e-39
1773.585 1625.655 139.32401 9.2197031e-39
3323.9399 2567.48 134 9.2197031e-39
3323.5601 2586.8599 138.461 9.2197031e-39
1073.37 1212.359 144.476 9.2197031e-39
1088.28 1214.238 142.791 9.2197031e-39
1094.42 1211.4241 141.282 9.2197031e-39
1070.4449 1226.5735 148.123 9.2197031e-39
1083.09 1223.874 145.717 9.2197031e-39
1369.15 1417.323 149.211 9.2197031e-39
1420.53 1439.61 147.00301 9.2197031e-39
1449.78 1452.7 145.839 9.2197031e-39
1476.41 1464.271 144.7 9.2197031e-39
1504.15 1475.714 143.37399 9.2197031e-39
1518.2799 1487.5111 144.056 9.2197031e-39
1522.4701 1485.0493 142.90266 9.2197031e-39
1488.29 1493.171 149.59 9.2197031e-39
1497.3199 1493.688 148.429 9.2197031e-39
1507.6699 1492.9061 146.78534 9.2197031e-39
1515.3401 1490.748 145.2085 9.2197031e-39
1526.575 1493.266 144.19051 9.2197031e-39
1512.6 1507.173 149.33266 9.2197031e-39
1554.705 1516.663 145.52899 9.2197031e-39
1764.3 1629.3201 141.47299 9.2197031e-39
1745.25 1638.54 146.26801 9.2197031e-39
1759.0725 1635.1924 143.54849 9.2197031e-39
1763.0299 1632.9899 142.48734 9.2197031e-39
1775.2299 1633.0602 140.77481 9.2197031e-39
1755.7933 1646.63 146.61467 9.2197031e-39
1763.4834 1645.3467 145.23334 9.2197031e-39
1759.55 1653.9 147.735 9.2197031e-39
1763.5349 1653.23 147.0195 9.2197031e-39
1760.6 1661.91 149.409 9.2197031e-39
3321.29 2605.21 142.95799 9.2197031e-39
3329.6799 2630.74 147.578 9.2197031e-39
1072.0699 1236.7119 150.19901 9.2197031e-39
1078.63 1246.062 151.396 9.2197031e-39
1074.5 1250.094 152.89799 9.2197031e-39
1088.5 1262.671 153.77699 9.2197031e-39
1102.66 1274.9919 154.57401 9.2197031e-39
1139.79 1297.287 154.388 9.2197031e-39
1165.34 1313.7151 154.505 9.2197031e-39
1204.91 1335.6 153.88 9.2197031e-39
1246.65 1357.571 152.967 9.2197031e-39
1285.02 1377.308 152.022 9.2197031e-39
1333.89 1400.454 150.367 9.2197031e-39
1487.05 1494.4031 150.04601 9.2197031e-39
1506.0699 1508.793 150.62601 9.2197031e-39
3328.6101 2650.3599 152.192 9.2197031e-39
3326.49 2669.47 156.839 9.2197031e-39
1309.01 1467.156 169.062 9.2197031e-39
1343.72 1470.594 164.929 9.2197031e-39
1360.77 1471.179 162.647 9.2197031e-39
1283.0699 1465.8049 172.429 9.2197031e-39
3195.6101 3517.5901 368.293 9.2197031e-39
3182.5601 3535.76 374.27399 9.2197031e-39
3162.1499 3544.28 379.103 9.2197031e-39
3081.6699 3541.8401 389.94601 9.2197031e-39
3108.96 3543.77 386.51801 9.2197031e-39
3134.6201 3542.98 382.70401 9.2197031e-39
3098.23 3602.46 401.38901 9.2197031e-39
-949.258 1246.3579 438.64801 9.2197031e-39
-538.047 1498.6179 437.79401 9.2197031e-39
-925.26398 1271.256 440.914 9.2197031e-39
-918.83899 1294.109 445.202 9.2197031e-39
-893.41498 1318.3979 447.12701 9.2197031e-39
-838.08301 1344.4409 445.215 9.2197031e-39
-830.03601 1366.423 449.07501 9.2197031e-39
3306.73 3945.8999 449.98099 9.2197031e-39
-823.77502 1388.152 453.13101 9.2197031e-39
-836.14099 1408.8669 459.59399 9.2197031e-39
-550.24103 1574.348 456.74701 9.2197031e-39
-523.448 1592.5759 457.099 9.2197031e-39
-825.53802 1430.697 463.05801 9.2197031e-39
-826.63098 1451.978 468.05399 9.2197031e-39
3306.73 3990.72 460.17599 9.2197031e-39
-809.70502 1473.682 470.59399 9.2197031e-39
3310.97 4043.1599 471.505 9.2197031e-39
-818.87299 1516.006 481.51901 9.2197031e-39
-827.13098 1537.311 487.535 9.2197031e-39
3304.1699 4079.98 480.84399 9.2197031e-39
3311.73 4140.3398 493.50299 9.2197031e-39
3298.9299 4169.79 502.01401 9.2197031e-39
3271.25 4175.4697 507.228 9.2197031e-39
3167.47 4154.75 517.21002 9.2197031e-39
3200.3301 4159.48 513.63202 9.2197031e-39
3237.45 4170.6602 510.91901 9.2197031e-39
3144.55 4166.9297 523.22803 9.2197031e-39
3117.1899 4171.1104 528.052 9.2197031e-39
3087.97 4171.5303 532.28497 9.2197031e-39
-1215.23 1563.321 548.41302 9.2197031e-39
3167.1101 4375.6001 567.49701 9.2197031e-39
3101.5 4368.71 575.22198 9.2197031e-39
3135.3701 4374.5303 571.74799 9.2197031e-39
1472.71 3387.78 582.758 9.2197031e-39
1454.42 3402.0601 588.59601 9.2197031e-39
3072.6899 4372.29 580.11499 9.2197031e-39
1437.88 3398.78 590.19299 9.2197031e-39
1501.74 3442.0801 590.99799 9.2197031e-39
3073.8501 4436.98 594.66699 9.2197031e-39
1415.4399 3442.6101 603.33899 9.2197031e-39
1478.5 3509.9099 609.71802 9.2197031e-39
3119.1399 4596.5601 624.55298 9.2197031e-39
3088.9399 4601.02 629.84399 9.2197031e-39
3009.49 4638.0601 649.51898 9.2197031e-39
3044.29 4644.3101 646.013 9.2197031e-39
3075.1699 4641.1899 640.93201 9.2197031e-39
2944.29 4633.6201 657.74298 9.2197031e-39
2978.77 4640.5498 654.43701 9.2197031e-39
1497.0699 3746.6599 660.94202 9.2197031e-39
2883.5901 4638 667.33698 9.2197031e-39
2913.73 4635.5 662.49799 9.2197031e-39
2819.5801 4632 675.03601 9.2197031e-39
2852.76 4638.3799 671.789 9.2197031e-39
1510.88 3842.77 680.84802 9.2197031e-39
2718.6101 4603.4399 682.84003 9.2197031e-39
2756.76 4626.6201 682.70898 9.2197031e-39
2792.01 4640.1201 680.789 9.2197031e-39
190.987 3084.24 695.22699 9.2197031e-39
1275.16 3751.2 693.401 9.2197031e-39
2701.96 4642.4697 694.07397 9.2197031e-39
126.424 3067.3 700.51703 9.2197031e-39
134.453 3087.04 703.87 9.2197031e-39
158.11099 3090.71 701.35498 9.2197031e-39
183.55901 3120.6299 704.55499 9.2197031e-39
202.02699 3129.3601 703.927 9.2197031e-39
207.655 3152.3401 708.35602 9.2197031e-39
231.41299 3154.99 705.59399 9.2197031e-39
246.89999 3166.8799 706.10602 9.2197031e-39
255.621 3186.76 709.39398 9.2197031e-39
1322.12 3849.55 709.12097 9.2197031e-39
1344.35 3841.4099 704.12097 9.2197031e-39
2689.8899 4697.3398 708.26599 9.2197031e-39
266.43301 3204.3899 711.87402 9.2197031e-39
282.93701 3215.23 712.00201 9.2197031e-39
297.10501 3228.9399 713.11401 9.2197031e-39
306.63199 3248.6201 716.24103 9.2197031e-39
320.52701 3262.9199 717.526 9.2197031e-39
1279.29 3851.78 715.69397 9.2197031e-39
-1963.5 1885.75 727.72198 9.2197031e-39
54.603901 3110.8 720.58301 9.2197031e-39
324.66101 3290.22 723.151 9.2197031e-39
1237.61 3845.6001 720.19 9.2197031e-39
1290.75 3916.03 728.685 9.2197031e-39
319.96799 3330.02 732.867 9.2197031e-39
-2015.13 1922.95 743.49701 9.2197031e-39
-80.810402 3154.3401 749.66302 9.2197031e-39
-54.651402 3158.96 747.01099 9.2197031e-39
-16.749701 3151.8101 740.01599 9.2197031e-39
-127.559 3138.9199 752.776 9.2197031e-39
-113.446 3155.28 754.5 9.2197031e-39
-214.51801 3157.3799 769.29102 9.2197031e-39
-200.22701 3174.49 771.15802 9.2197031e-39
-279.46701 3183.6101 784.45599 9.2197031e-39
839.23199 3903.22 789.71503 9.2197031e-39
794.16901 3894.8 794.18103 9.2197031e-39
816.70099 3899.1101 791.97101 9.2197031e-39
2764.29 5136.5698 797.64001 9.2197031e-39
2798.8999 5137.27 792.89801 9.2197031e-39
763.15802 3912.9199 802.69598 9.2197031e-39
2729.75 5135.5498 802.29797 9.2197031e-39
1763.0601 4588.2803 814.71198 9.2197031e-39
1791.65 4622.21 818.383 9.2197031e-39
812.41901 4054.8999 828.01398 9.2197031e-39
1736.63 4613.6201 824.21899 9.2197031e-39
2729.9299 5254.3198 829.289 9.2197031e-39
-1097.25 2884.22 832.16602 9.2197031e-39
1495.41 4515.3301 836.02399 9.2197031e-39
1681.98 4613.8398 832.00897 9.2197031e-39
1654.63 4621.8799 837.71198 9.2197031e-39
1709.47 4623.1104 830.22498 9.2197031e-39
1518.9301 4584.5303 848.435 9.2197031e-39
1572.38 4618.27 848.539 9.2197031e-39
1599.79 4619.71 844.98401 9.2197031e-39
1627.21 4620.9102 841.375 9.2197031e-39
1826.5 4763.1899 845.51599 9.2197031e-39
1545.29 4607.8398 850.00299 9.2197031e-39
1860.22 4845.3701 859.43201 9.2197031e-39
2734.4299 5396.0498 860.89001 9.2197031e-39
-635.85699 3350.1299 872.80402 9.2197031e-39
-631.05798 3380.02 878.92297 9.2197031e-39
643.19202 4160.8398 876.078 9.2197031e-39
-640.11401 3421.6899 889.685 9.2197031e-39
361.979 4041.3 888.71198 9.2197031e-39
2729.8501 5513.3501 888.22198 9.2197031e-39
-1197.3101 3094.4299 894.15302 9.2197031e-39
-1164.72 3109.3401 892.927 9.2197031e-39
-1148.14 3132.99 895.96002 9.2197031e-39
-1133.89 3157.96 899.62299 9.2197031e-39
-623.36603 3442.5 892.04602 9.2197031e-39
335.354 4037.0901 891.52502 9.2197031e-39
300.909 4047.0801 898.67499 9.2197031e-39
749.77899 4326.0703 898.56702 9.2197031e-39
-1116.08 3180.8401 902.30298 9.2197031e-39
242.489 4045.6201 906.61499 9.2197031e-39
271.28699 4047.3501 902.93103 9.2197031e-39
176.815 4054.5701 917.953 9.2197031e-39
205.42999 4057.8201 914.64001 9.2197031e-39
1073.71 4596.1899 914.13501 9.2197031e-39
108.818 4064.49 929.83801 9.2197031e-39
137.22701 4069.26 926.901 9.2197031e-39
508.466 4286.0898 923.64899 9.2197031e-39
913.72601 4543.7998 924.875 9.2197031e-39
984.85699 4609.8301 929.823 9.2197031e-39
1014.16 4607.7803 925.20599 9.2197031e-39
1041.84 4613.0601 922.48798 9.2197031e-39
2733.1599 5668.8701 923.12799 9.2197031e-39
70.152397 4075.8201 937.89203 9.2197031e-39
852.28302 4557.9697 936.79999 9.2197031e-39
881.78497 4556.2002 932.21899 9.2197031e-39
927.51501 4606.5303 937.19202 9.2197031e-39
955.66901 4610.6699 934.14801 9.2197031e-39
284.26401 4252.3501 947.724 9.2197031e-39
313.95401 4254.3799 943.98102 9.2197031e-39
338.53201 4266.5498 943.26898 9.2197031e-39
363.20999 4278.52 942.49597 9.2197031e-39
449.22699 4356.2803 948.00403 9.2197031e-39
765.06403 4555.1001 948.5 9.2197031e-39
793.758 4557.8799 945.06799 9.2197031e-39
823.70099 4555.7197 940.33698 9.2197031e-39
-903.32898 3525.53 950.57898 9.2197031e-39
706.13202 4553.3799 956.45398 9.2197031e-39
735.77399 4553.9102 952.37799 9.2197031e-39
2730.21 5810.3398 955.72699 9.2197031e-39
468.95599 4532.6299 985.32202 9.2197031e-39
-67.7714 4242.4102 995.31702 9.2197031e-39
435.509 4537.6201 991.19501 9.2197031e-39
332.841 4553.1396 1009.27 9.2197031e-39
271.043 4544.98 1016.16 9.2197031e-39
305.72101 4540.8301 1010.31 9.2197031e-39
-282.371 4520.2002 1088.9 9.2197031e-39
-320.526 4519.5303 1094.15 9.2197031e-39
-436.45999 4515.7402 1109.7 9.2197031e-39
-400.03299 4520.8896 1105.72 9.2197031e-39
-362.61499 4524.04 1101.13 9.2197031e-39
-4882.2002 1776.28 1116.16 9.2197031e-39
-479.70801 4519.6201 1116.71 9.2197031e-39
-4885.8901 1832.92 1129.5699 9.2197031e-39
-4771.6201 1883.2 1124.8199 9.2197031e-39
-517.521 4515.1797 1121.05 9.2197031e-39
-4877.9199 1945.65 1154.08 9.2197031e-39
-5043.6299 2014.35 1193.1801 9.2197031e-39
-1806.72 4131.8896 1216.4399 9.2197031e-39
-3239.45 3323.74 1235.52 9.2197031e-39
-1939.12 4132.02 1235.22 9.2197031e-39
-1888.38 4143.9502 1230.75 9.2197031e-39
-3224.76 3367.29 1243.34 9.2197031e-39
-2016.0601 4137.98 1247.47 9.2197031e-39
-3222.46 3415.6799 1254.02 9.2197031e-39
-2065.54 4123.3701 1251.16 9.2197031e-39
-5406.3501 2102.02 1264.49 9.2197031e-39
-3212.3999 3461.3101 1262.98 9.2197031e-39
-5404.9902 2163.4102 1278.26 9.2197031e-39
-3220.01 3514.3 1276.11 9.2197031e-39
-1955.84 4294.9697 1274.66 9.2197031e-39
-3212.6201 3561.5801 1285.8199 9.2197031e-39
-3211.95 3611.99 1297.1899 9.2197031e-39
-3213.4399 3663.74 1309.17 9.2197031e-39
3072.53 7623.0801 1319.59 9.2197031e-39
3133.27 7641.9399 1315.27 9.2197031e-39
-5413.2598 2349.6899 1321.8 9.2197031e-39
-3217.05 3716.8999 1321.77 9.2197031e-39
-3118.3701 3774.97 1321.01 9.2197031e-39
-2341.9199 4263.2803 1322.12 9.2197031e-39
3016.6899 7623.79 1327.66 9.2197031e-39
-5413.5698 2411.8799 1335.99 9.2197031e-39
-3214.76 3767.8701 1333.04 9.2197031e-39
-3110.1599 3822.8899 1330.74 9.2197031e-39
2961.1299 7624.96 1335.79 9.2197031e-39
-5409.4199 2473.6602 1349.46 9.2197031e-39
2906.01 7627.5698 1344.1899 9.2197031e-39
-3119.29 3932.47 1356.96 9.2197031e-39
2852.23 7636.4302 1353.8199 9.2197031e-39
-5410.5698 2536.29 1363.87 9.2197031e-39
2741.8401 7638.27 1369.87 9.2197031e-39
2797.29 7639.04 1362.2 9.2197031e-39
-5406.27 2598.3198 1377.37 9.2197031e-39
-3125.97 3989.25 1370.83 9.2197031e-39
2685.8101 7633.1499 1376.64 9.2197031e-39
-5354.73 2652.8999 1382.48 9.2197031e-39
-3128.54 4044.54 1383.77 9.2197031e-39
2632.8601 7645.9199 1387.05 9.2197031e-39
-3138.23 4104.2402 1398.72 9.2197031e-39
2578.5701 7650.4902 1395.77 9.2197031e-39
-5412.4902 2725.27 1407.12 9.2197031e-39
2524.6499 7657.5 1405 9.2197031e-39
2469.24 7653.3701 1411.91 9.2197031e-39
-5420.04 2789.95 1422.91 9.2197031e-39
2359.96 7654.3501 1427.61 9.2197031e-39
2415.1299 7658.4702 1420.73 9.2197031e-39
-5409.5801 2851.6299 1435.45 9.2197031e-39
-2813.1899 4527.3604 1448.9301 9.2197031e-39
2310.98 7707.1499 1446.5601 9.2197031e-39
-5412.0698 2915.9099 1450.4301 9.2197031e-39
-4851.0898 3285.22 1454.99 9.2197031e-39
-4806.1099 3333.9299 1459.7 9.2197031e-39
-2893.5701 4522.73 1459.26 9.2197031e-39
-5398.5498 2977.2 1462.46 9.2197031e-39
-5392.1802 3040.05 1475.85 9.2197031e-39
-4814.4902 3397.53 1475.35 9.2197031e-39
-2977.52 4519.0498 1470.3101 9.2197031e-39
-5367.9702 3099.0701 1485.85 9.2197031e-39
-4804.3799 3456.1201 1487.25 9.2197031e-39
-3155.6101 4454.7002 1480.9 9.2197031e-39
-3077.3899 4524.02 1485.59 9.2197031e-39
-5351.8701 3159.8301 1497.39 9.2197031e-39
-3148.02 4509.0498 1492.1899 9.2197031e-39
2273.5701 7888.0498 1493 9.2197031e-39
-5180.7002 3310.1599 1507.34 9.2197031e-39
-4811.52 3520.1899 1502.83 9.2197031e-39
2160.3 7884.5098 1508.24 9.2197031e-39
2216.6599 7883.6099 1500.05 9.2197031e-39
-5356.25 3225.55 1512.96 9.2197031e-39
-4808.6699 3581.6001 1516.4 9.2197031e-39
-4804.2998 3642.8401 1529.71 9.2197031e-39
2105.3701 7905.3999 1520.77 9.2197031e-39
-5414.27 3305.1299 1539.28 9.2197031e-39
-4809.54 3707.6399 1545.1899 9.2197031e-39
-4813.2002 3772.3999 1560.4399 9.2197031e-39
-4806.98 3834.1399 1573.6 9.2197031e-39
