# .PCD v0.7 - Point Cloud Data file format
VERSION 0.7
FIELDS x y z rgb
SIZE 4 4 4 4
TYPE F F F F
COUNT 1 1 1 1
WIDTH 320
HEIGHT 1
VIEWPOINT 0 0 0 1 0 0 0
POINTS 320
DATA ascii
3077.78 -212.86401 134.367 9.2197031e-39
1546.48 2538.5 137.89799 9.2197031e-39
1555.3101 2536.3198 139.673 9.2197031e-39
1536.5299 2547.0266 136.69234 9.2197031e-39
1543.27 2547.27 138.2995 9.2197031e-39
1551.64 2541.0698 139.44101 9.2197031e-39
1533 2551.0698 136.39799 9.2197031e-39
855.50201 3759.77 136.832 9.2197031e-39
841.39801 3762.23 133.86 9.2197031e-39
866.22998 3761.0601 139.508 9.2197031e-39
3099.26 -197.20203 141.44299 9.2197031e-39
3131.54 -194.659 149.315 9.2197031e-39
1557.39 2537.96 140.37399 9.2197031e-39
1562.0249 2535.29 141.10699 9.2197031e-39
1558.2133 2545.1365 141.50899 9.2197031e-39
1566.2 2549.75 143.98 9.2197031e-39
1583.1733 2546.3201 147.49567 9.2197031e-39
1556.2675 2554.1001 142.23175 9.2197031e-39
1562.764 2557.0581 144.13779 9.2197031e-39
1574.0468 2556.0999 146.64766 9.2197031e-39
1575.25 2561.76 147.67099 9.2197031e-39
1425.1373 2795.6528 143.31372 9.2197031e-39
1417.42 2804.8301 142.717 9.2197031e-39
1428.8 2803.5049 145.20099 9.2197031e-39
1430.58 2803.8601 145.662 9.2197031e-39
1444.6899 2805.79 149.21249 9.2197031e-39
1433.012 2813.9678 147.5582 9.2197031e-39
1441.34 2812.47 149.3075 9.2197031e-39
1409.45 2826.4299 143.69099 9.2197031e-39
1435.5566 2822.8 149.312 9.2197031e-39
1384.84 2898.26 147.37199 9.2197031e-39
1373.5601 2926.1299 148.396 9.2197031e-39
883.00299 3753 142.367 9.2197031e-39
891.77899 3757.5801 145.01801 9.2197031e-39
902.41602 3760.76 147.92 9.2197031e-39
3220.8899 -292.81799 157.3 9.2197031e-39
1448.8 2809.0701 150.60201 9.2197031e-39
1446.405 2813.8999 150.67749 9.2197031e-39
1446.13 2862.6399 157.01199 9.2197031e-39
1344.27 3004.8301 151.88699 9.2197031e-39
1326.4 3047.3201 153.291 9.2197031e-39
1303.78 3099.77 154.89301 9.2197031e-39
1290.95 3123.8601 155.06 9.2197031e-39
1269.22 3169.1201 155.92599 9.2197031e-39
1253.25 3198.3701 156.035 9.2197031e-39
1233.75 3233.72 156.121 9.2197031e-39
1219 3256.9299 155.722 9.2197031e-39
1180.6899 3334.1699 156.914 9.2197031e-39
1134.17 3428.51 158.436 9.2197031e-39
915.27002 3757.1101 150.444 9.2197031e-39
928.065 3755.5701 153.229 9.2197031e-39
938.59399 3756.1499 155.76601 9.2197031e-39
949.59003 3757.96 158.571 9.2197031e-39
3251.0801 -283.914 165.519 9.2197031e-39
991.49597 3737.1799 165.632 9.2197031e-39
965.89203 3745.6001 160.757 9.2197031e-39
975.53198 3749.8701 163.57001 9.2197031e-39
3265.1101 -254.09998 172.71201 9.2197031e-39
3295.05 -244.70398 180.938 9.2197031e-39
1640.0699 3400.4199 272.91599 9.2197031e-39
1662.3 3405.1499 278.729 9.2197031e-39
1653.8201 3413.3398 277.82452 9.2197031e-39
1640.05 3427.96 276.52701 9.2197031e-39
1668.9301 3405.1299 280.276 9.2197031e-39
1677.58 3409.5601 282.87799 9.2197031e-39
1686.525 3404.4849 284.30099 9.2197031e-39
1639.5601 3458.6299 280.439 9.2197031e-39
1638.83 3487.25 284.026 9.2197031e-39
1638.9 3525.76 289.099 9.2197031e-39
1702.85 3422.6899 290.504 9.2197031e-39
1639.25 3565.1399 294.35101 9.2197031e-39
1446.13 3884.3301 291.14401 9.2197031e-39
1456.05 3894.03 294.73599 9.2197031e-39
1467.13 3891.7 297.01901 9.2197031e-39
1477.22 3895.27 299.84201 9.2197031e-39
1640 3614.47 301.00101 9.2197031e-39
1635.3199 3633.6499 302.42599 9.2197031e-39
1518.4 3868.9199 306.00201 9.2197031e-39
1497.71 3872.3601 301.62299 9.2197031e-39
1488.21 3889.77 301.68799 9.2197031e-39
1509.99 3906.27 308.94199 9.2197031e-39
1639.09 3709.3799 313.25 9.2197031e-39
1571.13 3868.5 318.26401 9.2197031e-39
1530.23 3884.8 310.85101 9.2197031e-39
1540.22 3883.8701 313.061 9.2197031e-39
1551.52 3886.6899 316.073 9.2197031e-39
1561.21 3881.6399 317.67099 9.2197031e-39
1431.4399 4061.03 310.91199 9.2197031e-39
1642.63 3786.0901 324.147 9.2197031e-39
1644.8 3869 335.539 9.2197031e-39
1645.04 3941.1399 345.065 9.2197031e-39
1647.98 4050.78 360.14499 9.2197031e-39
1607.39 4131.79 361.29999 9.2197031e-39
1334.01 4661.96 367.048 9.2197031e-39
1649.73 4156.5098 374.435 9.2197031e-39
1350.24 4663.46 371.035 9.2197031e-39
1368.1801 4664.8604 375.409 9.2197031e-39
1384.49 4665.0801 379.24799 9.2197031e-39
3502.0601 930.63403 383.59799 9.2197031e-39
3498.78 961.54901 386.89001 9.2197031e-39
1636.91 4279.27 387.55801 9.2197031e-39
1403.1899 4641.3604 380.50201 9.2197031e-39
3508.8201 983.95099 392.17499 9.2197031e-39
3494.02 1023.381 393.896 9.2197031e-39
3501.8799 1046.907 398.82001 9.2197031e-39
1653.24 4303.8101 394.59601 9.2197031e-39
3501.9099 1073.588 402.32999 9.2197031e-39
3502.1201 1102.522 406.17801 9.2197031e-39
3505.51 1126.0129 410.05399 9.2197031e-39
3502.6799 1156.527 413.39899 9.2197031e-39
3506.3301 1179.297 417.241 9.2197031e-39
3504.45 1208.3989 420.62201 9.2197031e-39
3501.0701 1235.6069 423.40399 9.2197031e-39
3505.0701 1259.925 427.53101 9.2197031e-39
3500.28 1287.447 430.02499 9.2197031e-39
3504.55 1311.078 434.125 9.2197031e-39
3499.1699 1338.332 436.44601 9.2197031e-39
3502.8999 1361.835 440.40399 9.2197031e-39
3505.3501 1383.551 443.828 9.2197031e-39
3507.75 1407.5071 447.534 9.2197031e-39
3502.1101 1433.74 449.66 9.2197031e-39
3504.8301 1457.026 453.35199 9.2197031e-39
3506.3601 1478.512 456.53 9.2197031e-39
3510.3301 1500.7371 460.375 9.2197031e-39
3503.6299 1526.4709 462.19 9.2197031e-39
3505.3799 1549.521 465.62299 9.2197031e-39
3506.01 1570.7581 468.55899 9.2197031e-39
3507.29 1593.703 471.87 9.2197031e-39
3507.49 1614.828 474.69101 9.2197031e-39
3508.3101 1637.6599 477.87799 9.2197031e-39
3509.8601 1657.79 480.88501 9.2197031e-39
3508.45 1681.37 483.64899 9.2197031e-39
3506.9199 1702.66 486.08701 9.2197031e-39
3507.71 1724.8101 489.18201 9.2197031e-39
3508.47 1744.74 491.974 9.2197031e-39
3507.9299 1767.1801 494.79599 9.2197031e-39
3514.6499 1784.3 498.612 9.2197031e-39
3505.5 1810.08 499.85999 9.2197031e-39
3511.8701 1827.1801 503.59201 9.2197031e-39
3510.48 1849.39 506.18399 9.2197031e-39
3509.1699 1869.39 508.50299 9.2197031e-39
3508.28 1891.09 511.14301 9.2197031e-39
3513.0601 1908.5699 514.55603 9.2197031e-39
3509.9199 1930.84 516.745 9.2197031e-39
3506.9299 1950.92 518.68201 9.2197031e-39
3512.6799 1969.84 522.51001 9.2197031e-39
3508.3899 1990.1 524.16901 9.2197031e-39
3514.73 2008.75 528.09698 9.2197031e-39
3510.0801 2028.87 529.65198 9.2197031e-39
3516.0701 2047.5601 533.505 9.2197031e-39
3512 2067.26 535.14203 9.2197031e-39
3508.1899 2088.6401 537.05798 9.2197031e-39
3511.3401 2106.0801 540.08301 9.2197031e-39
3516.6399 2124.8301 543.784 9.2197031e-39
3519.49 2142.3301 546.74701 9.2197031e-39
3515.8899 2163.26 548.65302 9.2197031e-39
3518.4199 2180.75 551.53998 9.2197031e-39
3512.53 2201.97 552.95099 9.2197031e-39
3515.7 2219.22 555.95502 9.2197031e-39
3519.03 2238.28 559.237 9.2197031e-39
3521.9099 2255.5898 562.18103 9.2197031e-39
3515.28 2276.53 563.38202 9.2197031e-39
3518.8101 2293.6401 566.453 9.2197031e-39
3521.48 2312.75 569.58398 9.2197031e-39
3522.78 2330.25 572.185 9.2197031e-39
3516.3999 2350.72 573.38397 9.2197031e-39
3528.04 2366.6499 578.19397 9.2197031e-39
3519.3899 2387.28 578.88098 9.2197031e-39
3521.05 2404.6201 581.54498 9.2197031e-39
3522.71 2423.78 584.44897 9.2197031e-39
3516.3 2441.99 585.34198 9.2197031e-39
3526.3799 2460.26 590.09497 9.2197031e-39
3518.6899 2478.45 590.68701 9.2197031e-39
3519.6899 2497.6001 593.435 9.2197031e-39
3520.45 2514.97 595.89301 9.2197031e-39
3520.1499 2534.21 598.34802 9.2197031e-39
3520.6101 2551.5898 600.737 9.2197031e-39
3521.9299 2570.73 603.55798 9.2197031e-39
3522.0901 2588.1299 605.88098 9.2197031e-39
3522.1001 2607.3398 608.40601 9.2197031e-39
3521.97 2624.75 610.65997 9.2197031e-39
3521.6499 2643.97 613.10901 9.2197031e-39
3521.22 2661.3799 615.29401 9.2197031e-39
3520.5701 2680.6001 617.66602 9.2197031e-39
3520.8101 2698.03 620.01099 9.2197031e-39
3527.6201 2717.46 624.15198 9.2197031e-39
3520.75 2734.74 624.815 9.2197031e-39
3519.45 2753.97 627.03497 9.2197031e-39
3526.8501 2771.8501 631.11401 9.2197031e-39
3523.27 2791.03 632.79498 9.2197031e-39
3523.5801 2808.6201 635.17603 9.2197031e-39
3531.29 2828.6799 639.612 9.2197031e-39
3527.4099 2846.04 640.98499 9.2197031e-39
3527.04 2865.55 643.45898 9.2197031e-39
3522.8701 2882.8501 644.755 9.2197031e-39
3528.9099 2903.1499 648.83099 9.2197031e-39
3373.6799 3133.46 642.80798 9.2197031e-39
3372.1101 3150.4399 644.672 9.2197031e-39
3367.1101 3168.3799 645.85999 9.2197031e-39
3363.3799 3184.8601 647.151 9.2197031e-39
3526.3601 2920.6799 650.53699 9.2197031e-39
3522.4199 2939.8799 652.13599 9.2197031e-39
3529.1699 2958.74 656.19098 9.2197031e-39
3525.8501 2978.1001 657.95697 9.2197031e-39
3522.6899 2995.6201 659.51898 9.2197031e-39
3526.6799 3016.24 663.159 9.2197031e-39
3523.21 3033.78 664.65002 9.2197031e-39
3528.74 3054.9099 668.716 9.2197031e-39
3274.3899 3494.9299 667.07202 9.2197031e-39
3274.1899 3515.74 669.75702 9.2197031e-39
3524.95 3072.47 670.13702 9.2197031e-39
3528.1899 3093.3999 673.64203 9.2197031e-39
3524.0901 3110.97 674.98999 9.2197031e-39
3527.8999 3132.25 678.67401 9.2197031e-39
3303.6001 3489.26 673.151 9.2197031e-39
3280.6399 3537.95 674.18103 9.2197031e-39
3286.05 3561.96 678.59601 9.2197031e-39
3531.97 3151.8301 682.19397 9.2197031e-39
3507.8899 3245.46 688.86298 9.2197031e-39
3353.0701 3490.03 684.80701 9.2197031e-39
3292 3584.54 682.95001 9.2197031e-39
3293.4199 3607.1499 686.25 9.2197031e-39
3286.9099 3623.74 686.90698 9.2197031e-39
3527.6201 3270.27 696.72699 9.2197031e-39
3458.3799 3369.27 693.55103 9.2197031e-39
3450.47 3387.73 694.12903 9.2197031e-39
3455.76 3409.1101 698.17102 9.2197031e-39
3450.22 3428.5801 699.43201 9.2197031e-39
3437.1101 3443.0701 698.27399 9.2197031e-39
3423.2 3459.1399 697.13202 9.2197031e-39
3400.21 3490.8999 695.93201 9.2197031e-39
3294.6799 3650.1599 692.19202 9.2197031e-39
3291.1899 3668.6599 693.80402 9.2197031e-39
3295.02 3693.54 697.966 9.2197031e-39
3529.8201 3292.23 700.12402 9.2197031e-39
3533.3301 3312.75 703.63702 9.2197031e-39
3535.1001 3334.9099 706.961 9.2197031e-39
3529.03 3352.5901 707.86401 9.2197031e-39
3429.52 3481.47 701.54199 9.2197031e-39
3304.52 3719.8401 703.63898 9.2197031e-39
3306.9199 3744.6101 707.45099 9.2197031e-39
3297.5801 3760.4399 707.34601 9.2197031e-39
3531.3 3375.1899 711.36298 9.2197031e-39
3300.3 3785.8899 711.323 9.2197031e-39
3296.3601 3805.25 712.94397 9.2197031e-39
3335.21 3854.27 728.45398 9.2197031e-39
3327.3899 3871.9399 728.948 9.2197031e-39
2913.1499 4595.0303 727.12 9.2197031e-39
3321.55 3893.3601 730.39697 9.2197031e-39
3316.6001 3913.1299 731.83502 9.2197031e-39
3320.6699 3941.6799 736.53601 9.2197031e-39
3318.4199 3963.77 738.909 9.2197031e-39
2938.55 4590.8999 732.51099 9.2197031e-39
2914.28 4631.1602 732.12799 9.2197031e-39
2905.22 4657.7598 733.50403 9.2197031e-39
3309.3999 4034.8601 746.13599 9.2197031e-39
3286.8999 4042.6101 741.89697 9.2197031e-39
3286.1499 4069.4099 745.23901 9.2197031e-39
3281 4090.5 746.80701 9.2197031e-39
2973.1001 4601.6001 741.98499 9.2197031e-39
2915.01 4707.6299 742.336 9.2197031e-39
3336.24 4027.4299 751.42999 9.2197031e-39
3281.1599 4118.6797 750.54401 9.2197031e-39
3287.51 4149.6396 756.09198 9.2197031e-39
3014.45 4616.52 753.60303 9.2197031e-39
3372.9299 4029.1799 760.229 9.2197031e-39
3298.1001 4187.4102 763.52301 9.2197031e-39
3304.3501 4219.4902 769.19501 9.2197031e-39
3240.02 4278.54 761.91998 9.2197031e-39
3261.51 4270.1299 765.83698 9.2197031e-39
3230.5901 4300.7598 762.63599 9.2197031e-39
3230.8201 4329.3398 766.44098 9.2197031e-39
3066.4399 4609.2998 764.79901 9.2197031e-39
3042.3101 4617.1797 760.19702 9.2197031e-39
3308.0701 4252.8203 774.44098 9.2197031e-39
3299.6799 4273.2402 775.159 9.2197031e-39
3229.9199 4360.3101 770.29797 9.2197031e-39
3236.3501 4395.9199 776.474 9.2197031e-39
3122.48 4605.25 777.35797 9.2197031e-39
3098.8601 4614.5 773.05701 9.2197031e-39
3157.1299 4611.8701 786.32202 9.2197031e-39
3186 4607.77 792.52698 9.2197031e-39
3213.9199 4605.6001 798.76202 9.2197031e-39
3302.54 4494.8501 804.922 9.2197031e-39
3244.27 4602.2002 805.40503 9.2197031e-39
2945.3999 5153.4302 807.96399 9.2197031e-39
3317.05 4576.9399 819.091 9.2197031e-39
3278.99 4606.3999 814.06799 9.2197031e-39
2966.1399 5135.4702 810.45001 9.2197031e-39
2999.45 5142.7402 819.18597 9.2197031e-39
2946.8 5204.3599 814.97498 9.2197031e-39
3315.6201 4608.4697 822.89398 9.2197031e-39
3027.3401 5135.8301 824.79199 9.2197031e-39
2946.2 5258.5601 821.95099 9.2197031e-39
3382.3501 4607.2598 838.32202 9.2197031e-39
3057.8601 5137.4399 832.13202 9.2197031e-39
3089.6001 5135.5801 839.30103 9.2197031e-39
2950.3601 5317.5698 830.67102 9.2197031e-39
3117.6899 5132.4302 845.45099 9.2197031e-39
2961.1699 5396.1899 843.51898 9.2197031e-39
2955.55 5441.2402 848.11902 9.2197031e-39
3171.23 5116.4702 855.86102 9.2197031e-39
3145.25 5123.4199 850.70398 9.2197031e-39
2965.49 5523.1699 861.198 9.2197031e-39
2958.72 5569.46 865.69397 9.2197031e-39
3098.6399 7650.96 1171.65 9.2197031e-39
3145.9399 7654.2998 1183.13 9.2197031e-39
3191.24 7637.02 1191.45 9.2197031e-39
3237.77 7636.6899 1202.27 9.2197031e-39
3289.3701 7636.0298 1214.24 9.2197031e-39
3333.76 7628.3501 1223.6 9.2197031e-39
3381.3501 7615.7202 1233.0601 9.2197031e-39
3429.74 7617.2002 1244.55 9.2197031e-39
3480.3201 7610.8799 1255.54 9.2197031e-39
3530.53 7614.9902 1267.8101 9.2197031e-39
3611.03 7676.8398 1294.73 9.2197031e-39
3650.01 7651.8901 1300.5601 9.2197031e-39
3704.23 7649.52 1312.91 9.2197031e-39
3751.0901 7641.5898 1322.8199 9.2197031e-39
5255.5801 10715.5 2077.8 9.2197031e-39
