# .PCD v0.7 - Point Cloud Data file format
VERSION 0.7
FIELDS x y z rgb
SIZE 4 4 4 4
TYPE F F F F
COUNT 1 1 1 1
WIDTH 298
HEIGHT 1
VIEWPOINT 0 0 0 1 0 0 0
POINTS 298
DATA ascii
763.64301 -147.20599 139.14301 9.2197031e-39
2676.8774 2315.6353 139.487 9.2197031e-39
2669.9299 2321.9302 136.983 9.2197031e-39
2678.5249 2328.02 137.80051 9.2197031e-39
2678.8701 2338.8101 136.101 9.2197031e-39
2680.74 2337.5601 136.701 9.2197031e-39
3482.8799 3368.865 137.05499 9.2197031e-39
3462.98 3372.97 132.16901 9.2197031e-39
760.59802 -165.01501 141.424 9.2197031e-39
2688.6899 2277.0898 148.32001 9.2197031e-39
2692.99 2279.8101 148.782 9.2197031e-39
2693.21 2286.0701 147.802 9.2197031e-39
2691.3401 2292.05 146.423 9.2197031e-39
2703.0767 2295.0535 148.414 9.2197031e-39
2676.115 2303.2549 141.3595 9.2197031e-39
2684.6436 2304.6667 142.933 9.2197031e-39
2691.936 2304.064 144.57561 9.2197031e-39
2703.3201 2300.54 147.564 9.2197031e-39
2678.54 2311 140.60001 9.2197031e-39
2685.9099 2311.3967 142.09567 9.2197031e-39
2690.1699 2310.8701 143.082 9.2197031e-39
2861.0901 2526.8501 143.77699 9.2197031e-39
2864.8916 2533.7534 143.44884 9.2197031e-39
2878.05 2535.6099 145.929 9.2197031e-39
2885.1001 2539.3999 146.79849 9.2197031e-39
2869.45 2542.3398 143.00301 9.2197031e-39
2875.77 2550.4102 143.01401 9.2197031e-39
2905.04 2550.79 149.14799 9.2197031e-39
2893.8401 2566.1602 144.25101 9.2197031e-39
2906.51 2580.6099 144.55901 9.2197031e-39
2937.8 2608.5601 146.59 9.2197031e-39
2982.3701 2653.22 148.687 9.2197031e-39
2990.75 2661.8301 149.04601 9.2197031e-39
3014.0801 2689.7 149.405 9.2197031e-39
3027.3501 2703.3201 149.976 9.2197031e-39
3083.1799 2775.1699 149.991 9.2197031e-39
3097.8999 2801.49 148.78101 9.2197031e-39
3110.21 2816.02 149.00101 9.2197031e-39
3131 2848.77 148.019 9.2197031e-39
3184.6499 2908.1101 149.62801 9.2197031e-39
3438.1499 3252.8501 146.646 9.2197031e-39
3425.79 3265.8501 141.894 9.2197031e-39
3441.26 3260.72 146.01199 9.2197031e-39
3453.45 3303.96 141.487 9.2197031e-39
434.03799 -685.06006 157.741 9.2197031e-39
2932.27 2565.53 152.489 9.2197031e-39
2950.0701 2576.51 154.455 9.2197031e-39
2988.8601 2597.0601 159.289 9.2197031e-39
3054.71 2737 150.23599 9.2197031e-39
3072.6799 2755.8101 150.94701 9.2197031e-39
3089.4299 2783.0801 150.013 9.2197031e-39
3459.46 3252.1948 151.265 9.2197031e-39
3499.7 3271.8 156.561 9.2197031e-39
3509.8701 3278.75 157.573 9.2197031e-39
424.88699 -714.32996 160.61301 9.2197031e-39
832.03802 -241.16101 169.056 9.2197031e-39
3012.8301 2611.29 162.024 9.2197031e-39
3046.52 2626.6499 166.631 9.2197031e-39
3070.8 2640.3301 169.524 9.2197031e-39
837.79102 -247.68597 171.34599 9.2197031e-39
3087.1599 2643.72 172.42999 9.2197031e-39
3123.0601 2648.1899 179.293 9.2197031e-39
3113.5649 2654.4951 176.248 9.2197031e-39
3134.1499 2661.3501 179.479 9.2197031e-39
3155.99 2648.5898 186.19901 9.2197031e-39
3173.5 2648.4302 189.92999 9.2197031e-39
3136.6799 2654.28 181.17599 9.2197031e-39
3148.29 2653.23 183.80701 9.2197031e-39
3154.0901 2654.9199 184.756 9.2197031e-39
3169.8301 2654.1299 188.218 9.2197031e-39
3188.5 2618.8301 197.97 9.2197031e-39
3180.4849 2624.8398 195.28549 9.2197031e-39
3190.8601 2621.0698 198.10001 9.2197031e-39
3177.6201 2632.22 193.466 9.2197031e-39
3175.78 2648.1699 190.455 9.2197031e-39
3183.6602 2643.6499 192.8665 9.2197031e-39
3202.2 2599.3301 204.073 9.2197031e-39
3222.3799 2597.1802 208.698 9.2197031e-39
3198.8501 2606.78 202.14 9.2197031e-39
3207.6299 2608.5601 203.70399 9.2197031e-39
3216.6299 2602.8398 206.55099 9.2197031e-39
3197.4299 2614.2549 200.6105 9.2197031e-39
3224.6101 2589 210.51401 9.2197031e-39
3230.6201 2589.4302 211.715 9.2197031e-39
3251.105 2586.8999 216.46649 9.2197031e-39
3230.28 2598.3198 210.18201 9.2197031e-39
3299.74 2579.52 227.97501 9.2197031e-39
3269.7 2583.24 221.004 9.2197031e-39
3278.6001 2584.0898 222.74899 9.2197031e-39
3300.4099 2581.2 227.839 9.2197031e-39
3325.0449 2575.95 233.9165 9.2197031e-39
3447.79 2591.71 257.30801 9.2197031e-39
3593.4299 2589.26 288.53799 9.2197031e-39
3593.1299 2591.5 288.108 9.2197031e-39
3591.1899 2605.0549 285.46851 9.2197031e-39
3580.3401 2616.8101 281.242 9.2197031e-39
3583.3301 2514 298.76501 9.2197031e-39
3592.3201 2529.5 298.12201 9.2197031e-39
3592.1799 2531.74 297.72501 9.2197031e-39
3595.095 2545.78 296.03448 9.2197031e-39
3589.01 2558.75 292.616 9.2197031e-39
3596.5901 2562.03 293.681 9.2197031e-39
3594.6299 2575.5898 291.03949 9.2197031e-39
3583.9248 2456.73 308.30099 9.2197031e-39
3584.1299 2470.23 306.12701 9.2197031e-39
3593.9399 2472.73 307.79099 9.2197031e-39
3583.1399 2484.79 303.52499 9.2197031e-39
3592.8999 2487.46 305.15201 9.2197031e-39
3583.8501 2499.4199 301.26999 9.2197031e-39
3583.78 2501.6401 300.89301 9.2197031e-39
3592.02 2516.9302 300.12399 9.2197031e-39
3578.9299 2382.6201 319.418 9.2197031e-39
3579.6499 2399.47 316.80399 9.2197031e-39
3588.22 2396.71 319.07001 9.2197031e-39
3581.7549 2412.8999 315.04248 9.2197031e-39
3582.7251 2427.5 312.84949 9.2197031e-39
3582.4751 2442.1201 310.39349 9.2197031e-39
3579.29 2324.3501 329.069 9.2197031e-39
3582.5801 2337.74 327.56601 9.2197031e-39
3573.28 2341.23 325.02399 9.2197031e-39
3574.53 2355.8501 322.88599 9.2197031e-39
3583.8899 2352.52 325.414 9.2197031e-39
3576.21 2368.1602 321.21899 9.2197031e-39
3586.2 2369.4399 323.12201 9.2197031e-39
3587.9299 2384.1602 321.07101 9.2197031e-39
3572.74 2250.6899 339.785 9.2197031e-39
3575.01 2263.25 338.202 9.2197031e-39
3578.5801 2277.8398 336.55801 9.2197031e-39
3579.0901 2280.0698 336.30301 9.2197031e-39
3582.605 2293.5151 334.83649 9.2197031e-39
3576.3101 2308.6602 331.017 9.2197031e-39
3577.71 2310.71 330.97601 9.2197031e-39
3571.77 2187.77 349.91699 9.2197031e-39
3575.8149 2201.3899 348.534 9.2197031e-39
3580.915 2215.915 347.22751 9.2197031e-39
3577.3149 2232.7451 343.70151 9.2197031e-39
3574.97 2247.79 340.73401 9.2197031e-39
3585.0601 2263.3501 340.311 9.2197031e-39
3573.345 2136.5 358.67297 9.2197031e-39
3574.54 2152.7949 356.24899 9.2197031e-39
3576.8052 2168.5601 354.138 9.2197031e-39
3571.01 2185.5601 350.11899 9.2197031e-39
3571.8601 2066.3 369.892 9.2197031e-39
3565.04 2072.1899 367.48001 9.2197031e-39
3563.8701 2088.9851 364.47501 9.2197031e-39
3569.51 2102.5898 363.43301 9.2197031e-39
3570.49 2104.8101 363.276 9.2197031e-39
3575.875 2118.5049 362.16498 9.2197031e-39
3567.54 2014.7151 377.453 9.2197031e-39
3567.2251 2033.5449 374.29251 9.2197031e-39
3573.3301 2047.48 373.29501 9.2197031e-39
3565.75 2053.9399 370.63 9.2197031e-39
3560.3301 1939.14 388.34201 9.2197031e-39
3556.01 1944.9399 386.47501 9.2197031e-39
3563.1499 1959.085 385.664 9.2197031e-39
3564.865 1977.8149 382.95001 9.2197031e-39
3566.615 1996.21 380.29749 9.2197031e-39
3555.77 1879.02 397.25601 9.2197031e-39
3557.3401 1881.21 397.22699 9.2197031e-39
3558 1899.01 394.444 9.2197031e-39
3559.52 1901.21 394.40302 9.2197031e-39
3560.6001 1918.35 391.81601 9.2197031e-39
3562.0601 1920.5601 391.763 9.2197031e-39
3552.54 1815.3049 407.04001 9.2197031e-39
3556.8601 1833.42 404.978 9.2197031e-39
3550.8701 1841.48 402.38501 9.2197031e-39
3553.8701 1858.34 400.25101 9.2197031e-39
3555.49 1860.54 400.233 9.2197031e-39
3551.165 1742.79 418.66302 9.2197031e-39
3549.5701 1767.54 414.259 9.2197031e-39
3551.4299 1769.73 414.293 9.2197031e-39
3554.26 1788.2 411.85599 9.2197031e-39
3556.0601 1790.41 411.87601 9.2197031e-39
3545.4199 1669.6 429.47101 9.2197031e-39
3550.1699 1688.5601 427.362 9.2197031e-39
3545.9299 1696.75 425.11899 9.2197031e-39
3550.8799 1714.9301 423.17999 9.2197031e-39
3545.75 1723.65 420.66101 9.2197031e-39
3546.1201 1608.228 439.702 9.2197031e-39
3548.5151 1635.59 435.71399 9.2197031e-39
3549.48 1661.3 431.69501 9.2197031e-39
3544.6799 1544.217 449.914 9.2197031e-39
3540.74 1553.679 447.526 9.2197031e-39
3547.04 1573.8521 445.54501 9.2197031e-39
3550.0601 1575.3411 445.939 9.2197031e-39
1777.17 -749.48999 452.62701 9.2197031e-39
3536.3701 1485.825 457.74899 9.2197031e-39
3540.2 1486.51 458.44601 9.2197031e-39
3542.1599 1513.6279 454.405 9.2197031e-39
3539.6799 1521.7271 452.55099 9.2197031e-39
1837.87 -744.23999 464.61499 9.2197031e-39
1830.9399 -737.29004 462.005 9.2197031e-39
3533.9502 1417.8605 468.4025 9.2197031e-39
3534.6399 1451.818 462.97101 9.2197031e-39
3532.54 1460.082 461.168 9.2197031e-39
3528.4099 1348.073 478.69501 9.2197031e-39
3529.49 1381.459 473.44 9.2197031e-39
3531.8 1384.415 473.44101 9.2197031e-39
3529.6001 1296.469 487.42499 9.2197031e-39
3528.8899 1304.2681 485.99399 9.2197031e-39
3530.99 1337.968 480.90302 9.2197031e-39
1849.74 -883.67004 490.035 9.2197031e-39
3524.95 1217.151 499.47198 9.2197031e-39
3526.46 1255.454 493.50101 9.2197031e-39
3525.4399 1264.131 491.858 9.2197031e-39
1817.66 -1037.5601 508.52701 9.2197031e-39
3518.095 1174.1055 505.09448 9.2197031e-39
3527.27 1205.925 501.80899 9.2197031e-39
3512.6899 1078.267 519.69702 9.2197031e-39
3519.5801 1114.005 515.28302 9.2197031e-39
3518.3101 1124.583 513.27502 9.2197031e-39
1869.21 -1046.54 520.91498 9.2197031e-39
1880.02 -1041.83 522.42902 9.2197031e-39
3510.0701 1014.099 529.68298 9.2197031e-39
3508.8999 1025.6951 527.53101 9.2197031e-39
3514.1699 1066.761 521.89899 9.2197031e-39
1930.9301 -1052.77 535.00201 9.2197031e-39
1944.34 -1036.26 535.12799 9.2197031e-39
3505.6899 958.508 537.89001 9.2197031e-39
3508.79 962.39099 537.909 9.2197031e-39
1998.36 -1031.6801 545.80798 9.2197031e-39
2008.49 -1028.52 547.435 9.2197031e-39
3503.8401 893.823 548.125 9.2197031e-39
3502.47 907.34399 545.61401 9.2197031e-39
2062.55 -1021 557.64099 9.2197031e-39
2079.0901 -984.53003 555.151 9.2197031e-39
3498.75 831.33997 557.31403 9.2197031e-39
3496.1101 848.48596 553.93799 9.2197031e-39
2129.9399 -988.63 566.58698 9.2197031e-39
2140.1499 -983.14001 567.84802 9.2197031e-39
3495.6399 759.59198 568.44299 9.2197031e-39
3492.6699 778.64502 564.68298 9.2197031e-39
2191.5801 -982.40002 578.612 9.2197031e-39
3491.3899 684.69849 579.849 9.2197031e-39
3489.29 702.98889 576.39899 9.2197031e-39
2200.72 -982.60999 580.58002 9.2197031e-39
3482.6201 614.80438 589.47498 9.2197031e-39
3483.1599 627.77777 587.45801 9.2197031e-39
2251.3101 -985.84998 591.82098 9.2197031e-39
2261.5701 -978.04004 592.711 9.2197031e-39
3475.6799 549.44769 598.74402 9.2197031e-39
2312.45 -977.42004 603.37903 9.2197031e-39
2321.9199 -974.35999 604.88 9.2197031e-39
3477.1499 530.02112 602.24701 9.2197031e-39
2372.23 -976.77002 615.92401 9.2197031e-39
2381.3201 -976.48999 617.802 9.2197031e-39
3470.9399 439.28198 615.84003 9.2197031e-39
3471.3301 455.15302 613.31598 9.2197031e-39
2433.03 -963.21997 626.57001 9.2197031e-39
2441.98 -963.77002 628.55298 9.2197031e-39
3462.6799 364.04199 626.453 9.2197031e-39
3465.23 337.92099 631.28497 9.2197031e-39
2491.4299 -973.26001 640.58002 9.2197031e-39
2500.9199 -966.73999 641.51801 9.2197031e-39
3458.8899 227.67999 648.05402 9.2197031e-39
3458.24 250.229 644.211 9.2197031e-39
2551.6101 -957.59998 650.745 9.2197031e-39
2561.0601 -948.93994 651.32202 9.2197031e-39
2988.75 -411.25 653.51202 9.2197031e-39
2610.53 -957.66003 663.22699 9.2197031e-39
2619.8701 -947.84998 663.59302 9.2197031e-39
3031.97 -417.76001 663.729 9.2197031e-39
3038.6499 -407.93994 663.53198 9.2197031e-39
3076.23 -362.896 664.08398 9.2197031e-39
3082.74 -353.96503 663.995 9.2197031e-39
3452.29 105.68298 666.70099 9.2197031e-39
3451.1899 132.09201 662.13 9.2197031e-39
2678.0701 -972.39001 679.94202 9.2197031e-39
2669.22 -966.56006 677.11102 9.2197031e-39
3124.78 -353.198 672.76898 9.2197031e-39
3132.97 -357.78699 675.25598 9.2197031e-39
2795.0901 -858.51001 686.00201 9.2197031e-39
2842.0801 -797.75 685.966 9.2197031e-39
2850.3899 -789.32996 686.34198 9.2197031e-39
3178.1101 -375.66602 687.74902 9.2197031e-39
3184.1001 -364.56598 687.19098 9.2197031e-39
3445.1001 -29.109985 687.32397 9.2197031e-39
3441.6001 8.7230225 680.367 9.2197031e-39
2728.28 -969.47998 690.09198 9.2197031e-39
2737.3201 -959.35999 690.34302 9.2197031e-39
2786.8 -901.31995 691.28003 9.2197031e-39
2898.76 -803.64001 698.93103 9.2197031e-39
2949.3999 -706.31006 693.65997 9.2197031e-39
2956.8899 -692.71997 693.013 9.2197031e-39
2999.04 -636.77002 692.74298 9.2197031e-39
2907.3701 -803.93994 700.80298 9.2197031e-39
3436.3999 -175.84497 709.59003 9.2197031e-39
3433.9099 -137.828 702.81799 9.2197031e-39
3239.71 -440.60999 711.45801 9.2197031e-39
3260.0801 -513.51001 727.74402 9.2197031e-39
3426.7 -306.85101 729.06097 9.2197031e-39
3428.5701 -346.94598 736.04401 9.2197031e-39
3315.6101 -567.77002 748.414 9.2197031e-39
3324.5 -570.81006 750.79498 9.2197031e-39
3415.1299 -482.29004 755.435 9.2197031e-39
3383.78 -591.15002 766.685 9.2197031e-39
3371.21 -571.02002 760.716 9.2197031e-39
3417.5801 -530.18994 763.82397 9.2197031e-39
