# .PCD v0.7 - Point Cloud Data file format
VERSION 0.7
FIELDS x y z rgb
SIZE 4 4 4 4
TYPE F F F F
COUNT 1 1 1 1
WIDTH 325
HEIGHT 1
VIEWPOINT 0 0 0 1 0 0 0
POINTS 325
DATA ascii
-507.384 -152.45898 138.26199 9.2197031e-39
1997.39 484.939 139.82201 9.2197031e-39
2004.4351 484.8085 139.326 9.2197031e-39
2014.2949 486.79248 139.196 9.2197031e-39
3149.6599 746.836 132.39999 9.2197031e-39
3157.3301 765.37201 136.71399 9.2197031e-39
-499.36801 -143.12402 140.162 9.2197031e-39
2004.09 488.556 140.32201 9.2197031e-39
1995.6279 493.4686 142.153 9.2197031e-39
2005.8199 494.5 141.75351 9.2197031e-39
2010.6899 498.67401 142.519 9.2197031e-39
1994.5551 508.7905 146.20401 9.2197031e-39
2007.554 502.78998 143.79399 9.2197031e-39
2010.86 505.819 144.36501 9.2197031e-39
1989.88 517.50299 148.774 9.2197031e-39
1994.2357 515.29089 147.91414 9.2197031e-39
1994.53 522.02698 149.645 9.2197031e-39
2007.095 521.80676 148.765 9.2197031e-39
2013.2968 525.29645 149.26567 9.2197031e-39
2278.0249 565.08441 142.265 9.2197031e-39
2282.2766 566.26685 142.29401 9.2197031e-39
2291.3899 567.42578 141.998 9.2197031e-39
2278.6899 571.14771 143.79651 9.2197031e-39
2285.24 574.7572 144.30551 9.2197031e-39
2328.72 581.96912 143.332 9.2197031e-39
2342.5901 587.67108 143.905 9.2197031e-39
2363.99 593.70642 144.071 9.2197031e-39
2337.74 609.43829 149.87801 9.2197031e-39
2385.3401 602.25092 144.89301 9.2197031e-39
2407.1001 607.33679 144.789 9.2197031e-39
2490.55 640.88489 148.03999 9.2197031e-39
2527.8799 650.00128 147.964 9.2197031e-39
2568.29 664.69391 149.13499 9.2197031e-39
2575.3101 660.51172 147.589 9.2197031e-39
2602.8999 669.5202 148.12199 9.2197031e-39
2626.95 670.80463 146.88 9.2197031e-39
2663.22 682.21667 147.47 9.2197031e-39
2691.3701 683.55322 145.974 9.2197031e-39
2720.3 691.6543 146.18401 9.2197031e-39
2762.05 695.99518 144.577 9.2197031e-39
2826.4399 714.57318 145.187 9.2197031e-39
2961.6101 744.633 144.145 9.2197031e-39
3150.79 781.74701 141.397 9.2197031e-39
3141.48 795.81598 145.662 9.2197031e-39
-534.55603 -111.31403 150.73199 9.2197031e-39
-511.75299 -98.77301 152.496 9.2197031e-39
1998 524.65039 150.10001 9.2197031e-39
2007.8101 528.19971 150.379 9.2197031e-39
2006.3199 530.64972 151.11301 9.2197031e-39
2358.98 622.48926 151.87801 9.2197031e-39
2381.0701 639.82819 154.936 9.2197031e-39
2396.04 649.73181 156.52901 9.2197031e-39
-514.06799 -59.539978 162.842 9.2197031e-39
-502.78101 -49.903015 164.606 9.2197031e-39
2431.8201 676.98242 161.265 9.2197031e-39
2487.8401 713.30188 167.033 9.2197031e-39
-593.67999 -28.122986 176.21899 9.2197031e-39
2543.96 756.59497 174.606 9.2197031e-39
-738.44098 -48.190979 180.48599 9.2197031e-39
2622.47 809.414 183.187 9.2197031e-39
-1033.75 -48.86499 199.65199 9.2197031e-39
-796.00201 -15.755981 192.683 9.2197031e-39
2750.77 905.71204 199.80499 9.2197031e-39
-1035.08 -2.460022 211.79601 9.2197031e-39
-1039.29 5.4459839 214.12601 9.2197031e-39
-1036.8 52.255981 226.125 9.2197031e-39
3180.6399 1199.6851 248.03101 9.2197031e-39
3184.8501 1224.429 254.185 9.2197031e-39
3192.6399 1233.988 256.15799 9.2197031e-39
3203.5498 1266.6395 263.927 9.2197031e-39
3205.4102 1295.7885 271.379 9.2197031e-39
3208.4951 1326.7466 279.22 9.2197031e-39
3211.96 1356.651 286.763 9.2197031e-39
3215.78 1364.408 288.52802 9.2197031e-39
3214.25 1388.874 294.98499 9.2197031e-39
3218.6499 1397.376 296.90601 9.2197031e-39
3218.1799 1426.0415 304.38501 9.2197031e-39
3217.03 1454.907 311.95999 9.2197031e-39
3221.78 1464.303 314.09 9.2197031e-39
3227.6599 1498.14 322.49701 9.2197031e-39
3224.9199 1500.925 323.39999 9.2197031e-39
3227.0601 1537.9199 332.87201 9.2197031e-39
3230.6201 1535.817 332.09201 9.2197031e-39
3238.8799 1580.15 343.07001 9.2197031e-39
3241.52 1588.557 345.08099 9.2197031e-39
3243.8 1622.9199 353.85901 9.2197031e-39
3246.9099 1632.14 356.052 9.2197031e-39
3250.21 1669.03 365.42001 9.2197031e-39
3252.3999 1677.64 367.51501 9.2197031e-39
3251.96 1715.255 377.3165 9.2197031e-39
3273.3899 1779.14 392.51099 9.2197031e-39
3275.0601 1787.99 394.70001 9.2197031e-39
3275.47 1826.96 404.80099 9.2197031e-39
3274.99 1833.63 406.565 9.2197031e-39
3279.29 1879.03 418.07901 9.2197031e-39
3276.73 1883.46 419.39899 9.2197031e-39
3277.29 1926.17 430.45801 9.2197031e-39
3279.4399 1936.83 433.08499 9.2197031e-39
3277 1985.9399 446.00699 9.2197031e-39
3281.7 1983.83 445.14899 9.2197031e-39
3278.53 2034.08 458.41299 9.2197031e-39
3279.53 2044.13 460.95999 9.2197031e-39
3283.5801 2098.3 474.76801 9.2197031e-39
3279.1599 2101.2 475.81201 9.2197031e-39
-923.70599 1130.741 498.931 9.2197031e-39
3277.6201 2159.5 491.05899 9.2197031e-39
3282.21 2156.6001 490.00601 9.2197031e-39
3281.78 2219.4102 506.353 9.2197031e-39
3281.8701 2229.71 509.02399 9.2197031e-39
-922.75897 1176.925 510.86899 9.2197031e-39
-911.02899 1182.887 511.64999 9.2197031e-39
-914.9165 1234.719 525.37097 9.2197031e-39
3280.48 2284.3198 523.30298 9.2197031e-39
3279.73 2293.8599 525.83197 9.2197031e-39
-908.26501 1284.4189 537.849 9.2197031e-39
-900.16498 1291.0139 539.03198 9.2197031e-39
3283.3101 2359.73 542.711 9.2197031e-39
3277.1399 2360.9399 543.42902 9.2197031e-39
-893.78601 1336.5869 550.45502 9.2197031e-39
-885.57001 1343.048 551.59497 9.2197031e-39
-872.66302 1386.8621 562.13397 9.2197031e-39
-890.94299 1401.04 567.01501 9.2197031e-39
3279.79 2428.9302 560.922 9.2197031e-39
3283.3301 2447.0898 565.40802 9.2197031e-39
-878.09302 1445.249 577.65997 9.2197031e-39
-875.30499 1453.262 579.55902 9.2197031e-39
3278.6299 2519.3901 584.5 9.2197031e-39
3284.22 2516.5 583.38397 9.2197031e-39
3280.71 2595.24 604.07202 9.2197031e-39
3277.6699 2603.3 606.36401 9.2197031e-39
3280.0901 2684.8601 627.396 9.2197031e-39
3279.8501 2699.0601 631.10199 9.2197031e-39
3280.0701 2782.04 652.65002 9.2197031e-39
3281.0801 2799.8501 657.211 9.2197031e-39
3284.4099 2895.75 681.90802 9.2197031e-39
3283.1699 2910.1399 685.72803 9.2197031e-39
3166.1201 2975.97 710.49902 9.2197031e-39
3160.71 2982.1399 712.45697 9.2197031e-39
3282.915 3014.7549 712.92749 9.2197031e-39
3129.52 3012.0901 722.28003 9.2197031e-39
3281.4099 3124.4099 741.51599 9.2197031e-39
3282.5801 3147.04 747.32001 9.2197031e-39
3196.48 3205.8999 768.25098 9.2197031e-39
3132.1599 3308.48 799.117 9.2197031e-39
3181.53 3314.0901 797.33899 9.2197031e-39
3191.3799 3316.98 797.448 9.2197031e-39
3068.1599 3308.55 803.32599 9.2197031e-39
3079.03 3315.51 804.42401 9.2197031e-39
3124.98 3312.77 800.70099 9.2197031e-39
3086.25 3516.2 856.09302 9.2197031e-39
3085.01 3541.8101 862.82898 9.2197031e-39
3048.99 3588.71 877.37299 9.2197031e-39
1389.41 3212.04 888.19897 9.2197031e-39
1433.35 3213.95 885.82001 9.2197031e-39
1437.8 3228.1001 889.20502 9.2197031e-39
3048.2 3618.0701 885.05402 9.2197031e-39
1474.88 3257.4299 894.396 9.2197031e-39
1367.54 3260.0701 902.11298 9.2197031e-39
93.570702 2991.9299 915.88202 9.2197031e-39
100.638 2997.45 916.85303 9.2197031e-39
145.347 3019.51 919.65503 9.2197031e-39
25.807301 2996.4199 921.48602 9.2197031e-39
-68.3368 3000.79 928.78699 9.2197031e-39
-59.304699 3004.55 929.172 9.2197031e-39
-2.7706101 3015.8101 928.39697 9.2197031e-39
153.696 3023.3701 920.112 9.2197031e-39
202.189 3039.9399 921.24298 9.2197031e-39
209.386 3045.1799 922.13098 9.2197031e-39
1456.9 3365.3999 923.62701 9.2197031e-39
-140.793 3005.51 934.758 9.2197031e-39
-163.714 3016.54 939.12598 9.2197031e-39
239.493 3085.77 930.70599 9.2197031e-39
241.64101 3097.95 933.729 9.2197031e-39
1462.92 3542.47 969.23798 9.2197031e-39
1465.36 3571.74 976.68402 9.2197031e-39
-727.86499 3229.8701 1031.5 9.2197031e-39
-665.85498 3252.3301 1033.28 9.2197031e-39
-664.28302 3266.01 1036.73 9.2197031e-39
1470.47 3783.4299 1031.35 9.2197031e-39
3149.8401 4218.6797 1034.45 9.2197031e-39
3160.1899 4216.21 1033.13 9.2197031e-39
3091.0901 4222.2197 1039.22 9.2197031e-39
1470.39 3830.78 1043.66 9.2197031e-39
3082.8401 4233.0098 1042.5601 9.2197031e-39
-638.40002 3323.96 1050.09 9.2197031e-39
-636.51501 3337.6699 1053.53 9.2197031e-39
-650.237 3438.52 1080.63 9.2197031e-39
-651.26703 3455.8999 1085.21 9.2197031e-39
3052.3401 4405.4297 1089.35 9.2197031e-39
3063.22 4403.2197 1088.0699 9.2197031e-39
2991.0801 4407.4297 1093.89 9.2197031e-39
2919.3999 4412.2998 1099.85 9.2197031e-39
2980.3899 4410.4102 1095.36 9.2197031e-39
2699.1299 4380.1001 1105.91 9.2197031e-39
2774.8101 4409.71 1108.64 9.2197031e-39
2835.5 4409.9297 1104.73 9.2197031e-39
2847.9399 4416.8896 1105.72 9.2197031e-39
2908.49 4414.1396 1101.04 9.2197031e-39
1472.86 4097.27 1112.74 9.2197031e-39
2690.5701 4397.7002 1111.04 9.2197031e-39
2764.2 4413.0801 1110.21 9.2197031e-39
1471.84 4159.04 1128.85 9.2197031e-39
1490.9 4385.4502 1186.4301 9.2197031e-39
1500.05 4397.8301 1189.05 9.2197031e-39
1712.85 4419.3101 1180.6899 9.2197031e-39
1640.41 4424.54 1186.79 9.2197031e-39
1628.4 4430.6699 1189.17 9.2197031e-39
1700.33 4431.4102 1184.65 9.2197031e-39
1771.4399 4437.6499 1181.62 9.2197031e-39
1781.12 4453.25 1185.04 9.2197031e-39
284.52802 4128.46 1198.67 9.2197031e-39
1556.3101 4428.6797 1193.38 9.2197031e-39
1567.47 4429.46 1192.85 9.2197031e-39
197.92 4134.48 1205.91 9.2197031e-39
212.739 4131.23 1204.09 9.2197031e-39
291.24301 4140.4199 1201.34 9.2197031e-39
-3279.8301 3293.74 1215.24 9.2197031e-39
-44.379601 4127.46 1219.95 9.2197031e-39
43.738201 4127.4502 1214.1801 9.2197031e-39
27.6387 4131.75 1216.35 9.2197031e-39
111.906 4136.1104 1211.96 9.2197031e-39
126.887 4133.1797 1210.22 9.2197031e-39
1832.4 4572.8101 1212.74 9.2197031e-39
-3279.6201 3312.23 1220.03 9.2197031e-39
-57.1353 4125.6396 1220.3101 9.2197031e-39
756.29303 4367.7598 1229.95 9.2197031e-39
823.396 4365.3799 1224.9301 9.2197031e-39
833.64801 4370.8701 1225.6899 9.2197031e-39
899.16699 4370.9199 1221.41 9.2197031e-39
974.177 4416.27 1228.28 9.2197031e-39
662.53802 4372.6797 1237.36 9.2197031e-39
674.13 4374.9502 1237.2 9.2197031e-39
741.78302 4373.8896 1232.49 9.2197031e-39
898.25897 4411.1699 1231.9301 9.2197031e-39
958.68298 4427.77 1232.28 9.2197031e-39
1836.01 4676.98 1239.5699 9.2197031e-39
-3276.6299 3412.5801 1245.91 9.2197031e-39
503.173 4364.8203 1245.76 9.2197031e-39
514.815 4367.54 1245.7 9.2197031e-39
583.22803 4369.0601 1241.62 9.2197031e-39
594.84601 4371.5498 1241.51 9.2197031e-39
-3276.01 3431.2 1250.7 9.2197031e-39
431.26901 4369.0498 1251.5699 9.2197031e-39
332.117 4372.7197 1259.02 9.2197031e-39
346.30801 4370.6602 1257.55 9.2197031e-39
416.423 4373.1602 1253.61 9.2197031e-39
250.672 4363.6499 1262 9.2197031e-39
263.26901 4365.3398 1261.61 9.2197031e-39
-3276.8 3535.5801 1277.88 9.2197031e-39
-5462.0698 3017.8999 1286.49 9.2197031e-39
-3276.6201 3554.8201 1282.86 9.2197031e-39
-5450.8999 3036.79 1290.67 9.2197031e-39
-300.177 4366.54 1298.8199 9.2197031e-39
-399.427 4367.8501 1305.66 9.2197031e-39
-383.17001 4366.6104 1304.28 9.2197031e-39
-291.31201 4376.4297 1300.8101 9.2197031e-39
-5425.5801 3151.3799 1318.79 9.2197031e-39
-4884.0801 3259.53 1311.42 9.2197031e-39
-4968.52 3270.6101 1319.83 9.2197031e-39
-3275.8701 3660.53 1310.28 9.2197031e-39
-3274.4099 3679.4099 1315.09 9.2197031e-39
-3162.03 3719.75 1318.21 9.2197031e-39
-601.52802 4365.4199 1318.27 9.2197031e-39
-586.659 4367.2803 1317.78 9.2197031e-39
-495.67801 4361.3604 1310.28 9.2197031e-39
-484.75101 4368.48 1311.42 9.2197031e-39
-5417.7998 3171.4299 1323.49 9.2197031e-39
-3161.1499 3738.98 1323.15 9.2197031e-39
-5340.48 3290.28 1349.3 9.2197031e-39
-4879 3376.5701 1341.5 9.2197031e-39
-4879.75 3398.96 1347.36 9.2197031e-39
-5411.6602 3293.71 1354.86 9.2197031e-39
-3170.72 3853.5701 1353.55 9.2197031e-39
-3177.6699 3878.23 1360.41 9.2197031e-39
1870.34 5167.5898 1364.79 9.2197031e-39
-4872.2402 3516.6201 1377.4399 9.2197031e-39
-4871.6201 3538.76 1383.15 9.2197031e-39
-3181.1201 3991.95 1390.1801 9.2197031e-39
-3185.8401 4015.8401 1396.7 9.2197031e-39
1874.92 5316.2402 1403.12 9.2197031e-39
-4870.6699 3661.03 1414.86 9.2197031e-39
-4870.4702 3683.72 1420.74 9.2197031e-39
-3191.3701 4133.9697 1427.75 9.2197031e-39
-2260.1499 4373.4697 1428.99 9.2197031e-39
-2016.21 4429.0303 1427.45 9.2197031e-39
-3198.75 4160.3604 1435.09 9.2197031e-39
-2252.04 4387.8301 1432.1899 9.2197031e-39
-2174.8201 4436.2002 1439.7 9.2197031e-39
-2149.9199 4435.2402 1437.8199 9.2197031e-39
-4864.2402 3805.55 1451.99 9.2197031e-39
-4861.7798 3827.53 1457.54 9.2197031e-39
-2467.6101 4435.0898 1458.59 9.2197031e-39
-3192.5 4273.5098 1464.09 9.2197031e-39
-2499.6799 4440.4297 1462.08 9.2197031e-39
-3197.6699 4299.0801 1471.0699 9.2197031e-39
-2671.8799 4442.2197 1473.8199 9.2197031e-39
-2646.27 4443.29 1472.42 9.2197031e-39
-2857.1599 4448.4399 1487.5699 9.2197031e-39
-2823.6399 4444.1699 1484.27 9.2197031e-39
-4863.5698 3955.23 1490.83 9.2197031e-39
-4868.5698 3981.28 1497.9301 9.2197031e-39
-3015.8 4450.3203 1498.45 9.2197031e-39
-3192.5901 4416 1501.11 9.2197031e-39
-3189.26 4436.04 1506.1 9.2197031e-39
-3049.6599 4453.7002 1501.55 9.2197031e-39
2978.75 7386.1499 1868.63 9.2197031e-39
2997.98 7384.2598 1866.88 9.2197031e-39
2854.5801 7393.2798 1878.61 9.2197031e-39
2874.6299 7399.4302 1878.9 9.2197031e-39
2750.5901 7408.6401 1889.42 9.2197031e-39
2731.29 7409.8799 1891 9.2197031e-39
2377.72 7429.46 1919.25 9.2197031e-39
2482.8 7424.25 1911.01 9.2197031e-39
2502.5 7430.4302 1911.33 9.2197031e-39
2610.6201 7470.8198 1914.74 9.2197031e-39
2630.6201 7477.6299 1915.2 9.2197031e-39
2358.3501 7429.7202 1920.58 9.2197031e-39
2256.5901 7669.3398 1989.51 9.2197031e-39
2107.5601 7667.5698 1998.8101 9.2197031e-39
2127.6101 7667.98 1997.6 9.2197031e-39
2236.54 7669.27 1990.8 9.2197031e-39
1978.59 7663.6802 2006.24 9.2197031e-39
1998.45 7673.1299 2007.4 9.2197031e-39
1849.3101 7666.3101 2015.39 9.2197031e-39
1869.37 7667.3901 2014.36 9.2197031e-39
