# .PCD v0.7 - Point Cloud Data file format
VERSION 0.7
FIELDS x y z rgb
SIZE 4 4 4 4
TYPE F F F F
COUNT 1 1 1 1
WIDTH 320
HEIGHT 1
VIEWPOINT 0 0 0 1 0 0 0
POINTS 320
DATA ascii
3178.95 433.66 137.998 9.2197031e-39
3164.54 462.66498 134.097 9.2197031e-39
1899.46 1387.7639 139.127 9.2197031e-39
1874.8168 1406.4037 139.092 9.2197031e-39
1868.7 1413.47 138.561 9.2197031e-39
1653.38 1578.0239 137.89499 9.2197031e-39
1664.51 1577.103 136.304 9.2197031e-39
1636.2151 1582.2245 139.75351 9.2197031e-39
1644.7666 1582.4943 138.321 9.2197031e-39
1652.75 1581.884 137.168 9.2197031e-39
1640.0601 1594.5339 136.49699 9.2197031e-39
-587.229 3276.98 133.83701 9.2197031e-39
3176.3201 397.715 146.12801 9.2197031e-39
3177.51 415.42102 142.13901 9.2197031e-39
1861.2649 1367.2234 149.67101 9.2197031e-39
1858.14 1375.8442 148.32425 9.2197031e-39
1861.5149 1379.1865 147.06601 9.2197031e-39
1834.59 1388.843 149.32401 9.2197031e-39
1844.4275 1383.3606 148.9175 9.2197031e-39
1860.14 1386.702 145.674 9.2197031e-39
1873.6001 1389.4905 142.914 9.2197031e-39
1881.46 1385.704 142.46201 9.2197031e-39
1835.74 1392.787 148.293 9.2197031e-39
1857.7733 1394.6385 144.354 9.2197031e-39
1862.1533 1398.1791 142.89134 9.2197031e-39
1875.7019 1395.8577 141.21121 9.2197031e-39
1873.76 1401.655 140.27901 9.2197031e-39
1617.78 1558.859 147.726 9.2197031e-39
1622.51 1557.2705 147.3065 9.2197031e-39
1631.23 1551.723 147.093 9.2197031e-39
1616.72 1563.6434 146.8705 9.2197031e-39
1624.4733 1563.1569 145.72833 9.2197031e-39
1636.4399 1565.5414 143.29384 9.2197031e-39
1640.3199 1565.401 142.701 9.2197031e-39
1629.0601 1579.224 141.547 9.2197031e-39
1634.6068 1574.5817 141.651 9.2197031e-39
1641.03 1571.856 141.202 9.2197031e-39
1630.585 1582.2595 140.651 9.2197031e-39
-597.263 3222.8601 147.05 9.2197031e-39
-584.70599 3243.48 140.61099 9.2197031e-39
3169.76 343.797 158.741 9.2197031e-39
3173.6101 360.94699 154.446 9.2197031e-39
3171.3301 381.88599 150.323 9.2197031e-39
1846.9399 1373.9609 150.52901 9.2197031e-39
1586.12 1564.178 151.675 9.2197031e-39
-701.60699 3266.0601 154.563 9.2197031e-39
3174.8401 298.94299 167.53999 9.2197031e-39
3176.1299 318.81299 163.073 9.2197031e-39
-1368.42 3701.53 168.392 9.2197031e-39
3183.99 248.961 176.784 9.2197031e-39
3179.0901 274.98001 171.994 9.2197031e-39
-1398.72 3682.1899 177.409 9.2197031e-39
3180.05 209.20099 185.942 9.2197031e-39
3176.48 234.76801 181.034 9.2197031e-39
-2257.21 4222.6104 199.549 9.2197031e-39
2815.75 -504.66003 397.53601 9.2197031e-39
2781.1599 -522.12 406.84 9.2197031e-39
2797.8401 -513.22998 402.25101 9.2197031e-39
2805.6399 -617.84998 423.42801 9.2197031e-39
2814.6599 -733.10999 446.68701 9.2197031e-39
2840.95 -737.89001 443.48599 9.2197031e-39
2778.02 -754.93994 457.25601 9.2197031e-39
2791.95 -733.06995 450.328 9.2197031e-39
2742.4299 -779.80005 468.30701 9.2197031e-39
2758.8101 -762.69995 462.00699 9.2197031e-39
2729.8301 -803.72998 475.46201 9.2197031e-39
2717.74 -832.56006 483.58701 9.2197031e-39
2686.1201 -871.22998 496.95901 9.2197031e-39
2661.03 -865.20996 499.70099 9.2197031e-39
2707.6599 -864.66003 492.08801 9.2197031e-39
2620.5701 -881.64001 509.72699 9.2197031e-39
2639.49 -871.35999 504.48099 9.2197031e-39
2604.05 -902.38 516.828 9.2197031e-39
-605.41498 1500.51 517.59698 9.2197031e-39
-529.44299 1400.5 526.82501 9.2197031e-39
-643.03802 1478.994 528.25702 9.2197031e-39
2587.3501 -992.98999 538.93799 9.2197031e-39
2607.78 -980.79004 533.039 9.2197031e-39
2568.74 -1007.55 545.04999 9.2197031e-39
2558.99 -1055.3101 556.85602 9.2197031e-39
2545.04 -1087.62 566.02698 9.2197031e-39
2523.1599 -1098.34 571.841 9.2197031e-39
-908.36401 1453.239 576.42798 9.2197031e-39
-910.37097 1406.682 586.73102 9.2197031e-39
-904.99902 1429.537 580.96802 9.2197031e-39
2524.8301 -1189.4 591.09399 9.2197031e-39
2495.27 -1175.15 592.79199 9.2197031e-39
2464.1699 -1148.9 592.16302 9.2197031e-39
-901.70898 1360.525 595.23401 9.2197031e-39
2450.9199 -1196.22 604.43597 9.2197031e-39
-916.80603 1312.806 607.89099 9.2197031e-39
-909.31201 1336.172 601.677 9.2197031e-39
-903.56097 1266.932 615.59601 9.2197031e-39
-911.19702 1289.175 612.05499 9.2197031e-39
-919.85498 1218.146 628.67401 9.2197031e-39
-917.13202 1241.521 623.22498 9.2197031e-39
2461.95 -1341.92 633.89801 9.2197031e-39
-907.90399 1172.084 636.62799 9.2197031e-39
-911.45001 1194.792 632.33002 9.2197031e-39
2351.3501 -1309.62 644.75299 9.2197031e-39
-915.59003 1123.375 648.30499 9.2197031e-39
-910.789 1147.3401 642.396 9.2197031e-39
2454.49 -1424.8101 652.86902 9.2197031e-39
1670.54 -867.09998 659.31897 9.2197031e-39
1630.5699 -831.45996 658.104 9.2197031e-39
1612.52 -784.65002 650.97101 9.2197031e-39
-912.66498 1075.801 658.034 9.2197031e-39
-922.86603 1097.6951 654.97998 9.2197031e-39
-2007.77 1888.67 659.802 9.2197031e-39
1649.52 -856.62 660.453 9.2197031e-39
1568.5601 -820.04004 665.62402 9.2197031e-39
1548.49 -817.57996 668.32202 9.2197031e-39
1590.26 -814.66003 660.98297 9.2197031e-39
-892.461 1031.092 664.37097 9.2197031e-39
-911.73102 1051.248 663.14801 9.2197031e-39
-1975.4301 1852.11 662.44098 9.2197031e-39
2446.8799 -1507.51 671.82001 9.2197031e-39
1504.64 -836.20996 679.36603 9.2197031e-39
1526.41 -824.51001 673.35699 9.2197031e-39
-882.10901 984.81396 672.62799 9.2197031e-39
-896.90002 1005.551 670.56 9.2197031e-39
-2022.58 1824.38 675.96399 9.2197031e-39
-2178.78 1939.39 676.41803 9.2197031e-39
1845.75 -1137.97 689.22601 9.2197031e-39
1464.35 -821.18005 682.62 9.2197031e-39
1443.24 -817.67004 685.26202 9.2197031e-39
1425.33 -799.71997 684.29199 9.2197031e-39
1405.9301 -786.27002 684.52502 9.2197031e-39
1366.36 -772.51001 687.93799 9.2197031e-39
1388.38 -769.02002 683.64801 9.2197031e-39
-870.94897 938.69397 680.72101 9.2197031e-39
-902.41901 955.81799 682.10901 9.2197031e-39
-1696.26 1526.606 687.34698 9.2197031e-39
1479 -868.81995 690.479 9.2197031e-39
1322.99 -779.08997 696.32001 9.2197031e-39
1346.65 -768.35999 690.216 9.2197031e-39
-885.84802 861.18402 699.73297 9.2197031e-39
-900.00098 883.16602 697.29602 9.2197031e-39
-892.64502 908.90601 690.59497 9.2197031e-39
1799.64 -1186.21 706.979 9.2197031e-39
1752.34 -1159.3 708.81299 9.2197031e-39
1775.28 -1157.1899 704.67401 9.2197031e-39
1275.13 -803.84998 709.32098 9.2197031e-39
1301.45 -783.14001 700.65002 9.2197031e-39
-881.34003 838.13 703.95099 9.2197031e-39
1823.85 -1242.4 715.133 9.2197031e-39
1728.35 -1152.37 711.18402 9.2197031e-39
1682.09 -1130.14 713.854 9.2197031e-39
1705.83 -1136.5 711.40198 9.2197031e-39
-897.81299 783.77002 718.25201 9.2197031e-39
-887.65302 810.97998 710.78601 9.2197031e-39
2344.28 -1700.9399 729.77899 9.2197031e-39
-898.84998 757.552 724.03998 9.2197031e-39
2389.04 -1781.8 739.91998 9.2197031e-39
2416.3701 -1773.54 733.75702 9.2197031e-39
2317.6499 -1709.5901 735.914 9.2197031e-39
-915.966 727.75903 733.17798 9.2197031e-39
-964.19702 686.89728 749.69 9.2197031e-39
1880.2 -1458.8899 752.487 9.2197031e-39
-970.271 659.28699 756.586 9.2197031e-39
-997.98199 623.18695 768.77899 9.2197031e-39
1912.75 -1585.8701 774.47498 9.2197031e-39
-930.66901 538.11639 776.19702 9.2197031e-39
-4846.9502 3471.8101 776.78601 9.2197031e-39
2548.96 -2114.3201 785.49902 9.2197031e-39
-933.37097 510.69901 782.50897 9.2197031e-39
-976.99298 549.53882 781.19397 9.2197031e-39
-1044.24 581.6106 785.12799 9.2197031e-39
1182.29 -1124.0601 792.89099 9.2197031e-39
1158.36 -1117.95 795.42603 9.2197031e-39
1113.71 -1097.89 798.302 9.2197031e-39
-1040.47 554.54242 790.32501 9.2197031e-39
-4940.9199 3436.22 799.521 9.2197031e-39
1131.05 -1130.8101 802.573 9.2197031e-39
-4948.6499 3378.22 813.19897 9.2197031e-39
2359.1499 -2152.0901 824.10602 9.2197031e-39
2326.3501 -2146.1499 828.10602 9.2197031e-39
921.05499 -1067.61 822.78003 9.2197031e-39
904.31799 -1043.1 820.21503 9.2197031e-39
692.68903 -923.66003 828.62799 9.2197031e-39
742.74902 -928.20996 821.55603 9.2197031e-39
670.85101 -912.40002 829.724 9.2197031e-39
720.867 -917.38 822.75299 9.2197031e-39
-4948.8599 3315.28 826.72699 9.2197031e-39
2260.99 -2144.3 838.21503 9.2197031e-39
2291.96 -2139.1299 832.12903 9.2197031e-39
615.22198 -917.77002 839.81799 9.2197031e-39
643.64502 -915.48999 834.76099 9.2197031e-39
-4948.7798 3255.53 839.521 9.2197031e-39
2195.6799 -2140.3301 847.86298 9.2197031e-39
2226.55 -2134.74 841.70099 9.2197031e-39
585.60101 -924.63 846.04901 9.2197031e-39
2161.8999 -2134.0801 851.95203 9.2197031e-39
2130.01 -2129.3701 856.06897 9.2197031e-39
527.70801 -930.75 856.66803 9.2197031e-39
557.711 -924.54004 850.51398 9.2197031e-39
-4943.98 3191.8401 852.40198 9.2197031e-39
2066.03 -2132.8999 867.10797 9.2197031e-39
2097.25 -2131.3101 861.75201 9.2197031e-39
467.811 -938.16003 867.883 9.2197031e-39
496.86301 -935.18994 862.57703 9.2197031e-39
444.92001 -926.63 869.091 9.2197031e-39
-4945.6899 3133.05 865.28198 9.2197031e-39
2001.42 -2126.51 876.12598 9.2197031e-39
2032.59 -2125.48 870.89203 9.2197031e-39
1968.17 -2118.52 879.75598 9.2197031e-39
-4952.29 3072.6001 879.30298 9.2197031e-39
-3072.45 1617.9509 888.97803 9.2197031e-39
-3094.4299 1661.52 883.17102 9.2197031e-39
-710.62598 -169.02301 892.422 9.2197031e-39
-3214.8301 1707.35 892.69897 9.2197031e-39
-4945.1699 3012.1399 891.11902 9.2197031e-39
662.73602 -1255.2 904.51801 9.2197031e-39
643.396 -1230.12 902.25098 9.2197031e-39
-3092.5901 1577.4199 900.90503 9.2197031e-39
-4953.5898 2952.3899 905.28101 9.2197031e-39
-1440.04 258.95099 917.92102 9.2197031e-39
-4947.3198 2892.6201 917.08801 9.2197031e-39
654.03302 -1349.09 926.04498 9.2197031e-39
-1503.55 266.74701 926.46002 9.2197031e-39
809.19702 -1498.6499 933.16602 9.2197031e-39
663.33099 -1404.08 936.33899 9.2197031e-39
-4950.7402 2832.1001 930.612 9.2197031e-39
694.13599 -1483.73 948.46399 9.2197031e-39
-951.39099 -226.01001 943.341 9.2197031e-39
-4959.9902 2775.73 944.18298 9.2197031e-39
662.461 -1484.98 953.823 9.2197031e-39
-966.53101 -271.185 955.45898 9.2197031e-39
-4941.8101 2711.5 955.02899 9.2197031e-39
-841.15698 -432.52002 969.89203 9.2197031e-39
-4958.8301 2656.6802 969.51703 9.2197031e-39
-878.83899 -424.69995 974.27197 9.2197031e-39
-1612.11 86.403992 982.57202 9.2197031e-39
-4982.6099 2599.8799 985.51703 9.2197031e-39
-1597.9399 21.382019 994.23297 9.2197031e-39
-1613.13 51.354004 990.24902 9.2197031e-39
128.092 -1324.16 1005.24 9.2197031e-39
-1614.26 -21.025024 1005.95 9.2197031e-39
-4971.3999 2479.8599 1009.44 9.2197031e-39
88.7827 -1331.08 1013.04 9.2197031e-39
57.955799 -1325.9 1016.89 9.2197031e-39
31.412001 -1310.58 1017.87 9.2197031e-39
-1544.83 -98.513977 1011.4 9.2197031e-39
-1593.62 -84.396973 1016.21 9.2197031e-39
-1601.96 -52.643982 1010.75 9.2197031e-39
-4956.9702 2420.4302 1019.87 9.2197031e-39
3.1442499 -1300.73 1020.3 9.2197031e-39
-1565.7 -144.573 1024.63 9.2197031e-39
-427.21399 -1068.65 1039.73 9.2197031e-39
-443.44299 -1039.55 1036.1 9.2197031e-39
-4991.4702 2364.6602 1037.37 9.2197031e-39
-420.49701 -1107.08 1046.89 9.2197031e-39
-1606.03 -203.12 1043.66 9.2197031e-39
834.41302 -2071.72 1051.97 9.2197031e-39
-398.293 -1177.66 1058.45 9.2197031e-39
-410.871 -1145.08 1053.48 9.2197031e-39
-506.242 -1065.62 1051.78 9.2197031e-39
-5436.0498 2611.53 1055.91 9.2197031e-39
796.75098 -2080.9299 1060 9.2197031e-39
765.65198 -2071.5601 1062.99 9.2197031e-39
730.62201 -2069.8201 1068.24 9.2197031e-39
70.637497 -1548.8799 1062.65 9.2197031e-39
-390.10999 -1218.77 1065.95 9.2197031e-39
-573.43103 -1092.64 1068.37 9.2197031e-39
-1644.64 -260.17401 1062.1 9.2197031e-39
-4644.6401 1986.53 1062.6801 9.2197031e-39
661.92401 -2065.8601 1078.4399 9.2197031e-39
696.81097 -2069.1799 1073.54 9.2197031e-39
30.167 -1554.6201 1070.39 9.2197031e-39
-358.63501 -1281.12 1074.25 9.2197031e-39
-378.439 -1253.6801 1071.55 9.2197031e-39
-4497.3799 1814.27 1075.9399 9.2197031e-39
-4581.2202 1871.92 1077.0601 9.2197031e-39
-5175.8101 2329.01 1074.64 9.2197031e-39
536.922 -2016.5801 1087.97 9.2197031e-39
-333.09299 -1353.39 1085.64 9.2197031e-39
-354.26099 -1326.8199 1083.35 9.2197031e-39
-4748.3999 1939.27 1089.49 9.2197031e-39
-319.69601 -1388.3 1090.97 9.2197031e-39
-653.22198 -1133.95 1090.0601 9.2197031e-39
-1546.86 -522.44995 1102.61 9.2197031e-39
-1574.29 -499.30005 1102.0601 9.2197031e-39
-1600.8101 -473.40002 1100.77 9.2197031e-39
-1636.35 -454.5 1102.4301 9.2197031e-39
-1669.34 -431.73999 1102.85 9.2197031e-39
-1704.72 -411.95996 1104.3 9.2197031e-39
-1765.83 -364.06598 1103.85 9.2197031e-39
-1557.03 -570.87 1114.62 9.2197031e-39
-230.601 -1607.55 1123.65 9.2197031e-39
-278.005 -1620.3701 1134.02 9.2197031e-39
-1429 -780.91003 1139.0699 9.2197031e-39
-1435.99 -743.71997 1132.22 9.2197031e-39
-1485.89 -734.31995 1138.23 9.2197031e-39
-810.38202 -1253.42 1140.9301 9.2197031e-39
-355.65201 -1674.22 1158.05 9.2197031e-39
-430.73599 -1602.27 1154.6899 9.2197031e-39
-866.078 -1263.66 1152.08 9.2197031e-39
-422.58801 -1649.3799 1163.48 9.2197031e-39
-1405.76 -897.38 1160.3101 9.2197031e-39
-426.51501 -1718.3301 1178.89 9.2197031e-39
-1446.1801 -972.65002 1182.9399 9.2197031e-39
-1016.93 -1368.4 1198.78 9.2197031e-39
-1450.1 -1023.33 1194.4301 9.2197031e-39
-1456.03 -1074.1 1206.27 9.2197031e-39
-1451.88 -1119.87 1215.42 9.2197031e-39
-1639.13 -1948.6201 1423.1801 9.2197031e-39
-1747.85 -1932.3701 1437.17 9.2197031e-39
-1720.5699 -1966.3101 1440.0699 9.2197031e-39
-1823.78 -1942.1899 1451.48 9.2197031e-39
-1893.03 -1947.24 1463.7 9.2197031e-39
-2111.79 -1775.79 1462.11 9.2197031e-39
-1967.77 -1953.01 1476.95 9.2197031e-39
-2027.0699 -1946.3799 1485.0601 9.2197031e-39
-2093.8899 -1942.47 1494.96 9.2197031e-39
-2157.24 -1937.46 1504.0699 9.2197031e-39
-2232.6399 -1938.72 1516.46 9.2197031e-39
-2359.9099 -1920.7 1533.0601 9.2197031e-39
-3547.29 -1366.02 1605.01 9.2197031e-39
-4584.2202 -1093.89 1713.35 9.2197031e-39
-4674.25 -1065.83 1721.8 9.2197031e-39
