# .PCD v0.7 - Point Cloud Data file format
VERSION 0.7
FIELDS x y z rgb
SIZE 4 4 4 4
TYPE F F F F
COUNT 1 1 1 1
WIDTH 301
HEIGHT 1
VIEWPOINT 0 0 0 1 0 0 0
POINTS 301
DATA ascii
-5010.8301 2197.6201 125.423 9.2197031e-39
1021.44 2459.8799 137.985 9.2197031e-39
1008.28 2463.8599 139.17599 9.2197031e-39
1021.7433 2463.0667 138.83501 9.2197031e-39
1287.22 2464 136.547 9.2197031e-39
1295.1479 2466.5442 137.1528 9.2197031e-39
1297.14 2472.3 138.675 9.2197031e-39
1305.3066 2473.9299 139.033 9.2197031e-39
3258.25 2535.77 136.923 9.2197031e-39
3267.95 2543.02 138.77299 9.2197031e-39
-5000.6899 2281.97 147.914 9.2197031e-39
1005.37 2469.0801 140.60199 9.2197031e-39
998.28101 2475.4502 142.37549 9.2197031e-39
1004.26 2471.855 141.35449 9.2197031e-39
1015.2325 2476.3999 142.4675 9.2197031e-39
1319.25 2479.2 140.312 9.2197031e-39
1014.9914 2483.8113 144.45471 9.2197031e-39
1020.64 2484.1201 144.48199 9.2197031e-39
1295.5261 2485.1079 142.1198 9.2197031e-39
1303.485 2487.5149 142.68851 9.2197031e-39
1006.3667 2496.5466 147.94666 9.2197031e-39
1010.7675 2495.1875 147.54074 9.2197031e-39
1021.22 2498.6201 148.362 9.2197031e-39
1036.12 2497.01 147.78699 9.2197031e-39
1297.22 2492.8101 144.16701 9.2197031e-39
1302.1176 2494.6323 144.60675 9.2197031e-39
1008.1 2500.49 148.987 9.2197031e-39
1016.63 2501.8901 149.2805 9.2197031e-39
1021.42 2504.3501 149.894 9.2197031e-39
1295.9634 2502.9568 146.895 9.2197031e-39
1306.535 2505.1074 147.37 9.2197031e-39
1312.75 2502.8398 146.705 9.2197031e-39
1451.87 2513.5601 148.244 9.2197031e-39
1485.3 2519.6699 149.561 9.2197031e-39
3265.7451 2575.1401 147.3945 9.2197031e-39
-5004.1802 2301.8701 153.276 9.2197031e-39
1014.9 2509.26 151.271 9.2197031e-39
998.62799 2516.6802 153.412 9.2197031e-39
1531.36 2524.1401 150.31799 9.2197031e-39
1574.76 2531.3501 151.832 9.2197031e-39
3264.02 2607.29 156.02 9.2197031e-39
3262.48 2614.05 157.84399 9.2197031e-39
-5010.52 2385.72 175.78999 9.2197031e-39
-5006.6499 2405.75 181.117 9.2197031e-39
-5004.4702 2489.6699 203.567 9.2197031e-39
-5008.2402 2509.6899 208.965 9.2197031e-39
-5004.54 2593.5898 231.395 9.2197031e-39
-4999.96 2613.47 236.675 9.2197031e-39
-5009.73 2697.8101 259.354 9.2197031e-39
-5008.79 2717.8201 264.70099 9.2197031e-39
-5022.0098 2802.78 287.57901 9.2197031e-39
-5028.6802 2823.3 293.13901 9.2197031e-39
273.29401 3182.46 338.62799 9.2197031e-39
3114.3899 3268.1599 334.41699 9.2197031e-39
3117.97 3277.21 336.80499 9.2197031e-39
228.34801 3187.79 340.48401 9.2197031e-39
259.34399 3188.97 340.504 9.2197031e-39
-101.097 3192.3301 344.849 9.2197031e-39
-96.796997 3195.3999 345.63101 9.2197031e-39
230.92599 3190.8 341.267 9.2197031e-39
284.2825 3196.8198 342.36902 9.2197031e-39
-157.411 3201.1399 347.74701 9.2197031e-39
-77.319 3207.25 348.61801 9.2197031e-39
3121.595 3314.5698 346.776 9.2197031e-39
-298.74899 3216.8301 353.29999 9.2197031e-39
-192.758 3215.4299 351.91199 9.2197031e-39
-83.082298 3216.46 351.138 9.2197031e-39
-317.233 3220.3601 354.423 9.2197031e-39
-57.345299 3229.8 354.465 9.2197031e-39
-71.730103 3233.29 355.53799 9.2197031e-39
-35.0919 3239.1899 356.76801 9.2197031e-39
140.39999 3234.6699 353.88 9.2197031e-39
-29.0439 3240.8701 357.159 9.2197031e-39
254.245 3247.5 356.22601 9.2197031e-39
261.43799 3246.51 355.89099 9.2197031e-39
112.635 3250.5601 358.39999 9.2197031e-39
275.28299 3262.1799 359.957 9.2197031e-39
3141.6699 3360.1201 358.78201 9.2197031e-39
-299.543 3243.24 360.379 9.2197031e-39
-289.81799 3244.1499 360.53101 9.2197031e-39
-24.0613 3264.48 363.4335 9.2197031e-39
-4.13835 3277.8201 366.81601 9.2197031e-39
9.1760101 3274.1101 365.69501 9.2197031e-39
38.804298 3276.78 366.12701 9.2197031e-39
49.604198 3274.52 365.418 9.2197031e-39
255.05701 3275.24 363.646 9.2197031e-39
286.55701 3277.5801 363.97198 9.2197031e-39
296.71201 3294.21 368.32901 9.2197031e-39
301.056 3295.6201 368.66501 9.2197031e-39
3161.0801 3376.99 363.11301 9.2197031e-39
3117.1001 3393.575 367.97351 9.2197031e-39
295.62299 3325.4099 376.69299 9.2197031e-39
301.42099 3325.3999 376.63501 9.2197031e-39
288.65201 3364 387.09399 9.2197031e-39
1356.23 3378.1799 380.686 9.2197031e-39
1373.84 3378.49 380.60101 9.2197031e-39
1354.6 3386.3899 382.89899 9.2197031e-39
1371.26 3382.01 381.56799 9.2197031e-39
1389.7 3384.8799 382.159 9.2197031e-39
1392.24 3381.3101 381.17899 9.2197031e-39
1414.61 3397.8101 385.383 9.2197031e-39
3153.96 3449.54 382.60699 9.2197031e-39
3156.7 3459.1299 385.151 9.2197031e-39
270.31299 3389.6399 394.13501 9.2197031e-39
1352.08 3445.9299 398.867 9.2197031e-39
3139.2 3484.8501 392.20401 9.2197031e-39
3068.7 3498.1599 396.44299 9.2197031e-39
3143.52 3495.4299 394.995 9.2197031e-39
3021.3301 3505.95 398.98099 9.2197031e-39
3088.02 3500.5 396.88599 9.2197031e-39
-694.85901 3385.3101 402.203 9.2197031e-39
-725.60498 3393.0701 404.573 9.2197031e-39
329.31 3418.6799 401.34601 9.2197031e-39
336.48801 3416.8899 400.798 9.2197031e-39
348.07349 3434.6001 405.43048 9.2197031e-39
1352.09 3464.6001 403.866 9.2197031e-39
1430.87 3471.6201 404.992 9.2197031e-39
3021.1101 3513.95 401.12601 9.2197031e-39
350.28601 3464.4399 413.39999 9.2197031e-39
349.58401 3472.4299 415.54599 9.2197031e-39
1351.28 3546.1799 425.71899 9.2197031e-39
1352.27 3574.4299 433.27499 9.2197031e-39
1338.88 3596.04 439.19 9.2197031e-39
113.281 3587.97 448.745 9.2197031e-39
3244.75 3680.21 443.50699 9.2197031e-39
3248.1499 3691.52 446.504 9.2197031e-39
3245.96 3729.6599 456.73999 9.2197031e-39
3249.1101 3741.1101 459.77399 9.2197031e-39
1352.6801 3711.3 469.92001 9.2197031e-39
3243.51 3777.9399 469.689 9.2197031e-39
473.763 3717.45 479.97101 9.2197031e-39
768.21503 3718.8799 477.53799 9.2197031e-39
689.94299 3724.6201 479.823 9.2197031e-39
695.70099 3722.49 479.19901 9.2197031e-39
715.91699 3724.1101 479.44 9.2197031e-39
720.66602 3724.6299 479.53299 9.2197031e-39
744.09351 3723.335 478.9635 9.2197031e-39
772.07098 3722 478.336 9.2197031e-39
790.685 3727.1599 479.54001 9.2197031e-39
3247.24 3790.03 472.89301 9.2197031e-39
-1529.3101 3682.5701 489.77899 9.2197031e-39
-1504.27 3681.7 489.306 9.2197031e-39
-1414.36 3683.51 488.93301 9.2197031e-39
-1394.85 3684.51 489.013 9.2197031e-39
450.099 3717.3201 480.16299 9.2197031e-39
441.87799 3721.8 481.439 9.2197031e-39
476.345 3723.1001 481.45901 9.2197031e-39
497.69 3727.1001 482.327 9.2197031e-39
502.138 3729.25 482.858 9.2197031e-39
528.20599 3723.27 481.009 9.2197031e-39
533.06799 3724.4399 481.276 9.2197031e-39
556.45996 3728.5701 482.15698 9.2197031e-39
586.22852 3723.9399 480.63348 9.2197031e-39
612.78503 3725.395 480.76849 9.2197031e-39
641.25403 3727.6399 481.09698 9.2197031e-39
665.51404 3726.79 480.638 9.2197031e-39
794.86603 3729.28 480.06799 9.2197031e-39
633.883 3733.1299 482.638 9.2197031e-39
816.31104 3732.8149 480.81049 9.2197031e-39
3244.23 3839.28 486.10901 9.2197031e-39
3250.6899 3833.6001 484.52701 9.2197031e-39
-1663.1899 3686.0901 492.00201 9.2197031e-39
-1636.14 3685.2 491.504 9.2197031e-39
3245.05 3882.0701 497.55899 9.2197031e-39
1174.88 3828.21 502.927 9.2197031e-39
1199.62 3822.9299 501.27701 9.2197031e-39
1170.1801 3837.9099 505.569 9.2197031e-39
1195.49 3846.23 507.55399 9.2197031e-39
1250.5 3840.0601 505.37701 9.2197031e-39
1276.25 3846.03 506.73001 9.2197031e-39
1246.47 3852.8799 508.84799 9.2197031e-39
1272.1899 3856.03 509.44699 9.2197031e-39
1353.46 3850.72 507.24701 9.2197031e-39
3247.4099 3893.8799 500.70099 9.2197031e-39
811.01501 3864.8401 516.21503 9.2197031e-39
1300.85 3886.6299 517.367 9.2197031e-39
3248.77 3938.21 512.55798 9.2197031e-39
3250.04 3949.5901 515.591 9.2197031e-39
1356.0601 3905.9399 522.01001 9.2197031e-39
3243.9299 3989.6201 526.37097 9.2197031e-39
-163.14 3899.1899 534.72601 9.2197031e-39
38.856499 3908.24 535.216 9.2197031e-39
790.95001 3924.72 532.44202 9.2197031e-39
813.56299 3948.6499 538.63098 9.2197031e-39
3252.8701 4006.98 530.93402 9.2197031e-39
-154.797 3931.74 543.36102 9.2197031e-39
-155.44701 3942.6201 546.28003 9.2197031e-39
811.12 3983.72 548.04797 9.2197031e-39
1233.24 4001.55 548.78601 9.2197031e-39
3250.4199 4050.9199 542.72302 9.2197031e-39
3253.47 4064.3201 546.28198 9.2197031e-39
2.51914 3966.27 551.10498 9.2197031e-39
43.4259 3967.47 551.034 9.2197031e-39
75.341698 3969.02 551.14398 9.2197031e-39
32.344799 3971.6899 552.27002 9.2197031e-39
80.6371 3972.53 552.034 9.2197031e-39
107.963 3979.8501 553.73199 9.2197031e-39
118.783 3975.1899 552.38202 9.2197031e-39
190.07401 3973.29 551.19 9.2197031e-39
146.549 3981.1001 553.69702 9.2197031e-39
151.88499 3984.3799 554.52502 9.2197031e-39
190.19 3984.6699 554.237 9.2197031e-39
217.786 3989.4199 555.24597 9.2197031e-39
265.38699 3983.6499 553.245 9.2197031e-39
223.14999 3992.47 556.01099 9.2197031e-39
250.213 3997.53 557.10699 9.2197031e-39
3106.23 4107.7002 559.30603 9.2197031e-39
3249.8999 4108.6001 558.17297 9.2197031e-39
1230.36 4056.79 563.60498 9.2197031e-39
3037.74 4117.6602 562.62799 9.2197031e-39
3100.47 4114 561.04797 9.2197031e-39
3056.0901 4122.6499 563.78699 9.2197031e-39
3181.8799 4123.8203 562.89801 9.2197031e-39
3202.1599 4129.1499 564.133 9.2197031e-39
3256.49 4125.2197 562.56097 9.2197031e-39
813.65399 4082.95 574.59497 9.2197031e-39
1356.79 4088.8601 570.98499 9.2197031e-39
809.55298 4131.4102 587.61102 9.2197031e-39
1148.29 4156.6602 591.13397 9.2197031e-39
1359.62 4161.4902 590.40503 9.2197031e-39
1339.3101 4209.2002 603.37598 9.2197031e-39
3130.04 4261.6602 600.30499 9.2197031e-39
3147.22 4265.2197 601.09497 9.2197031e-39
811.77502 4252.8203 620.099 9.2197031e-39
3071.26 4334.5098 620.375 9.2197031e-39
3025.6699 4342.1299 622.84998 9.2197031e-39
3099.6001 4349.6396 624.15503 9.2197031e-39
3180.5701 4373.9502 629.89099 9.2197031e-39
3195.1001 4374.8301 629.987 9.2197031e-39
811.26398 4290.04 630.07202 9.2197031e-39
3044.5801 4374.1396 631.24103 9.2197031e-39
3017.72 4414.1499 642.211 9.2197031e-39
3032.6599 4416.6499 642.73999 9.2197031e-39
819.06598 4405.1104 660.81 9.2197031e-39
824.89899 4411.9297 662.58002 9.2197031e-39
2660.5801 4564.79 685.966 9.2197031e-39
2673.6001 4567.8799 686.66699 9.2197031e-39
3049.99 4579.04 686.05701 9.2197031e-39
3048.4399 4591.77 689.48102 9.2197031e-39
3118.5901 4594.4399 689.52502 9.2197031e-39
3132.6699 4595.2998 689.62299 9.2197031e-39
2750.1001 4593.9297 692.91199 9.2197031e-39
2799.02 4595.4297 692.84601 9.2197031e-39
2811.24 4596.3203 692.966 9.2197031e-39
2859.3899 4595.1499 692.19299 9.2197031e-39
2872.3301 4596.52 692.43701 9.2197031e-39
2922.1101 4595.7402 691.75299 9.2197031e-39
2935.1699 4596.8203 691.91602 9.2197031e-39
2984.72 4594.1201 690.71997 9.2197031e-39
2998.53 4595.6396 690.99597 9.2197031e-39
2743.8101 4600.6396 694.77002 9.2197031e-39
2649.05 4613.1499 699.02502 9.2197031e-39
829.84601 4570.0898 704.88501 9.2197031e-39
2641.53 4617.96 700.38501 9.2197031e-39
831.74597 4607.4697 714.875 9.2197031e-39
871.297 4608.8799 714.87701 9.2197031e-39
943.01202 4606.1104 713.448 9.2197031e-39
950.51001 4606.8101 713.56403 9.2197031e-39
1025.2051 4606.1553 712.67401 9.2197031e-39
1064.1851 4608.1401 712.8335 9.2197031e-39
1099.4301 4609.8501 712.95599 9.2197031e-39
1107.16 4600.3896 710.34802 9.2197031e-39
1138.53 4602.8604 710.71002 9.2197031e-39
862.36102 4618.46 717.526 9.2197031e-39
902.83899 4612.6299 715.58002 9.2197031e-39
910.35999 4613.46 715.72998 9.2197031e-39
985.612 4611.6953 714.5365 9.2197031e-39
2640.6101 4684.2803 718.15302 9.2197031e-39
2667.25 4741.27 733.15802 9.2197031e-39
2707.3 5097.8398 828.258 9.2197031e-39
2768.05 5093.0801 826.40198 9.2197031e-39
2782.3201 5096.1802 827.09497 9.2197031e-39
2834.3101 5095.3198 826.36798 9.2197031e-39
2847.6899 5096.4702 826.54797 9.2197031e-39
2721.9399 5102.0601 829.24799 9.2197031e-39
2672.4099 5125.3799 835.966 9.2197031e-39
2676.01 5153.2002 843.38202 9.2197031e-39
2678.79 5251.4399 869.66101 9.2197031e-39
2677.3701 5271.7798 875.12 9.2197031e-39
2678.3601 5373.3101 902.29901 9.2197031e-39
2685.1699 5411.0898 912.349 9.2197031e-39
2682.22 5512.5298 939.54199 9.2197031e-39
2682.78 5540.1201 946.92603 9.2197031e-39
2683.1699 5656.2402 978.01501 9.2197031e-39
2684.8899 5688.4199 986.61499 9.2197031e-39
3235.0901 7544.46 1478.36 9.2197031e-39
3049.3 7554.79 1482.91 9.2197031e-39
3132.6499 7552.2402 1481.4301 9.2197031e-39
3154.6001 7556.7002 1482.41 9.2197031e-39
2951.0901 7569.2202 1487.71 9.2197031e-39
3031.5601 7560.8599 1484.7 9.2197031e-39
2932.98 7574.0498 1489.1801 9.2197031e-39
3268.6699 7576.3599 1486.59 9.2197031e-39
3374.3999 7571.4199 1484.25 9.2197031e-39
3358.52 7583.0098 1487.51 9.2197031e-39
2832.0801 7578.1001 1491.22 9.2197031e-39
2734.1299 7588.6602 1494.99 9.2197031e-39
2751.97 7583.5498 1493.45 9.2197031e-39
2852.9299 7581.8901 1492.04 9.2197031e-39
2635.23 7593.75 1497.3 9.2197031e-39
2654.1699 7592.6899 1496.83 9.2197031e-39
