# .PCD v0.7 - Point Cloud Data file format
VERSION 0.7
FIELDS x y z rgb
SIZE 4 4 4 4
TYPE F F F F
COUNT 1 1 1 1
WIDTH 328
HEIGHT 1
VIEWPOINT 0 0 0 1 0 0 0
POINTS 328
DATA ascii
3213.49 1897.9399 134 9.2197031e-39
3222.01 1913.53 138.644 9.2197031e-39
1377.7 2429.77 136.228 9.2197031e-39
1382.83 2429.8901 136.636 9.2197031e-39
1375.7051 2435.2676 137.49774 9.2197031e-39
1384.73 2434.5649 137.979 9.2197031e-39
1395.28 2437.3799 139.47949 9.2197031e-39
1386.63 2440.55 139.662 9.2197031e-39
1125.71 2508.1201 137.911 9.2197031e-39
1106.41 2518.8501 139.259 9.2197031e-39
1112.6299 2515.5601 138.867 9.2197031e-39
1096.72 2521.6602 139.27 9.2197031e-39
-2003.77 3384.8301 134 9.2197031e-39
3228.47 1929.74 143.29601 9.2197031e-39
3224.1299 1948.77 147.882 9.2197031e-39
1383.8201 2447.6675 141.28925 9.2197031e-39
1395.345 2442.05 140.68851 9.2197031e-39
1406.76 2440.6899 141.177 9.2197031e-39
1377.575 2451.7451 141.88049 9.2197031e-39
1385.87 2455.812 143.53819 9.2197031e-39
1395.6801 2457.8701 144.78999 9.2197031e-39
1361.28 2468.72 145.058 9.2197031e-39
1387.3199 2468.01 146.787 9.2197031e-39
1395.3 2463.1748 146.12823 9.2197031e-39
1401.4551 2465.3101 147.13049 9.2197031e-39
1403.13 2470.22 148.51801 9.2197031e-39
1096.88 2524.47 140.006 9.2197031e-39
1104.3168 2525.3467 140.77867 9.2197031e-39
1117.665 2528.77 142.6425 9.2197031e-39
1121.59 2528.5698 142.87801 9.2197031e-39
1098.755 2531.6799 142.00349 9.2197031e-39
1117.8099 2535.6824 144.43326 9.2197031e-39
1120.23 2532.0801 143.683 9.2197031e-39
1109.52 2543.0698 145.729 9.2197031e-39
1114.4967 2544.4834 146.45801 9.2197031e-39
1105.3734 2555.6731 148.67101 9.2197031e-39
-2281.74 3496.23 142.29201 9.2197031e-39
3284.6201 1951.52 153.032 9.2197031e-39
3293.6499 1967.62 157.84399 9.2197031e-39
1124.08 2561.6499 151.586 9.2197031e-39
1087.51 2572.22 151.623 9.2197031e-39
986.46997 2597.9199 150.826 9.2197031e-39
931.505 2624.3799 153.60699 9.2197031e-39
904.40802 2635.1602 154.395 9.2197031e-39
-2951.3301 3731.6599 153.785 9.2197031e-39
997.54999 2641.3701 162.83701 9.2197031e-39
968.23999 2666.8701 167.256 9.2197031e-39
-3271.6001 3870.4399 166.02699 9.2197031e-39
893.70599 2728.1799 177.58 9.2197031e-39
-1338.26 3362.6799 177.16701 9.2197031e-39
-1648.75 3444.0801 175.341 9.2197031e-39
-3267.0901 3910.8501 176.77 9.2197031e-39
861.672 2758.1399 182.946 9.2197031e-39
-1244.84 3353.5701 181.68201 9.2197031e-39
-1172.39 3350.5701 186.229 9.2197031e-39
-3272.6299 3954.73 187.67101 9.2197031e-39
801.41602 2811.6499 192.31 9.2197031e-39
790.82098 2832.8799 197.00301 9.2197031e-39
765.97601 2846.7 198.742 9.2197031e-39
-1179.64 3376.51 192.379 9.2197031e-39
-1194.0699 3405.52 198.795 9.2197031e-39
756.12903 2868.6599 203.67599 9.2197031e-39
694.138 2929 214.67101 9.2197031e-39
-3272.8 4256.6299 265.45599 9.2197031e-39
338.63 3261.3201 274.198 9.2197031e-39
344.24701 3270.1299 276.88199 9.2197031e-39
346.30099 3282.27 280.16 9.2197031e-39
344.883 3297.8201 284.06299 9.2197031e-39
340.79999 3316.1799 288.496 9.2197031e-39
334.129 3337.4399 293.483 9.2197031e-39
328.47601 3358.1599 298.409 9.2197031e-39
335.73499 3366.4099 301.06799 9.2197031e-39
293.78299 3424.8501 313.04501 9.2197031e-39
3303.8999 2620.48 326.832 9.2197031e-39
276.88199 3459.0701 320.62201 9.2197031e-39
348.52499 3450.74 323.73599 9.2197031e-39
350.76099 3465.51 327.707 9.2197031e-39
3302.0601 2637.99 331.20901 9.2197031e-39
3301.04 2655.5801 335.66699 9.2197031e-39
3010.6101 2735.3701 334.89801 9.2197031e-39
2969.55 2744.1399 334.14099 9.2197031e-39
2937.29 2753.75 334.25 9.2197031e-39
2930.4099 2767.46 337.27701 9.2197031e-39
2898.0601 2776.25 337.16599 9.2197031e-39
3299.8701 2673.1799 340.11401 9.2197031e-39
3298.54 2690.77 344.54999 9.2197031e-39
3298.04 2708.48 349.077 9.2197031e-39
2897.8101 2790.9199 340.92899 9.2197031e-39
2891.6001 2804.3999 343.94601 9.2197031e-39
2879.45 2816.54 346.18301 9.2197031e-39
2876.8999 2830.7 349.64301 9.2197031e-39
3295.3999 2725.95 353.38501 9.2197031e-39
3292.6101 2743.3999 357.677 9.2197031e-39
3271.95 2758.23 359.983 9.2197031e-39
2866.49 2843.03 352.05499 9.2197031e-39
2851.1699 2854.03 353.76599 9.2197031e-39
2838.6699 2865.54 355.814 9.2197031e-39
2832.79 2878.6299 358.75699 9.2197031e-39
2828.72 2892.1799 361.94901 9.2197031e-39
2823.5701 2905.4299 364.98401 9.2197031e-39
2836.3701 2923.8701 370.677 9.2197031e-39
2847.05 2942 376.134 9.2197031e-39
2840.52 2955.1001 379.02802 9.2197031e-39
2843.29 2971.1201 383.36099 9.2197031e-39
2840.26 2985.3899 386.815 9.2197031e-39
1400.23 3397.6101 387.28299 9.2197031e-39
1425.34 3391.8201 387.63501 9.2197031e-39
1384.03 3405.26 388.064 9.2197031e-39
1392.08 3400.99 387.55499 9.2197031e-39
1410.22 3404.6201 389.82401 9.2197031e-39
2845.53 3002.49 391.60901 9.2197031e-39
2851.55 3020.0601 396.57599 9.2197031e-39
1418.91 3403.9399 390.28699 9.2197031e-39
1377.02 3417.1101 390.60501 9.2197031e-39
88.3022 3784.96 390.75101 9.2197031e-39
2888.0701 3048.73 406.64801 9.2197031e-39
1375.71 3473 404.909 9.2197031e-39
464.452 3721.9199 402.13 9.2197031e-39
474.68201 3729.9299 404.94501 9.2197031e-39
505.263 3728.6899 406.87201 9.2197031e-39
520.94202 3726.97 407.58099 9.2197031e-39
489.00299 3731.0801 406.29401 9.2197031e-39
532.23999 3732.8201 409.91699 9.2197031e-39
2938.1001 3083.1799 419.19901 9.2197031e-39
1373.28 3527.99 418.901 9.2197031e-39
632.68201 3729.4199 416.41901 9.2197031e-39
646.508 3728.99 417.323 9.2197031e-39
547.82202 3730.8 410.54199 9.2197031e-39
561.93103 3731.22 411.686 9.2197031e-39
574.18201 3734.98 413.55301 9.2197031e-39
588.23901 3735.1201 414.62399 9.2197031e-39
604.44702 3730.75 414.686 9.2197031e-39
618.37598 3730.6001 415.67001 9.2197031e-39
765.44702 3727.29 425.621 9.2197031e-39
829.68799 3722.8999 429.207 9.2197031e-39
670.414 3735.77 420.82599 9.2197031e-39
684.15802 3734.96 421.62601 9.2197031e-39
695.54797 3739.4199 423.612 9.2197031e-39
711.48401 3732.9399 423.112 9.2197031e-39
725.43103 3730.8201 423.59 9.2197031e-39
736.42902 3735.8401 425.69101 9.2197031e-39
751.34399 3730.73 425.46899 9.2197031e-39
776.77802 3731.0701 427.42499 9.2197031e-39
788.14398 3734.74 429.207 9.2197031e-39
801.45502 3732.78 429.67801 9.2197031e-39
654.987 3740.01 420.785 9.2197031e-39
-232.32001 4013.52 426.10199 9.2197031e-39
1371.87 3600.3201 437.436 9.2197031e-39
1362.62 3611.1899 439.55701 9.2197031e-39
812.52899 3737.1699 431.62299 9.2197031e-39
835.99799 3741.95 434.57901 9.2197031e-39
347.138 3884.8 435.48599 9.2197031e-39
-257.70401 4067.73 438.20599 9.2197031e-39
3081.8799 3154.03 448.01501 9.2197031e-39
-234.07401 4069.8799 440.496 9.2197031e-39
3085.4099 3173.6399 453.327 9.2197031e-39
3085.97 3192.27 458.17099 9.2197031e-39
824.375 3820.7 454.01801 9.2197031e-39
3069.8799 3204.29 460.086 9.2197031e-39
3132.9399 3249.1001 476.26401 9.2197031e-39
815.242 3895.97 472.74301 9.2197031e-39
829.16901 3895.54 473.65399 9.2197031e-39
-254.65401 4209.5801 474.98401 9.2197031e-39
3136.3601 3269.8799 481.871 9.2197031e-39
3141.3501 3291.5801 487.828 9.2197031e-39
1225.21 3818.1899 482.80701 9.2197031e-39
1187.66 3843.1699 486.48801 9.2197031e-39
1200.11 3842.3701 487.19601 9.2197031e-39
1174.5601 3857.4199 489.19699 9.2197031e-39
830.06 3941.95 485.67999 9.2197031e-39
-256.28299 4242.3501 483.30899 9.2197031e-39
1372.3101 3818.3201 493.64499 9.2197031e-39
1212.2 3858.8999 492.34399 9.2197031e-39
1249.85 3850.72 493 9.2197031e-39
1262.6 3865.8501 497.83499 9.2197031e-39
1275.33 3869.25 499.647 9.2197031e-39
829.995 3995.03 499.354 9.2197031e-39
-256.17599 4273.7402 491.40601 9.2197031e-39
1300.75 3869.9199 501.686 9.2197031e-39
1288.0699 3870.6101 500.93201 9.2197031e-39
-257.48499 4307.5601 500.02499 9.2197031e-39
-248.45 4329.1602 506.255 9.2197031e-39
3254.04 3361.74 514.18298 9.2197031e-39
3189.8999 3394.76 517.98297 9.2197031e-39
3161.6699 3401.8701 517.742 9.2197031e-39
1237.17 3946.8401 516.83801 9.2197031e-39
828.90802 4055.76 514.922 9.2197031e-39
-256.79001 4373.2998 517.01703 9.2197031e-39
3276.8899 3393.28 523.98798 9.2197031e-39
3260.0701 3406.8899 526.26099 9.2197031e-39
3171.3 3427.53 525.06 9.2197031e-39
1372.0699 3955.4399 528.961 9.2197031e-39
-256.02499 4406.75 525.69202 9.2197031e-39
3183.25 3454.76 532.95599 9.2197031e-39
3176.54 3472.72 537.09003 9.2197031e-39
3155.78 3483.23 538.27502 9.2197031e-39
3085.6299 3508.78 539.70801 9.2197031e-39
3052.9099 3511.26 537.94098 9.2197031e-39
827.94397 4120.3701 531.50299 9.2197031e-39
18.518801 4371.8799 536.867 9.2197031e-39
-253.582 4438.7402 534.11499 9.2197031e-39
-238.91901 4454.9697 539.375 9.2197031e-39
3152.25 3502.8899 543.08002 9.2197031e-39
3126.1899 3510.1399 543.03497 9.2197031e-39
3038.03 3523.75 540.06799 9.2197031e-39
827.65802 4187 548.65002 9.2197031e-39
-51.229301 4405.6602 540.45203 9.2197031e-39
-24.224199 4401.3701 541.328 9.2197031e-39
-113.559 4424.6899 540.77698 9.2197031e-39
-91.649597 4429.2402 543.55902 9.2197031e-39
-177.492 4442.9902 540.79901 9.2197031e-39
-153.61099 4445.7402 543.26001 9.2197031e-39
-214.78 4458.3398 542.01501 9.2197031e-39
1325.2 4095.23 561.54102 9.2197031e-39
826.36298 4263.2197 568.19501 9.2197031e-39
1371.97 4125.4697 572.76801 9.2197031e-39
3197.8501 3641.52 582.15198 9.2197031e-39
826.617 4338.6104 587.64099 9.2197031e-39
3258.7 3702.47 602.32703 9.2197031e-39
3260.4299 3728.0601 609.04999 9.2197031e-39
826.99103 4419.8101 608.59399 9.2197031e-39
3261.8501 3753.79 615.78497 9.2197031e-39
3265.4199 3781.26 623.12402 9.2197031e-39
3261.3101 3804.01 628.68402 9.2197031e-39
1371.53 4334.25 626.53601 9.2197031e-39
836.28998 4463.9297 620.646 9.2197031e-39
3262.6201 3830.6399 635.64398 9.2197031e-39
3257.96 3853.51 641.19501 9.2197031e-39
3260.25 3881.48 648.57098 9.2197031e-39
3266.1699 3912.46 656.98798 9.2197031e-39
825.78802 4614.9902 658.802 9.2197031e-39
3260.6201 3935.5701 662.53699 9.2197031e-39
845.28101 4617.1201 660.78198 9.2197031e-39
882.88202 4629.5098 666.73499 9.2197031e-39
903.53101 4624.4297 666.94202 9.2197031e-39
923.92798 4620.1201 667.33099 9.2197031e-39
862.78802 4630.5801 665.53497 9.2197031e-39
3268.1499 3968.6399 671.60999 9.2197031e-39
3261.2 3991.3201 676.94598 9.2197031e-39
962.82501 4623.5 671.05798 9.2197031e-39
982.23602 4625.4199 672.979 9.2197031e-39
1001.67 4627.1797 674.85901 9.2197031e-39
1021.11 4628.77 676.69702 9.2197031e-39
1041.29 4622.4697 676.55499 9.2197031e-39
1060.54 4625.6602 678.79102 9.2197031e-39
942.24701 4630.0703 671.23999 9.2197031e-39
3262.52 4020.5801 684.58099 9.2197031e-39
1119.39 4619.7402 681.586 9.2197031e-39
1080.13 4624.8203 680.013 9.2197031e-39
1099.5601 4625.75 681.67902 9.2197031e-39
3259.6201 4046.96 691.16803 9.2197031e-39
3260.98 4077.0901 699.03003 9.2197031e-39
3055.79 4107.25 691.73401 9.2197031e-39
3090.48 4109.0601 694.74701 9.2197031e-39
1371.36 4608.8604 697.28802 9.2197031e-39
3258.9299 4104.8999 706.04498 9.2197031e-39
3145.1599 4127.75 703.57898 9.2197031e-39
3059.97 4140.6899 700.65802 9.2197031e-39
3256.52 4132.7998 713.06 9.2197031e-39
3199.6001 4144.9902 712.021 9.2197031e-39
3251.53 4158.9102 719.42102 9.2197031e-39
1684.92 4595.9502 716.98999 9.2197031e-39
1704.58 4593.6499 717.84003 9.2197031e-39
1725.3199 4595.8799 719.93799 9.2197031e-39
3058.8401 4263.4399 732.20502 9.2197031e-39
3038.1599 4274.9199 733.646 9.2197031e-39
3024.21 4293.1699 737.32397 9.2197031e-39
3026.21 4328.2002 746.49902 9.2197031e-39
3145.74 4316.3101 752.21198 9.2197031e-39
3025.05 4360.5898 754.758 9.2197031e-39
3231.26 4331.8604 762.49902 9.2197031e-39
3215.46 4350.3101 766.09198 9.2197031e-39
3001.8 4404.1201 764.27002 9.2197031e-39
3032.02 4402.3896 766.04199 9.2197031e-39
1784.1801 4758.6699 766.21002 9.2197031e-39
3018.24 4457.77 779.30103 9.2197031e-39
2647.01 4588.3799 785.69299 9.2197031e-39
2669.02 4580.0498 785.164 9.2197031e-39
2712.3999 4602.6699 794.17798 9.2197031e-39
2744.0801 4607.23 797.68103 9.2197031e-39
2773.1299 4607.48 799.87799 9.2197031e-39
2645 4627.3799 795.59698 9.2197031e-39
2804.03 4609.7402 802.73102 9.2197031e-39
2890.02 4604.3604 807.65997 9.2197031e-39
2920.8701 4604.4697 809.953 9.2197031e-39
2833.9399 4610.0898 805.01703 9.2197031e-39
2864.5701 4610.8701 807.466 9.2197031e-39
2640.8301 4664.0703 804.745 9.2197031e-39
3054.29 4573.0098 811.64502 9.2197031e-39
2952.46 4604.98 812.40302 9.2197031e-39
2987.26 4608.8701 815.96301 9.2197031e-39
3019.79 4609.3501 818.47498 9.2197031e-39
3044.96 4600.5303 818.04999 9.2197031e-39
3114.4399 4604.0498 824.06 9.2197031e-39
2669.3899 4754.29 830.09198 9.2197031e-39
2667.73 5109.8398 921.591 9.2197031e-39
2702.9199 5117.5601 926.164 9.2197031e-39
2733.6201 5116.4502 928.13202 9.2197031e-39
2793.3701 5109.9199 930.83801 9.2197031e-39
2764.9099 5115.8599 930.27698 9.2197031e-39
2826.3201 5111.1899 933.58502 9.2197031e-39
2859.4299 5112.1001 936.25 9.2197031e-39
2681.0801 5193.2798 944.07202 9.2197031e-39
2681.0601 5253.96 959.70697 9.2197031e-39
2695.6499 5479.9702 1019.02 9.2197031e-39
2720.95 5604.6299 1053 9.2197031e-39
2733.1899 5706.2598 1080.09 9.2197031e-39
2704.3601 7598.2998 1565.53 9.2197031e-39
2655.5801 7602.9502 1563.14 9.2197031e-39
2755.3701 7600.6299 1569.87 9.2197031e-39
2608.3301 7612.77 1562.2 9.2197031e-39
2568.9299 7653.0698 1569.6899 9.2197031e-39
2903.1201 7585.4502 1576.8101 9.2197031e-39
2804.8501 7596.9302 1572.5601 9.2197031e-39
2853.53 7590.0298 1574.35 9.2197031e-39
2523.1399 7669.6499 1570.6 9.2197031e-39
3102.97 7565.3501 1586.3101 9.2197031e-39
2955.21 7587.75 1581.23 9.2197031e-39
3004.3401 7580.4199 1582.95 9.2197031e-39
3056.72 7581.7598 1587.14 9.2197031e-39
3155.54 7565.7402 1590.27 9.2197031e-39
3208.96 7567.4302 1594.63 9.2197031e-39
3333.8401 7612.2202 1615.34 9.2197031e-39
3387.8401 7611.2998 1619.0699 9.2197031e-39
3287.8301 7632.3901 1617.16 9.2197031e-39
3442.3899 7610.7402 1622.9301 9.2197031e-39
4925.3398 10665.9 2519.1299 9.2197031e-39
4891.2002 10790.2 2548.6499 9.2197031e-39
