# .PCD v0.7 - Point Cloud Data file format
VERSION 0.7
FIELDS x y z rgb
SIZE 4 4 4 4
TYPE F F F F
COUNT 1 1 1 1
WIDTH 330
HEIGHT 1
VIEWPOINT 0 0 0 1 0 0 0
POINTS 330
DATA ascii
-1385.42 -256.98901 -281.04901 1.8403113e-38
-1400.4399 -245.756 -287.72101 1.8403113e-38
-1385.64 -233.08 -284.73599 1.8403113e-38
-1383.47 -218.72099 -286.186 1.8403113e-38
-1378.84 -208.133 -286.255 1.8403113e-38
-1374.53 -193.619 -287.01999 1.8403113e-38
-1364.99 -182.515 -285.54099 1.8403113e-38
-1364.21 -168.743 -287.36401 1.8403113e-38
-1350.7 -157.424 -284.60101 1.8403113e-38
-1355.37 -144.478 -288.104 1.8403113e-38
-1346.42 -133.981 -286.728 1.8403113e-38
-1324.28 -118.45 -281.745 1.8403113e-38
-1328.45 -109.527 -284.474 1.8403113e-38
-1315.5699 -95.329498 -282.354 1.8403113e-38
-1318.63 -86.329597 -284.729 1.8403113e-38
-1309.33 -72.695 -283.70801 1.8403113e-38
-1223.8199 97.960197 -281.18799 1.8403113e-38
-1101.14 371.80399 -281.95901 1.8403113e-38
-1095.1899 382.07999 -281.54099 1.8403113e-38
-1097.4301 391.814 -283.75299 1.8403113e-38
-1092.16 402.37701 -283.60699 1.8403113e-38
-1025.27 525.341 -280.04199 1.8403113e-38
-1030.25 537.68298 -283.55899 1.8403113e-38
-1021.22 546.03998 -281.83099 1.8403113e-38
-1019.51 554.66998 -282.57001 1.8403113e-38
-1013.56 564.82202 -282.13501 1.8403113e-38
-1010.9 572.948 -282.48099 1.8403113e-38
-1008.75 585.54401 -283.67099 1.8403113e-38
-1004.34 592.64697 -283.28699 1.8403113e-38
-995.77197 606.16748 -282.49249 1.8403113e-38
-977.87799 648.185 -282.918 1.8403113e-38
-980.091 664.698 -286.146 1.8403113e-38
-971.39697 668.76202 -283.88199 1.8403113e-38
-965.09698 679.02698 -283.34799 1.8403113e-38
-964.505 689.33197 -284.70901 1.8403113e-38
-956.14099 703.52002 -284.08398 1.8403113e-38
-949.03497 718.83698 -284.04599 1.8403113e-38
-939.41602 721.86499 -281.319 1.8403113e-38
-935.42902 734.32898 -281.883 1.8403113e-38
-937.10498 747.17401 -284.379 1.8403113e-38
-924.78455 758.21301 -281.96802 1.8403113e-38
-921.32397 777.47302 -283.733 1.8403113e-38
-914.93597 783.32599 -282.50299 1.8403113e-38
-847.073 949.92401 -285.21301 1.8403113e-38
-833.30103 968.10999 -283.40201 1.8403113e-38
-826.30902 974.01202 -281.978 1.8403113e-38
-830.50201 1001.44 -287.51199 1.8403113e-38
-818.79102 1001.16 -283.59299 1.8403113e-38
-817.96198 1022.57 -286.55399 1.8403113e-38
-806.216 1022.13 -282.59698 1.8403113e-38
-801.17999 1038.08 -283.341 1.8403113e-38
-798.51801 1050.89 -284.396 1.8403113e-38
-797.27197 1073.26 -287.36401 1.8403113e-38
-788.00201 1076.51 -284.78699 1.8403113e-38
-783.18903 1094.12 -285.854 1.8403113e-38
-781.41302 1109.42 -287.57901 1.8403113e-38
-769.638 1116.46 -284.74399 1.8403113e-38
-767.54199 1131.79 -286.367 1.8403113e-38
-759.922 1146.12 -286.01001 1.8403113e-38
-752.198 1152.36 -284.39499 1.8403113e-38
-744.73901 1167.4399 -284.20499 1.8403113e-38
-741.49103 1181.99 -285.328 1.8403113e-38
-732.70502 1195.36 -284.44101 1.8403113e-38
-728.211 1208.23 -284.897 1.8403113e-38
-720.83301 1224.95 -284.98199 1.8403113e-38
-714.70203 1235.24 -284.50699 1.8403113e-38
-705.62701 1249.34 -283.633 1.8403113e-38
-701.76001 1264.77 -284.685 1.8403113e-38
-694.745 1284.04 -285.27499 1.8403113e-38
-687.63098 1293.37 -284.32999 1.8403113e-38
-679.737 1311.74 -284.491 1.8403113e-38
-673.52802 1323.65 -284.237 1.8403113e-38
-665.90802 1343.76 -284.75201 1.8403113e-38
-658.23901 1352.97 -283.60501 1.8403113e-38
-650.83899 1374.8199 -284.45901 1.8403113e-38
-641.80701 1381.28 -282.44299 1.8403113e-38
-634.22699 1403.99 -283.367 1.8403113e-38
-627.37 1416.6801 -283.01401 1.8403113e-38
-619.83899 1441.2 -284.22699 1.8403113e-38
-612.91803 1454.77 -283.98499 1.8403113e-38
-600.56598 1467.38 -281.80099 1.8403113e-38
-595.81201 1488.22 -283.37701 1.8403113e-38
-587.57501 1514.54 -284.629 1.8403113e-38
-579.84302 1528.01 -284.10501 1.8403113e-38
-567.71802 1544.11 -282.522 1.8403113e-38
-558.78802 1554.71 -281.16699 1.8403113e-38
-549.76398 1582.8 -282.42499 1.8403113e-38
-540.99103 1595.1801 -281.392 1.8403113e-38
-529.91901 1618.54 -281.25601 1.8403113e-38
-521.50702 1633.66 -280.75699 1.8403113e-38
-509.52399 1655.98 -280.16199 1.8403113e-38
-480.90399 1717.7 -280.01401 1.8403113e-38
-1066.4 400.77301 -274.83401 1.8403113e-38
-973.09601 609.94897 -275.556 1.8403113e-38
-813.76801 922.23901 -270.00101 1.8403113e-38
-501.133 1672.92 -279.944 1.8403113e-38
-488.93201 1697.02 -279.547 1.8403113e-38
-468.36401 1743.61 -279.77802 1.8403113e-38
-457.72501 1754.66 -277.92599 1.8403113e-38
-443.52301 1775.64 -276.39401 1.8403113e-38
-435.11899 1800 -277.29401 1.8403113e-38
-422.12799 1831.4301 -277.742 1.8403113e-38
-413.15399 1856.7 -278.59 1.8403113e-38
-397.418 1877.38 -276.50601 1.8403113e-38
-387.151 1898.6899 -276.328 1.8403113e-38
-372.29999 1929.85 -276.12 1.8403113e-38
-361.50201 1952.03 -275.896 1.8403113e-38
-344.42401 1973.29 -273.45499 1.8403113e-38
-333.125 1996.3101 -273.19199 1.8403113e-38
-318.05801 2041.76 -275.07401 1.8403113e-38
-306.151 2066.6101 -274.888 1.8403113e-38
-288.216 2096.25 -273.42899 1.8403113e-38
-276.24899 2128.8 -274.38599 1.8403113e-38
-257.50101 2161.1499 -273.06799 1.8403113e-38
-245.136 2201.4199 -275.06 1.8403113e-38
-224.95599 2229.6001 -272.63699 1.8403113e-38
-211.218 2264.79 -273.40799 1.8403113e-38
-190.819 2311.4099 -273.69901 1.8403113e-38
-175.746 2340.51 -273.10699 1.8403113e-38
-153.63699 2377.96 -271.44699 1.8403113e-38
-137.905 2419.6799 -272.543 1.8403113e-38
-114.461 2458.78 -270.69 1.8403113e-38
-97.511597 2503.23 -271.797 1.8403113e-38
-54.381699 2587.1599 -270.20099 1.8403113e-38
-1175.25 82.035797 -262.70099 1.8403113e-38
-1183.1801 102.812 -268.466 1.8403113e-38
-992.08099 493.87 -264.297 1.8403113e-38
-72.623802 2543.95 -269.70999 1.8403113e-38
-28.051701 2626.48 -267.42599 1.8403113e-38
-8.6910601 2664.45 -266.754 1.8403113e-38
19.6602 2719.1599 -265.63699 1.8403113e-38
41.399899 2780.5601 -267.71799 1.8403113e-38
71.946701 2837.76 -266.24899 1.8403113e-38
95.073799 2891.8601 -266.76801 1.8403113e-38
128.66901 2962.3601 -266.30099 1.8403113e-38
153.39 3014.0701 -265.92999 1.8403113e-38
189.61501 3086.9199 -264.94699 1.8403113e-38
217.886 3156.95 -266.17001 1.8403113e-38
255.657 3219.22 -263.07599 1.8403113e-38
286.12201 3289.7 -263.64099 1.8403113e-38
328.561 3369.96 -261.72 1.8403113e-38
363.18799 3454.6299 -263.05099 1.8403113e-38
408.86499 3535.98 -260.22299 1.8403113e-38
446.496 3622.8899 -260.89899 1.8403113e-38
-1294.77 -248.252 -252.354 1.8403113e-38
-1146.8 110.868 -257.638 1.8403113e-38
593.65997 3905.98 -254.959 1.8403113e-38
641.94202 4019.6499 -256.15201 1.8403113e-38
701.565 4120.21 -251.61 1.8403113e-38
753.63599 4234.77 -251.68401 1.8403113e-38
-1184.89 -57.043098 -244.871 1.8403113e-38
815.45099 4326.1299 -245.02499 1.8403113e-38
-1091.16 68.057701 -232.746 1.8403113e-38
460.39099 3483.0601 -235.164 1.8403113e-38
835.03003 4273.8999 -230.647 1.8403113e-38
-1073.35 56.261902 -225.06599 1.8403113e-38
-1052.67 108.396 -226.09801 1.8403113e-38
-926.06799 353.85501 -221.278 1.8403113e-38
-780.51801 669.94202 -220.86 1.8403113e-38
-735.716 780.703 -222.76601 1.8403113e-38
-742.66803 801.28998 -228.179 1.8403113e-38
475.616 3426.96 -221.645 1.8403113e-38
-1011.71 113.848 -213.36099 1.8403113e-38
-995.52802 135.838 -211.326 1.8403113e-38
-986.78802 151.463 -210.793 1.8403113e-38
-897.42902 349.07599 -211.073 1.8403113e-38
-889.07703 363.224 -210.446 1.8403113e-38
-875.93701 393.095 -210.61 1.8403113e-38
-876.57501 422.81299 -215.313 1.8403113e-38
-840.62097 526.98401 -219.153 1.8403113e-38
-836.56897 536.315 -219.222 1.8403113e-38
-768.20001 668.04797 -216.495 1.8403113e-38
-763.27197 677.58197 -216.304 1.8403113e-38
-755.01001 679.48199 -213.855 1.8403113e-38
-747.97498 686.86603 -212.642 1.8403113e-38
-724.66199 750.90997 -214.603 1.8403113e-38
871.71002 4244.46 -214.05299 1.8403113e-38
-1026.74 46.4897 -208.157 1.8403113e-38
-998.41101 119.228 -209.77 1.8403113e-38
-990.21198 128.03799 -208.386 1.8403113e-38
-986.25702 144.354 -209.543 1.8403113e-38
-970.89801 158.58701 -206.60899 1.8403113e-38
-962.06201 163.87801 -204.483 1.8403113e-38
-946.11902 170.489 -200.203 1.8403113e-38
-884.12299 353.63199 -207.356 1.8403113e-38
-875.71698 367.52301 -206.672 1.8403113e-38
-864.13 397.78 -207.409 1.8403113e-38
-866.08099 406.35101 -209.351 1.8403113e-38
-731.91101 680.31897 -206.334 1.8403113e-38
-721.664 683.97498 -203.493 1.8403113e-38
-713.49402 685.43903 -201.00999 1.8403113e-38
-708.89899 705.80499 -202.56599 1.8403113e-38
-715.23297 728.56097 -208.103 1.8403113e-38
902.64301 4246.3198 -204.092 1.8403113e-38
-1012.34 -34.762451 -191.108 1.8403113e-38
-996.86798 -4.63236 -190.539 1.8403113e-38
-994.67102 2.1914501 -190.842 1.8403113e-38
-997.96198 11.891 -193.39799 1.8403113e-38
-989.013 18.556999 -191.44299 1.8403113e-38
-1002.56 28.598499 -197.44701 1.8403113e-38
-1002.03 35.480099 -198.311 1.8403113e-38
-878.41803 283.056 -194.8 1.8403113e-38
-706.42297 692.38202 -199.718 1.8403113e-38
947.17603 4251.1201 -190.073 1.8403113e-38
-1001.2 -21.218201 -189.465 1.8403113e-38
-999.11102 -14.3325 -189.815 1.8403113e-38
-822.84003 349.67899 -186.468 1.8403113e-38
-784.41998 340.67599 -172.386 1.8403113e-38
974.36499 4236.8999 -178.92101 1.8403113e-38
1032.88 4293.9902 -168.174 1.8403113e-38
1082.49 4362.0698 -162.037 1.8403113e-38
1169.86 4512.98 -155.91901 1.8403113e-38
-770.16699 175.14101 -142.64799 1.8403113e-38
-761.42499 178.38499 -140.244 1.8403113e-38
-762.94098 186.629 -141.991 1.8403113e-38
-766.828 193.30499 -144.287 1.8403113e-38
-752.56403 216.091 -143.008 1.8403113e-38
-751.86798 223.853 -143.951 1.8403113e-38
-762.508 233.22 -148.89 1.8403113e-38
-893.17102 -174.237 -130.57001 1.8403113e-38
-772.55652 145.22501 -138.91699 1.8403113e-38
-758.91302 151.47301 -135.34399 1.8403113e-38
-765.0885 163.3175 -139.1795 1.8403113e-38
-742.13306 196.6575 -136.61749 1.8403113e-38
-743.51501 207.606 -138.73 1.8403113e-38
-875.34601 -176.43201 -124.336 1.8403113e-38
-835.59497 -175.674 -111.289 1.8403113e-38
-798.17603 -172.355 -99.400902 1.8403113e-38
954.56201 3645.79 -96.136299 1.8403113e-38
-769.74701 -172.935 -89.900101 1.8403113e-38
-754.79401 -174.328 -84.738701 1.8403113e-38
1028.24 3765.46 -89.828697 1.8403113e-38
-730.14001 -174.97501 -76.477898 1.8403113e-38
-715.21301 -175.81799 -71.407997 1.8403113e-38
1033.3199 3690.3701 -76.797997 1.8403113e-38
-686.91699 -174.543 -62.2318 1.8403113e-38
1066.6 3672.3501 -63.053101 1.8403113e-38
-673.88397 -175.366 -57.791801 1.8403113e-38
1085.24 3644.8201 -52.722801 1.8403113e-38
-641.49152 -174.06799 -47.262901 1.8403113e-38
1129.29 3660.3899 -40.490002 1.8403113e-38
1464.91 4424.21 -44.810101 1.8403113e-38
-600.11902 -183.017 -32.2117 1.8403113e-38
-615.63702 -174 -38.7127 1.8403113e-38
-600.86298 -173.237 -33.9361 1.8403113e-38
-594.81403 -176.992 -31.3659 1.8403113e-38
1153.61 3650.46 -30.9363 1.8403113e-38
-572.20697 -178.603 -23.636801 1.8403113e-38
1368.7 4062.0601 -21.927601 1.8403113e-38
-561.40601 -184.03 -19.2404 1.8403113e-38
-553.96997 -184.99699 -16.6322 1.8403113e-38
-534.72754 -184.491 -10.33735 1.8403113e-38
-554.81097 -175.993 -18.2715 1.8403113e-38
-510.70401 -193.728 -0.98715699 1.8403113e-38
-523.02551 -188.5105 -5.8552799 1.8403113e-38
-505.69299 -187.81599 -0.221128 1.8403113e-38
-495.61749 -193.564 3.9835551 1.8403113e-38
-480.25201 -196.325 9.4883099 1.8403113e-38
-477.10501 -191.289 9.7692804 1.8403113e-38
1291.65 3734.1699 2.1171501 1.8403113e-38
-464.87201 -195.047 14.3877 1.8403113e-38
-453.02499 -195.22501 18.337299 1.8403113e-38
1295.17 3666.95 13.4406 1.8403113e-38
-432.88199 -203.117 26.1994 1.8403113e-38
-444.47101 -196.2195 21.319599 1.8403113e-38
-435.06851 -198.79349 24.821949 1.8403113e-38
1339.1801 3676.1101 26.628401 1.8403113e-38
-408.06201 -201.8085 34.21965 1.8403113e-38
-393.35999 -205.724 39.679401 1.8403113e-38
-413.64551 -197.69299 31.748901 1.8403113e-38
-391.58701 -197.119 38.965801 1.8403113e-38
1361.23 3659.0701 36.505798 1.8403113e-38
-386.34998 -254.282 49.33955 1.8403113e-38
-383.88232 -241.74333 48.261463 1.8403113e-38
-384.8905 -232.2345 46.490398 1.8403113e-38
-382.22601 -222.25049 45.8638 1.8403113e-38
-385.27451 -216.79001 44.028954 1.8403113e-38
-392.026 -207.933 40.4548 1.8403113e-38
-385.414 -209.287 42.848747 1.8403113e-38
-388.677 -198.231 40.097599 1.8403113e-38
-384.47501 -316.32001 59.336601 1.8403113e-38
-381.86548 -306.2175 58.673897 1.8403113e-38
-382.53101 -293.97501 56.603298 1.8403113e-38
-379.07199 -296.22699 58.088902 1.8403113e-38
-378.74249 -283.41302 56.26115 1.8403113e-38
-381.922 -279.84201 54.6689 1.8403113e-38
-377.30099 -270.06299 54.7206 1.8403113e-38
-380.82001 -264.35001 52.692101 1.8403113e-38
-377.61899 -266.63699 54.097599 1.8403113e-38
-382.74399 -257.27701 50.986 1.8403113e-38
-379.603 -259.60101 52.377399 1.8403113e-38
1393.79 3638.6699 50.368801 1.8403113e-38
1536.35 3912.0901 56.247898 1.8403113e-38
-382.14648 -374.94101 68.967804 1.8403113e-38
-378.34399 -361.24301 68.156502 1.8403113e-38
-382.302 -356.51001 66.130753 1.8403113e-38
-381.56351 -343.83948 64.460052 1.8403113e-38
-380.04501 -333.073 63.335701 1.8403113e-38
-377.84698 -322.82648 62.514702 1.8403113e-38
-380.82101 -318.55701 60.884701 1.8403113e-38
-387.27252 -446.13849 78.031403 1.8403113e-38
-387.909 -434.69199 76.090599 1.8403113e-38
-386.83099 -426.849 75.262199 1.8403113e-38
-385.09698 -415.73001 74.155899 1.8403113e-38
-380.88199 -403.92401 73.767097 1.8403113e-38
-381.41699 -390.90701 71.622398 1.8403113e-38
-379.38501 -393.76199 72.726799 1.8403113e-38
-380.27899 -381.61899 70.595398 1.8403113e-38
1528.39 3789.75 72.103798 1.8403113e-38
-389.715 -525.16803 89.167297 1.8403113e-38
-387.73901 -513.56403 88.067703 1.8403113e-38
-389.065 -504.591 86.272598 1.8403113e-38
-388.33801 -495.64899 85.161697 1.8403113e-38
-387.82001 -484.17001 83.598297 1.8403113e-38
-386.841 -475.30099 82.582001 1.8403113e-38
-387.06 -465.603 81.043701 1.8403113e-38
-385.84201 -456.806 80.117203 1.8403113e-38
1504.24 3664.1299 83.092598 1.8403113e-38
-400.698 -612.63599 98.750702 1.8403113e-38
-400.71399 -602.48999 97.211899 1.8403113e-38
-395.81549 -574.50854 94.604645 1.8403113e-38
-389.28201 -545.00598 92.3088 1.8403113e-38
-388.08801 -534.19397 91.070297 1.8403113e-38
1475.39 3505.3401 97.541199 1.8403113e-38
-498.66101 -898.414 109.507 1.8403113e-38
-410.056 -686 106.74 1.8403113e-38
-406.55399 -666.64099 104.974 1.8403113e-38
-405.94 -649.164 102.536 1.8403113e-38
-402.34799 -630.85797 100.958 1.8403113e-38
1451.55 3389.96 107.085 1.8403113e-38
