# .PCD v0.7 - Point Cloud Data file format
VERSION 0.7
FIELDS x y z rgb
SIZE 4 4 4 4
TYPE F F F F
COUNT 1 1 1 1
WIDTH 360
HEIGHT 1
VIEWPOINT 0 0 0 1 0 0 0
POINTS 360
DATA ascii
698.10901 2084.3201 -281.34399 1.8403113e-38
669.23199 2096.8701 -281.621 1.8403113e-38
619.14301 2114.1599 -280.58701 1.8403113e-38
599.45203 2129.5601 -283.08099 1.8403113e-38
610.021 2127.53 -283.84299 1.8403113e-38
558.00299 2137.6799 -280.14001 1.8403113e-38
568.70099 2136.9399 -281.35599 1.8403113e-38
589.573 2135.23 -283.64099 1.8403113e-38
579.17297 2142.77 -284.75601 1.8403113e-38
526.90002 2156.3701 -282.17899 1.8403113e-38
537.20502 2151.1699 -281.84 1.8403113e-38
548.03802 2151.55 -283.452 1.8403113e-38
505.45401 2169.3601 -283.62299 1.8403113e-38
515.96503 2163.3899 -283.04901 1.8403113e-38
472.617 2179.2 -282.439 1.8403113e-38
450.48801 2187.51 -282.20999 1.8403113e-38
483.638 2180.1201 -284.26001 1.8403113e-38
494.009 2185.7 -287.56201 1.8403113e-38
461.02701 2198.1001 -287.22601 1.8403113e-38
427.436 2203.04 -284.28699 1.8403113e-38
438.48801 2206.23 -286.87799 1.8403113e-38
358.78101 2219.8301 -280.543 1.8403113e-38
393.30301 2214.72 -283.55099 1.8403113e-38
415.92899 2211.1399 -285.44299 1.8403113e-38
369.81201 2223.6001 -283.32401 1.8403113e-38
380.92599 2222.5 -284.478 1.8403113e-38
403.53799 2221.02 -287.07501 1.8403113e-38
345.57199 2234.8999 -283.814 1.8403113e-38
332.57001 2243.2 -284.82901 1.8403113e-38
295.83099 2256.23 -284.19 1.8403113e-38
269.77399 2269.04 -284.94 1.8403113e-38
306.32199 2261.3799 -287.36401 1.8403113e-38
318.40302 2260.8601 -288.84299 1.8403113e-38
257.17001 2271.01 -283.87799 1.8403113e-38
280.30301 2274.3899 -288.18701 1.8403113e-38
219.09399 2281.1201 -282.069 1.8403113e-38
230.44299 2283.1201 -284.29901 1.8403113e-38
242.17999 2286.0601 -286.897 1.8403113e-38
202.3 2298.46 -285.61499 1.8403113e-38
162.213 2309.8899 -283.97501 1.8403113e-38
175.799 2304.9199 -284.16299 1.8403113e-38
187.929 2307.3899 -286.655 1.8403113e-38
146.871 2318.29 -284.707 1.8403113e-38
117.959 2329.27 -284.44699 1.8403113e-38
133.319 2322.0801 -284.12601 1.8403113e-38
103.33 2335.55 -284.55899 1.8403113e-38
88.274597 2340.6101 -284.20401 1.8403113e-38
57.781502 2352.29 -283.96399 1.8403113e-38
72.160797 2350.26 -285.24899 1.8403113e-38
26.443001 2364.28 -283.71201 1.8403113e-38
41.670601 2360.72 -284.599 1.8403113e-38
-5.4271898 2375.6499 -283.17801 1.8403113e-38
8.3231096 2376.9199 -285.48999 1.8403113e-38
-23.927099 2387.9399 -284.78601 1.8403113e-38
-41.1007 2394.4399 -284.62701 1.8403113e-38
-57.805801 2400.99 -284.54501 1.8403113e-38
-93.053398 2415.1201 -284.48099 1.8403113e-38
-77.184998 2411.6001 -285.46701 1.8403113e-38
-128.535 2427.6399 -283.84 1.8403113e-38
-110.835 2420.9099 -283.99701 1.8403113e-38
-164.185 2438.54 -282.63101 1.8403113e-38
-149.08501 2438.3301 -284.629 1.8403113e-38
-183.819 2446.1899 -282.522 1.8403113e-38
-204.73801 2457.3899 -283.42899 1.8403113e-38
-241.60899 2466.71 -281.522 1.8403113e-38
-226.09599 2467.2 -283.811 1.8403113e-38
-264.23401 2477.8101 -282.16199 1.8403113e-38
-287.38901 2490.6599 -283.323 1.8403113e-38
-327.935 2502.52 -281.767 1.8403113e-38
-311.948 2503.78 -284.38199 1.8403113e-38
-352.44699 2514.28 -282.375 1.8403113e-38
-374.56699 2522.74 -282.19501 1.8403113e-38
-423.14499 2543.55 -282.55499 1.8403113e-38
-404.625 2542.3101 -284.67499 1.8403113e-38
-446.577 2550.8501 -281.80801 1.8403113e-38
-496.00299 2569.1399 -281.20099 1.8403113e-38
-471.099 2560.74 -281.78201 1.8403113e-38
-526.92902 2587.4299 -283.133 1.8403113e-38
-553.44598 2596.8201 -282.66299 1.8403113e-38
-578.94299 2605.5 -282.09601 1.8403113e-38
-605.92297 2614.25 -281.35101 1.8403113e-38
-636.98401 2629.51 -282.242 1.8403113e-38
-693.22101 2648.1599 -280.82199 1.8403113e-38
-667.36102 2641.55 -282.13901 1.8403113e-38
-730.039 2667.3301 -282.241 1.8403113e-38
-761.763 2680.27 -282.25699 1.8403113e-38
-794.52197 2692.3101 -281.828 1.8403113e-38
-824.39398 2701.3701 -280.79099 1.8403113e-38
-860.81201 2716.4299 -280.88 1.8403113e-38
-899.33801 2734.6201 -281.73199 1.8403113e-38
-936.492 2748.71 -281.39499 1.8403113e-38
-977.05902 2767.4099 -282.14301 1.8403113e-38
-1016.87 2782.75 -281.85901 1.8403113e-38
-1052.37 2793.73 -280.69699 1.8403113e-38
-1095.51 2811 -280.60699 1.8403113e-38
-1139.61 2829.79 -280.90201 1.8403113e-38
-1183.58 2845.8899 -280.30499 1.8403113e-38
-1228.5 2863.52 -280.09399 1.8403113e-38
-1962.3199 3161.6299 -280.064 1.8403113e-38
2632.79 1265.9 -270.47501 1.8403113e-38
2601.0901 1280.12 -270.927 1.8403113e-38
2573.3799 1293.5601 -271.66101 1.8403113e-38
2541.55 1306.8 -271.76599 1.8403113e-38
2507.8999 1318.4 -271.06699 1.8403113e-38
2472.0901 1329.96 -270.05701 1.8403113e-38
2427.5901 1355.6801 -272.633 1.8403113e-38
2371.3 1377.6801 -272.33499 1.8403113e-38
2419.76 1370.51 -276.561 1.8403113e-38
2285.8 1406.8199 -270.448 1.8403113e-38
2242.5601 1427.8199 -271.603 1.8403113e-38
2214.1499 1436.46 -270.62299 1.8403113e-38
2166.97 1454.35 -270.19199 1.8403113e-38
2123.47 1471.95 -270.16599 1.8403113e-38
2083.6101 1489.45 -270.604 1.8403113e-38
2103.6699 1480.52 -270.34201 1.8403113e-38
2044.59 1506.1 -270.87201 1.8403113e-38
1803.4301 1606.7 -271.74899 1.8403113e-38
1788.8 1613.04 -271.883 1.8403113e-38
1762.65 1627.4399 -273.15302 1.8403113e-38
1781.62 1623.61 -274.46301 1.8403113e-38
1749.38 1634.64 -273.76501 1.8403113e-38
1721.39 1647.12 -274.13599 1.8403113e-38
1734.6899 1640.26 -273.64801 1.8403113e-38
1714.26 1656.58 -276.35101 1.8403113e-38
1684.49 1667.13 -275.82999 1.8403113e-38
1700.05 1662.6801 -276.45901 1.8403113e-38
1656.39 1677.9 -275.61099 1.8403113e-38
1671.1 1673.34 -276.08801 1.8403113e-38
1625.86 1686.42 -274.30099 1.8403113e-38
1651.15 1688.8 -278.56799 1.8403113e-38
1611.67 1691.39 -274.03101 1.8403113e-38
1590.8 1705.12 -275.80099 1.8403113e-38
1605.83 1700.97 -276.46201 1.8403113e-38
1547.33 1716.0601 -273.535 1.8403113e-38
1564.3101 1714.5601 -275.35501 1.8403113e-38
1581.6801 1712.39 -277.004 1.8403113e-38
1527.09 1728.99 -275.121 1.8403113e-38
1540.16 1725.03 -275.57599 1.8403113e-38
1512.92 1732.64 -274.41101 1.8403113e-38
1407.02 1771.97 -273.16101 1.8403113e-38
1378.02 1788.95 -274.91101 1.8403113e-38
1392.04 1787.12 -276.215 1.8403113e-38
1402.91 1782.9399 -276.297 1.8403113e-38
1343.0601 1798.6899 -273.40799 1.8403113e-38
1365.1 1790.9 -273.79999 1.8403113e-38
1322.35 1807.36 -273.49399 1.8403113e-38
1335.87 1806.62 -275.09299 1.8403113e-38
1365.48 1806.26 -279.03 1.8403113e-38
1301.61 1815.6 -273.42899 1.8403113e-38
1317.04 1817.17 -276.07401 1.8403113e-38
1257.55 1827.9399 -271.55099 1.8403113e-38
1267.73 1824.48 -271.78201 1.8403113e-38
1285.29 1828.3101 -275.478 1.8403113e-38
1294.89 1823.89 -275.30399 1.8403113e-38
1225.64 1837.55 -270.42099 1.8403113e-38
1234.98 1832.67 -270.05499 1.8403113e-38
1247.61 1832.3101 -271.664 1.8403113e-38
1209.04 1848.97 -271.996 1.8403113e-38
1217.27 1842.78 -271.03601 1.8403113e-38
1189.39 1856.36 -271.79501 1.8403113e-38
1158.39 1864.3 -270.224 1.8403113e-38
1172.5 1867.16 -273.12299 1.8403113e-38
1141.95 1875.34 -271.69601 1.8403113e-38
1150.54 1870.76 -271.327 1.8403113e-38
1113.12 1886.03 -271.34698 1.8403113e-38
1126.9 1888.47 -274.05899 1.8403113e-38
1133.46 1880.9 -272.405 1.8403113e-38
1096.8199 1897.12 -272.85699 1.8403113e-38
1104.95 1891.08 -271.93301 1.8403113e-38
1044.75 1914.97 -271.73849 1.8403113e-38
1011.09 1924.12 -270.21301 1.8403113e-38
1031.03 1920.1801 -271.61499 1.8403113e-38
984.30798 1936.2 -270.617 1.8403113e-38
994.52197 1934.4301 -271.418 1.8403113e-38
958.08197 1948.27 -271.09201 1.8403113e-38
967.89398 1946.9399 -271.98901 1.8403113e-38
976.94897 1942.78 -271.82501 1.8403113e-38
949.73798 1954 -271.88 1.8403113e-38
931.487 1960.74 -271.65399 1.8403113e-38
943.25 1962.9301 -274.00299 1.8403113e-38
895.70697 1975.95 -271.88 1.8403113e-38
907.711 1979.41 -274.689 1.8403113e-38
915.91101 1974.17 -274.048 1.8403113e-38
925.203 1970.4399 -274.06201 1.8403113e-38
877.466 1982.6801 -271.64801 1.8403113e-38
888.75299 1984.5699 -273.832 1.8403113e-38
860.89697 1994.45 -273.34799 1.8403113e-38
873.10498 1999.1801 -276.616 1.8403113e-38
824.23297 2008.26 -272.98001 1.8403113e-38
842.63 2001.5 -273.22299 1.8403113e-38
855.32599 2008.23 -277.229 1.8403113e-38
816.62299 2016.4301 -274.694 1.8403113e-38
798.19098 2023.6801 -274.612 1.8403113e-38
807.19299 2020.16 -274.65799 1.8403113e-38
838.70697 2021.5 -279.42599 1.8403113e-38
781.604 2038.86 -277.45901 1.8403113e-38
790.75299 2035.47 -277.56699 1.8403113e-38
771.73297 2041.39 -276.95801 1.8403113e-38
734.44897 2057.8501 -277.401 1.8403113e-38
744.27399 2054.72 -277.689 1.8403113e-38
753.58502 2051.6101 -277.91699 1.8403113e-38
763.75098 2050.1499 -278.81799 1.8403113e-38
716.15399 2069.3601 -278.77301 1.8403113e-38
726.09698 2066.3701 -279.12701 1.8403113e-38
706.66602 2072.1699 -278.422 1.8403113e-38
677.302 2082.2 -277.77899 1.8403113e-38
687.93201 2083.26 -279.59399 1.8403113e-38
648.375 2094.26 -277.88101 1.8403113e-38
658.31299 2093.77 -279.07999 1.8403113e-38
628.96301 2105.3899 -278.97299 1.8403113e-38
638.883 2104.1201 -279.905 1.8403113e-38
-1272.58 2877.71 -278.83899 1.8403113e-38
-1323.8 2899.8301 -279.27899 1.8403113e-38
-1367.29 2911.3701 -277.21301 1.8403113e-38
-1424.3199 2937.05 -278.05801 1.8403113e-38
-1482.75 2961.1699 -278.18399 1.8403113e-38
-1540.88 2985.27 -278.345 1.8403113e-38
-1597.52 3005.02 -277.24301 1.8403113e-38
-1640.7 3012.6699 -273.90701 1.8403113e-38
-1716.5 3047.6799 -275.32599 1.8403113e-38
-1879.14 3123.8401 -278.72198 1.8403113e-38
-2027.59 3180.4299 -277.461 1.8403113e-38
-2096.98 3203.1799 -275.62299 1.8403113e-38
-2462.3 3345.5 -273.55801 1.8403113e-38
2844.74 1155.49 -262.28699 1.8403113e-38
2823.6799 1172.96 -265.29501 1.8403113e-38
2808.26 1191.5699 -269.45599 1.8403113e-38
2763.3701 1206.23 -268.24799 1.8403113e-38
2725.1399 1221.79 -268.258 1.8403113e-38
2689.9199 1236.17 -268.27899 1.8403113e-38
2661.3201 1251.7 -269.59601 1.8403113e-38
2442.24 1341.2 -269.75601 1.8403113e-38
2326.9299 1384.13 -268.431 1.8403113e-38
2307.24 1396.21 -269.80801 1.8403113e-38
2258.3899 1416.45 -269.94 1.8403113e-38
2188.8 1444.72 -269.93799 1.8403113e-38
2139.73 1461.35 -268.819 1.8403113e-38
2061 1496.53 -269.89499 1.8403113e-38
2019.21 1511.62 -269.25601 1.8403113e-38
1780.72 1582 -260.30899 1.8403113e-38
1436.45 1727.9 -262.332 1.8403113e-38
1451.09 1725.73 -263.608 1.8403113e-38
1490.02 1728.76 -269.96201 1.8403113e-38
1415.67 1738.01 -262.89401 1.8403113e-38
1423.67 1730.7 -261.526 1.8403113e-38
1417.39 1752.89 -268.147 1.8403113e-38
1409.2 1760.14 -269.46899 1.8403113e-38
1195.9301 1848.11 -269.90799 1.8403113e-38
1174.64 1852.99 -268.63699 1.8403113e-38
1074 1897.5 -269.85501 1.8403113e-38
1083.12 1893.24 -269.67099 1.8403113e-38
1055.14 1903.9 -269.42899 1.8403113e-38
1065.26 1901.4301 -269.98401 1.8403113e-38
1019.08 1918.98 -269.57501 1.8403113e-38
999.21301 1922.71 -268.108 1.8403113e-38
-1711.73 3010.1599 -263.328 1.8403113e-38
-2308.6899 3262.1399 -266.496 1.8403113e-38
2843.1001 1135.35 -255.274 1.8403113e-38
1942.33 1499.12 -254.506 1.8403113e-38
1450.37 1712.0699 -258.901 1.8403113e-38
2844.0901 1096.4301 -242.285 1.8403113e-38
2845.1201 1116.4399 -249.173 1.8403113e-38
1754.72 1557.0699 -248.34 1.8403113e-38
-2021.48 3068.4399 -240.537 1.8403113e-38
-1985.48 3073.1899 -247.07001 1.8403113e-38
-2354.6001 3221.5801 -246.52901 1.8403113e-38
2844.78 1077.49 -235.992 1.8403113e-38
1721.39 1516.7 -230.16 1.8403113e-38
1736.5699 1535.67 -238.638 1.8403113e-38
2849.6499 1038.75 -223.60001 1.8403113e-38
2847.3401 1057.65 -229.655 1.8403113e-38
1720 1491.46 -221.459 1.8403113e-38
1718.66 1502.85 -225.117 1.8403113e-38
2858.78 999.95099 -211.76601 1.8403113e-38
2858.79 1018.95 -218.173 1.8403113e-38
1754.8199 1444.05 -210.246 1.8403113e-38
1755.55 1456.75 -214.629 1.8403113e-38
1742.8 1463.76 -215.244 1.8403113e-38
1717.87 1478.13 -216.674 1.8403113e-38
1729.78 1471.1 -215.936 1.8403113e-38
2858.6499 980.01099 -205.024 1.8403113e-38
2866.71 940.93597 -192.95399 1.8403113e-38
2868.21 960.90002 -199.89 1.8403113e-38
2871.1001 901.76501 -180.34599 1.8403113e-38
2874.9399 921.65802 -187.58 1.8403113e-38
2871.05 882.716 -173.916 1.8403113e-38
2880.3201 843.04199 -161.808 1.8403113e-38
2878.74 862.26599 -168.07401 1.8403113e-38
2886.6499 822.46899 -155.739 1.8403113e-38
2888.8799 782.875 -142.69299 1.8403113e-38
2886.8799 803.245 -149.289 1.8403113e-38
2889.75 763.53497 -136.291 1.8403113e-38
2916.6001 720.888 -125.591 1.8403113e-38
2891.3701 743.10699 -129.625 1.8403113e-38
2929.8201 679.03003 -113.287 1.8403113e-38
2925.73 699.22198 -119.537 1.8403113e-38
2936.5701 657.36603 -106.908 1.8403113e-38
2937.76 616.51501 -93.295998 1.8403113e-38
2933.3701 638.02899 -99.949699 1.8403113e-38
2946.05 574.21503 -80.168098 1.8403113e-38
2939.1201 596.388 -86.695602 1.8403113e-38
2949.97 553.43402 -73.698196 1.8403113e-38
2961.95 509.672 -60.5835 1.8403113e-38
2955.49 531.211 -66.9618 1.8403113e-38
2957.27 489.25601 -53.0588 1.8403113e-38
-3242.1001 3019.6399 -56.828899 1.8403113e-38
3147.6299 382.293 -43.0756 1.8403113e-38
3093.6101 416.61499 -47.246201 1.8403113e-38
2960.3999 468.19199 -46.384602 1.8403113e-38
-3234.73 2977.02 -43.467201 1.8403113e-38
3149.6001 358.487 -35.318001 1.8403113e-38
3144.8 337.38901 -27.5462 1.8403113e-38
-3233.8899 2936.3301 -29.861799 1.8403113e-38
3151.73 289.60699 -12.3836 1.8403113e-38
3147.29 313.26401 -19.751801 1.8403113e-38
3135.45 270.40302 -3.6772399 1.8403113e-38
-479.35699 1747.52 -6.4394999 1.8403113e-38
-467.914 1752.22 -9.5907202 1.8403113e-38
-517.77399 1763.12 -6.4358902 1.8403113e-38
-576.24298 1791.71 -8.06322 1.8403113e-38
-610.53601 1802.5601 -7.02179 1.8403113e-38
3089.51 261.02701 5.7779698 1.8403113e-38
-560.87 1740.67 7.0394301 1.8403113e-38
-574.23297 1762.91 1.3714401 1.8403113e-38
3077.78 241.123 14.0966 1.8403113e-38
-540.18799 1700.9399 17.6024 1.8403113e-38
-560.75299 1727.16 11.5807 1.8403113e-38
-5042.0601 3530.1101 17.681499 1.8403113e-38
3096.0701 189.642 28.950701 1.8403113e-38
3079.5601 218.328 21.5394 1.8403113e-38
-488.55701 1654.61 26.1516 1.8403113e-38
3141.1201 152.47099 35.311699 1.8403113e-38
-548.104 1643.88 37.929798 1.8403113e-38
-517.44501 1649.11 31.962099 1.8403113e-38
-487.28101 1642.25 30.1434 1.8403113e-38
-576.44397 1673.7 31.756701 1.8403113e-38
-5040.4502 3475.8 35.775501 1.8403113e-38
3135.0901 130.155 43.662601 1.8403113e-38
-490.71301 1586.7 49.346298 1.8403113e-38
-493.272 1599.74 45.2976 1.8403113e-38
-754.15503 1698.13 47.870899 1.8403113e-38
3129.3501 84.421799 59.8694 1.8403113e-38
3120.6799 111.85 51.8097 1.8403113e-38
-516.39899 1590.45 51.601799 1.8403113e-38
-583.45398 1616.27 52.080502 1.8403113e-38
-5009.9302 3406.6399 54.913601 1.8403113e-38
3137.1599 58.190102 67.644798 1.8403113e-38
-755.685 1645.0699 65.969398 1.8403113e-38
3138.6799 32.8036 75.996803 1.8403113e-38
-779.83398 1617 78.744904 1.8403113e-38
-747.492 1614.84 75.0411 1.8403113e-38
-735.23401 1621.4399 71.1362 1.8403113e-38
-5109.21 3396.3899 71.970299 1.8403113e-38
3139.3899 8.7451096 84.011497 1.8403113e-38
-771.24103 1600.22 83.225998 1.8403113e-38
3137.5901 -15.7087 92.503502 1.8403113e-38
-5168.04 3365.1001 90.583603 1.8403113e-38
3137.3799 -65.155998 109.206 1.8403113e-38
3137.8201 -39.8764 100.622 1.8403113e-38
-5157.1899 3307.4199 108.548 1.8403113e-38
