# .PCD v0.7 - Point Cloud Data file format
VERSION 0.7
FIELDS x y z rgb
SIZE 4 4 4 4
TYPE F F F F
COUNT 1 1 1 1
WIDTH 358
HEIGHT 1
VIEWPOINT 0 0 0 1 0 0 0
POINTS 358
DATA ascii
2704.8999 3263.28 -280.427 1.8403113e-38
2693.9099 3282.0601 -281.789 1.8403113e-38
2678.5801 3295.45 -280.67599 1.8403113e-38
2687.8899 3290.51 -282.10199 1.8403113e-38
2565.99 3426.6899 -280.23801 1.8403113e-38
2578.4399 3427 -283.77399 1.8403113e-38
2558.8701 3435.21 -280.263 1.8403113e-38
2551.1899 3443.9399 -280.185 1.8403113e-38
2545.5701 3455.77 -281.40302 1.8403113e-38
2538.9099 3466.99 -282.19 1.8403113e-38
2513.8799 3488.76 -280.35101 1.8403113e-38
2525.21 3488.25 -283.38 1.8403113e-38
2507.1201 3500.6899 -281.276 1.8403113e-38
2482.48 3525.3101 -280.216 1.8403113e-38
2474.1001 3534.4399 -280.035 1.8403113e-38
2426 3596.51 -281.25699 1.8403113e-38
2416.6599 3603.27 -280.25299 1.8403113e-38
2399.22 3623.1699 -280.08499 1.8403113e-38
2410.22 3621.0801 -282.64899 1.8403113e-38
2373.22 3657.78 -280.99399 1.8403113e-38
2383.6499 3651.1299 -282.32901 1.8403113e-38
2366 3674.3301 -282.88101 1.8403113e-38
2357.26 3688.27 -283.728 1.8403113e-38
2346.0601 3690.8301 -281.21799 1.8403113e-38
2337.46 3706.52 -282.51401 1.8403113e-38
2328.52 3719.2 -283.01199 1.8403113e-38
2308.3301 3738.9299 -282.03799 1.8403113e-38
2319.46 3734.8 -284.16299 1.8403113e-38
2289.4299 3767.8201 -283.57901 1.8403113e-38
2300.4299 3761.96 -285.25699 1.8403113e-38
2279.3601 3782.27 -284.17599 1.8403113e-38
2270.1599 3799.3601 -285.63699 1.8403113e-38
2259.1399 3810.8401 -285.27499 1.8403113e-38
2248.4099 3821.1599 -284.71799 1.8403113e-38
2226.02 3842.6599 -283.55099 1.8403113e-38
2238.6299 3842.98 -287.13101 1.8403113e-38
2215.73 3864.3601 -285.793 1.8403113e-38
2204.0701 3872.47 -284.457 1.8403113e-38
2193.6299 3897.8899 -287.53201 1.8403113e-38
2181.6899 3906.8 -286.31201 1.8403113e-38
2169.6399 3922.48 -286.64499 1.8403113e-38
2157.3899 3931.21 -285.29599 1.8403113e-38
2145.73 3957.3401 -288.19601 1.8403113e-38
2132.95 3963.97 -286.20401 1.8403113e-38
2120.0601 3981.23 -286.67999 1.8403113e-38
2107.3701 3994.45 -286.259 1.8403113e-38
2094.29 4019.28 -288.46399 1.8403113e-38
2081.0601 4031.3401 -287.621 1.8403113e-38
2067.0601 4048.23 -287.70099 1.8403113e-38
2053.4099 4060.0901 -286.69501 1.8403113e-38
2038.92 4077.73 -286.815 1.8403113e-38
2024.85 4093.27 -286.55801 1.8403113e-38
2009.78 4111.6602 -286.69501 1.8403113e-38
1995.27 4122.1001 -285.11801 1.8403113e-38
1979.77 4136.3599 -284.16 1.8403113e-38
1964.5 4158.2598 -285.065 1.8403113e-38
3534.54 2251.02 -273.01901 1.8403113e-38
3521.54 2265.27 -272.75699 1.8403113e-38
3138.96 2706.99 -270.27899 1.8403113e-38
3143.9199 2719.5 -274.59799 1.8403113e-38
3135.21 2727.73 -274.11499 1.8403113e-38
3134.48 2738.75 -276.50201 1.8403113e-38
3128.3799 2747.6499 -276.896 1.8403113e-38
3122.9299 2757.24 -277.63901 1.8403113e-38
3112.1899 2764.54 -276.367 1.8403113e-38
3105.72 2773.6599 -276.71399 1.8403113e-38
3099.3701 2782.22 -276.96399 1.8403113e-38
3080.0801 2797.3301 -275.155 1.8403113e-38
3092.77 2791.1899 -277.23801 1.8403113e-38
3079.5801 2808.4199 -277.62 1.8403113e-38
3075.6299 2817.7 -278.707 1.8403113e-38
3059.99 2822.8799 -275.578 1.8403113e-38
3046.3701 2839.3701 -275.668 1.8403113e-38
3055.9399 2832.01 -276.59698 1.8403113e-38
3039.5801 2847.27 -275.638 1.8403113e-38
3034.25 2856.3 -276.28 1.8403113e-38
3031.6499 2865.99 -277.836 1.8403113e-38
3027.03 2875.3401 -278.74799 1.8403113e-38
3019.1399 2882.5901 -278.26099 1.8403113e-38
3005.54 2898.5 -278.22198 1.8403113e-38
3013.52 2891.4199 -278.77701 1.8403113e-38
3000.6399 2907.6299 -279.00699 1.8403113e-38
2987.54 2911.9299 -276.379 1.8403113e-38
2976.8701 2928.96 -277.41599 1.8403113e-38
2983.3701 2921.3501 -277.43201 1.8403113e-38
2967.6001 2935.5601 -276.392 1.8403113e-38
2966.74 2946.27 -278.67001 1.8403113e-38
2962.26 2955.54 -279.604 1.8403113e-38
2944.4399 2968.22 -277.63501 1.8403113e-38
2953.0901 2961.49 -278.45401 1.8403113e-38
2934.4299 2973.45 -276.08099 1.8403113e-38
2932.0901 2983.99 -277.90601 1.8403113e-38
2909.27 2992.8 -273.63901 1.8403113e-38
2926.74 2992.0901 -278.32599 1.8403113e-38
2898.1201 3008.97 -274.34201 1.8403113e-38
2911.6799 3005.9399 -277.39801 1.8403113e-38
2889.77 3027.1399 -276.29099 1.8403113e-38
2897.22 3020.02 -276.686 1.8403113e-38
2872.01 3038.52 -274.03101 1.8403113e-38
2882.5701 3033.79 -275.853 1.8403113e-38
2865.49 3045.5601 -273.875 1.8403113e-38
2862.3501 3055.79 -275.40601 1.8403113e-38
2847.23 3068.8401 -274.27301 1.8403113e-38
2858.6599 3065.0601 -276.561 1.8403113e-38
2841.22 3076.25 -274.345 1.8403113e-38
2837.74 3086.3799 -275.758 1.8403113e-38
2830.8601 3093.1101 -275.431 1.8403113e-38
2817.3701 3107.3701 -275.03101 1.8403113e-38
2827.1899 3103.21 -276.784 1.8403113e-38
2812.8301 3116.78 -275.983 1.8403113e-38
2806.4299 3123.9199 -275.883 1.8403113e-38
2801.03 3132.6399 -276.431 1.8403113e-38
2786.24 3145.72 -275.396 1.8403113e-38
2797.24 3142.26 -277.64001 1.8403113e-38
2786.99 3159.8799 -278.935 1.8403113e-38
2779.24 3166.5 -278.33701 1.8403113e-38
2771.1299 3172.03 -277.38199 1.8403113e-38
2769.1599 3184.6001 -279.789 1.8403113e-38
2754.8601 3198.47 -279.07599 1.8403113e-38
2760.9199 3190.02 -278.776 1.8403113e-38
2747.8101 3205.1399 -278.686 1.8403113e-38
2732.5601 3217.95 -277.45901 1.8403113e-38
2741.6001 3213.5 -278.92401 1.8403113e-38
2717.1201 3230.48 -276.116 1.8403113e-38
2729.8999 3230.47 -279.664 1.8403113e-38
2714.8601 3243.6899 -278.59201 1.8403113e-38
2708.04 3250.78 -278.362 1.8403113e-38
2692.0901 3262.8799 -276.77701 1.8403113e-38
2669.0901 3299.22 -278.927 1.8403113e-38
2651.3101 3309.1101 -276.311 1.8403113e-38
2661.3799 3306.28 -278.444 1.8403113e-38
2644.5801 3317.5801 -276.431 1.8403113e-38
2636.5801 3323.3601 -275.56799 1.8403113e-38
2632.8 3336.47 -277.59799 1.8403113e-38
2624.6499 3342.1599 -276.672 1.8403113e-38
2621.0901 3356.0601 -278.948 1.8403113e-38
2603.52 3366.6599 -276.55701 1.8403113e-38
2613.78 3363.26 -278.60999 1.8403113e-38
2590.55 3385.1299 -277.29599 1.8403113e-38
2601.4099 3382.6799 -279.737 1.8403113e-38
2586.23 3397.8799 -279.09201 1.8403113e-38
2577.1499 3403.47 -277.883 1.8403113e-38
2528.0801 3468.51 -279.53699 1.8403113e-38
2497.27 3504.51 -279.43799 1.8403113e-38
2489.1499 3513.73 -279.34698 1.8403113e-38
2462.29 3533.54 -276.54099 1.8403113e-38
2457.49 3552.3301 -279.62399 1.8403113e-38
2448.9399 3560.1899 -279.09601 1.8403113e-38
2440.4299 3570.01 -279.04001 1.8403113e-38
2432.6201 3580.46 -279.327 1.8403113e-38
2389.0801 3629.9299 -278.85501 1.8403113e-38
3535.1599 2210.6001 -263.69101 1.8403113e-38
3531.23 2224.77 -265.92999 1.8403113e-38
3531.96 2237.6599 -269.164 1.8403113e-38
3144.27 2676.25 -264.53 1.8403113e-38
3132.1799 2683.76 -262.93301 1.8403113e-38
3133.71 2695.1001 -266.026 1.8403113e-38
3528.05 2171.8999 -252.617 1.8403113e-38
3534.04 2184.01 -257.129 1.8403113e-38
3527.47 2198.6499 -258.74301 1.8403113e-38
3121.05 2649.8601 -251.875 1.8403113e-38
3136.0601 2663.4299 -259.233 1.8403113e-38
1953.66 4051.3401 -256.922 1.8403113e-38
3519.8701 2132.9099 -241.179 1.8403113e-38
3522.4199 2146.1299 -244.995 1.8403113e-38
3521.8999 2159.23 -247.92999 1.8403113e-38
3117.8601 2608.0901 -241.168 1.8403113e-38
3115.5801 2617.6101 -242.77299 1.8403113e-38
3106.5701 2626.29 -242.30901 1.8403113e-38
3112.54 2637.47 -246.595 1.8403113e-38
3516.5 2093.73 -231.033 1.8403113e-38
3510.7 2108 -232.774 1.8403113e-38
3511.55 2121.48 -236.181 1.8403113e-38
3113.0701 2576.77 -232.474 1.8403113e-38
3110.96 2586.71 -234.224 1.8403113e-38
3115.45 2597.28 -237.95799 1.8403113e-38
1943.52 3980.3401 -237.41299 1.8403113e-38
3510.47 2068.2 -223.35699 1.8403113e-38
3515.3999 2080.2 -227.54601 1.8403113e-38
3337.6499 2295.04 -228.65401 1.8403113e-38
3124.6201 2518.4199 -221.97 1.8403113e-38
3113.5 2527.4199 -220.995 1.8403113e-38
3117.6201 2537.52 -224.51199 1.8403113e-38
3102.5601 2545.8201 -222.28 1.8403113e-38
3111.25 2556.5701 -227.22099 1.8403113e-38
3109.3201 2566.48 -229.015 1.8403113e-38
1933.25 3920.9099 -220.589 1.8403113e-38
3501.49 2029.66 -211.802 1.8403113e-38
3511.6001 2040.95 -217.263 1.8403113e-38
3506.29 2055.4099 -219.186 1.8403113e-38
3190.27 2390.1899 -210.069 1.8403113e-38
3198.47 2400.1499 -214.688 1.8403113e-38
3183.4199 2410.77 -213.004 1.8403113e-38
3173.1499 2420.6799 -212.478 1.8403113e-38
3163.73 2430.9299 -212.27 1.8403113e-38
3152.3799 2450.74 -213.774 1.8403113e-38
3150.46 2460.4399 -215.519 1.8403113e-38
3135.8501 2474.7749 -214.8295 1.8403113e-38
3134.51 2489.71 -217.967 1.8403113e-38
3126.53 2498.78 -217.883 1.8403113e-38
3124.1499 2508.71 -219.55701 1.8403113e-38
3499.1799 1989.96 -201.828 1.8403113e-38
3494.3601 2004.5601 -203.918 1.8403113e-38
3506.5601 2015.13 -209.793 1.8403113e-38
3234.6201 2314.54 -204.61 1.8403113e-38
3178.2798 2375.03 -203.174 1.8403113e-38
3145.6101 2440.3101 -209.44099 1.8403113e-38
1924.64 3861.3701 -204.202 1.8403113e-38
3492.3101 1964.71 -193.98199 1.8403113e-38
3495.26 1977.14 -197.72301 1.8403113e-38
3203.8799 2327.6299 -199.144 1.8403113e-38
3187.51 2338.78 -197.216 1.8403113e-38
3163.3401 2350.55 -193.26601 1.8403113e-38
3165.1399 2360.25 -196.048 1.8403113e-38
1915.02 3820.25 -191.862 1.8403113e-38
3487.1499 1924.8199 -183.173 1.8403113e-38
3483.1299 1940.23 -185.67599 1.8403113e-38
3487.22 1952.27 -189.646 1.8403113e-38
3482.02 1885.3101 -172.46001 1.8403113e-38
3473.5901 1901.86 -174.004 1.8403113e-38
3486.55 1911.54 -179.882 1.8403113e-38
1908.05 3763.4399 -176.57201 1.8403113e-38
3478.3799 1844.1801 -161.77901 1.8403113e-38
3474.26 1860.2 -164.40199 1.8403113e-38
3481.8 1871.0601 -169.047 1.8403113e-38
1898.99 3732.8601 -166.867 1.8403113e-38
3471.98 1804.4 -150.64799 1.8403113e-38
3469.8999 1819.1899 -153.549 1.8403113e-38
3474.3 1831.97 -157.77499 1.8403113e-38
1892.84 3684.6799 -153.83 1.8403113e-38
3464.6201 1778.77 -142.578 1.8403113e-38
3462.8 1793.6 -145.55901 1.8403113e-38
1885.88 3646.1499 -142.84 1.8403113e-38
3457.95 1737.75 -131.08501 1.8403113e-38
3455 1754.1 -134.106 1.8403113e-38
3459.74 1766.11 -138.24699 1.8403113e-38
1880.58 3603.7 -131.388 1.8403113e-38
3455.6101 1709.33 -123.753 1.8403113e-38
3452.97 1725.78 -126.884 1.8403113e-38
1874.37 3569.9299 -121.723 1.8403113e-38
3447.25 1668.95 -111.936 1.8403113e-38
3443.02 1685.8 -114.724 1.8403113e-38
3450.3799 1697.39 -119.494 1.8403113e-38
1868.96 3538.0801 -112.735 1.8403113e-38
1553.47 3903.24 -110.903 1.8403113e-38
3441.8101 1641.4 -103.951 1.8403113e-38
3439.6399 1657.4399 -107.117 1.8403113e-38
1862.34 3514.8999 -105.447 1.8403113e-38
1589.63 3828.8601 -103.467 1.8403113e-38
1543.89 3889.3799 -104.981 1.8403113e-38
3431.21 1600.59 -91.410896 1.8403113e-38
3437.5601 1612.91 -96.074097 1.8403113e-38
3437.4399 1628.0699 -99.601601 1.8403113e-38
1858.24 3481.03 -96.345802 1.8403113e-38
1625.1 3754.1899 -95.7686 1.8403113e-38
1635.97 3757.8301 -99.644096 1.8403113e-38
1541.73 3855.8799 -96.505501 1.8403113e-38
3433.8101 1567.55 -84.367203 1.8403113e-38
3432.75 1584.4 -88.034897 1.8403113e-38
1848.46 3429.6599 -81.552002 1.8403113e-38
1852.6801 3456.8 -89.101196 1.8403113e-38
1528.2 3817.8101 -83.799599 1.8403113e-38
1535.3199 3834.4299 -89.684196 1.8403113e-38
3420.5801 1527.88 -71.367996 1.8403113e-38
3428.1001 1538.96 -76.061203 1.8403113e-38
3427.3799 1555.88 -79.835098 1.8403113e-38
1845.16 3397.6101 -73.100502 1.8403113e-38
1519.33 3770.3401 -70.173698 1.8403113e-38
1524.13 3791.6499 -76.519302 1.8403113e-38
3419.8899 1495.5699 -63.578201 1.8403113e-38
3420.99 1510.92 -67.491501 1.8403113e-38
1835.4301 3359.6101 -61.463799 1.8403113e-38
1840.61 3377.2 -67.040199 1.8403113e-38
1515 3746.98 -63.4804 1.8403113e-38
1825.51 3328.25 -51.334702 1.8403113e-38
1831.33 3340.1201 -55.743999 1.8403113e-38
1734.35 3450.1001 -54.647701 1.8403113e-38
1505.8199 3738.6101 -58.962299 1.8403113e-38
1469.91 3763.78 -54.899399 1.8403113e-38
1479.21 3772.4099 -59.5131 1.8403113e-38
3323.1399 1543.1801 -47.885201 1.8403113e-38
1814.84 3304.45 -42.774101 1.8403113e-38
1822.65 3305.8201 -45.267399 1.8403113e-38
1805.3101 3311.71 -41.834999 1.8403113e-38
1438 3745.22 -41.6717 1.8403113e-38
1446.79 3756.1399 -46.678699 1.8403113e-38
1461.71 3751.2 -49.663101 1.8403113e-38
3270.6699 1533.09 -30.934999 1.8403113e-38
3272.48 1546.8101 -34.659599 1.8403113e-38
3267.8799 1565.5 -37.777199 1.8403113e-38
1790 3308.6699 -36.863701 1.8403113e-38
1780.11 3314.6299 -35.520401 1.8403113e-38
1797.46 3310.1799 -39.2938 1.8403113e-38
1426.66 3741.73 -37.698799 1.8403113e-38
1393.37 3755.8201 -31.7616 1.8403113e-38
3263.8701 1506.86 -22.878099 1.8403113e-38
3273.24 1515.36 -27.479099 1.8403113e-38
1366.49 3754.8601 -24.0658 1.8403113e-38
1377.08 3760.6799 -28.3757 1.8403113e-38
1338.03 3783.45 -22.878099 1.8403113e-38
1308.72 3813.71 -21.8454 1.8403113e-38
3258.1101 1479.46 -14.8367 1.8403113e-38
3266.0801 1489.05 -19.305401 1.8403113e-38
1290 3793.5601 -11.9049 1.8403113e-38
1304.99 3792.04 -15.715 1.8403113e-38
3226.6101 1471.7 -4.2610698 1.8403113e-38
3240.2 1476.74 -9.2204504 1.8403113e-38
1301.46 3744.6499 -3.59483 1.8403113e-38
3205.25 1456.63 5.2178798 1.8403113e-38
3215.77 1463.86 0.59559399 1.8403113e-38
1284.16 3724.4199 5.9679499 1.8403113e-38
1295.91 3729.47 1.5152299 1.8403113e-38
1264.05 3735.1201 9.0408697 1.8403113e-38
3175.6899 1432.13 19.191099 1.8403113e-38
3182.1599 1443.34 14.7595 1.8403113e-38
3194.3101 1449.04 10.0438 1.8403113e-38
1234.91 3734.9099 17.188101 1.8403113e-38
1249.23 3734.9399 13.2013 1.8403113e-38
3179.3101 1395.85 26.7157 1.8403113e-38
3183.8501 1409.05 22.3496 1.8403113e-38
1189.04 3735.78 29.7314 1.8403113e-38
1205.09 3734.9199 25.4743 1.8403113e-38
1220.53 3733.5601 21.502899 1.8403113e-38
3176.6399 1347.12 38.9109 1.8403113e-38
3178.3201 1362.58 34.8097 1.8403113e-38
3178 1380.48 30.6919 1.8403113e-38
1154.01 3742.3101 37.928799 1.8403113e-38
1169.6899 3742.6699 33.486099 1.8403113e-38
3169.3999 1318.41 47.670799 1.8403113e-38
3175.8 1329.8 43.216099 1.8403113e-38
1137.73 3743.77 42.108799 1.8403113e-38
1116.91 3750.49 46.315701 1.8403113e-38
3236.1299 1195.83 57.943298 1.8403113e-38
3236.23 1216.01 53.173401 1.8403113e-38
3181.1001 1288.51 51.4515 1.8403113e-38
1101.5699 3749.9099 50.714298 1.8403113e-38
1066.1801 3753.55 59.694099 1.8403113e-38
1081.0601 3755.3301 55.140301 1.8403113e-38
3235.6499 1155.77 67.495102 1.8403113e-38
3239.76 1172.51 62.414902 1.8403113e-38
1044.85 3759.3101 64.266502 1.8403113e-38
1023.92 3765.1899 68.699203 1.8403113e-38
3231.4099 1118.36 77.464401 1.8403113e-38
3235.97 1135.16 72.251198 1.8403113e-38
984.70898 3771 78.229401 1.8403113e-38
1001.09 3772.01 73.441399 1.8403113e-38
3232.27 1074.14 87.622704 1.8403113e-38
3232.5901 1096.17 82.354897 1.8403113e-38
946.32098 3774.28 88.126801 1.8403113e-38
964.05499 3774.1201 83.2351 1.8403113e-38
3229.3301 1032.6 98.204803 1.8403113e-38
3228.8799 1056.25 92.767799 1.8403113e-38
909.16901 3797.1599 93.072197 1.8403113e-38
322.63599 4491.8599 92.757202 1.8403113e-38
3225.95 990.08801 109.136 1.8403113e-38
3228.0601 1011.61 103.49 1.8403113e-38
304.85101 4444.6201 108.804 1.8403113e-38
310.94601 4470.6001 101.004 1.8403113e-38
