# .PCD v0.7 - Point Cloud Data file format
VERSION 0.7
FIELDS x y z rgb
SIZE 4 4 4 4
TYPE F F F F
COUNT 1 1 1 1
WIDTH 327
HEIGHT 1
VIEWPOINT 0 0 0 1 0 0 0
POINTS 327
DATA ascii
98.152901 1045.59 -291.297 1.8403113e-38
104 1061.5601 -291.16299 1.8403113e-38
111.977 1112.0601 -294.36099 1.8403113e-38
126.954 1135.72 -291.98901 1.8403113e-38
131.88901 1181.5 -295.67999 1.8403113e-38
151.067 1207.99 -292.19299 1.8403113e-38
161.03799 1256.2 -294.435 1.8403113e-38
201.207 1336.95 -290.10699 1.8403113e-38
551.60901 2361.99 -290.10699 1.8403113e-38
-285.992 -113.481 -287.13901 1.8403113e-38
-257.285 -57.4006 -283.85501 1.8403113e-38
-233.136 47.933701 -287.939 1.8403113e-38
-198.22 109.427 -283.15302 1.8403113e-38
-175.026 207.51199 -286.71301 1.8403113e-38
-141.87 264.21399 -281.96899 1.8403113e-38
-122.53 352.17499 -285.664 1.8403113e-38
-96.428703 398.13501 -282.086 1.8403113e-38
-91.232903 465.12201 -288.18301 1.8403113e-38
-64.797501 509.64899 -284.32101 1.8403113e-38
-56.171001 577.08002 -289.289 1.8403113e-38
-26.787001 623.112 -284.58801 1.8403113e-38
-13.9989 691.56 -288.242 1.8403113e-38
10.3036 730.31299 -284.435 1.8403113e-38
20.3871 792.56897 -288.29199 1.8403113e-38
43.465698 828.539 -284.578 1.8403113e-38
49.861 884.11499 -288.918 1.8403113e-38
67.424202 913.18701 -286.29199 1.8403113e-38
77.5373 969.979 -289.495 1.8403113e-38
90.776398 993.74799 -287.73401 1.8403113e-38
199.541 1298.04 -286.10001 1.8403113e-38
226.841 1366.7 -284.78201 1.8403113e-38
242.718 1415.27 -285.03201 1.8403113e-38
247.41 1427.35 -284.83801 1.8403113e-38
262.93201 1473.87 -284.96799 1.8403113e-38
271.811 1488.7 -283.65601 1.8403113e-38
273.55701 1523.25 -287.12299 1.8403113e-38
289.052 1542.46 -284.04901 1.8403113e-38
289.31 1574.79 -287.76501 1.8403113e-38
309.173 1596.4399 -283.47299 1.8403113e-38
306.276 1625.46 -287.888 1.8403113e-38
322.51901 1643.88 -284.46201 1.8403113e-38
330.125 1679.01 -285.979 1.8403113e-38
335.32901 1689.5 -285.42099 1.8403113e-38
339.63699 1721.47 -287.70099 1.8403113e-38
344.23401 1731.25 -287.26999 1.8403113e-38
349.259 1762.8101 -289.255 1.8403113e-38
358.216 1774.97 -287.60101 1.8403113e-38
365.651 1807.03 -288.81601 1.8403113e-38
381.569 1822.87 -285.198 1.8403113e-38
379.655 1848.51 -288.87601 1.8403113e-38
389.94299 1860.63 -286.76001 1.8403113e-38
392.013 1887.88 -289.254 1.8403113e-38
406.80399 1902.03 -285.827 1.8403113e-38
410.37799 1929.28 -287.80399 1.8403113e-38
415.10599 1937.71 -287.168 1.8403113e-38
424.45401 1967.22 -287.423 1.8403113e-38
432.82599 1977.21 -285.715 1.8403113e-38
439.33801 2004.47 -286.68201 1.8403113e-38
444.409 2012.5601 -285.888 1.8403113e-38
449.73599 2038.59 -287.11801 1.8403113e-38
458.48499 2048.1201 -285.22699 1.8403113e-38
462.63251 2075.6851 -287.043 1.8403113e-38
474.38599 2105.95 -286.55801 1.8403113e-38
473.67599 2110.97 -287.39401 1.8403113e-38
482.35501 2136.6001 -287.423 1.8403113e-38
489.82199 2144.74 -285.81 1.8403113e-38
491.82101 2167.1699 -287.76099 1.8403113e-38
490.41199 2171.77 -288.789 1.8403113e-38
501.88 2197.27 -287.841 1.8403113e-38
507.82401 2204.3899 -286.63199 1.8403113e-38
509.78699 2225.97 -288.49701 1.8403113e-38
519.50403 2234.1399 -286.112 1.8403113e-38
521.89398 2255.4299 -287.79501 1.8403113e-38
540 2265.9299 -282.79599 1.8403113e-38
542.836 2286.8 -284.276 1.8403113e-38
538.12299 2290.1599 -286.29501 1.8403113e-38
544.08502 2311.7 -286.77701 1.8403113e-38
555.14001 2319.4099 -283.87799 1.8403113e-38
558.742 2339.8101 -285.039 1.8403113e-38
556.02301 2343.73 -286.43701 1.8403113e-38
560.11902 2368.5901 -287.953 1.8403113e-38
576.66846 2393.595 -285.19702 1.8403113e-38
581.46802 2415.5701 -286.13101 1.8403113e-38
589.26398 2421.54 -284.14999 1.8403113e-38
595.43896 2443.3301 -284.58752 1.8403113e-38
601.01099 2464.72 -285.18701 1.8403113e-38
608.06097 2470.1799 -283.40201 1.8403113e-38
607.18298 2488.0801 -285.81201 1.8403113e-38
603.01898 2491.79 -287.68201 1.8403113e-38
621.13501 2514.24 -284.086 1.8403113e-38
619.76703 2533.9299 -286.87601 1.8403113e-38
624.23602 2538.6201 -285.88901 1.8403113e-38
641.284 2557.79 -282.27499 1.8403113e-38
640.15997 2561.8401 -283.138 1.8403113e-38
640.49701 2579.24 -285.07001 1.8403113e-38
650.79102 2584.0701 -282.09399 1.8403113e-38
650.92749 2603.3301 -284.315 1.8403113e-38
664.13599 2625.0601 -282.32397 1.8403113e-38
666.76703 2644.1299 -283.66299 1.8403113e-38
673.48199 2648.26 -281.83701 1.8403113e-38
676.92896 2667.145 -282.87201 1.8403113e-38
684.54248 2687.8398 -282.68649 1.8403113e-38
694.22998 2706.24 -281.517 1.8403113e-38
693.57501 2710.23 -282.21301 1.8403113e-38
693.98297 2726.8999 -284.034 1.8403113e-38
698.10602 2730.6299 -283.05301 1.8403113e-38
704.42999 2746.8201 -282.78201 1.8403113e-38
704.84698 2750.75 -283.10001 1.8403113e-38
715.18103 2766.4099 -281.38501 1.8403113e-38
715.659 2770.3 -281.67801 1.8403113e-38
712.185 2787.24 -284.86899 1.8403113e-38
717.409 2790.6001 -283.465 1.8403113e-38
725.42603 2806.1499 -282.535 1.8403113e-38
722.297 2810.51 -284.12601 1.8403113e-38
731.82599 2827.6802 -282.86548 1.8403113e-38
735.08801 2845.6899 -283.862 1.8403113e-38
742.30798 2848.3899 -281.694 1.8403113e-38
742.17999 2866.9399 -283.922 1.8403113e-38
747.37146 2886.5 -284.43701 1.8403113e-38
757.46252 2904.9102 -283.129 1.8403113e-38
764.63403 2923.8398 -282.88699 1.8403113e-38
775.276 2941.7349 -281.32898 1.8403113e-38
773.99353 2962.8799 -284.26001 1.8403113e-38
773.10046 2984.1799 -287.07599 1.8403113e-38
790.73999 2997.6299 -282.58401 1.8403113e-38
791.94702 3001.28 -282.59799 1.8403113e-38
808.70599 3037.6799 -281.11099 1.8403113e-38
809.12799 3054.77 -282.979 1.8403113e-38
816.63599 3055.95 -280.53201 1.8403113e-38
818.78198 3076.6001 -282.224 1.8403113e-38
832.76398 3114.1699 -281.83099 1.8403113e-38
840.29797 3128.49 -280.922 1.8403113e-38
842.76501 3131.5701 -280.435 1.8403113e-38
847.15601 3147.4199 -280.789 1.8403113e-38
841.28198 3154.71 -283.67099 1.8403113e-38
851.00598 3168.02 -281.888 1.8403113e-38
851.08801 3172.3501 -282.371 1.8403113e-38
855.24402 3188.6499 -282.85699 1.8403113e-38
857.05402 3192.0901 -282.63901 1.8403113e-38
859.87 3209.3 -283.69601 1.8403113e-38
866.63702 3209.8999 -281.436 1.8403113e-38
874.58801 3224.1699 -280.37701 1.8403113e-38
874.69501 3252.55 -283.681 1.8403113e-38
886.37598 3264.6599 -281.08401 1.8403113e-38
890.00403 3266.97 -280.10699 1.8403113e-38
899.55902 3310.01 -281.883 1.8403113e-38
916.44598 3346.385 -280.34998 1.8403113e-38
922.17102 3365.6799 -280.64999 1.8403113e-38
947.46002 3457.73 -282.7775 1.8403113e-38
966.151 3502.3 -281.58701 1.8403113e-38
973.40503 3522.8701 -281.5105 1.8403113e-38
979.09302 3545.51 -282.21701 1.8403113e-38
982.67999 3547.8601 -281.259 1.8403113e-38
988.67798 3567.6001 -281.517 1.8403113e-38
986.56799 3576.27 -283.26501 1.8403113e-38
998.67102 3596.22 -281.444 1.8403113e-38
1006.17 3615.25 -281.10199 1.8403113e-38
1003.8 3624.79 -283.043 1.8403113e-38
1013.83 3648.29 -282.354 1.8403113e-38
1024.39 3671.75 -281.479 1.8403113e-38
1033.75 3697.45 -281.28201 1.8403113e-38
1040.22 3720.28 -281.73999 1.8403113e-38
1037.52 3731.6699 -284.013 1.8403113e-38
1051.9451 3748.1851 -280.9895 1.8403113e-38
1058.03 3777.23 -282.311 1.8403113e-38
1062.23 3779.23 -281.10001 1.8403113e-38
-286.647 -212.347 -275.72501 1.8403113e-38
-284.37399 -190.07001 -277.565 1.8403113e-38
805.75903 3015.5801 -279.52451 1.8403113e-38
811.79199 3032.45 -279.43399 1.8403113e-38
825.15802 3069.8201 -279.229 1.8403113e-38
830.14697 3089.27 -279.80099 1.8403113e-38
837.66998 3090.1499 -277.314 1.8403113e-38
838.04303 3107.53 -279.23099 1.8403113e-38
878.92999 3226.0901 -279.108 1.8403113e-38
883.091 3242.6699 -279.62701 1.8403113e-38
898.19397 3283.625 -279.24701 1.8403113e-38
905.099 3301.26 -278.94601 1.8403113e-38
914.16998 3319.9199 -278.01801 1.8403113e-38
912.58899 3325.98 -279.276 1.8403113e-38
926.76099 3367.1499 -279.242 1.8403113e-38
938.98102 3378.79 -276.40399 1.8403113e-38
932.62598 3389.1899 -279.81699 1.8403113e-38
943.10095 3405.0601 -278.07751 1.8403113e-38
946.00299 3427.6799 -279.741 1.8403113e-38
948.56598 3430.8401 -279.23001 1.8403113e-38
962.41797 3473.0352 -279.42801 1.8403113e-38
970.133 3492.53 -279.06601 1.8403113e-38
1001.25 3586.77 -279.444 1.8403113e-38
1017.23 3637.2 -279.87799 1.8403113e-38
1026.98 3661.3201 -279.358 1.8403113e-38
1035.55 3687.7 -279.513 1.8403113e-38
1091.86 3777.4399 -270.685 1.8403113e-38
1077.1801 3791.6499 -277.41501 1.8403113e-38
-785.435 -1724.35 -269.49899 1.8403113e-38
-288.65399 -317.62201 -264.022 1.8403113e-38
-291.57199 -301.647 -266.90799 1.8403113e-38
-293.94901 -432.737 -252.293 1.8403113e-38
-295.129 -413.36401 -254.98 1.8403113e-38
1123.13 3763.3401 -258.254 1.8403113e-38
1122.17 3773.27 -259.755 1.8403113e-38
1141.5 3777.3899 -253.58299 1.8403113e-38
-397.97198 -803.94299 -244.416 1.8403113e-38
-292.30499 -520.96002 -241.34 1.8403113e-38
1153.0699 3766.6699 -248.336 1.8403113e-38
1175.33 3773.49 -241.474 1.8403113e-38
-444.27701 -1035.15 -233.14301 1.8403113e-38
-350.897 -754.04401 -234.078 1.8403113e-38
-296.04599 -548.77698 -239.354 1.8403113e-38
1177.98 3760.24 -239.002 1.8403113e-38
1214.36 3749.3999 -225.19501 1.8403113e-38
1206.59 3754.73 -228.49899 1.8403113e-38
-335.19901 -831.48602 -219.55499 1.8403113e-38
1235.2 3752.1602 -218.342 1.8403113e-38
1246.3301 3777.9849 -217.54849 1.8403113e-38
-159.983 -692.69702 -175.549 1.8403113e-38
-499.522 -1755.97 -167.30701 1.8403113e-38
-67.846001 -635.73199 -150.52299 1.8403113e-38
2773.27 7744.9199 -158.7 1.8403113e-38
2789.5801 7743.1299 -152.869 1.8403113e-38
-437.13501 -1779.4 -143.062 1.8403113e-38
-168.554 -949.297 -148.291 1.8403113e-38
-81.118202 -683.60797 -149.45799 1.8403113e-38
-416.47198 -1773.37 -136.65601 1.8403113e-38
-67.9785 -791.888 -132.185 1.8403113e-38
-138.39101 -1037.45 -127.524 1.8403113e-38
1734.88 4402.5898 -122.829 1.8403113e-38
1739.71 4420.9102 -123.322 1.8403113e-38
1763.12 4537.5049 -128.985 1.8403113e-38
2857.79 7733.8198 -128.283 1.8403113e-38
2873.8701 7730.7598 -122.383 1.8403113e-38
-354.82001 -1797.29 -112.607 1.8403113e-38
1713.67 4274.1802 -115.015 1.8403113e-38
1717.39 4299.4502 -116.709 1.8403113e-38
1794.455 4526.98 -116.953 1.8403113e-38
-336.479 -1795.35 -106.519 1.8403113e-38
1678.34 4075.4299 -103.781 1.8403113e-38
1682.0601 4084.9399 -103.62 1.8403113e-38
1695.04 4166.4399 -108.746 1.8403113e-38
1698.6801 4182.8398 -109.424 1.8403113e-38
1828.38 4519.4399 -104.381 1.8403113e-38
1822.45 4521.23 -106.634 1.8403113e-38
1641.3101 3861.99 -91.407097 1.8403113e-38
1651.0601 3915 -94.290802 1.8403113e-38
1654.1 3923.5601 -94.252602 1.8403113e-38
1664.28 3987.3501 -98.254402 1.8403113e-38
1667.9 3993.9299 -97.784798 1.8403113e-38
1856.2949 4521.0596 -94.959351 1.8403113e-38
2957.27 7713.8999 -91.675102 1.8403113e-38
2942.1299 7721.1602 -97.7472 1.8403113e-38
1609.63 3686.3999 -81.643898 1.8403113e-38
1611.24 3695.9299 -82.214401 1.8403113e-38
1618.21 3738.1299 -84.780296 1.8403113e-38
1619.61 3750.5801 -85.766197 1.8403113e-38
1627.64 3794.78 -88.201797 1.8403113e-38
1630.51 3800.4399 -87.881599 1.8403113e-38
1639.89 3844.6299 -89.853798 1.8403113e-38
1883.85 4512.29 -84.436401 1.8403113e-38
1890.17 4522.21 -83.427803 1.8403113e-38
1496.0701 3314.6851 -76.992447 1.8403113e-38
1509.1801 3313.6599 -72.359398 1.8403113e-38
1568.14 3468.3899 -70.2677 1.8403113e-38
1572.59 3494.9399 -71.861603 1.8403113e-38
1578.9399 3528.1599 -73.584503 1.8403113e-38
1580.98 3531.9299 -73.325897 1.8403113e-38
1587.535 3562.8398 -74.70755 1.8403113e-38
1594.72 3594.73 -75.9869 1.8403113e-38
1596.41 3601.3601 -76.186897 1.8403113e-38
1601.87 3638.6001 -78.690598 1.8403113e-38
1603.79 3645.23 -78.810204 1.8403113e-38
1914.65 4513.9302 -74.020401 1.8403113e-38
1920.45 4511.8101 -71.775803 1.8403113e-38
1514.5601 3307.78 -69.812401 1.8403113e-38
1528.4099 3304.165 -64.616798 1.8403113e-38
1538.64 3308.3 -61.581699 1.8403113e-38
1539.61 3312.03 -61.687599 1.8403113e-38
1544.48 3326.29 -61.686401 1.8403113e-38
1543.02 3336.3501 -63.374802 1.8403113e-38
1548.39 3350.6399 -63.208599 1.8403113e-38
1550.97 3350.75 -62.331799 1.8403113e-38
1554.36 3371.4199 -63.599098 1.8403113e-38
1552.35 3384.3401 -65.811798 1.8403113e-38
1555.1899 3408.8101 -67.715103 1.8403113e-38
1556.66 3412.5901 -67.651901 1.8403113e-38
1563.2849 3432.0601 -67.662704 1.8403113e-38
1567.26 3461.8101 -69.796402 1.8403113e-38
1577.7 3487.4199 -69.214699 1.8403113e-38
1944.71 4504.0801 -62.508202 1.8403113e-38
1950.59 4503.8398 -60.4575 1.8403113e-38
3024.3799 7699.1602 -66.829399 1.8403113e-38
3040.0901 7694.5298 -60.872898 1.8403113e-38
1975.05 4500.6299 -51.6544 1.8403113e-38
1980.91 4500.2798 -49.596298 1.8403113e-38
2005.89 4502.5698 -41.260502 1.8403113e-38
2009.5 4481.2998 -37.512199 1.8403113e-38
2254.95 5184.23 -35.737202 1.8403113e-38
3109.6299 7689.2002 -36.297298 1.8403113e-38
2036.27 4475.4453 -27.60565 1.8403113e-38
2070.79 4526.4702 -21.724199 1.8403113e-38
3121.99 7671.7002 -29.9772 1.8403113e-38
2075.46 4516.8999 -18.988899 1.8403113e-38
2119.76 4640.0601 -18.2316 1.8403113e-38
2127.45 4648.0898 -16.529301 1.8403113e-38
2161.6899 4689.5698 -9.61905 1.8403113e-38
621.46899 83.783401 2.1693699 1.8403113e-38
641.65601 148.35899 1.5190001 1.8403113e-38
3123.1001 7417.3999 0.345128 1.8403113e-38
3139.75 7419.1299 5.8736601 1.8403113e-38
682.047 127.096 17.933399 1.8403113e-38
695.68103 136.239 21.552401 1.8403113e-38
3202.5 7400.6001 29.6656 1.8403113e-38
747.23901 141.741 38.6614 1.8403113e-38
744.41602 157.14799 35.875301 1.8403113e-38
3217.47 7396.2798 35.330502 1.8403113e-38
800.95898 154.841 55.620499 1.8403113e-38
794.95697 162.73599 52.624001 1.8403113e-38
3281.6299 7382.3198 59.07 1.8403113e-38
827.31598 123.729 68.361 1.8403113e-38
3296.53 7377.71 64.744202 1.8403113e-38
819.88 80.459099 70.894203 1.8403113e-38
837.21899 -4.2051601 86.833298 1.8403113e-38
830.89801 4.5412202 83.626602 1.8403113e-38
3358.5901 7356.8501 88.573898 1.8403113e-38
3375.6101 7358.6099 94.227997 1.8403113e-38
841.802 -104.719 100.245 1.8403113e-38
865.96301 -63.382301 103.7 1.8403113e-38
3440.3 7345.0801 118.102 1.8403113e-38
