# .PCD v0.7 - Point Cloud Data file format
VERSION 0.7
FIELDS x y z rgb
SIZE 4 4 4 4
TYPE F F F F
COUNT 1 1 1 1
WIDTH 361
HEIGHT 1
VIEWPOINT 0 0 0 1 0 0 0
POINTS 361
DATA ascii
-456.267 -1455.03 -308.504 1.8403113e-38
-388.28699 -817.745 -300.883 1.8403113e-38
-349.57999 -302.95099 -300.60999 1.8403113e-38
-345.702 -233.355 -301.064 1.8403113e-38
-341.65399 -165.826 -301.40201 1.8403113e-38
-342.33701 -110.11 -303.14099 1.8403113e-38
-327.862 -26.329399 -300.129 1.8403113e-38
-312.09299 250.83501 -301.823 1.8403113e-38
-300.45999 359.418 -300.50601 1.8403113e-38
-286.17401 543.922 -300.258 1.8403113e-38
-284.55701 583.87799 -300.73999 1.8403113e-38
-280.22699 626.95203 -300.32101 1.8403113e-38
-278.565 664.883 -300.733 1.8403113e-38
-279.69199 697.75299 -302.022 1.8403113e-38
-273.836 772.77502 -301.90399 1.8403113e-38
-246.198 1096.92 -300.54599 1.8403113e-38
-241.155 1153.05 -300.21799 1.8403113e-38
-381.586 -968.375 -294.41901 1.8403113e-38
-386.237 -894.81299 -298.07599 1.8403113e-38
-371.21899 -697.79602 -297.897 1.8403113e-38
-358.52701 -593.02698 -296.09399 1.8403113e-38
-357.328 -518.76099 -297.647 1.8403113e-38
-355.42001 -445.65701 -298.91 1.8403113e-38
-352.41599 -372.81601 -299.76901 1.8403113e-38
-321.68399 38.530701 -299.62201 1.8403113e-38
-312.23199 107.458 -298.03601 1.8403113e-38
-306.92001 166.44901 -297.68701 1.8403113e-38
-308.37299 211.30299 -299.414 1.8403113e-38
-297.09799 321.978 -298.284 1.8403113e-38
-289.673 419.65201 -298.202 1.8403113e-38
-291.30701 457.59299 -299.811 1.8403113e-38
-286.71201 504.63101 -299.40201 1.8403113e-38
-270.315 745.06799 -299.884 1.8403113e-38
-264.98401 817.18597 -299.879 1.8403113e-38
-261.28799 853.36499 -299.50601 1.8403113e-38
-259.43701 886.19299 -299.71301 1.8403113e-38
-257.73499 918.07703 -299.948 1.8403113e-38
-250.226 956.80103 -298.259 1.8403113e-38
-251.845 982.91498 -299.54501 1.8403113e-38
-247.02699 1016.6 -298.698 1.8403113e-38
-246.069 1044.76 -299.103 1.8403113e-38
-245.366 1072.02 -299.578 1.8403113e-38
-240.368 1129.15 -299.293 1.8403113e-38
-235.82201 1183.45 -299.09601 1.8403113e-38
-228.127 1215.8101 -297.16901 1.8403113e-38
-233.172 1233.54 -299.474 1.8403113e-38
-228.714 1261.26 -298.59799 1.8403113e-38
-223.22701 1289.5 -297.362 1.8403113e-38
-224.131 1310.53 -298.25299 1.8403113e-38
-221.375 1334.95 -297.90601 1.8403113e-38
-220.37399 1357.17 -298.13699 1.8403113e-38
-220.487 1377.91 -298.73401 1.8403113e-38
-216.86099 1401.9399 -298.06 1.8403113e-38
-211.526 1427.16 -296.79901 1.8403113e-38
-213.674 1444.89 -298.05301 1.8403113e-38
-209.19099 1468.5 -297.05701 1.8403113e-38
-208.013 1488.6801 -297.17001 1.8403113e-38
-205.871 1509.41 -296.94699 1.8403113e-38
-209.325 1524.92 -298.616 1.8403113e-38
-200.11099 1551.13 -295.97299 1.8403113e-38
-198.70799 1570.23 -295.97501 1.8403113e-38
-200.811 1586.16 -297.164 1.8403113e-38
-196.73801 1606.92 -296.242 1.8403113e-38
-199.217 1622.12 -297.548 1.8403113e-38
-197.735 1640.26 -297.496 1.8403113e-38
-192.22099 1661.25 -296.056 1.8403113e-38
-193.384 1676.84 -296.89499 1.8403113e-38
-188.18401 1696.98 -295.547 1.8403113e-38
-192.87601 1709.58 -297.58701 1.8403113e-38
-185.694 1730.6 -295.543 1.8403113e-38
-186.92999 1745.35 -296.38599 1.8403113e-38
-177.709 1767.15 -293.62201 1.8403113e-38
-184.96001 1777.42 -296.52899 1.8403113e-38
-180.11 1795.72 -295.259 1.8403113e-38
-177.468 1812.3101 -294.74399 1.8403113e-38
-176.26401 1827.76 -294.72 1.8403113e-38
-175.71001 1842.62 -294.91599 1.8403113e-38
-175.00101 1857.42 -295.05499 1.8403113e-38
-170.028 1874.61 -293.70999 1.8403113e-38
-168.168 1889.72 -293.44 1.8403113e-38
-176.108 1899.02 -296.57001 1.8403113e-38
-174.811 1913.58 -296.48901 1.8403113e-38
-166.66499 1931.76 -294.01901 1.8403113e-38
-163.358 1947.02 -293.22699 1.8403113e-38
-171.534 1969.3101 -296.79099 1.8403113e-38
-162.425 1960.83 -293.258 1.8403113e-38
-156.73801 1989.99 -291.974 1.8403113e-38
-161.366 2000.61 -293.93799 1.8403113e-38
-162.472 2012.9399 -294.67001 1.8403113e-38
-164.326 2024.84 -295.66101 1.8403113e-38
-157.42 2040.73 -293.57901 1.8403113e-38
-157.28999 2053.3201 -293.86899 1.8403113e-38
-161.399 2063.95 -295.64499 1.8403113e-38
-160.173 2076.8701 -295.54599 1.8403113e-38
-157.94501 2090.1001 -295.091 1.8403113e-38
-154.709 2103.6101 -294.27802 1.8403113e-38
-155.755 2115.28 -294.97 1.8403113e-38
-153.153 2128.3 -294.37399 1.8403113e-38
-150.42599 2141.23 -293.73001 1.8403113e-38
-156.48801 2150.8301 -296.18799 1.8403113e-38
-143.70599 2167.1799 -291.98499 1.8403113e-38
-145.089 2178.3101 -292.785 1.8403113e-38
-150.87 2187.9299 -295.14099 1.8403113e-38
-137.81799 2215.0901 -291.13 1.8403113e-38
-139.696 2225.8301 -292.099 1.8403113e-38
-142.39101 2236.3 -293.358 1.8403113e-38
-133.17 2250.1799 -290.38199 1.8403113e-38
-135.666 2260.5901 -291.56699 1.8403113e-38
-134.42 2272.01 -291.42001 1.8403113e-38
-131.627 2294.6899 -291.013 1.8403113e-38
-136.51601 2304.4399 -293.04901 1.8403113e-38
-132.22701 2327.1599 -292.10001 1.8403113e-38
-129.39 2349.28 -291.66199 1.8403113e-38
-129.21899 2360.02 -291.888 1.8403113e-38
-125.371 2392.5601 -291.36099 1.8403113e-38
-120.479 2414.3201 -290.168 1.8403113e-38
-121.63 2424.6201 -290.862 1.8403113e-38
-122.696 2434.9399 -291.52499 1.8403113e-38
-117.082 2456.3799 -290.061 1.8403113e-38
-115.796 2477.1799 -290.151 1.8403113e-38
-118.308 2487.3 -291.33301 1.8403113e-38
-118.86 2497.5901 -291.80899 1.8403113e-38
-116.892 2518.3201 -291.64999 1.8403113e-38
-113.644 2538.98 -291.02301 1.8403113e-38
-116.637 2559.45 -292.65799 1.8403113e-38
-110.017 2569.73 -290.53 1.8403113e-38
-108.014 2579.9299 -290.07599 1.8403113e-38
-107.807 2590.1299 -290.27301 1.8403113e-38
-111.378 2620.9199 -292.39401 1.8403113e-38
-354.362 -985.34601 -284.08301 1.8403113e-38
-134.94901 2204.6599 -289.81 1.8403113e-38
-129.41 2284.3101 -289.931 1.8403113e-38
-122.908 2318.4399 -288.48401 1.8403113e-38
-123.924 2339.6799 -289.42099 1.8403113e-38
-122.459 2371.8999 -289.75101 1.8403113e-38
-122.098 2382.53 -289.905 1.8403113e-38
-119.244 2404.02 -289.444 1.8403113e-38
-116.192 2446.1101 -289.46301 1.8403113e-38
-116.014 2466.8301 -289.953 1.8403113e-38
-108.997 2508.47 -288.51999 1.8403113e-38
-107.793 2528.95 -288.63101 1.8403113e-38
-108.133 2549.3401 -289.29999 1.8403113e-38
-102.819 2600.2 -288.73199 1.8403113e-38
-101.508 2610.3101 -288.52701 1.8403113e-38
-103.328 2630.74 -289.73499 1.8403113e-38
-94.265297 2640.3501 -286.702 1.8403113e-38
-95.438499 2650.5601 -287.401 1.8403113e-38
-93.717003 2660.5701 -287.04401 1.8403113e-38
-94.721497 2670.8101 -287.68301 1.8403113e-38
-91.900703 2680.7 -286.923 1.8403113e-38
-88.066704 2690.4399 -285.79199 1.8403113e-38
-89.754501 2700.79 -286.68201 1.8403113e-38
-88.557999 2710.8301 -286.51599 1.8403113e-38
-87.279297 2720.8501 -286.32001 1.8403113e-38
-85.918404 2730.8601 -286.09399 1.8403113e-38
-81.690201 2740.4199 -284.815 1.8403113e-38
-83.878098 2751 -285.89301 1.8403113e-38
-81.344498 2760.8201 -285.23599 1.8403113e-38
-83.353699 2771.46 -286.25 1.8403113e-38
-79.732399 2781.0801 -285.19299 1.8403113e-38
-81.563004 2791.78 -286.14401 1.8403113e-38
-77.7817 2801.3401 -285.02701 1.8403113e-38
-79.432602 2812.1001 -285.914 1.8403113e-38
-76.407898 2821.8301 -285.077 1.8403113e-38
-70.563301 2830.8401 -283.19601 1.8403113e-38
-75.599098 2842.5701 -285.33801 1.8403113e-38
-72.330704 2852.23 -284.41 1.8403113e-38
-74.4338 2863.3601 -285.47198 1.8403113e-38
-75.528603 2874.29 -286.16101 1.8403113e-38
-71.102699 2883.6599 -284.806 1.8403113e-38
-72.914597 2894.8999 -285.76401 1.8403113e-38
-71.925201 2905.3601 -285.685 1.8403113e-38
-66.362297 2914.3601 -283.90701 1.8403113e-38
-69.674599 2926.28 -285.42801 1.8403113e-38
-66.630096 2936.1399 -284.58701 1.8403113e-38
-65.282799 2946.6001 -284.37799 1.8403113e-38
-68.275299 2958.6899 -285.78699 1.8403113e-38
-61.431301 2967.2 -283.53101 1.8403113e-38
-63.3354 2979.03 -284.539 1.8403113e-38
-59.8587 2988.8301 -283.539 1.8403113e-38
-64.1744 3001.8201 -285.453 1.8403113e-38
-58.7673 3010.8899 -283.733 1.8403113e-38
-55.898201 3021.02 -282.96301 1.8403113e-38
-56.4048 3032.6699 -283.45801 1.8403113e-38
-55.075199 3043.5701 -283.26801 1.8403113e-38
-51.928699 3053.7 -282.396 1.8403113e-38
-53.829102 3066.24 -283.422 1.8403113e-38
-59.010399 3080.5 -285.68399 1.8403113e-38
-47.913101 3086.8899 -281.827 1.8403113e-38
-55.382999 3102.5701 -284.95801 1.8403113e-38
-52.576199 3113.1799 -284.22299 1.8403113e-38
-56.376801 3127.3401 -285.98199 1.8403113e-38
-50.015999 3136.1699 -283.909 1.8403113e-38
-53.552502 3150.46 -285.57501 1.8403113e-38
-47.843899 3159.71 -283.75101 1.8403113e-38
-50.2869 3173.6599 -285.01099 1.8403113e-38
-52.578999 3187.7 -286.21899 1.8403113e-38
-57.9758 3203.8 -288.60901 1.8403113e-38
-53.465302 3214.0601 -287.246 1.8403113e-38
-48.867001 3224.29 -285.85001 1.8403113e-38
-49.7924 3238.0801 -286.55499 1.8403113e-38
-44.988899 3248.28 -285.08499 1.8403113e-38
-42.476501 3260.04 -284.487 1.8403113e-38
-42.215801 3273.4099 -284.75101 1.8403113e-38
-38.677898 3284.6599 -283.76801 1.8403113e-38
-38.931599 3298.6499 -284.23401 1.8403113e-38
-44.457401 3316.6201 -286.72101 1.8403113e-38
-40.523102 3327.95 -285.59601 1.8403113e-38
-37.247501 3339.8501 -284.72501 1.8403113e-38
-44.504398 3359.8601 -287.89499 1.8403113e-38
-41.6838 3372.4299 -287.20801 1.8403113e-38
-34.2304 3381.46 -284.74399 1.8403113e-38
-31.184401 3394.01 -283.974 1.8403113e-38
-34.6786 3412.04 -285.72501 1.8403113e-38
-29.123699 3422.8201 -283.99701 1.8403113e-38
-30.777399 3439.78 -285.05099 1.8403113e-38
-10.5021 3570.6499 -281.194 1.8403113e-38
-12.3221 3590.3 -282.38 1.8403113e-38
-5.1765299 3601.04 -280.07401 1.8403113e-38
-9.2347898 3623.6299 -282.151 1.8403113e-38
-7.3152699 3659.3 -282.409 1.8403113e-38
-3.4407301 3674.3501 -281.40601 1.8403113e-38
-3.2428899 3693.77 -281.854 1.8403113e-38
2.2892499 3727.7 -280.754 1.8403113e-38
3.3197 3426.04 -272.30701 1.8403113e-38
0.18421599 3632.25 -278.96301 1.8403113e-38
5.4567399 3703.78 -278.96399 1.8403113e-38
6.91745 3742.8601 -279.479 1.8403113e-38
8.0175304 3762.51 -279.60599 1.8403113e-38
14.8618 3775.45 -277.46799 1.8403113e-38
14.5898 3797.48 -278.15601 1.8403113e-38
-313.87601 -966.604 -269.88901 1.8403113e-38
23.1954 3520.0701 -267.608 1.8403113e-38
36.735802 3791.28 -269.95099 1.8403113e-38
80.217598 4343.8901 -268.957 1.8403113e-38
93.553101 4355.0498 -264.41501 1.8403113e-38
53.489601 3474.22 -255.38499 1.8403113e-38
107.869 4364.3398 -259.46701 1.8403113e-38
115.862 4386.79 -257.16699 1.8403113e-38
158.56599 4336.21 -240.312 1.8403113e-38
167.27 4728.3301 -247.647 1.8403113e-38
127.146 3780.1599 -236.836 1.8403113e-38
175.215 4339.54 -234.358 1.8403113e-38
182.94501 4362.4502 -232.16499 1.8403113e-38
197.041 4599 -233.379 1.8403113e-38
212.04201 4718.52 -231.133 1.8403113e-38
-192.011 -807.43103 -229.914 1.8403113e-38
124.977 3334.21 -225.69 1.8403113e-38
142.94299 3736.5701 -229.936 1.8403113e-38
176.36501 3870.27 -221.382 1.8403113e-38
203.70799 4356.4902 -224.46899 1.8403113e-38
212.216 4378.3599 -221.966 1.8403113e-38
203.425 4442.04 -226.86099 1.8403113e-38
206.49899 4479.5601 -226.74899 1.8403113e-38
230.42 4723.9702 -224.608 1.8403113e-38
-159.16 -896.40198 -215.608 1.8403113e-38
-141.85001 -752.03101 -213.189 1.8403113e-38
146.36 3328.79 -217.783 1.8403113e-38
150.55299 3338.6101 -216.52299 1.8403113e-38
148.505 3354.3 -217.687 1.8403113e-38
154.338 3362.8101 -215.797 1.8403113e-38
185.26199 3638.9399 -211.96201 1.8403113e-38
167.584 3642.9099 -218.485 1.8403113e-38
195.862 3644.1201 -208.25301 1.8403113e-38
218.369 3827.05 -204.979 1.8403113e-38
228.851 4023.8601 -206.44099 1.8403113e-38
267.461 4374.1802 -201.80099 1.8403113e-38
292.375 4659.21 -200.386 1.8403113e-38
267.16299 4675.8901 -209.98399 1.8403113e-38
295.51001 4709.1201 -200.58299 1.8403113e-38
-87.942001 -773.91302 -193.035 1.8403113e-38
230.87 3760.4399 -198.659 1.8403113e-38
253.024 3794.04 -191.51601 1.8403113e-38
291.94199 4448.7998 -194.912 1.8403113e-38
315.53 4708.1001 -193.289 1.8403113e-38
-25.967199 -673.21997 -173.23399 1.8403113e-38
289.87201 3570.3701 -172.155 1.8403113e-38
286.57401 3761.3301 -178.463 1.8403113e-38
300.85101 3760.29 -173.252 1.8403113e-38
0.144383 -782.87299 -160.821 1.8403113e-38
-6.6479702 -706.11298 -165.341 1.8403113e-38
306.45099 3564.8701 -165.99001 1.8403113e-38
317.96799 3566.4099 -161.851 1.8403113e-38
312.14899 3764.1799 -169.256 1.8403113e-38
316.297 3780.8101 -168.19501 1.8403113e-38
326.77899 3786.26 -164.536 1.8403113e-38
327.10901 3810.6499 -165.069 1.8403113e-38
380.535 4559.96 -165.729 1.8403113e-38
29.268999 -785.91998 -150.168 1.8403113e-38
332.15302 3563.75 -156.63 1.8403113e-38
339.31601 3571.54 -154.239 1.8403113e-38
15.1062 -1183.53 -144.668 1.8403113e-38
-14.8675 -1898.2 -136.422 1.8403113e-38
61.046398 -889.43402 -135.86301 1.8403113e-38
59.4398 -784.836 -139.245 1.8403113e-38
494.81201 4236.8101 -115.6 1.8403113e-38
137.998 -825.26703 -109.648 1.8403113e-38
175.94 -791.06403 -96.790901 1.8403113e-38
204.855 -792.39697 -86.259697 1.8403113e-38
205.147 -1372 -70.642403 1.8403113e-38
228.776 -950.40198 -73.348099 1.8403113e-38
239.339 -1369.01 -58.311298 1.8403113e-38
278.164 -858.284 -57.8862 1.8403113e-38
640.297 3784.8899 -50.696999 1.8403113e-38
243.638 -1948.72 -41.2369 1.8403113e-38
660.45697 3751.8701 -42.495499 1.8403113e-38
682.46301 3748.3999 -34.414902 1.8403113e-38
670.45001 3754.03 -38.9259 1.8403113e-38
691.922 3752.27 -31.0851 1.8403113e-38
279.297 -1964.01 -27.883801 1.8403113e-38
364.25299 -867.27899 -26.396601 1.8403113e-38
701.18402 3757.03 -27.8503 1.8403113e-38
712.776 3752.02 -23.5086 1.8403113e-38
316.478 -1970.0699 -14.2252 1.8403113e-38
392.608 -871.70398 -15.9855 1.8403113e-38
724.70099 3744.95 -18.990801 1.8403113e-38
734.15802 3748.4399 -15.6512 1.8403113e-38
745.68799 3742.1101 -11.2965 1.8403113e-38
355.237 -1964.91 -0.29483199 1.8403113e-38
766.49402 3738.8401 -3.6570101 1.8403113e-38
755.33099 3744.4299 -7.8583202 1.8403113e-38
776.10797 3740.97 -0.22422799 1.8403113e-38
787.11102 3735.1599 3.92504 1.8403113e-38
796.85498 3736.1201 7.4367399 1.8403113e-38
807.99701 3728.1201 11.6951 1.8403113e-38
827.888 3725.6001 18.982599 1.8403113e-38
817.224 3731.8401 14.9448 1.8403113e-38
462.17001 -1440.96 24.4986 1.8403113e-38
837.38599 3727.1599 22.388599 1.8403113e-38
846.896 3728.6299 25.801201 1.8403113e-38
856.302 3731 29.151899 1.8403113e-38
510.13101 -1323.34 38.759899 1.8403113e-38
866.80103 3723.3701 33.167099 1.8403113e-38
876.375 3723.5701 36.636799 1.8403113e-38
885.76001 3725.6799 39.987301 1.8403113e-38
522.05499 -1501.1801 47.8475 1.8403113e-38
895.90997 3718.74 43.856998 1.8403113e-38
905.34302 3719.6599 47.2565 1.8403113e-38
502.24799 -2003.1801 54.091999 1.8403113e-38
915.17902 3714.53 50.9641 1.8403113e-38
933.92798 3716.9299 57.705502 1.8403113e-38
924.05701 3724.25 53.926601 1.8403113e-38
962.927 3688.4199 68.994598 1.8403113e-38
953.55402 3694.03 65.442299 1.8403113e-38
943.755 3707.53 61.5243 1.8403113e-38
969.07703 3870.6101 66.351501 1.8403113e-38
979.01501 3957.8201 67.624802 1.8403113e-38
642.98999 -959.28699 77.242897 1.8403113e-38
990.40503 3940.99 72.209503 1.8403113e-38
686.94897 -795.77698 88.823898 1.8403113e-38
999.88098 3719.1201 81.5868 1.8403113e-38
1018.73 3718.96 88.4328 1.8403113e-38
1009.69 3743.0801 84.507797 1.8403113e-38
714.888 -794.21301 98.923203 1.8403113e-38
1037.5699 3718.45 95.284897 1.8403113e-38
1028.48 3728.74 91.709 1.8403113e-38
1047.42 3727.05 98.632202 1.8403113e-38
741.60498 -808.34497 108.999 1.8403113e-38
1055.88 3708.6001 102.195 1.8403113e-38
1065.73 3716.03 105.573 1.8403113e-38
1074.91 3712.3899 109 1.8403113e-38
