# .PCD v0.7 - Point Cloud Data file format
VERSION 0.7
FIELDS x y z rgb
SIZE 4 4 4 4
TYPE F F F F
COUNT 1 1 1 1
WIDTH 354
HEIGHT 1
VIEWPOINT 0 0 0 1 0 0 0
POINTS 354
DATA ascii
-679.19501 -181.45399 -281.871 1.8403113e-38
-723.677 571.45697 -280.185 1.8403113e-38
-742.13898 846.117 -280.38199 1.8403113e-38
-745.06598 878.25897 -280.68301 1.8403113e-38
-747.29401 904.289 -280.87601 1.8403113e-38
-753.82599 928.651 -282.67099 1.8403113e-38
-753.367 957.90802 -281.811 1.8403113e-38
-752.513 992.995 -280.66901 1.8403113e-38
-756.42603 1013.7 -281.599 1.8403113e-38
-757.29199 1044.41 -281.18701 1.8403113e-38
-764.883 1058.45 -283.61099 1.8403113e-38
-766.62903 1086.54 -283.57999 1.8403113e-38
-767.26001 1110.3 -283.245 1.8403113e-38
-766.586 1140.59 -282.28299 1.8403113e-38
-768.80103 1160.95 -282.60501 1.8403113e-38
-771.30902 1185.4399 -282.935 1.8403113e-38
-773.56897 1204.88 -283.29501 1.8403113e-38
-778.34497 1225.3101 -284.54599 1.8403113e-38
-770.76099 1257.09 -281.03799 1.8403113e-38
-823.56897 1940.37 -284.02701 1.8403113e-38
-818.43701 1954.97 -281.81699 1.8403113e-38
-828.10999 1963.22 -285.13501 1.8403113e-38
-821.88702 1978.14 -282.521 1.8403113e-38
-829.729 1987.41 -285.14999 1.8403113e-38
-824.89502 2001.24 -283.06601 1.8403113e-38
-821.65698 2016.38 -281.53101 1.8403113e-38
-825.78101 2025.14 -282.82199 1.8403113e-38
-828.75 2047.62 -283.367 1.8403113e-38
-841.99902 2054.21 -288.02301 1.8403113e-38
-828.73401 2071.27 -282.80099 1.8403113e-38
-832.38702 2082.3899 -283.86499 1.8403113e-38
-829.12598 2094.3501 -282.396 1.8403113e-38
-836.89301 2103.55 -285 1.8403113e-38
-829.08099 2117.29 -281.83701 1.8403113e-38
-836.47699 2136.8601 -284.05899 1.8403113e-38
-826.20398 2130.9399 -280.46799 1.8403113e-38
-832.49799 2150.79 -282.284 1.8403113e-38
-829.46301 2162.02 -280.91501 1.8403113e-38
-836.69299 2171.4099 -283.319 1.8403113e-38
-836.125 2181.5801 -282.87201 1.8403113e-38
-838.75598 2192.6799 -283.564 1.8403113e-38
-829.98499 2205.5801 -280.073 1.8403113e-38
-837.76001 2214.79 -282.67801 1.8403113e-38
-834.14001 2225.72 -281.10501 1.8403113e-38
-834.56403 2237.3201 -280.98401 1.8403113e-38
-836.151 2246.4399 -281.34399 1.8403113e-38
-833.66302 2258.8101 -280.147 1.8403113e-38
-837.80499 2267.1299 -281.45401 1.8403113e-38
-836.92102 2278.9199 -280.854 1.8403113e-38
-839.10199 2287.78 -281.436 1.8403113e-38
-837.10303 2299.74 -280.427 1.8403113e-38
-842.78601 2307.7 -282.302 1.8403113e-38
-843.33801 2318.97 -282.23599 1.8403113e-38
-844.66602 2339.3301 -282.23499 1.8403113e-38
-845.47803 2348.4399 -282.314 1.8403113e-38
-842.7475 2364.8401 -280.93399 1.8403113e-38
-843.30103 2385.0601 -280.65601 1.8403113e-38
-843.80603 2400.6399 -280.47 1.8403113e-38
-847.12 2424.8599 -281.09949 1.8403113e-38
-853.69702 2448.72 -282.92401 1.8403113e-38
-848.97498 2440.1899 -281.41 1.8403113e-38
-852.00702 2459.9299 -282.04401 1.8403113e-38
-852.84802 2468.8999 -282.13699 1.8403113e-38
-853.78101 2479.8101 -282.21701 1.8403113e-38
-854.47498 2488.8 -282.25601 1.8403113e-38
-850.81152 2504.5049 -280.5535 1.8403113e-38
-854.47101 2519.75 -281.521 1.8403113e-38
-852.99103 2528.8 -280.76901 1.8403113e-38
-852.69501 2548.71 -280.19 1.8403113e-38
-548.26898 -1807.37 -272.84698 1.8403113e-38
-654.91803 -192.567 -273.31699 1.8403113e-38
-675.711 -102.279 -278.729 1.8403113e-38
-678.172 -30.124901 -277.91299 1.8403113e-38
-678.32898 31.7624 -276.504 1.8403113e-38
-680.58197 97.927002 -275.754 1.8403113e-38
-682.00598 151.108 -275.01099 1.8403113e-38
-684.72699 210.433 -274.59399 1.8403113e-38
-692.13702 243.98399 -276.48999 1.8403113e-38
-696.151 295.69901 -276.72198 1.8403113e-38
-703.63202 326.40302 -278.71201 1.8403113e-38
-706.97998 376.07901 -278.75 1.8403113e-38
-693.98102 451.99301 -272.23001 1.8403113e-38
-704.30603 481.38501 -275.284 1.8403113e-38
-710.88202 509.07501 -277.01599 1.8403113e-38
-720.78003 537.56897 -279.936 1.8403113e-38
-718.58801 629.16101 -276.96899 1.8403113e-38
-709.52197 684.85797 -272.35699 1.8403113e-38
-709.26099 728.78601 -271.22101 1.8403113e-38
-733.50403 757.83801 -279.33801 1.8403113e-38
-734.43799 789.35602 -278.92999 1.8403113e-38
-738.71301 820.79999 -279.73801 1.8403113e-38
-817.18298 2042.71 -279.28299 1.8403113e-38
-835.12701 2330.1699 -278.98801 1.8403113e-38
-842.29602 2409.96 -279.70099 1.8403113e-38
-844.92999 2539.9399 -277.577 1.8403113e-38
-850.09003 2559.6399 -278.98499 1.8403113e-38
-850.19202 2568.5801 -278.81 1.8403113e-38
-842.70801 2579.3799 -275.836 1.8403113e-38
-840.784 2588.23 -274.927 1.8403113e-38
-846.28101 2599.1699 -276.66501 1.8403113e-38
-848.909 2608.1799 -277.40601 1.8403113e-38
-844.83002 2618.8601 -275.67099 1.8403113e-38
-845.43298 2627.8101 -275.67801 1.8403113e-38
-844.93402 2638.6299 -275.241 1.8403113e-38
-843.51398 2647.46 -274.51501 1.8403113e-38
-845.651 2658.49 -275.03 1.8403113e-38
-845.95801 2667.48 -274.92899 1.8403113e-38
-859.14697 2679.75 -279.42801 1.8403113e-38
-852.74701 2688.1299 -276.905 1.8403113e-38
-861.05054 2704.7251 -279.5275 1.8403113e-38
-855.15302 2719.6201 -277.03299 1.8403113e-38
-853.138 2728.45 -276.09201 1.8403113e-38
-854.526 2739.78 -276.327 1.8403113e-38
-854.224 2748.8999 -276.00101 1.8403113e-38
-858.20502 2760.79 -277.16501 1.8403113e-38
-862.38 2770.8301 -278.444 1.8403113e-38
-855.96698 2780.8899 -275.87601 1.8403113e-38
-859.97601 2791.01 -277.09299 1.8403113e-38
-866.31097 2803.76 -279.091 1.8403113e-38
-858.159 2811.3601 -275.95099 1.8403113e-38
-861.52301 2823.5901 -276.883 1.8403113e-38
-859.67102 2832.6101 -275.996 1.8403113e-38
-858.245 2843.78 -275.21399 1.8403113e-38
-862.64099 2854.46 -276.55701 1.8403113e-38
-846.42603 2861.6599 -270.49701 1.8403113e-38
-864.30902 2876.24 -276.647 1.8403113e-38
-856.12903 2885.6101 -273.45401 1.8403113e-38
-854.724 2894.8501 -272.724 1.8403113e-38
-859.047 2908.01 -273.983 1.8403113e-38
-863.77802 2919.3401 -275.43301 1.8403113e-38
-862.453 2930.9099 -274.677 1.8403113e-38
-866.08002 2942.0901 -275.73001 1.8403113e-38
-863.646 2953.3999 -274.578 1.8403113e-38
-860.83301 2962.4199 -273.34201 1.8403113e-38
-863.54102 2975.7 -274.01099 1.8403113e-38
-867.65002 2987.45 -275.22501 1.8403113e-38
-863.914 2998.45 -273.60699 1.8403113e-38
-868.68903 3010.6899 -275.052 1.8403113e-38
-866.49799 3022.4399 -273.978 1.8403113e-38
-871.04401 3034.8501 -275.33401 1.8403113e-38
-864.26801 3044.73 -272.63901 1.8403113e-38
-877.27502 3061.1699 -276.974 1.8403113e-38
-870.28101 3071.0601 -274.19901 1.8403113e-38
-875.21503 3084.1899 -275.67999 1.8403113e-38
-871.466 3095.6699 -274.047 1.8403113e-38
-869.31 3105.5901 -273.02802 1.8403113e-38
-872.17297 3120.48 -273.715 1.8403113e-38
-874.90802 3133.0601 -274.41101 1.8403113e-38
-869.01703 3143.6699 -272.01999 1.8403113e-38
-869.841 3155.4399 -272.04001 1.8403113e-38
-872.96198 3171.0701 -272.80301 1.8403113e-38
-875.20599 3183.8999 -273.314 1.8403113e-38
-877.16498 3199.26 -273.66199 1.8403113e-38
-879.138 3212.24 -274.07101 1.8403113e-38
-875.84302 3224.8201 -272.57599 1.8403113e-38
-884.92401 3242.4099 -275.457 1.8403113e-38
-882.96002 3256.1001 -274.42001 1.8403113e-38
-882.76398 3268.3401 -274.05801 1.8403113e-38
-882.94 3283.6499 -273.759 1.8403113e-38
-895.30798 3304.45 -277.759 1.8403113e-38
-894.29401 3319.46 -277.034 1.8403113e-38
-892.73297 3331.4199 -276.18399 1.8403113e-38
-891.414 3346.51 -275.34799 1.8403113e-38
-888.82501 3357.96 -274.13599 1.8403113e-38
-889.539 3374.8 -273.996 1.8403113e-38
-895.22198 3392.6001 -275.63901 1.8403113e-38
-894.76202 3409.0601 -275.08099 1.8403113e-38
-899.28497 3426.53 -276.31 1.8403113e-38
-892.35602 3438.3899 -273.51199 1.8403113e-38
-901.05902 3459.6399 -276.17001 1.8403113e-38
-899.07202 3475.8 -275.065 1.8403113e-38
-901.33698 3492.45 -275.49301 1.8403113e-38
-900.45398 3509.97 -274.75699 1.8403113e-38
-901.60901 3526.1599 -274.793 1.8403113e-38
-897.401 3541.26 -272.90701 1.8403113e-38
-901.836 3560.79 -274.05499 1.8403113e-38
-899.41199 3577.9199 -272.76901 1.8403113e-38
-905.54901 3599.6399 -274.483 1.8403113e-38
-897.01099 3611.6201 -271.09799 1.8403113e-38
-902.69397 3633.5701 -272.642 1.8403113e-38
-907.09497 3658.3601 -273.65302 1.8403113e-38
-905.98999 3674.5 -272.86899 1.8403113e-38
-515.62598 -1812.9399 -261.12299 1.8403113e-38
-633.51202 -197.12199 -265.64999 1.8403113e-38
-708.10199 765.58197 -269.92801 1.8403113e-38
-760.26398 1965.24 -260.44501 1.8403113e-38
-604.539 -192.567 -255.019 1.8403113e-38
-869.29199 3658.95 -259.909 1.8403113e-38
-851.71399 3658.23 -253.54201 1.8403113e-38
-844.638 3671.79 -250.651 1.8403113e-38
-846.43903 3712.5901 -250.338 1.8403113e-38
-472.81299 -1799.87 -245.26401 1.8403113e-38
-582.08099 -192.87199 -246.869 1.8403113e-38
-837.84497 3682 -247.94099 1.8403113e-38
-835.36902 3718.52 -246.177 1.8403113e-38
-819.18103 3722.5801 -240.201 1.8403113e-38
-441.88 -1815.66 -234.403 1.8403113e-38
-556.04498 -197.28 -237.51801 1.8403113e-38
-818.43103 3739.9199 -239.51801 1.8403113e-38
-820.71997 3765.0901 -239.75301 1.8403113e-38
-532.62598 -193.30901 -228.918 1.8403113e-38
-622.62402 1475.49 -222.06 1.8403113e-38
-628.38202 1579.47 -221.688 1.8403113e-38
-635.73602 1586.65 -224.188 1.8403113e-38
-632.409 1609.23 -222.44501 1.8403113e-38
-671.841 2009.74 -227.276 1.8403113e-38
-662.69 2003.24 -224.106 1.8403113e-38
-505.901 -194.311 -219.235 1.8403113e-38
-483.17099 -191.793 -210.92 1.8403113e-38
-597.25201 1562.09 -210.793 1.8403113e-38
-604.48901 1572.76 -213.16901 1.8403113e-38
-610.646 1581.22 -215.20399 1.8403113e-38
-620.95001 1953.28 -210.13 1.8403113e-38
-632.599 1967.9301 -214.01401 1.8403113e-38
-637.07599 1975.1 -215.47 1.8403113e-38
-634.55902 1989.25 -214.22099 1.8403113e-38
-633.68701 2012.02 -213.364 1.8403113e-38
-458.22699 -199.01801 -202.032 1.8403113e-38
-588.27197 1537.01 -208.12601 1.8403113e-38
-582.45801 1564.34 -205.367 1.8403113e-38
-581.27899 1681.1801 -202.17 1.8403113e-38
-576.87402 1702.96 -200.054 1.8403113e-38
-615.30402 1944.72 -208.283 1.8403113e-38
-617.78601 1965.96 -208.681 1.8403113e-38
-619.05298 2009.6899 -208.105 1.8403113e-38
-436.06699 -197.996 -193.959 1.8403113e-38
-570.12799 1723.84 -197.10899 1.8403113e-38
-569.77399 1740.37 -196.589 1.8403113e-38
-564.53101 1758.85 -194.246 1.8403113e-38
-562.37 1776.55 -193.04201 1.8403113e-38
-558.03003 1793.39 -191.067 1.8403113e-38
-558.56799 1845.83 -190.02 1.8403113e-38
-390.491 -729.36798 -189.998 1.8403113e-38
-409.314 -196.981 -184.218 1.8403113e-38
-553.33502 1812.86 -188.89999 1.8403113e-38
-553.841 1838.64 -188.47301 1.8403113e-38
-546.47803 1831.4301 -185.97 1.8403113e-38
-534.56299 1881.72 -180.45 1.8403113e-38
-364.026 -458.94101 -173.978 1.8403113e-38
-390.263 -209.127 -177.58701 1.8403113e-38
-517.50897 1908.01 -173.633 1.8403113e-38
-512.66901 1925.11 -171.47 1.8403113e-38
-530.87402 1977.01 -176.85201 1.8403113e-38
-514.64697 1973.2051 -171.0495 1.8403113e-38
-536.03601 1982.75 -178.591 1.8403113e-38
-526.87402 2001.52 -174.819 1.8403113e-38
-639.26099 3571.6101 -178.43201 1.8403113e-38
-360.82501 -301.379 -169.08099 1.8403113e-38
-364.97 -214.43201 -168.526 1.8403113e-38
-504.39801 1942.62 -168.052 1.8403113e-38
-510.05899 1950.05 -169.93201 1.8403113e-38
-506.569 1962.97 -168.358 1.8403113e-38
-605.76501 3551 -166.755 1.8403113e-38
-281.32599 -965.39502 -155.942 1.8403113e-38
-574.86401 3529.1299 -156.05 1.8403113e-38
-559.46802 3528.72 -150.468 1.8403113e-38
-199.08 -1589.97 -140.871 1.8403113e-38
-552.38501 3535.1399 -147.743 1.8403113e-38
-157.418 -1917.08 -133.491 1.8403113e-38
-506.91101 3495.78 -132.16 1.8403113e-38
-544.80798 4105.23 -131.48199 1.8403113e-38
-221.95799 -721.534 -128.601 1.8403113e-38
-480.94901 3476.8999 -123.178 1.8403113e-38
-479.289 3492.51 -122.205 1.8403113e-38
-536.92401 4118.6001 -128.302 1.8403113e-38
-532.78101 4146.6802 -126.132 1.8403113e-38
-116.756 -1918.05 -118.746 1.8403113e-38
-149.35699 -1460.12 -119.734 1.8403113e-38
-167.479 -1006.57 -115.569 1.8403113e-38
-172.008 -765.336 -111.497 1.8403113e-38
-192.27699 -726.11603 -117.93 1.8403113e-38
-473.056 3499.05 -119.786 1.8403113e-38
-468.16699 3510.73 -117.734 1.8403113e-38
-466.93201 3524.3701 -116.962 1.8403113e-38
-461.172 3535.25 -114.612 1.8403113e-38
-458.50699 3547.3101 -113.358 1.8403113e-38
-83.766197 -1924.99 -106.928 1.8403113e-38
-446.40799 3549.1899 -108.92 1.8403113e-38
-440.26099 3556.3 -106.518 1.8403113e-38
-439.99899 3576.0701 -105.955 1.8403113e-38
-429.901 3577.3401 -102.257 1.8403113e-38
-469.82599 3922.75 -108.573 1.8403113e-38
-43.496498 -1932.1899 -92.472702 1.8403113e-38
-423.46201 3587.98 -99.666397 1.8403113e-38
-397.535 3584.3899 -90.334503 1.8403113e-38
-421.12 3601.6299 -98.491997 1.8403113e-38
-408.69601 3643.27 -92.992996 1.8403113e-38
-413.02701 3669.8401 -93.936699 1.8403113e-38
-408.92899 3686.47 -92.0541 1.8403113e-38
-10.1918 -1935.52 -80.455498 1.8403113e-38
-397.099 3601.3201 -89.775101 1.8403113e-38
-401.62601 3693.3401 -89.238701 1.8403113e-38
-396.67599 3709.0801 -87.0681 1.8403113e-38
-394.72601 3726.3601 -85.950401 1.8403113e-38
-387.95901 3739.49 -83.181396 1.8403113e-38
30.395 -1937.98 -65.772797 1.8403113e-38
-330.479 3743.99 -62.198299 1.8403113e-38
67.397003 -1833.83 -49.865601 1.8403113e-38
-267.31699 3633.8899 -41.866901 1.8403113e-38
105.103 -1913.4301 -38.057098 1.8403113e-38
-259.44501 3637.8501 -38.914101 1.8403113e-38
144.54201 -1561.74 -15.399 1.8403113e-38
-178.93201 3479.6799 -13.4198 1.8403113e-38
-151.563 3434.52 -4.5496202 1.8403113e-38
-175.255 3863.8601 -2.98068 1.8403113e-38
211.935 -1883.95 1.4427 1.8403113e-38
-113.399 3403.97 8.58741 1.8403113e-38
-134.24899 3415.24 1.28177 1.8403113e-38
-127.244 3416.27 3.8505599 1.8403113e-38
-163.98399 3861.29 1.05207 1.8403113e-38
-161.38699 3896.6599 2.83358 1.8403113e-38
-156.629 3917.97 5.0663099 1.8403113e-38
-153.77499 3956.3 7.0112 1.8403113e-38
-149.28 3981.49 9.2409697 1.8403113e-38
188.278 -808.909 18.3253 1.8403113e-38
-107.225 3406.6599 10.8937 1.8403113e-38
-101.445 3414.52 13.1792 1.8403113e-38
-93.127899 3411.51 16.1287 1.8403113e-38
-85.549103 3414.5701 18.9538 1.8403113e-38
-141.411 4004.4099 12.642 1.8403113e-38
-136.664 4031.54 15.0088 1.8403113e-38
-132.55 4073.8601 17.505699 1.8403113e-38
-79.295403 3417.03 21.2834 1.8403113e-38
-73.908501 3426.55 23.4655 1.8403113e-38
-71.325699 3440.25 24.7283 1.8403113e-38
-70.193497 3463.95 25.701 1.8403113e-38
-66.551903 3475.79 27.3041 1.8403113e-38
-125.139 4093.21 20.656099 1.8403113e-38
-102.962 4112.8101 29.175301 1.8403113e-38
-120.462 4138.4902 23.427799 1.8403113e-38
244.30701 -886.396 36.838699 1.8403113e-38
272.93399 -1087.23 42.476898 1.8403113e-38
360.634 -1964.66 53.5373 1.8403113e-38
312.07599 -1344.6801 50.592602 1.8403113e-38
-2.6526201 3679.8601 55.348099 1.8403113e-38
14.9154 3632.54 60.6073 1.8403113e-38
358.71201 -910.25098 77.824898 1.8403113e-38
80.037399 3361.3 77.8321 1.8403113e-38
57.794998 3450.6201 71.8703 1.8403113e-38
399.07999 -1213.83 85.292999 1.8403113e-38
94.436096 3354.73 82.906097 1.8403113e-38
104.211 3357.825 86.529495 1.8403113e-38
86.359703 3367.53 80.276001 1.8403113e-38
479.33701 -2022.78 95.272697 1.8403113e-38
114.168 3359.8 90.192703 1.8403113e-38
120.389 3357.6101 92.400398 1.8403113e-38
134.289 3350.24 97.273804 1.8403113e-38
141.032 3353.97 99.811501 1.8403113e-38
126.13 3370.4199 94.789001 1.8403113e-38
513.76398 -2027.72 107.659 1.8403113e-38
168.623 3328.1699 109.221 1.8403113e-38
155.20799 3339.22 104.611 1.8403113e-38
148.099 3340.6001 102.061 1.8403113e-38
159.959 3352.6299 106.654 1.8403113e-38
