# .PCD v0.7 - Point Cloud Data file format
VERSION 0.7
FIELDS x y z rgb
SIZE 4 4 4 4
TYPE F F F F
COUNT 1 1 1 1
WIDTH 334
HEIGHT 1
VIEWPOINT 0 0 0 1 0 0 0
POINTS 334
DATA ascii
166.233 771.42499 -280.83801 1.8403113e-38
-41.106098 898.02899 -280.43399 1.8403113e-38
-133.26749 953.45996 -280.51752 1.8403113e-38
-405.06201 1118.92 -280.14401 1.8403113e-38
-494.48801 1169.67 -281.17001 1.8403113e-38
-552.31799 1197.04 -283.534 1.8403113e-38
-549.45898 1194.6 -283.75299 1.8403113e-38
-531.85199 1193.52 -280.77499 1.8403113e-38
-566.68103 1205.2 -283.69299 1.8403113e-38
-567.823 1211.05 -282.08801 1.8403113e-38
2666.48 -729.67902 -277.73801 1.8403113e-38
2576.3 -651.39001 -270.328 1.8403113e-38
2452.3601 -594.33002 -275.88699 1.8403113e-38
1707.4301 -142.39799 -275.35001 1.8403113e-38
1665.75 -102.698 -270.82999 1.8403113e-38
1601.27 -82.258904 -276.60199 1.8403113e-38
1557 -36.939098 -270.819 1.8403113e-38
1500.54 -23.375999 -277.224 1.8403113e-38
1462.51 15.5804 -272.24899 1.8403113e-38
1403.4 36.477699 -276.867 1.8403113e-38
1369.6801 71.322998 -272.36099 1.8403113e-38
1319.75 82.415497 -278.30399 1.8403113e-38
1287.4 117.102 -273.59 1.8403113e-38
1234.85 135.40401 -277.78201 1.8403113e-38
1209.21 161.605 -274.448 1.8403113e-38
1157.88 181.30901 -277.97198 1.8403113e-38
1089.4399 218.114 -279.392 1.8403113e-38
1131.34 210.545 -273.862 1.8403113e-38
1065.09 245.323 -275.5 1.8403113e-38
1020.12 260.811 -279.14301 1.8403113e-38
997.41101 286.79099 -275.32501 1.8403113e-38
954.95898 300.86499 -278.93301 1.8403113e-38
933.35498 326.427 -275.03699 1.8403113e-38
894.24298 337.25201 -279.02899 1.8403113e-38
875.54901 358.88599 -275.80899 1.8403113e-38
836.39099 372.42099 -278.965 1.8403113e-38
818.22803 394.418 -275.53201 1.8403113e-38
779.56702 409.79199 -278.021 1.8403113e-38
761.94598 432.14099 -274.37701 1.8403113e-38
728.02399 440.47299 -278.16699 1.8403113e-38
715.48798 453.38199 -276.50601 1.8403113e-38
677.35498 473.18799 -277.51599 1.8403113e-38
666.37903 483.66599 -276.31799 1.8403113e-38
634.58197 491.73499 -279.79001 1.8403113e-38
619.28198 513.22101 -275.978 1.8403113e-38
588.56 521.12097 -279.30099 1.8403113e-38
576.33197 536.547 -276.798 1.8403113e-38
543.37903 552.39801 -278.064 1.8403113e-38
533.65503 562.59198 -276.71899 1.8403113e-38
502.151 577.31403 -278.064 1.8403113e-38
490.36499 594.10303 -275.05301 1.8403113e-38
460.328 607.67401 -276.48001 1.8403113e-38
426.729 617.64801 -279.69901 1.8403113e-38
449.914 621.91901 -274.004 1.8403113e-38
416.61899 632.06702 -277.10999 1.8403113e-38
388.099 645.89301 -278.173 1.8403113e-38
381.50101 650.27899 -278.04901 1.8403113e-38
353.29901 665.59003 -278.58899 1.8403113e-38
346.85699 670.10199 -278.396 1.8403113e-38
313.513 688.71899 -278.87399 1.8403113e-38
316.72601 695.31299 -276.215 1.8403113e-38
283.85602 706.06055 -279.05551 1.8403113e-38
253.91701 727.66998 -277.95999 1.8403113e-38
224.2 741.40802 -279.27499 1.8403113e-38
245.981 741.01501 -275.297 1.8403113e-38
217.164 752.04602 -277.28601 1.8403113e-38
193.51199 763.258 -278.246 1.8403113e-38
187.116 772.12 -276.69 1.8403113e-38
158.843 787.03699 -277.366 1.8403113e-38
136.485 797.18799 -278.41299 1.8403113e-38
131.28999 801.50098 -278.048 1.8403113e-38
108.931 814.901 -278.08301 1.8403113e-38
82.882202 826.41199 -279.401 1.8403113e-38
103.062 825.02002 -276.035 1.8403113e-38
76.877602 839.48499 -276.45901 1.8403113e-38
54.2771 845.90198 -278.715 1.8403113e-38
30.496201 867.95398 -276.323 1.8403113e-38
6.4066801 875.987 -278.35599 1.8403113e-38
26.0219 870.68903 -276.31299 1.8403113e-38
1.73747 882.61902 -277.16901 1.8403113e-38
-22.129101 894.95001 -277.82101 1.8403113e-38
-17.8806 893.02698 -277.62 1.8403113e-38
-68.5466 918.85498 -279.11301 1.8403113e-38
-45.668201 910.53699 -277.397 1.8403113e-38
-64.529404 921.573 -277.51001 1.8403113e-38
-87.114799 932.10303 -278.48099 1.8403113e-38
-109.373 942.04102 -279.57599 1.8403113e-38
-91.130898 942.82098 -275.89899 1.8403113e-38
-113.059 958.534 -275.13199 1.8403113e-38
-154.364 973.1615 -278.35199 1.8403113e-38
-175.325 986.04797 -278.284 1.8403113e-38
-193.755 1001.35 -276.98599 1.8403113e-38
-196.18401 1017.02 -272.56201 1.8403113e-38
-233.59 1028.6 -275.99799 1.8403113e-38
-215.05051 1021.73 -274.64801 1.8403113e-38
-235.998 1039.6 -273.026 1.8403113e-38
-254.59399 1043.9399 -275.17249 1.8403113e-38
-294.56152 1058.02 -278.311 1.8403113e-38
-273.7305 1056.4299 -274.8855 1.8403113e-38
-311.91699 1067.88 -278.508 1.8403113e-38
-314.41299 1074.3199 -276.97101 1.8403113e-38
-350.14099 1086.53 -279.89499 1.8403113e-38
-332.582 1087.6801 -276.23099 1.8403113e-38
-329.008 1086.75 -275.84698 1.8403113e-38
-366.42499 1105.89 -276.92999 1.8403113e-38
-350.59698 1100.37 -275.668 1.8403113e-38
-383.897 1119.0601 -276.11499 1.8403113e-38
-368.02499 1114.23 -274.63199 1.8403113e-38
-406.634 1126.4 -278.11099 1.8403113e-38
-386.86301 1121.97 -275.76801 1.8403113e-38
-423.064 1135.495 -278.36951 1.8403113e-38
-457.53201 1153.6899 -279.19 1.8403113e-38
-440.271 1153.21 -276.09201 1.8403113e-38
-436.89099 1151.96 -275.84399 1.8403113e-38
-474.233 1166.37 -278.38599 1.8403113e-38
-458.013 1162.97 -276.392 1.8403113e-38
-474.53 1175.64 -275.556 1.8403113e-38
-511.646 1185.34 -279.52051 1.8403113e-38
-493.92401 1180.6801 -277.63501 1.8403113e-38
-525.90399 1198.01 -278.25601 1.8403113e-38
-1868.21 2032.61 -270.98099 1.8403113e-38
2765.97 -753.94098 -266.56699 1.8403113e-38
2785.4099 -756.37402 -263.664 1.8403113e-38
2371.4399 -522.21399 -268.65601 1.8403113e-38
1755.5 -138.37601 -265.047 1.8403113e-38
-1732.03 1957.91 -268.61099 1.8403113e-38
-1753.83 1978.91 -266.177 1.8403113e-38
-1776.09 1981.5601 -269.54001 1.8403113e-38
-1814.03 2007.17 -268.707 1.8403113e-38
-1806.37 2002.55 -268.70099 1.8403113e-38
-1844.03 2029.11 -267.51801 1.8403113e-38
-1886.21 2056.52 -266.92001 1.8403113e-38
-1905.47 2060.8501 -269.198 1.8403113e-38
-1952.11 2089.8 -268.95901 1.8403113e-38
-1924.09 2085.46 -265.03699 1.8403113e-38
-1979.1801 2115.02 -266.203 1.8403113e-38
-1995.39 2120.3401 -267.59601 1.8403113e-38
-2019.14 2146.5901 -263.88901 1.8403113e-38
-2045.09 2152.1699 -267.03699 1.8403113e-38
-2065.48 2179.45 -262.37701 1.8403113e-38
-2092.3401 2185.6001 -265.51801 1.8403113e-38
-2123.1001 2214.02 -262.45599 1.8403113e-38
-2147.9199 2220.76 -265.03 1.8403113e-38
-2209.8101 2257.99 -265.08301 1.8403113e-38
-2178.21 2250.4199 -261.49301 1.8403113e-38
-2240.5901 2289.04 -261.207 1.8403113e-38
-2267.1599 2297.0601 -263.711 1.8403113e-38
-2304.28 2329.8501 -260.483 1.8403113e-38
-2331.72 2338.5801 -262.92801 1.8403113e-38
-2553.1799 2479.96 -260.58099 1.8403113e-38
1735.99 -99.833 -256.71399 1.8403113e-38
-1653.0601 1940.89 -259.04599 1.8403113e-38
-2509.53 2467.1799 -256.345 1.8403113e-38
-2594.53 2520.04 -255.882 1.8403113e-38
-2629.1299 2532.5801 -258.491 1.8403113e-38
-2678.5 2575.77 -254.33099 1.8403113e-38
-2727.5601 2591.45 -258.681 1.8403113e-38
-2766.25 2635.1699 -252.34599 1.8403113e-38
-2816 2652.1201 -256.43201 1.8403113e-38
-2868.3799 2700.5 -251.22501 1.8403113e-38
-2925.6201 2720.0901 -255.896 1.8403113e-38
-3039.6299 2793.01 -254.646 1.8403113e-38
-3154.97 2870.47 -252.23 1.8403113e-38
-3288.8899 2956.8301 -250.54201 1.8403113e-38
2797.1399 -689.57703 -240.64799 1.8403113e-38
2061.52 -247.618 -241.466 1.8403113e-38
1757.22 -62.959999 -241.231 1.8403113e-38
-1632.51 1966.3101 -247.259 1.8403113e-38
-2337.7 2415.27 -240.16901 1.8403113e-38
-2971.0901 2769.7 -249.005 1.8403113e-38
-3100.4399 2848.6799 -248.754 1.8403113e-38
-3217.3999 2929.51 -245.592 1.8403113e-38
-3343.1499 3017.0901 -241.98399 1.8403113e-38
-3422.78 3048.27 -247.26401 1.8403113e-38
-3582.3601 3152.0601 -244.97501 1.8403113e-38
-3772.8899 3271.25 -243.717 1.8403113e-38
-3981.3999 3403.54 -241.761 1.8403113e-38
2795.99 -671.43201 -235.213 1.8403113e-38
1765.42 -59.219601 -238.52299 1.8403113e-38
-3486.0801 3114.28 -238.617 1.8403113e-38
-3664.96 3227.6101 -236.989 1.8403113e-38
-3871.5 3356.5601 -235.70799 1.8403113e-38
-4070.1001 3491.01 -231.215 1.8403113e-38
-4185.6699 3542.6599 -236.881 1.8403113e-38
1947.53 -132.96001 -227.209 1.8403113e-38
1792.25 -29.6411 -224.259 1.8403113e-38
1795.1801 -19.7342 -220.62 1.8403113e-38
-1435.1899 1925.83 -222.722 1.8403113e-38
-1496.45 1939.58 -229.97301 1.8403113e-38
-1514.39 1957.3 -227.82899 1.8403113e-38
-2180.3701 2356.74 -228.77901 1.8403113e-38
-2185.0601 2363.55 -227.543 1.8403113e-38
-4319.9399 3651.3101 -228.31599 1.8403113e-38
2812.4399 -611.11499 -213.327 1.8403113e-38
-495.522 1387.4 -213.54201 1.8403113e-38
-1358.79 1917.1801 -211.033 1.8403113e-38
-1389.27 1930.2 -212.718 1.8403113e-38
-1447.49 1943.48 -219.541 1.8403113e-38
-2171.95 2391.3501 -216.41499 1.8403113e-38
2812.3101 -594.448 -208.16 1.8403113e-38
-481.267 1421.3199 -200.29201 1.8403113e-38
-486.44901 1439.04 -195.748 1.8403113e-38
-502.48801 1448 -195.97701 1.8403113e-38
-487.11499 1443.6899 -194.425 1.8403113e-38
-493.14001 1458.9 -190.823 1.8403113e-38
-513.07001 1460.6801 -194.01801 1.8403113e-38
-509.72101 1460.89 -193.32401 1.8403113e-38
-518.53198 1476.04 -190.263 1.8403113e-38
-1299.75 1925.3199 -197.38499 1.8403113e-38
2825.78 -532.86499 -186.44099 1.8403113e-38
2819.3899 -510.86801 -180.79201 1.8403113e-38
-3668.6399 3436.3101 -172.672 1.8403113e-38
-490.27899 1527.0601 -169.052 1.8403113e-38
-1074.075 1882.135 -168.35001 1.8403113e-38
-1084.29 1896.34 -165.85001 1.8403113e-38
-1078.85 1901.25 -163.29601 1.8403113e-38
2834.2 -452.20099 -159.729 1.8403113e-38
2836.25 -438.384 -155.039 1.8403113e-38
-1080.8 1916.01 -159.062 1.8403113e-38
-1074.3199 1921.04 -156.276 1.8403113e-38
-1091.96 1935.1 -155.21899 1.8403113e-38
-1080.65 1934.53 -153.26801 1.8403113e-38
-1099.97 1951.77 -151.534 1.8403113e-38
-467.76251 1586.13 -146.4115 1.8403113e-38
-1088.66 1950.99 -149.646 1.8403113e-38
2854.9099 -384.38 -134.70399 1.8403113e-38
-462.116 1616.0601 -136.02699 1.8403113e-38
-458.76801 1625.1 -132.578 1.8403113e-38
2850.6101 -365.36099 -129.59 1.8403113e-38
-456.47 1646.2 -125.573 1.8403113e-38
-453.953 1653.59 -122.798 1.8403113e-38
-700.40997 1808.5601 -120.923 1.8403113e-38
-726.15302 1811.34 -124.903 1.8403113e-38
-719.08197 1812.67 -123.157 1.8403113e-38
-701.70801 1810.5 -120.564 1.8403113e-38
-3300.3899 3355.8 -128.427 1.8403113e-38
-3282.1399 3359.8601 -123.726 1.8403113e-38
-450.42801 1678.64 -114.333 1.8403113e-38
-448.19901 1678.21 -114.046 1.8403113e-38
-680.211 1805.97 -117.926 1.8403113e-38
-679.09198 1809.36 -116.661 1.8403113e-38
-660.65601 1806.28 -114.148 1.8403113e-38
-656.17102 1806.55 -113.22 1.8403113e-38
-861.38599 1932.29 -112.685 1.8403113e-38
2864.8701 -308.81699 -109.291 1.8403113e-38
2865.51 -294.43701 -104.692 1.8403113e-38
-443.38501 1703.6899 -105.204 1.8403113e-38
-438.755 1713.11 -101.395 1.8403113e-38
-615.57001 1821.78 -100.834 1.8403113e-38
-693.80499 1843.005 -108.9505 1.8403113e-38
-692.56702 1856.49 -104.516 1.8403113e-38
-694.15149 1863.8501 -102.522 1.8403113e-38
-695.66699 1871.17 -100.528 1.8403113e-38
-832.90503 1938.72 -105.321 1.8403113e-38
-805.89899 1934.625 -101.514 1.8403113e-38
-452.77753 1728.485 -99.246246 1.8403113e-38
-444.00952 1722.3201 -99.517349 1.8403113e-38
-461.28601 1736.49 -98.3554 1.8403113e-38
-459.18701 1736 -98.113297 1.8403113e-38
-463.20599 1749.0601 -94.79995 1.8403113e-38
-465.51501 1762.1699 -91.152153 1.8403113e-38
-701.45801 1879.47 -99.032303 1.8403113e-38
-697.35602 1883.89 -96.883797 1.8403113e-38
-705.73401 1893.34 -95.5159 1.8403113e-38
-699.495 1893.83 -94.190201 1.8403113e-38
-707.3335 1904.7 -92.279251 1.8403113e-38
-722.06897 1912.78 -92.5354 1.8403113e-38
-714.91199 1913.41 -90.992401 1.8403113e-38
-754.87598 1924.0601 -95.199799 1.8403113e-38
-747.71002 1929.1899 -92.252602 1.8403113e-38
-730.86102 1920.04 -91.928001 1.8403113e-38
-728.23102 1923.47 -90.365799 1.8403113e-38
-776.27698 1932.24 -96.677803 1.8403113e-38
-768.11798 1932.71 -94.996902 1.8403113e-38
2878.4199 -237.97301 -84.672203 1.8403113e-38
-463.569 1778.02 -85.848 1.8403113e-38
-463.63199 1780.61 -85.0541 1.8403113e-38
-3007.1101 3303.04 -89.648499 1.8403113e-38
-2976.98 3301.27 -84.529602 1.8403113e-38
2866.3 -213.601 -79.361099 1.8403113e-38
-455.918 1801.63 -77.053452 1.8403113e-38
-454.9115 1816.2251 -72.318848 1.8403113e-38
-530.15601 1867.6 -70.479698 1.8403113e-38
-540.52197 1870.28 -71.596001 1.8403113e-38
-456.2355 1828.04 -68.886299 1.8403113e-38
-472.94299 1837.02 -69.233902 1.8403113e-38
-459.44699 1836.62 -66.818901 1.8403113e-38
-482.68201 1843.34 -69.099899 1.8403113e-38
-474.34299 1848.22 -66.010399 1.8403113e-38
-468.43701 1843.25 -66.445503 1.8403113e-38
-457.82401 1840.36 -65.348297 1.8403113e-38
-492.98001 1859.3101 -66.0644 1.8403113e-38
-480.95001 1856.98 -64.524902 1.8403113e-38
-479.11301 1856.33 -64.381897 1.8403113e-38
-525.97601 1868.39 -69.4468 1.8403113e-38
-510.30801 1869.92 -66.021797 1.8403113e-38
-493.20898 1869.88 -62.813599 1.8403113e-38
-483.71799 1864.48 -62.708099 1.8403113e-38
-505.418 1871.38 -64.644501 1.8403113e-38
-2901.3101 3315.75 -65.771896 1.8403113e-38
-2908.26 3328.3 -63.1717 1.8403113e-38
2716.8 -30.7656 -50.5532 1.8403113e-38
2722.6699 -21.941299 -46.699902 1.8403113e-38
-2897.8101 3368.47 -48.6894 1.8403113e-38
-2926.5601 3390.5901 -47.2117 1.8403113e-38
-2975.4399 3457.78 -35.483799 1.8403113e-38
-2981.8101 3470.8701 -32.6068 1.8403113e-38
2740.6699 24.7733 -28.7584 1.8403113e-38
2746.3501 33.667099 -24.920099 1.8403113e-38
-2961.0801 3508.3101 -17.0413 1.8403113e-38
-2963.5901 3519.8201 -13.9295 1.8403113e-38
2766.5049 84.739197 -5.2163 1.8403113e-38
-2954.76 3563 1.18405 1.8403113e-38
-2957.9399 3575.02 4.3291702 1.8403113e-38
-4621.7998 4572.8799 1.92734 1.8403113e-38
2785.6799 135.976 14.3538 1.8403113e-38
2791.78 144.423 18.133801 1.8403113e-38
-2947.3201 3617.76 19.644199 1.8403113e-38
-2950.26 3629.8701 22.860399 1.8403113e-38
2801.0601 195.578 35.815601 1.8403113e-38
2804.49 205.772 39.636002 1.8403113e-38
-3032.6001 3721.8401 36.006901 1.8403113e-38
2816.8101 254.088 57.007702 1.8403113e-38
2823.3601 262.10199 60.736599 1.8403113e-38
2840.5901 306.72 77.878601 1.8403113e-38
-2047.4399 3253.72 75.656303 1.8403113e-38
2847.8201 314.293 81.598198 1.8403113e-38
-1860.7 3182.3301 88.573502 1.8403113e-38
2865.02 358.62399 98.645599 1.8403113e-38
-1865.55 3192.03 90.681702 1.8403113e-38
2871.24 366.82999 102.373 1.8403113e-38
-1825.95 3200.6399 100.816 1.8403113e-38
-1834.97 3212.9099 102.941 1.8403113e-38
-1816.63 3233.6899 112.867 1.8403113e-38
