# .PCD v0.7 - Point Cloud Data file format
VERSION 0.7
FIELDS x y z rgb
SIZE 4 4 4 4
TYPE F F F F
COUNT 1 1 1 1
WIDTH 356
HEIGHT 1
VIEWPOINT 0 0 0 1 0 0 0
POINTS 356
DATA ascii
1268.09 -1412.78 -281.68301 1.8403113e-38
1295.0699 -1394.9399 -280.82101 1.8403113e-38
1321.04 -1379.5 -280.54099 1.8403113e-38
1333.71 -1372.5601 -280.59399 1.8403113e-38
1346.45 -1363.61 -280.021 1.8403113e-38
1358.6801 -1358.37 -280.53201 1.8403113e-38
1370.5601 -1355.89 -281.85901 1.8403113e-38
1593.27 -1237.08 -283.76999 1.8403113e-38
1602.92 -1226.11 -282.00299 1.8403113e-38
1613.58 -1225.4301 -283.685 1.8403113e-38
1633.66 -1214.41 -283.76199 1.8403113e-38
1642.92 -1204.1 -282.13599 1.8403113e-38
1653.29 -1202.16 -283.36401 1.8403113e-38
1672.08 -1186.8199 -281.83701 1.8403113e-38
1690.9301 -1174 -281.12399 1.8403113e-38
1709.6 -1161.85 -280.58701 1.8403113e-38
1737.41 -1144.95 -280.17099 1.8403113e-38
1767.22 -1137.47 -283.10001 1.8403113e-38
1774.52 -1125.42 -280.57401 1.8403113e-38
1783.98 -1121.49 -281.01001 1.8403113e-38
1792.85 -1115.6801 -280.746 1.8403113e-38
1803.59 -1116.12 -282.79501 1.8403113e-38
1811.24 -1106.5699 -281.125 1.8403113e-38
1819.34 -1098.78 -280.091 1.8403113e-38
1829.13 -1096.28 -281.04199 1.8403113e-38
1837.6801 -1090.15 -280.61499 1.8403113e-38
1848.6899 -1091.04 -282.85901 1.8403113e-38
1856.17 -1082.12 -281.35599 1.8403113e-38
1872.8101 -1069.4 -280.28 1.8403113e-38
1882.41 -1066.45 -281.052 1.8403113e-38
1926.66 -1042.76 -281.40601 1.8403113e-38
1953.24 -1028.9 -281.73499 1.8403113e-38
1960.48 -1021.05 -280.53201 1.8403113e-38
1969.33 -1016.51 -280.66501 1.8403113e-38
1977.71 -1011.07 -280.427 1.8403113e-38
2004.8101 -998.44897 -281.245 1.8403113e-38
2016.28 -998.43701 -283.28201 1.8403113e-38
2021.16 -986.948 -280.50101 1.8403113e-38
2031.65 -985.138 -281.79501 1.8403113e-38
2040.21 -980.013 -281.69101 1.8403113e-38
2048.72 -974.81897 -281.55701 1.8403113e-38
2059.72 -973.52002 -283.10101 1.8403113e-38
2064.0901 -961.85797 -280.17599 1.8403113e-38
2077.1201 -963.52301 -283.02399 1.8403113e-38
2083.3899 -954.90997 -281.40601 1.8403113e-38
2097.04 -957.10199 -284.53 1.8403113e-38
2104.8301 -950.66998 -283.87399 1.8403113e-38
2109.8201 -940.35901 -281.48801 1.8403113e-38
2118 -934.59601 -281.11499 1.8403113e-38
2135.2798 -932.57849 -283.5495 1.8403113e-38
2148.6101 -925.09003 -283.543 1.8403113e-38
2156.0901 -918.26801 -282.70901 1.8403113e-38
2164.6799 -912.85699 -282.521 1.8403113e-38
2173.8401 -908.099 -282.63901 1.8403113e-38
2185.3899 -906.14502 -284.07401 1.8403113e-38
2191.46 -897.60901 -282.44501 1.8403113e-38
2203.6201 -896.15601 -284.147 1.8403113e-38
2209.5701 -887.50403 -282.45999 1.8403113e-38
2221.1101 -885.12402 -283.75699 1.8403113e-38
2233.3201 -875.77197 -282.96051 1.8403113e-38
2246.0901 -866.95599 -282.435 1.8403113e-38
2258.27 -864.81598 -283.923 1.8403113e-38
2263.8501 -855.82098 -282.06 1.8403113e-38
2278.03 -855.44897 -284.466 1.8403113e-38
2284.8501 -847.646 -283.20099 1.8403113e-38
2295.6799 -843.71503 -283.88101 1.8403113e-38
2302.3899 -835.78003 -282.55499 1.8403113e-38
2313.1799 -831.64502 -283.16299 1.8403113e-38
2322.5801 -826.12 -283.08099 1.8403113e-38
2329.8201 -818.61401 -281.987 1.8403113e-38
2341.99 -815.40601 -283.134 1.8403113e-38
2349.1499 -807.74103 -281.974 1.8403113e-38
2361.3101 -804.28601 -283.04099 1.8403113e-38
2369.8301 -797.66998 -282.45801 1.8403113e-38
2383.46 -795.14697 -284.08301 1.8403113e-38
2386.01 -783.60199 -280.86899 1.8403113e-38
2404.1001 -784.33301 -284.32199 1.8403113e-38
2412.51 -777.31201 -283.58899 1.8403113e-38
2420.8701 -770.21002 -282.82199 1.8403113e-38
2433.76 -766.40802 -283.909 1.8403113e-38
2445.8999 -761.88898 -284.634 1.8403113e-38
2458.8101 -757.77197 -285.625 1.8403113e-38
2463.9399 -748.06097 -283.45499 1.8403113e-38
2472.8999 -741.008 -282.80899 1.8403113e-38
2493.3701 -734.98102 -284.539 1.8403113e-38
2510.7 -726.505 -284.93201 1.8403113e-38
2519.54 -718.98297 -284.117 1.8403113e-38
2533.2 -714.37598 -285.08499 1.8403113e-38
2541.97 -706.62701 -284.185 1.8403113e-38
2551.51 -699.27399 -283.548 1.8403113e-38
2566.78 -695.17297 -284.96399 1.8403113e-38
2570.46 -684.24902 -282.14999 1.8403113e-38
2586.53 -680.302 -283.759 1.8403113e-38
2593.4099 -671.09497 -282.06 1.8403113e-38
2604.4299 -664.08002 -281.79401 1.8403113e-38
2619.6599 -659.14899 -282.93701 1.8403113e-38
2634.04 -653.57397 -283.72699 1.8403113e-38
2638.1499 -642.66199 -280.99399 1.8403113e-38
2653.3401 -637.211 -281.966 1.8403113e-38
2666.8 -630.72498 -282.302 1.8403113e-38
2681.1201 -624.466 -282.86301 1.8403113e-38
2691.9299 -616.41998 -282.23199 1.8403113e-38
2707.96 -610.58698 -283.233 1.8403113e-38
2723.1101 -604.146 -283.884 1.8403113e-38
2732.9399 -595.242 -282.80701 1.8403113e-38
2747.1599 -588.06097 -283.05801 1.8403113e-38
2758.6799 -579.60498 -282.423 1.8403113e-38
2771.95 -571.70697 -282.276 1.8403113e-38
2786.0801 -563.97601 -282.33701 1.8403113e-38
2801.0801 -556.38898 -282.59799 1.8403113e-38
2819.6899 -549.90997 -283.85199 1.8403113e-38
2833.74 -541.552 -283.70001 1.8403113e-38
2849.5901 -533.62903 -284.004 1.8403113e-38
2862.6599 -524.56299 -283.452 1.8403113e-38
2875.6899 -515.32001 -282.83499 1.8403113e-38
2889.5801 -506.19 -282.409 1.8403113e-38
2908.0601 -498.27701 -283.185 1.8403113e-38
2928.3701 -490.64099 -284.375 1.8403113e-38
2940.29 -480.30701 -283.216 1.8403113e-38
2961.48 -472.39301 -284.47501 1.8403113e-38
2975.1699 -462.159 -283.66199 1.8403113e-38
2995.3799 -453.42801 -284.48499 1.8403113e-38
3015.55 -444.39301 -285.207 1.8403113e-38
3029.0901 -433.474 -284.14899 1.8403113e-38
3057.7 -425.84799 -286.82001 1.8403113e-38
3069.24 -414 -285.112 1.8403113e-38
3082.5901 -402.39899 -283.80499 1.8403113e-38
3100.6399 -391.57501 -283.57999 1.8403113e-38
3128.1899 -382.33301 -285.548 1.8403113e-38
3138.47 -369.47299 -283.29501 1.8403113e-38
336.423 -1911.14 -274.10999 1.8403113e-38
403.151 -1871.03 -273.25 1.8403113e-38
432.41199 -1856.3101 -273.785 1.8403113e-38
464.284 -1836.14 -273.052 1.8403113e-38
494.77802 -1817.29 -272.496 1.8403113e-38
997.948 -1547.8 -276.478 1.8403113e-38
986.33002 -1539.74 -271.85199 1.8403113e-38
1015.23 -1538.1801 -276.50101 1.8403113e-38
1032.89 -1526.54 -275.94699 1.8403113e-38
1048.9399 -1519.37 -276.52701 1.8403113e-38
1064.3 -1513.91 -277.52802 1.8403113e-38
1081.36 -1501.78 -276.71201 1.8403113e-38
1095.9301 -1497.9 -278.07101 1.8403113e-38
1111.39 -1490.13 -278.35599 1.8403113e-38
1127.62 -1478.47 -277.54199 1.8403113e-38
1142.5 -1471.35 -277.931 1.8403113e-38
1156.8 -1465.98 -278.771 1.8403113e-38
1172.04 -1455.77 -278.23999 1.8403113e-38
1185.89 -1451.0699 -279.21301 1.8403113e-38
1202.13 -1433.97 -276.67499 1.8403113e-38
1232.78 -1404.0601 -272.634 1.8403113e-38
1244.95 -1404.54 -274.95001 1.8403113e-38
1256.8 -1406.8101 -277.78 1.8403113e-38
1282.5699 -1397.74 -279.487 1.8403113e-38
1308.99 -1380.61 -278.75 1.8403113e-38
1621.6801 -1203.97 -278.315 1.8403113e-38
1660.48 -1180.51 -277.76999 1.8403113e-38
1680.63 -1175.33 -279.70999 1.8403113e-38
1699.5699 -1164.25 -279.56601 1.8403113e-38
1717.8101 -1151.0601 -278.621 1.8403113e-38
1727.52 -1147.58 -279.246 1.8403113e-38
1745.48 -1134.91 -278.41699 1.8403113e-38
1755.26 -1132.13 -279.27701 1.8403113e-38
1862.53 -1070.51 -278.802 1.8403113e-38
1889.84 -1058.2 -279.75601 1.8403113e-38
1898.27 -1052.51 -279.44699 1.8403113e-38
1904.39 -1041.5699 -277.065 1.8403113e-38
1913.02 -1036.64 -277.034 1.8403113e-38
1932.52 -1031.6801 -278.92899 1.8403113e-38
1941.45 -1027.37 -279.151 1.8403113e-38
1985.14 -1003.9 -279.47601 1.8403113e-38
1993.4 -998.33801 -279.17801 1.8403113e-38
3136.1799 -354.28101 -278.065 1.8403113e-38
3148.1699 -341.57401 -276.164 1.8403113e-38
1221.35 -1399.7 -269.21399 1.8403113e-38
1385.96 -1306.55 -268.93399 1.8403113e-38
3139.8301 -325.49799 -269.57501 1.8403113e-38
3156.4199 -313.34698 -268.67001 1.8403113e-38
3154.5601 -298.36401 -263.58099 1.8403113e-38
430.81299 -1791.17 -252.819 1.8403113e-38
3157.3899 -284.08499 -259.552 1.8403113e-38
3159.1299 -269.66901 -255.284 1.8403113e-38
3161.71 -255.36501 -251.201 1.8403113e-38
1403.48 -1212.25 -242.11099 1.8403113e-38
1573.34 -1131.6801 -246.759 1.8403113e-38
1562.62 -1119.67 -241.037 1.8403113e-38
3169.02 -241.56 -248.12 1.8403113e-38
3168.4299 -226.903 -243.36 1.8403113e-38
1414.8199 -1195.14 -238.698 1.8403113e-38
1426.23 -1170.3199 -232.84599 1.8403113e-38
1436.66 -1158.77 -231.035 1.8403113e-38
1446.5 -1159.55 -233.033 1.8403113e-38
1456.4399 -1156.42 -233.812 1.8403113e-38
1476.25 -1134.6801 -230.43201 1.8403113e-38
1542.05 -1098.16 -230.54601 1.8403113e-38
1551.48 -1098.0601 -232.196 1.8403113e-38
3159.8899 -211.593 -236.98 1.8403113e-38
1466.54 -1137.96 -229.746 1.8403113e-38
1485.85 -1120.84 -227.74699 1.8403113e-38
1495.35 -1116.45 -228.045 1.8403113e-38
1504.79 -1112.9399 -228.612 1.8403113e-38
1514.25 -1111.26 -229.761 1.8403113e-38
1523.33 -1100.95 -228.103 1.8403113e-38
1532.77 -1101.02 -229.80299 1.8403113e-38
870.55298 -1405.22 -208.53799 1.8403113e-38
889.151 -1394.53 -208.453 1.8403113e-38
-470.948 -2101.75 -190.94901 1.8403113e-38
-437.021 -2099.8701 -196.388 1.8403113e-38
887.60901 -1338.54 -190.40401 1.8403113e-38
-496.69699 -2094.6599 -184.116 1.8403113e-38
731.93903 -1422.2 -189.26199 1.8403113e-38
2927.47 -178.604 -185.145 1.8403113e-38
-560.17999 -2091.55 -171.82899 1.8403113e-38
-526.64099 -2091.53 -177.79201 1.8403113e-38
894.88 -1295.1801 -177.931 1.8403113e-38
891.755 -1274.9 -170.935 1.8403113e-38
1101.11 -1164.95 -173.282 1.8403113e-38
2921.3 -165.748 -179.965 1.8403113e-38
2923.8201 -153.57001 -176.547 1.8403113e-38
2935.05 -141.845 -174.823 1.8403113e-38
2936.3799 -129.5 -171.14 1.8403113e-38
-185.83099 -1862.78 -165.814 1.8403113e-38
488.85101 -1471.96 -161.798 1.8403113e-38
506.20001 -1472.33 -165.004 1.8403113e-38
858.15997 -1264.71 -161.72099 1.8403113e-38
872.73199 -1261.51 -163.297 1.8403113e-38
884.59698 -1263.42 -166.015 1.8403113e-38
2946.4299 -117.478 -169.112 1.8403113e-38
2946.5601 -105.022 -165.181 1.8403113e-38
2948.55 -92.618401 -161.59599 1.8403113e-38
-656.43701 -2084.3201 -152.40401 1.8403113e-38
-623.30902 -2086.2 -158.896 1.8403113e-38
830.612 -1267.2 -157.61 1.8403113e-38
848.54303 -1258.22 -157.94901 1.8403113e-38
1094.6 -1123.72 -159.036 1.8403113e-38
1088.97 -1110.88 -153.95599 1.8403113e-38
1107.58 -1116.37 -159.01199 1.8403113e-38
2958.29 -80.287201 -159.41499 1.8403113e-38
2959.0801 -67.7771 -155.582 1.8403113e-38
2959.75 -55.266701 -151.73 1.8403113e-38
-686.74103 -2079.3201 -145.422 1.8403113e-38
1034.98 -1114.62 -145.535 1.8403113e-38
1029.21 -1103.23 -140.894 1.8403113e-38
1048.38 -1107.95 -145.802 1.8403113e-38
1061.28 -1102.04 -146.22099 1.8403113e-38
1070.12 -1105.97 -149.043 1.8403113e-38
1083.55 -1098.01 -148.90401 1.8403113e-38
2970.1599 -42.620998 -149.567 1.8403113e-38
2969.6201 -30.051399 -145.481 1.8403113e-38
2987.7 -16.926399 -144.53101 1.8403113e-38
2987.9199 -4.1993699 -140.53 1.8403113e-38
-717.823 -2074.6201 -138.399 1.8403113e-38
-746.73401 -2067.55 -131.008 1.8403113e-38
543.98199 -1370.1801 -139.29401 1.8403113e-38
2993.9399 8.8044901 -137.47301 1.8403113e-38
2995.9099 21.6819 -133.73399 1.8403113e-38
-773.41602 -2058.1499 -123.276 1.8403113e-38
2993.8201 34.332001 -129.34599 1.8403113e-38
3000.48 47.587898 -126.323 1.8403113e-38
3008.99 61.1119 -123.544 1.8403113e-38
-814.36401 -2060.8799 -116.856 1.8403113e-38
413.20599 -1359.78 -112.72 1.8403113e-38
433.80899 -1356.6 -115.378 1.8403113e-38
452.44 -1355.51 -118.346 1.8403113e-38
759.45599 -1185.0699 -118.871 1.8403113e-38
724.22699 -1176.9301 -110.016 1.8403113e-38
749.69098 -1179.45 -115.347 1.8403113e-38
743.26501 -1168.8101 -110.828 1.8403113e-38
3008.52 73.980003 -119.375 1.8403113e-38
3018.77 87.901497 -116.778 1.8403113e-38
-843.37 -2052.6899 -109.095 1.8403113e-38
-878.48102 -2049.3 -101.769 1.8403113e-38
2994.4299 98.318901 -109.14 1.8403113e-38
3002.47 112.065 -106.207 1.8403113e-38
3005.47 125.338 -102.526 1.8403113e-38
3018.1699 139.961 -100.143 1.8403113e-38
-913.67401 -2045.46 -94.287003 1.8403113e-38
607.02301 -1180.24 -90.208702 1.8403113e-38
656.98999 -1172.67 -96.699203 1.8403113e-38
631.81598 -1167.45 -90.559799 1.8403113e-38
645.00201 -1169.34 -93.506203 1.8403113e-38
3015.03 152.591 -95.574097 1.8403113e-38
3023.55 166.92799 -92.537598 1.8403113e-38
-943.52502 -2036.76 -86.212402 1.8403113e-38
6.9843602 -1503.77 -86.1464 1.8403113e-38
508.99899 -1223.55 -86.5158 1.8403113e-38
3020.1599 179.55701 -87.9263 1.8403113e-38
3027.4399 193.924 -84.659302 1.8403113e-38
3032.6201 208.078 -81.087799 1.8403113e-38
-980.38599 -2033.3101 -78.5578 1.8403113e-38
-1016.55 -2028.77 -70.679604 1.8403113e-38
3039.6299 222.68401 -77.696701 1.8403113e-38
3037.71 235.731 -73.213402 1.8403113e-38
3056.1299 252.858 -71.054497 1.8403113e-38
567.83698 -1135 -68.872902 1.8403113e-38
546.84698 -1123.37 -61.444199 1.8403113e-38
559.91803 -1126.24 -64.680496 1.8403113e-38
3051.03 265.418 -66.158798 1.8403113e-38
3060.3899 281.07999 -62.8522 1.8403113e-38
-1010.14 -1990.75 -59.751301 1.8403113e-38
533.10699 -1121.1 -58.2784 1.8403113e-38
524.03198 -1113.53 -54.261299 1.8403113e-38
3066.6899 296.25101 -59.155701 1.8403113e-38
3071.8701 311.31299 -55.2953 1.8403113e-38
3077.8701 326.711 -51.473801 1.8403113e-38
3080.8201 341.49301 -47.305698 1.8403113e-38
3084.5901 356.59299 -43.182701 1.8403113e-38
3089.1699 372.034 -39.096401 1.8403113e-38
3091.6899 387.03299 -34.781399 1.8403113e-38
3095.97 402.646 -30.586201 1.8403113e-38
3105.8301 420.056 -26.8132 1.8403113e-38
3112.6399 436.77499 -22.717699 1.8403113e-38
3105.02 449.13199 -17.437799 1.8403113e-38
3082.1101 456.46201 -11.0339 1.8403113e-38
3076.21 469.11899 -5.9649501 1.8403113e-38
3049.4299 474.58499 0.53678203 1.8403113e-38
3035.8201 484.27399 6.0335398 1.8403113e-38
3053.1399 504.95801 9.5195398 1.8403113e-38
-450.254 -1434.4399 17.238501 1.8403113e-38
-420.07101 -1436.63 11.1725 1.8403113e-38
3054.3 520.05902 14.108 1.8403113e-38
3063.7 538.401 18.257401 1.8403113e-38
-355.12799 -1344.33 28.917801 1.8403113e-38
31.787901 -1128.33 28.643101 1.8403113e-38
126.198 -1093.63 22.8561 1.8403113e-38
3058.9399 551.492 23.2605 1.8403113e-38
3070.77 571.19897 27.4133 1.8403113e-38
-382.258 -1340.65 34.9142 1.8403113e-38
154.37 -1055.09 30.078899 1.8403113e-38
3072.1899 586.97803 32.1698 1.8403113e-38
3083.5901 607.05499 36.515099 1.8403113e-38
-634.89099 -1438.58 48.7817 1.8403113e-38
-412.48001 -1316.1899 48.0583 1.8403113e-38
-368.81601 -1309.24 42.495701 1.8403113e-38
3094.76 627.354 40.972599 1.8403113e-38
3164.29 673.51202 43.253899 1.8403113e-38
3182.99 698.40601 47.830002 1.8403113e-38
-508.05301 -1333.02 59.723202 1.8403113e-38
3187.75 717.41498 53.018299 1.8403113e-38
3189.5801 735.27399 58.362801 1.8403113e-38
3196.6299 755.78998 63.621498 1.8403113e-38
3205.25 777.34302 68.931297 1.8403113e-38
-9.4287205 -997.50299 77.513702 1.8403113e-38
3206.45 795.521 74.488602 1.8403113e-38
3222.6101 821.46198 79.848503 1.8403113e-38
-11.1557 -981.625 82.862099 1.8403113e-38
-15.2756 -967.32703 88.135002 1.8403113e-38
3230.46 843.57703 85.473099 1.8403113e-38
-8.9275303 -946.89301 93.492996 1.8403113e-38
-7.5163798 -929.63599 98.720901 1.8403113e-38
3231.8601 862.599 91.263702 1.8403113e-38
3240.0901 885.49298 97.067497 1.8403113e-38
-9.3821602 -914.43903 103.878 1.8403113e-38
-8.4686203 -897.79498 109 1.8403113e-38
3248.05 908.57501 102.98 1.8403113e-38
3254.8601 931.35303 109 1.8403113e-38
