# .PCD v0.7 - Point Cloud Data file format
VERSION 0.7
FIELDS x y z rgb
SIZE 4 4 4 4
TYPE F F F F
COUNT 1 1 1 1
WIDTH 332
HEIGHT 1
VIEWPOINT 0 0 0 1 0 0 0
POINTS 332
DATA ascii
448.103 -1289.9301 -280.77499 1.8403113e-38
435.78299 -1271.02 -282.98001 1.8403113e-38
440.65701 -1276.34 -281.871 1.8403113e-38
429.30899 -1226.4301 -280.34201 1.8403113e-38
345.078 -967.03601 -281.164 1.8403113e-38
325.22198 -893.521 -280.00299 1.8403113e-38
322.409 -887.58398 -280.32901 1.8403113e-38
310.26199 -856.27301 -281.11499 1.8403113e-38
298.504 -810.758 -280.211 1.8403113e-38
291.21649 -795.73096 -281.09399 1.8403113e-38
285.21948 -776.69055 -281.08948 1.8403113e-38
281.03699 -760.513 -280.76901 1.8403113e-38
272.742 -735.43298 -280.901 1.8403113e-38
263.07401 -703.59698 -280.76901 1.8403113e-38
260.37701 -697.58002 -281.04599 1.8403113e-38
248.338 -659.52698 -281.05701 1.8403113e-38
238.46001 -620.85101 -280.24899 1.8403113e-38
219.97301 -563.10602 -280.34 1.8403113e-38
205.769 -524.26898 -281.01599 1.8403113e-38
201.29601 -511.04001 -281.11899 1.8403113e-38
197.72301 -504.685 -281.66299 1.8403113e-38
193.46001 -491.31299 -281.67801 1.8403113e-38
194.69099 -484.543 -280.509 1.8403113e-38
188.763 -471.19699 -281.10501 1.8403113e-38
178.8 -464.99799 -283.884 1.8403113e-38
179.245 -444.41699 -281.47501 1.8403113e-38
173.748 -430.72601 -281.883 1.8403113e-38
172.479 -423.991 -281.586 1.8403113e-38
155.14101 -361.50201 -280.758 1.8403113e-38
141.84801 -318.64899 -280.67801 1.8403113e-38
136.211 -296.91699 -280.254 1.8403113e-38
113.999 -229.353 -280.56299 1.8403113e-38
103.309 -205.57001 -281.668 1.8403113e-38
23.145399 53.0191 -281.16599 1.8403113e-38
7.3528299 111.122 -280.28201 1.8403113e-38
-13.1806 173.939 -280.52802 1.8403113e-38
-22.4806 206.092 -280.23401 1.8403113e-38
-57.459702 311.284 -280.85199 1.8403113e-38
-91.355499 425.04501 -280.15601 1.8403113e-38
-111.14 470.517 -282.04199 1.8403113e-38
-230.207 866.27698 -280.017 1.8403113e-38
-293.69699 1063.27 -280.47501 1.8403113e-38
-343.06601 1215.4301 -280.94299 1.8403113e-38
-366.42801 1295.15 -280.319 1.8403113e-38
-398.48901 1387.62 -281.31799 1.8403113e-38
456.35699 -1291.73 -278.10699 1.8403113e-38
438.099 -1248.02 -279.65601 1.8403113e-38
438.84299 -1237.39 -278.23401 1.8403113e-38
430.953 -1215.21 -278.543 1.8403113e-38
409.918 -1121.75 -275.60699 1.8403113e-38
409.20901 -1070.42 -270.23001 1.8403113e-38
387.77301 -1069.2 -277.53601 1.8403113e-38
378.72299 -1050.42 -278.62 1.8403113e-38
389.38699 -1059.73 -275.939 1.8403113e-38
380.504 -1041.01 -276.97101 1.8403113e-38
373.72299 -1025.01 -277.57202 1.8403113e-38
364.6615 -1006.605 -278.70151 1.8403113e-38
357.59601 -990.979 -279.44199 1.8403113e-38
357.47501 -983.245 -278.63699 1.8403113e-38
350.74799 -971.40399 -279.67401 1.8403113e-38
345.073 -951.31201 -279.44299 1.8403113e-38
342.76999 -945.02002 -279.55399 1.8403113e-38
340.59601 -930.75702 -278.746 1.8403113e-38
337.58301 -924.90399 -279.14999 1.8403113e-38
334.83701 -911.10101 -278.59201 1.8403113e-38
331.09299 -905.64899 -279.29401 1.8403113e-38
319.285 -874.14203 -279.94101 1.8403113e-38
317.427 -867.77399 -279.888 1.8403113e-38
314.517 -847.18402 -278.64301 1.8403113e-38
312.746 -833.38702 -277.746 1.8403113e-38
305.931 -829.22699 -279.65601 1.8403113e-38
306.12299 -814.68402 -277.996 1.8403113e-38
285.16699 -752.22302 -278.42801 1.8403113e-38
281.88599 -739.31097 -278.15201 1.8403113e-38
273.24399 -721.29401 -279.17801 1.8403113e-38
271.358 -715.08197 -279.15201 1.8403113e-38
260.43701 -683.71503 -279.50699 1.8403113e-38
259.66299 -677.19897 -279.06201 1.8403113e-38
257.229 -664.07501 -278.46899 1.8403113e-38
249.769 -645.461 -279.01901 1.8403113e-38
246.455 -639.52698 -279.51999 1.8403113e-38
243.524 -626.48297 -279.108 1.8403113e-38
236.4845 -604.25647 -279.11649 1.8403113e-38
228.923 -581.99902 -279.30301 1.8403113e-38
231.02299 -588.28601 -279.263 1.8403113e-38
224.767 -569.04401 -279.32599 1.8403113e-38
216.47 -546.63647 -279.75153 1.8403113e-38
211.312 -530.31897 -279.755 1.8403113e-38
188.166 -450.81799 -279.07999 1.8403113e-38
173.817 -410.138 -279.604 1.8403113e-38
171.715 -403.38501 -279.59399 1.8403113e-38
165.621 -382.64401 -279.43701 1.8403113e-38
171.39301 -389.53201 -278.18799 1.8403113e-38
166.47301 -368.76001 -277.62 1.8403113e-38
156.28799 -344.09698 -278.45401 1.8403113e-38
151.054 -326.25699 -278.31601 1.8403113e-38
144.349 -304.64099 -278.276 1.8403113e-38
133.29201 -282.263 -279.66199 1.8403113e-38
136.59599 -275.633 -277.789 1.8403113e-38
133.92 -260.92499 -277.10699 1.8403113e-38
128.86301 -253.216 -278.017 1.8403113e-38
123.62 -237.94099 -278.164 1.8403113e-38
117.475 -215.183 -277.80399 1.8403113e-38
108.915 -191.659 -278.198 1.8403113e-38
102.395 -183.14999 -279.52899 1.8403113e-38
99.449646 -163.84201 -278.43649 1.8403113e-38
92.119499 -143.381 -278.73901 1.8403113e-38
85.9011 -134.509 -279.92599 1.8403113e-38
85.052795 -115.1015 -278.09399 1.8403113e-38
86.3209 -96.132797 -275.57599 1.8403113e-38
75.791199 -85.737 -278.09201 1.8403113e-38
71.9618 -65.025002 -277.1525 1.8403113e-38
70.269997 -44.6959 -275.513 1.8403113e-38
57.367001 -32.941502 -278.70401 1.8403113e-38
53.831299 -15.5331 -278.02399 1.8403113e-38
47.534901 -5.4919 -279.10999 1.8403113e-38
40.701302 13.3853 -279.414 1.8403113e-38
41.860001 21.148199 -278.16101 1.8403113e-38
40.803501 38.338799 -276.64499 1.8403113e-38
26.9645 68.824097 -278.10901 1.8403113e-38
19.455 80.142601 -279.47501 1.8403113e-38
15.5333 99.201698 -278.74899 1.8403113e-38
2.05006 131.222 -279.92099 1.8403113e-38
-0.57090801 141.145 -279.74399 1.8403113e-38
-3.7065301 160.743 -278.685 1.8403113e-38
-13.2638 192.62399 -278.51001 1.8403113e-38
-18.6819 223.30701 -277.03 1.8403113e-38
-28.5119 237.44701 -278.89301 1.8403113e-38
-33.850101 259.561 -278.323 1.8403113e-38
-40.800598 272.69601 -279.297 1.8403113e-38
-43.0826 293.80801 -277.776 1.8403113e-38
-45.637199 325.28601 -275.215 1.8403113e-38
-57.149899 341.67801 -277.41501 1.8403113e-38
-56.823601 362.332 -275.04001 1.8403113e-38
-67.162804 378.57001 -276.849 1.8403113e-38
-74.7117 404.436 -276.63599 1.8403113e-38
-94.108398 448.91199 -278.49701 1.8403113e-38
-106.726 490.59799 -278.31 1.8403113e-38
-115.155 507.33801 -279.40201 1.8403113e-38
-115.146 530.78699 -276.82999 1.8403113e-38
-128.07201 551.07898 -279.09399 1.8403113e-38
-131.487 577.62097 -277.37201 1.8403113e-38
-145.569 599.43903 -279.86899 1.8403113e-38
-142.74699 622.42499 -276.37201 1.8403113e-38
-159.534 646.94299 -279.513 1.8403113e-38
-157.664 671.388 -276.186 1.8403113e-38
-163.77499 688.72302 -276.40799 1.8403113e-38
-179.92799 727.72803 -277.742 1.8403113e-38
-182.508 742.98102 -276.96701 1.8403113e-38
-191.595 777.78998 -276.30801 1.8403113e-38
-207.51801 804.35199 -278.92499 1.8403113e-38
-213.388 837.94397 -277.28201 1.8403113e-38
-228.43201 894.70099 -276.28699 1.8403113e-38
-241.66299 920.95099 -278.004 1.8403113e-38
-250.883 960.13898 -276.91101 1.8403113e-38
-268.60699 991.461 -279.63199 1.8403113e-38
-278.164 1032.6899 -278.43301 1.8403113e-38
-295.67099 1099.11 -277.23401 1.8403113e-38
-311.211 1130.86 -279.14999 1.8403113e-38
-318.49301 1173.41 -277.01599 1.8403113e-38
-345.57599 1255.24 -277.453 1.8403113e-38
-373.85501 1342 -277.76401 1.8403113e-38
-399.772 1430.1801 -277.10001 1.8403113e-38
-422.01999 1475.0699 -279.905 1.8403113e-38
-424.60101 1521.2 -275.74701 1.8403113e-38
-446.444 1567.52 -278.255 1.8403113e-38
-457.26599 1625.5699 -275.65302 1.8403113e-38
-483.09 1678.65 -278.80099 1.8403113e-38
-467.37799 1707.96 -270.13699 1.8403113e-38
-565.56 2011.42 -270.974 1.8403113e-38
-594.00403 2106.27 -270.457 1.8403113e-38
-624.44598 2176.1001 -273.37299 1.8403113e-38
-673.26801 2336.1699 -272.785 1.8403113e-38
-718.526 2500.22 -270.52399 1.8403113e-38
419.52701 -1096.46 -269.5 1.8403113e-38
420.85999 -1086.98 -267.99899 1.8403113e-38
418.27802 -1071.88 -267.241 1.8403113e-38
-473.81 1739.53 -268.91199 1.8403113e-38
-628.32098 2242.78 -267.414 1.8403113e-38
-674.086 2403.1101 -265.73599 1.8403113e-38
-724.604 2579.71 -263.92499 1.8403113e-38
-771.66498 2685.55 -268.66501 1.8403113e-38
-781.84198 2777.1101 -262.168 1.8403113e-38
-833.30499 2895.22 -267.09299 1.8403113e-38
-846.41803 2998.3101 -260.35199 1.8403113e-38
-898.633 3123.8601 -264.72198 1.8403113e-38
-444.23801 1752.58 -257.21799 1.8403113e-38
-431.569 1761.01 -251.896 1.8403113e-38
-474.27399 1866.6801 -255.144 1.8403113e-38
-927.02197 3260.03 -259.659 1.8403113e-38
-915.65698 3286.28 -252.839 1.8403113e-38
476.37399 -1076.3 -247.561 1.8403113e-38
515.70398 -1118.45 -238.52699 1.8403113e-38
521.578 -1104.72 -234.98399 1.8403113e-38
503.83701 -1070.21 -237.362 1.8403113e-38
517.00897 -1067.12 -232.452 1.8403113e-38
-893.258 3342.77 -238.877 1.8403113e-38
-891.65503 3387.0801 -233.466 1.8403113e-38
-959.80902 3607.9299 -232.92999 1.8403113e-38
-979.92902 3695.6499 -230.304 1.8403113e-38
534.836 -1072.145 -226.81351 1.8403113e-38
-995.06403 3833.25 -220.48399 1.8403113e-38
604.75702 -1157.615 -211.907 1.8403113e-38
-989.763 3878.6899 -213.668 1.8403113e-38
-1071.3 4152.9102 -211.929 1.8403113e-38
618.75 -1164.95 -207.854 1.8403113e-38
629.32397 -1162 -203.86099 1.8403113e-38
-997.38501 4069.28 -195.435 1.8403113e-38
663.60303 -1140.79 -189.63901 1.8403113e-38
677.00897 -1133.8101 -184.22099 1.8403113e-38
842.78302 -1215.5 -135.631 1.8403113e-38
856.61401 -1212.85 -130.53999 1.8403113e-38
840.22101 -1209.25 -135.83501 1.8403113e-38
793.52698 -1011.47 -130.377 1.8403113e-38
-644.008 3483.98 -136.895 1.8403113e-38
890.76801 -1227.6801 -120.309 1.8403113e-38
860.62201 -1216.49 -129.547 1.8403113e-38
877.65698 -1212.715 -123.221 1.8403113e-38
888.84198 -1219.87 -120.123 1.8403113e-38
801.76501 -1008.68 -127.212 1.8403113e-38
948.08301 -1345.64 -113.338 1.8403113e-38
917.28497 -1233.48 -111.741 1.8403113e-38
921.45001 -1236.79 -110.657 1.8403113e-38
905.10999 -1222.4301 -114.756 1.8403113e-38
912.51099 -1218.77 -111.787 1.8403113e-38
826.03699 -993.29401 -117.102 1.8403113e-38
841.78998 -980.44897 -110.227 1.8403113e-38
-538.71899 3322.6799 -118.018 1.8403113e-38
951.49799 -1320.52 -109.4 1.8403113e-38
954.12799 -1268.21 -102.757 1.8403113e-38
960.28497 -1266.78 -100.463 1.8403113e-38
944.29602 -1257.05 -104.94749 1.8403113e-38
933.93152 -1241.0549 -106.7925 1.8403113e-38
890.91498 -1100.63 -106.341 1.8403113e-38
850.45001 -990.539 -108.327 1.8403113e-38
847.20697 -987.74298 -109.146 1.8403113e-38
869.16602 -980.05103 -100.682 1.8403113e-38
907.30402 -1021.81 -92.018501 1.8403113e-38
904.42102 -1018.54 -92.660896 1.8403113e-38
889.45099 -1002.52 -96.1017 1.8403113e-38
898.39099 -1004.51 -93.216698 1.8403113e-38
901.71399 -1007 -92.336304 1.8403113e-38
877.79346 -993.32605 -99.141151 1.8403113e-38
886.151 -999.95502 -96.9664 1.8403113e-38
872.92902 -981.93903 -99.5821 1.8403113e-38
-452.54401 3300.1299 -90.578003 1.8403113e-38
-483.522 3313.75 -99.838402 1.8403113e-38
1022.27 -1280.0601 -80.4039 1.8403113e-38
1018.08 -1276.37 -81.454903 1.8403113e-38
994.50299 -1264.8 -88.369904 1.8403113e-38
1011.07 -1264.1899 -82.552002 1.8403113e-38
991.10602 -1259.13 -88.9282 1.8403113e-38
1010.11 -1251.1801 -81.459702 1.8403113e-38
922.40302 -1038.2 -88.573402 1.8403113e-38
919.26202 -1026.72 -88.405502 1.8403113e-38
918.86298 -1019.4 -87.742203 1.8403113e-38
1060.13 -1320.17 -71.656303 1.8403113e-38
1058.62 -1305.27 -70.549004 1.8403113e-38
1050.36 -1295.3101 -72.324097 1.8403113e-38
1033.2649 -1288.8149 -77.545502 1.8403113e-38
1046.8199 -1288.9301 -72.8536 1.8403113e-38
-398.47 3290.8101 -72.829903 1.8403113e-38
-390.15302 3325.6899 -66.122597 1.8403113e-38
-366.685 3384.95 -51.485901 1.8403113e-38
-347.54199 3396.8601 -43.536598 1.8403113e-38
1118.52 -1134.95 -31.101151 1.8403113e-38
-346.88901 3513.9399 -30.4846 1.8403113e-38
1130.41 -1130.26 -26.458 1.8403113e-38
1135.4301 -1126.5699 -24.313999 1.8403113e-38
-399.29599 3701.3301 -28.147301 1.8403113e-38
1153.34 -1081.54 -13.164 1.8403113e-38
1158.59 -1074.79 -10.6024 1.8403113e-38
1250.11 -1293.67 -2.813 1.8403113e-38
1182.38 -1071.41 -1.97462 1.8403113e-38
1168.48 -1064.11 -6.0002999 1.8403113e-38
1175.225 -1068.755 -4.1684399 1.8403113e-38
-231.063 3411.97 -1.45188 1.8403113e-38
1289.37 -1307.23 9.3285198 1.8403113e-38
1259.92 -1296.49 0.281939 1.8403113e-38
1264.72 -1297.85 1.79862 1.8403113e-38
1277.115 -1295.675 6.34165 1.8403113e-38
1247.5 -1252.6 0.77912903 1.8403113e-38
1189.8199 -1073.01 0.431128 1.8403113e-38
1193.45 -1073.76 1.60937 1.8403113e-38
1202.585 -1076.545 4.4772997 1.8403113e-38
1213.61 -1079.51 7.9786 1.8403113e-38
-181.698 3346.8 8.5432596 1.8403113e-38
1294.25 -1305.4301 11.2193 1.8403113e-38
1306.605 -1300.8149 16.013451 1.8403113e-38
1243.75 -1106.76 15.453 1.8403113e-38
1248.13 -1098.29 17.9037 1.8403113e-38
1235.6899 -1086.3199 14.8967 1.8403113e-38
1225.085 -1078.3301 12.090549 1.8403113e-38
1339.08 -1310.8 26.190701 1.8403113e-38
1349.11 -1310.55 29.6998 1.8403113e-38
1318.96 -1300.98 20.2841 1.8403113e-38
1323.8 -1301 21.9634 1.8403113e-38
1334.09 -1308.89 24.670601 1.8403113e-38
-140.3 3363.1899 24.707399 1.8403113e-38
1369.8101 -1320.62 35.783798 1.8403113e-38
1354 -1310.38 31.4146 1.8403113e-38
1364.17 -1311.9399 34.776299 1.8403113e-38
1379.75 -1318.01 39.518902 1.8403113e-38
-55.629002 3198.6699 36.074402 1.8403113e-38
1395.42 -1322.8 44.434299 1.8403113e-38
1401.0601 -1328.3 45.7897 1.8403113e-38
1410.37 -1320.36 49.889099 1.8403113e-38
1384.67 -1317.66 41.2654 1.8403113e-38
1432.24 -1330.85 56.332401 1.8403113e-38
1442.77 -1331.42 59.923698 1.8403113e-38
1416.62 -1329.72 51.034599 1.8403113e-38
1426.97 -1329.5 54.649799 1.8403113e-38
-15.1603 3211.6899 51.547401 1.8403113e-38
6.6356001 3212.1699 59.165798 1.8403113e-38
1448.08 -1332.67 61.631001 1.8403113e-38
1464.1899 -1335.17 66.946503 1.8403113e-38
1457.95 -1329.11 65.446198 1.8403113e-38
1481.1899 -1341.28 72.179199 1.8403113e-38
1474.04 -1331.42 70.778603 1.8403113e-38
1493.58 -1336.8201 76.966751 1.8403113e-38
-94.4823 3637.77 70.689102 1.8403113e-38
1508.11 -1341.9301 81.453102 1.8403113e-38
1525.34 -1346.1801 86.966797 1.8403113e-38
1531.12 -1347.87 88.7882 1.8403113e-38
1512.91 -1339.83 83.346001 1.8403113e-38
-29.3104 3516.3501 80.009804 1.8403113e-38
1544.8101 -1357.8199 92.447502 1.8403113e-38
1550.17 -1357.45 94.349701 1.8403113e-38
1561.98 -1359.42 98.233101 1.8403113e-38
1583.2649 -1364.6851 105.045 1.8403113e-38
1567.64 -1359.9 100.145 1.8403113e-38
1598.77 -1368.25 110.034 1.8403113e-38
