# .PCD v0.7 - Point Cloud Data file format
VERSION 0.7
FIELDS x y z rgb
SIZE 4 4 4 4
TYPE F F F F
COUNT 1 1 1 1
WIDTH 350
HEIGHT 1
VIEWPOINT 0 0 0 1 0 0 0
POINTS 350
DATA ascii
-778.40601 -266.862 -266.21201 1.8403113e-38
-775.31403 -256.56 -266.142 1.8403113e-38
-771.22302 -245.73 -265.77399 1.8403113e-38
-777.38898 -236.377 -268.85501 1.8403113e-38
-764.63202 -224.951 -265.509 1.8403113e-38
-766.86102 -215.289 -267.241 1.8403113e-38
-758.64001 -204.479 -265.42401 1.8403113e-38
-757.875 -194.69 -266.11899 1.8403113e-38
-757.97803 -184.461 -267.16101 1.8403113e-38
-751.38599 -174.511 -265.82999 1.8403113e-38
-751.32001 -164.338 -266.80801 1.8403113e-38
-749.28802 -154.627 -267.052 1.8403113e-38
-745.27899 -144.45399 -266.64801 1.8403113e-38
-736.48499 -134.862 -264.51001 1.8403113e-38
-737.03101 -124.806 -265.69101 1.8403113e-38
-735.63 -115.261 -266.13901 1.8403113e-38
-732.23901 -105.315 -265.92899 1.8403113e-38
-724.091 -96.103302 -263.98099 1.8403113e-38
-726.19299 -86.022697 -265.70901 1.8403113e-38
-730.12701 -76.258698 -268.048 1.8403113e-38
-724.53601 -66.591202 -267.04001 1.8403113e-38
-717.03998 -57.642502 -265.29401 1.8403113e-38
-713.18103 -48.014099 -264.88901 1.8403113e-38
-715.85797 -38.2761 -266.785 1.8403113e-38
-709.96802 -28.9069 -265.64301 1.8403113e-38
-708.74402 -19.559799 -266.134 1.8403113e-38
-698.04303 -10.9282 -263.233 1.8403113e-38
-707.86499 -0.169679 -267.733 1.8403113e-38
-698.88702 8.5560799 -265.44601 1.8403113e-38
-696.43402 17.669201 -265.483 1.8403113e-38
-686.40399 26.001801 -262.78799 1.8403113e-38
-690.30298 36.113899 -265.14999 1.8403113e-38
-689.39502 45.932499 -265.797 1.8403113e-38
-675.57202 52.802601 -261.63 1.8403113e-38
-678.09003 72.7229 -264.47198 1.8403113e-38
-663.76801 89.004601 -261.05499 1.8403113e-38
-656.83099 116.733 -261.353 1.8403113e-38
-650.20398 154.21001 -262.71799 1.8403113e-38
-640.151 170.903 -260.83701 1.8403113e-38
-636.44299 179.375 -260.37201 1.8403113e-38
-638.1485 195.07001 -262.51349 1.8403113e-38
-628.15997 206.709 -260.159 1.8403113e-38
-629.46198 217.022 -261.63 1.8403113e-38
-625.237 225.80499 -261.013 1.8403113e-38
-624.60699 235.48801 -261.745 1.8403113e-38
-619.36102 243.86 -260.73099 1.8403113e-38
-627.25098 257.15701 -264.80399 1.8403113e-38
-614.04901 262.20001 -260.67401 1.8403113e-38
-619.98297 274.90799 -264.00299 1.8403113e-38
-618.72198 285.11099 -264.565 1.8403113e-38
-620.11902 296.07501 -266.134 1.8403113e-38
-612.70001 303.51999 -264.26599 1.8403113e-38
-608.82202 312.07401 -263.74899 1.8403113e-38
-605.51801 321.44101 -263.513 1.8403113e-38
-602.33801 330.35901 -263.276 1.8403113e-38
-598.03802 339.25201 -262.64401 1.8403113e-38
-603.03497 352.53101 -265.702 1.8403113e-38
-591.91803 357.84601 -262.32901 1.8403113e-38
-596.67902 371.246 -265.31601 1.8403113e-38
-595.31702 381.952 -265.892 1.8403113e-38
-594.07703 392.255 -266.47198 1.8403113e-38
-584.38098 398.20801 -263.659 1.8403113e-38
-582.17102 407.991 -263.84799 1.8403113e-38
-580.435 418.69199 -264.29199 1.8403113e-38
-577.23602 427.987 -264.086 1.8403113e-38
-572.11603 436.66699 -263.146 1.8403113e-38
-576.66302 451.09201 -266.15799 1.8403113e-38
-568.203 457.67499 -263.841 1.8403113e-38
-568.565 469.58701 -265.14001 1.8403113e-38
-560.76398 476.57901 -263.095 1.8403113e-38
-557.04901 485.79999 -262.70001 1.8403113e-38
-553.74701 495.966 -262.543 1.8403113e-38
-552.909 507.39999 -263.375 1.8403113e-38
-547.88098 516.43903 -262.50201 1.8403113e-38
-546.82001 527.91199 -263.259 1.8403113e-38
-540.11401 535.74799 -261.67999 1.8403113e-38
-544.78101 551.95398 -264.91 1.8403113e-38
-536.40802 558.57001 -262.62701 1.8403113e-38
-531.95801 567.70599 -261.96701 1.8403113e-38
-537.30103 585.75702 -265.61499 1.8403113e-38
-528.27899 591.23297 -262.992 1.8403113e-38
-527.52197 604.48297 -264.03101 1.8403113e-38
-522.66199 613.604 -263.22501 1.8403113e-38
-517.396 623.091 -262.31299 1.8403113e-38
-513.76801 633.44 -262.06 1.8403113e-38
-508.315 642.87402 -261.078 1.8403113e-38
-512.75299 661.08099 -264.42401 1.8403113e-38
-515.242 678.50201 -267.01099 1.8403113e-38
-507.689 685.59998 -265.06201 1.8403113e-38
-506.452 699.77698 -266.02399 1.8403113e-38
-496.07599 704.05701 -262.80899 1.8403113e-38
-489.30099 712.72998 -261.28799 1.8403113e-38
-487.39099 725.83502 -261.90799 1.8403113e-38
-485.608 740.05603 -262.68201 1.8403113e-38
-484.66699 754.64697 -263.78799 1.8403113e-38
-481.89499 768.24597 -264.155 1.8403113e-38
-479.97601 782.21301 -264.85699 1.8403113e-38
-476.87399 795.87 -265.11401 1.8403113e-38
-470.297 804.784 -263.686 1.8403113e-38
-466.29599 817.71301 -263.556 1.8403113e-38
-464.96799 833.25 -264.61899 1.8403113e-38
-460.039 845.46698 -264.09399 1.8403113e-38
-453.60999 855.04303 -262.784 1.8403113e-38
-457.797 879.39398 -266.647 1.8403113e-38
-453.37299 892.05499 -266.34201 1.8403113e-38
-450.659 908.16998 -266.97699 1.8403113e-38
-441.948 915.41302 -264.63699 1.8403113e-38
-437.77499 929.97998 -264.608 1.8403113e-38
-436.63599 948.14001 -265.996 1.8403113e-38
-425.51099 953.24402 -262.60001 1.8403113e-38
-427.23901 976.23499 -265.46701 1.8403113e-38
-423.91101 993.27802 -265.978 1.8403113e-38
-415.048 1001.11 -263.642 1.8403113e-38
-412.38699 1019.79 -264.548 1.8403113e-38
-404.836 1029.99 -262.90601 1.8403113e-38
-404.26599 1052.84 -264.95499 1.8403113e-38
-397.89099 1065.5 -263.966 1.8403113e-38
-395.77301 1086.8101 -265.32101 1.8403113e-38
-391.93399 1104.5 -265.715 1.8403113e-38
-384.47601 1117.49 -264.38101 1.8403113e-38
-379.267 1133.51 -264.13101 1.8403113e-38
-372.85599 1149.02 -263.41 1.8403113e-38
-368.60501 1167.6 -263.74899 1.8403113e-38
-362.66101 1184.8199 -263.36099 1.8403113e-38
-361.01001 1209.5 -265.211 1.8403113e-38
-354.53799 1226.77 -264.64099 1.8403113e-38
-346.271 1239.34 -262.98099 1.8403113e-38
-338.95401 1255.6899 -262.02701 1.8403113e-38
-332.41501 1272.59 -261.39801 1.8403113e-38
-331.53 1303.97 -264.17499 1.8403113e-38
-322.44 1316.46 -262.21899 1.8403113e-38
-320.76801 1347.98 -264.73401 1.8403113e-38
-308.54599 1354.16 -261.05899 1.8403113e-38
-306.51099 1386.66 -263.54401 1.8403113e-38
-296.91599 1399.96 -261.48999 1.8403113e-38
-290.465 1423.49 -261.54501 1.8403113e-38
-284.67499 1447.65 -261.89401 1.8403113e-38
-277.19 1470.3 -261.49899 1.8403113e-38
-270.71899 1494.49 -261.61099 1.8403113e-38
-263.22 1518.98 -261.39401 1.8403113e-38
-257.01401 1545.96 -261.87399 1.8403113e-38
-247.83501 1567.6801 -260.79401 1.8403113e-38
-232.517 1621.04 -260.67599 1.8403113e-38
-755.96997 -274.577 -257.591 1.8403113e-38
-657.94098 59.147301 -256.07501 1.8403113e-38
-659.435 78.603104 -258.513 1.8403113e-38
-657.841 97.534798 -259.81799 1.8403113e-38
-651.05499 105.3 -258.20401 1.8403113e-38
-646.284 123.427 -258.31601 1.8403113e-38
-647.34399 133.7 -259.698 1.8403113e-38
-641.21698 141.474 -258.31601 1.8403113e-38
-637.64899 159.993 -258.88699 1.8403113e-38
-239.05099 1589.09 -259.823 1.8403113e-38
-221.882 1638.6801 -258.685 1.8403113e-38
-213.367 1666.88 -258.47601 1.8403113e-38
-206.27299 1698.5699 -259.10901 1.8403113e-38
-195.28101 1721.1 -257.47299 1.8403113e-38
-187.57001 1753.75 -257.983 1.8403113e-38
-177.58099 1782.86 -257.34799 1.8403113e-38
-168.189 1812.66 -256.98801 1.8403113e-38
-158.94701 1848.42 -257.26801 1.8403113e-38
-147.259 1872.4399 -255.536 1.8403113e-38
-137.87601 1912.01 -256.142 1.8403113e-38
-127.252 1944.62 -255.627 1.8403113e-38
-116.484 1983.21 -255.651 1.8403113e-38
-106.184 2022.54 -255.911 1.8403113e-38
-91.780701 2048.5 -253.418 1.8403113e-38
-82.692902 2100.3799 -255.338 1.8403113e-38
-69.995598 2141.8 -254.964 1.8403113e-38
-59.690399 2195.6399 -256.64999 1.8403113e-38
-45.5756 2237 -255.77299 1.8403113e-38
-30.77 2271.25 -253.955 1.8403113e-38
-14.5817 2306.5901 -251.75999 1.8403113e-38
-3.7566299 2378.95 -255.08701 1.8403113e-38
13.6172 2416.1299 -252.65601 1.8403113e-38
29.396099 2462.8701 -251.726 1.8403113e-38
45.938099 2519.55 -251.506 1.8403113e-38
63.069901 2568.1101 -250.28101 1.8403113e-38
81.378799 2624.6299 -249.42599 1.8403113e-38
99.382301 2681.8899 -248.75101 1.8403113e-38
118.743 2749.0901 -248.57899 1.8403113e-38
138.071 2815.0701 -248.298 1.8403113e-38
159.287 2888.01 -248.03999 1.8403113e-38
180.683 2955.74 -247.207 1.8403113e-38
203.85899 3038.3401 -247.21201 1.8403113e-38
227.35699 3111.75 -246.201 1.8403113e-38
253.17599 3194.04 -245.25 1.8403113e-38
278.90302 3281.04 -244.79601 1.8403113e-38
307.37701 3379.8701 -244.541 1.8403113e-38
336.01401 3470.47 -243.42101 1.8403113e-38
367.73401 3572.8401 -242.377 1.8403113e-38
399.45001 3665.96 -240.42599 1.8403113e-38
434.35199 3762.8201 -237.726 1.8403113e-38
470.83899 3904.1899 -238.85001 1.8403113e-38
547.57599 4093.3601 -230.573 1.8403113e-38
592.61298 4244.6201 -229.673 1.8403113e-38
633.18701 4319.8999 -222.862 1.8403113e-38
685.005 4501.1299 -222.536 1.8403113e-38
-630.10999 -267.65399 -214.16901 1.8403113e-38
724.82898 4527.8599 -211.211 1.8403113e-38
764.30103 4525.2798 -197.125 1.8403113e-38
-553.18701 -265.81601 -187.394 1.8403113e-38
482.93799 3398.0801 -184.813 1.8403113e-38
802.04602 4524.46 -183.819 1.8403113e-38
-495.14099 -265.01901 -167.132 1.8403113e-38
840.479 4512.23 -169.147 1.8403113e-38
-908.11401 -1871.1801 -153.813 1.8403113e-38
-453.978 -266.25101 -152.58701 1.8403113e-38
875.078 4484.9399 -154.338 1.8403113e-38
-888.60901 -1874.95 -146.606 1.8403113e-38
-872.72601 -1793.0699 -149.097 1.8403113e-38
917.52899 4507.6802 -141.7 1.8403113e-38
-850.92297 -1882.12 -132.69501 1.8403113e-38
-869.81897 -1877.98 -139.72501 1.8403113e-38
-415.69 -266.86099 -139.11 1.8403113e-38
-832.18597 -1884.72 -125.874 1.8403113e-38
-383 -268.11801 -127.531 1.8403113e-38
956.75299 4517.3599 -128.907 1.8403113e-38
-805.17902 -1875.9399 -117.274 1.8403113e-38
-339.19601 -272.78201 -111.722 1.8403113e-38
-356.91501 -269.698 -118.235 1.8403113e-38
998.047 4526.4302 -115.329 1.8403113e-38
-309.40399 -272.73199 -101.287 1.8403113e-38
1035.6801 4522.5098 -101.758 1.8403113e-38
-599.75098 -1394.63 -92.644699 1.8403113e-38
-521.677 -1141.45 -90.197098 1.8403113e-38
-528.20502 -1132.5699 -93.3591 1.8403113e-38
-540.90302 -1129.9301 -98.067398 1.8403113e-38
-524.29498 -1095.11 -95.673897 1.8403113e-38
-291.69501 -275.06 -94.852898 1.8403113e-38
-287.96899 -279.95099 -93.066101 1.8403113e-38
-492.901 -1141.08 -80.150703 1.8403113e-38
-500.09299 -1133.1801 -83.447304 1.8403113e-38
-459.121 -1006.94 -81.511497 1.8403113e-38
-267.95801 -339.164 -80.227699 1.8403113e-38
-264.901 -320.45099 -80.997597 1.8403113e-38
-270.21399 -310.39401 -83.848801 1.8403113e-38
-268.004 -315.70999 -82.551399 1.8403113e-38
-268.63901 -304.30499 -83.896103 1.8403113e-38
-272.77301 -293.86099 -86.372498 1.8403113e-38
-269.83301 -298.71799 -84.864197 1.8403113e-38
-276.69849 -286.0965 -88.5121 1.8403113e-38
1073.58 4508.1201 -87.061699 1.8403113e-38
-684.82501 -1906.6 -72.082901 1.8403113e-38
-514.23602 -1259.84 -75.941299 1.8403113e-38
-496.94601 -1217.55 -74.042999 1.8403113e-38
-496.866 -1199.46 -75.795303 1.8403113e-38
-484.66599 -1165.5601 -74.855904 1.8403113e-38
-483.375 -1146.95 -76.234596 1.8403113e-38
-268.55399 -432.121 -71.290298 1.8403113e-38
-264.633 -423.92001 -70.723503 1.8403113e-38
-266.84399 -418.401 -72.041 1.8403113e-38
-261.18048 -406.38898 -71.238251 1.8403113e-38
-266.04749 -396.02899 -73.963303 1.8403113e-38
-268.01599 -387.60999 -75.481499 1.8403113e-38
-263.664 -376.5415 -75.045349 1.8403113e-38
-268.49548 -366.25848 -77.750252 1.8403113e-38
-264.5885 -352.78198 -77.7071 1.8403113e-38
-266.495 -344.453 -79.194702 1.8403113e-38
-262.164 -331.237 -78.977303 1.8403113e-38
-263.521 -325.98401 -79.969803 1.8403113e-38
-670.09399 -1915.5699 -66.0382 1.8403113e-38
-253.332 -477.07599 -61.533199 1.8403113e-38
-249.1575 -464.7225 -61.285751 1.8403113e-38
-266.884 -457.67099 -68.191101 1.8403113e-38
-256.69299 -459.009 -64.488602 1.8403113e-38
-263.61951 -446.07501 -68.188354 1.8403113e-38
-266.22699 -437.651 -69.931 1.8403113e-38
-651.18298 -1915.26 -59.442799 1.8403113e-38
-632.578 -1916.89 -52.762199 1.8403113e-38
-265.85599 -638.23199 -50.065201 1.8403113e-38
-265.13501 -603.98499 -53.1824 1.8403113e-38
-261.72198 -593.41302 -53.026501 1.8403113e-38
-263.81201 -586.78699 -54.410702 1.8403113e-38
-256.25601 -573.44202 -53.075901 1.8403113e-38
-262.103 -569.76202 -55.487099 1.8403113e-38
-259.83499 -560.59698 -55.594101 1.8403113e-38
-254.78851 -545.60498 -55.300701 1.8403113e-38
-261.38 -531.64099 -58.9846 1.8403113e-38
-259.974 -537.901 -57.8759 1.8403113e-38
-250.653 -517.15802 -56.6507 1.8403113e-38
-250.24001 -509.95901 -57.214401 1.8403113e-38
-249.07001 -502.01801 -57.585602 1.8403113e-38
-245.19501 -492.854 -57.129501 1.8403113e-38
-248.888 -484.7525 -59.220451 1.8403113e-38
-599.41998 -1925.34 -40.312099 1.8403113e-38
-614.25702 -1917.04 -46.328098 1.8403113e-38
-270.16599 -755.82703 -40.005199 1.8403113e-38
-270.15799 -735.349 -42.017502 1.8403113e-38
-269.151 -724.61603 -42.7206 1.8403113e-38
-270.367 -715.72101 -44.021801 1.8403113e-38
-266.258 -702.38 -43.894402 1.8403113e-38
-267.23199 -693.57098 -45.102501 1.8403113e-38
-266.44 -683.72101 -45.794399 1.8403113e-38
-265.013 -673.00201 -46.348701 1.8403113e-38
-268.39401 -667.15601 -48.108799 1.8403113e-38
-267.483 -657.16302 -48.7728 1.8403113e-38
-260.289 -642.396 -47.705002 1.8403113e-38
-255.338 -621.185 -48.056801 1.8403113e-38
-259.224 -615.80298 -49.948299 1.8403113e-38
-252.168 -602.11603 -48.822201 1.8403113e-38
973.12402 3685.7 -41.341801 1.8403113e-38
1065.91 4022.02 -41.917702 1.8403113e-38
-581.15302 -1925.11 -33.933399 1.8403113e-38
-272.45801 -790.586 -37.388599 1.8403113e-38
-273.72501 -780.77197 -38.7981 1.8403113e-38
-270.54001 -766.96802 -39.040199 1.8403113e-38
-265.26001 -740.79498 -39.765301 1.8403113e-38
-562.23199 -1925.0601 -27.3078 1.8403113e-38
-544.52698 -1925.33 -21.077499 1.8403113e-38
-532.18597 -1938.37 -15.4697 1.8403113e-38
-308.82001 -1133.08 -16.4314 1.8403113e-38
1025.4399 3618.3999 -16.388599 1.8403113e-38
-493.61801 -1932.95 -2.48826 1.8403113e-38
-500.508 -1908.47 -7.3109102 1.8403113e-38
1058.24 3618.6399 -4.9186702 1.8403113e-38
-461.86801 -1941.3 9.45928 1.8403113e-38
-477.29401 -1935.21 3.4544201 1.8403113e-38
-236.18201 -1105.99 6.3566499 1.8403113e-38
1088.5699 3613.97 6.1691999 1.8403113e-38
-446.332 -1945.08 15.2751 1.8403113e-38
-174.448 -938.409 11.5005 1.8403113e-38
1122.4399 3618.49 17.5942 1.8403113e-38
-429.67099 -1948.1 21.4109 1.8403113e-38
-406.92001 -1934 27.9956 1.8403113e-38
-104.665 -853.479 27.597401 1.8403113e-38
-99.009697 -857.14001 29.939501 1.8403113e-38
-110.572 -849.57599 25.143499 1.8403113e-38
1153.84 3618.1101 28.6329 1.8403113e-38
-378.61401 -1949.03 39.393902 1.8403113e-38
-386.323 -1926.42 34.467999 1.8403113e-38
1230.01 3806.2 36.819401 1.8403113e-38
1407.34 4413.9302 39.1647 1.8403113e-38
-362.38 -1952.3 45.404202 1.8403113e-38
-347.564 -1957 51.058102 1.8403113e-38
-330.27802 -1957.13 57.128399 1.8403113e-38
1357.75 4047.5601 57.8344 1.8403113e-38
-299.16699 -1964.16 68.722504 1.8403113e-38
-313.10001 -1954.9301 62.931702 1.8403113e-38
-284.58801 -1969.23 74.329201 1.8403113e-38
1308.16 3712.73 73.402 1.8403113e-38
-252.142 -1971.5601 85.928902 1.8403113e-38
-266.13101 -1964.89 80.370697 1.8403113e-38
1324.99 3645.46 85.9179 1.8403113e-38
-236.164 -1974.52 91.818802 1.8403113e-38
-221.487 -1979.01 97.404099 1.8403113e-38
1416.66 3863.21 96.615898 1.8403113e-38
-189.104 -1980.11 108.859 1.8403113e-38
-203.80099 -1975.91 103.296 1.8403113e-38
1387.23 3629.6201 109.287 1.8403113e-38
