# .PCD v0.7 - Point Cloud Data file format
VERSION 0.7
FIELDS x y z rgb
SIZE 4 4 4 4
TYPE F F F F
COUNT 1 1 1 1
WIDTH 323
HEIGHT 1
VIEWPOINT 0 0 0 1 0 0 0
POINTS 323
DATA ascii
-1160.37 732.57599 -290.452 1.8403113e-38
-1088.71 811.297 -292.534 1.8403113e-38
-1069.5699 823.23401 -290.73499 1.8403113e-38
-772.49103 1114.4399 -290.26501 1.8403113e-38
-745.79303 1142.4301 -290.694 1.8403113e-38
-731.52698 1159.28 -291.414 1.8403113e-38
-715.03802 1172.67 -290.66901 1.8403113e-38
-696.112 1190.3199 -290.40701 1.8403113e-38
-664.16101 1220.88 -290.15799 1.8403113e-38
-599.38397 1287.21 -290.79099 1.8403113e-38
-585.646 1300.5 -290.72101 1.8403113e-38
-585.78699 1312.8101 -293.95001 1.8403113e-38
-568.37598 1317.04 -290.59399 1.8403113e-38
-567.31799 1326.7 -292.827 1.8403113e-38
-550.69299 1333.35 -290.302 1.8403113e-38
-512.19202 1373.99 -290.99301 1.8403113e-38
-460.48001 1428.78 -291.974 1.8403113e-38
-457.30899 1434.7 -292.69501 1.8403113e-38
-442.995 1456.67 -294.73099 1.8403113e-38
-438.427 1456.95 -293.63699 1.8403113e-38
-417.95901 1474.29 -292.896 1.8403113e-38
-375.44101 1507.12 -290.53699 1.8403113e-38
-1247.6 609.77502 -280.92599 1.8403113e-38
-1251.2 615.63501 -283.36499 1.8403113e-38
-1249.21 633.57599 -287.504 1.8403113e-38
-1238.71 633.65198 -284.84 1.8403113e-38
-1232.96 650.00098 -287.60699 1.8403113e-38
-1228.54 652.55499 -287.14001 1.8403113e-38
-1213.0601 664.448 -286.26501 1.8403113e-38
-1207.77 666.49298 -285.44199 1.8403113e-38
-1200.48 686.51398 -288.76801 1.8403113e-38
-1199 681.258 -287.026 1.8403113e-38
-1187.23 699.04199 -288.62601 1.8403113e-38
-1175.99 697.87598 -285.453 1.8403113e-38
-1166.24 714.15503 -287.17798 1.8403113e-38
-1144.28 728.23602 -285.21399 1.8403113e-38
-1140.45 745.396 -288.68201 1.8403113e-38
-1135.0699 746.91101 -287.70001 1.8403113e-38
-1121.24 758.20502 -287.091 1.8403113e-38
-1120.6899 762.53601 -288.07401 1.8403113e-38
-1106.8 775.96252 -288.0025 1.8403113e-38
-1085 788.75098 -285.74301 1.8403113e-38
-1095.13 790.66302 -288.828 1.8403113e-38
-1079.39 809.758 -289.75299 1.8403113e-38
-1054.9399 817.67999 -285.55701 1.8403113e-38
-1045.73 833.77551 -287.37402 1.8403113e-38
-1034.02 848.04797 -288.07901 1.8403113e-38
-1031.58 851.125 -288.25201 1.8403113e-38
-1017.765 863.71851 -287.98602 1.8403113e-38
-1008.16 879.66199 -289.66199 1.8403113e-38
-1004.17 881.45599 -289.10699 1.8403113e-38
-990.112 896.263 -289.35101 1.8403113e-38
-989.12903 890.25598 -287.543 1.8403113e-38
-974.336 906.86853 -288.06702 1.8403113e-38
-955.11902 919.375 -286.396 1.8403113e-38
-961.91699 920.367 -288.39099 1.8403113e-38
-943.87549 933.88251 -287.28149 1.8403113e-38
-928.31 949.67499 -287.39499 1.8403113e-38
-934.39301 950.23798 -289.09601 1.8403113e-38
-787.867 1096.75 -289.60999 1.8403113e-38
-773.69 1109.03 -289.17099 1.8403113e-38
-757.2605 1125.325 -289.19299 1.8403113e-38
-739.98499 1140.5601 -288.72601 1.8403113e-38
-724.32202 1154.87 -288.431 1.8403113e-38
-709.74103 1171.4399 -288.996 1.8403113e-38
-698.28998 1185.8101 -289.793 1.8403113e-38
-681.28802 1198.6899 -288.78601 1.8403113e-38
-677.742 1200.65 -288.388 1.8403113e-38
-664.03601 1211.3101 -287.647 1.8403113e-38
-650.93597 1233.1 -289.94501 1.8403113e-38
-647.28003 1234.97 -289.495 1.8403113e-38
-633.41101 1246.14 -288.84399 1.8403113e-38
-631.62201 1252.28 -289.979 1.8403113e-38
-614.66602 1261.9751 -288.15649 1.8403113e-38
-600.73499 1279.34 -289.095 1.8403113e-38
-546.72101 1334.9 -289.68799 1.8403113e-38
-530.867 1343.99 -287.991 1.8403113e-38
-528.29303 1350.01 -288.89401 1.8403113e-38
-513.83197 1364.34 -288.91101 1.8403113e-38
-494.16351 1385.1851 -289.285 1.8403113e-38
-475.73999 1404.1699 -289.49548 1.8403113e-38
-419.133 1457.2 -288.76999 1.8403113e-38
-399.04501 1477.0601 -288.78201 1.8403113e-38
-395.647 1483.79 -289.65601 1.8403113e-38
-378.384 1496.65 -288.577 1.8403113e-38
-356.59299 1512.15 -287.02399 1.8403113e-38
-353.70901 1524.48 -289.483 1.8403113e-38
-335.48599 1535.9 -287.78201 1.8403113e-38
-331.36099 1540.58 -287.94101 1.8403113e-38
-313.44 1557.45 -287.73099 1.8403113e-38
-309.90601 1568.76 -289.76001 1.8403113e-38
-290.651 1577.72 -287.16 1.8403113e-38
-286.694 1587.08 -288.573 1.8403113e-38
-267.39401 1599.58 -286.88101 1.8403113e-38
-263.35699 1610.8 -288.75699 1.8403113e-38
-243.40601 1620.13 -286.07501 1.8403113e-38
-239.278 1634.1899 -288.664 1.8403113e-38
-216.5385 1646.355 -286.00348 1.8403113e-38
-193.60201 1663.02 -284.45901 1.8403113e-38
-188.78799 1673.1 -285.841 1.8403113e-38
-167.70799 1687.26 -284.12299 1.8403113e-38
-162.647 1696.3101 -285.17401 1.8403113e-38
-141.056 1709.16 -282.98599 1.8403113e-38
-135.774 1718.13 -283.961 1.8403113e-38
-113.612 1733.54 -282.289 1.8403113e-38
-108.134 1741.46 -282.94101 1.8403113e-38
-85.278999 1759.42 -281.75201 1.8403113e-38
-79.341499 1772.1 -283.51999 1.8403113e-38
-56.026199 1785.79 -281.10901 1.8403113e-38
-50.0481 1794.5 -281.83801 1.8403113e-38
-25.3381 1818.46 -281.73199 1.8403113e-38
-19.269199 1825.13 -281.909 1.8403113e-38
6.26544 1848.67 -281.48199 1.8403113e-38
12.7458 1857.1801 -282.03 1.8403113e-38
45.7384 1887.6899 -281.50601 1.8403113e-38
73.064796 1911.29 -280.63501 1.8403113e-38
80.708702 1924.4 -282.07901 1.8403113e-38
108.956 1947.49 -280.84299 1.8403113e-38
116.2 1955.64 -281.103 1.8403113e-38
155.774 2003.58 -283.41199 1.8403113e-38
185.396 2022.7 -280.79401 1.8403113e-38
195.19099 2041.15 -283.073 1.8403113e-38
225.688 2059.6899 -280.08099 1.8403113e-38
236.33 2079.8899 -282.59601 1.8403113e-38
280.354 2124.53 -282.91101 1.8403113e-38
325.96201 2168.29 -282.59399 1.8403113e-38
373.13199 2211.1299 -281.63901 1.8403113e-38
424.49799 2262.48 -281.81699 1.8403113e-38
477.70599 2312.75 -281.24399 1.8403113e-38
38.446301 1874.46 -279.94 1.8403113e-38
144.63699 1974.35 -278.685 1.8403113e-38
268.354 2100.6899 -279.80099 1.8403113e-38
312.936 2142.76 -279.30701 1.8403113e-38
359.26599 2184.8799 -278.38199 1.8403113e-38
410.51901 2238.3899 -279.147 1.8403113e-38
462.01599 2285.1499 -278.10199 1.8403113e-38
514.61603 2328.9399 -276.005 1.8403113e-38
532.43298 2360.95 -279.745 1.8403113e-38
575.03497 2390.3401 -276.474 1.8403113e-38
592.99701 2420.1299 -279.60199 1.8403113e-38
632.44098 2435.49 -273.5 1.8403113e-38
655.04498 2476.1101 -278.24899 1.8403113e-38
701.45898 2506.27 -274.20001 1.8403113e-38
721.21301 2536.26 -276.923 1.8403113e-38
768.73499 2564.3899 -272.06601 1.8403113e-38
791.75299 2600.4299 -275.522 1.8403113e-38
844.88702 2637.47 -271.539 1.8403113e-38
871.81097 2680.3601 -275.77301 1.8403113e-38
926.82202 2716.03 -270.95599 1.8403113e-38
947.70099 2742.01 -272.35001 1.8403113e-38
1034.46 2820.8501 -270.60501 1.8403113e-38
1141.48 2934.3701 -272.66901 1.8403113e-38
1243.37 3026.46 -270.48901 1.8403113e-38
1364.52 3146.9299 -270.742 1.8403113e-38
1011.22 2791.72 -268.99701 1.8403113e-38
1108.0699 2886.03 -268.68201 1.8403113e-38
1203.5601 2968.1201 -265.54599 1.8403113e-38
1315.16 3073.51 -264.332 1.8403113e-38
1445.98 3205.02 -264.97601 1.8403113e-38
1491.91 3267.76 -269.49399 1.8403113e-38
1574.3199 3320.02 -261.97101 1.8403113e-38
1727.6801 3467.9199 -261.10001 1.8403113e-38
1789.65 3551.02 -266.79501 1.8403113e-38
1969.25 3725.0701 -265.991 1.8403113e-38
2147.21 3881.49 -261.04099 1.8403113e-38
1576.3101 3300.05 -256.289 1.8403113e-38
1893.52 3623.6699 -259.07199 1.8403113e-38
2077.04 3794.3899 -256.405 1.8403113e-38
2262.96 3954.1899 -250.29401 1.8403113e-38
2340.6101 4048.1399 -254.793 1.8403113e-38
2577.26 4264.98 -250.496 1.8403113e-38
2479.01 4145.4199 -244.62601 1.8403113e-38
2856.96 4525.9399 -246.631 1.8403113e-38
2728.5801 4369.2002 -238.827 1.8403113e-38
3036.05 4655.7402 -234.492 1.8403113e-38
3066.75 4668.6099 -229.98 1.8403113e-38
-1848.11 -294.20599 -200.161 1.8403113e-38
-1846.49 -287.83801 -201.39799 1.8403113e-38
-1843.6801 -317.85599 -192.90199 1.8403113e-38
3054.6799 4528.6201 -196.78799 1.8403113e-38
-1847.14 -352.98901 -184.6825 1.8403113e-38
-1833.85 -320.87601 -189.60699 1.8403113e-38
-992.66498 494.70599 -185.948 1.8403113e-38
2983.4299 4404.1299 -182.741 1.8403113e-38
-1857.99 -384.96701 -179.168 1.8403113e-38
-1833.03 -382.707 -173.37399 1.8403113e-38
-1813.34 -401.203 -163.55 1.8403113e-38
-1798.6801 -402.01999 -159.591 1.8403113e-38
-992.784 360.203 -151.125 1.8403113e-38
2972.75 4275.0098 -152.00999 1.8403113e-38
-969.72699 342.93799 -140.758 1.8403113e-38
-868.54401 444.811 -141.295 1.8403113e-38
-574.70001 764.23798 -148.964 1.8403113e-38
2990.75 4271.6401 -146.53999 1.8403113e-38
-616.64001 651.24902 -130.405 1.8403113e-38
-558.14398 736.68903 -137.59399 1.8403113e-38
-933.82202 332.888 -128.97701 1.8403113e-38
-902.354 343.19901 -123.606 1.8403113e-38
-607.78699 645.43103 -126.635 1.8403113e-38
-586.92999 640.60699 -120.053 1.8403113e-38
3074.6499 4267.21 -123.946 1.8403113e-38
-582.16199 632.198 -116.656 1.8403113e-38
-567.05298 635.89001 -113.751 1.8403113e-38
-575.58502 642.10999 -117.543 1.8403113e-38
-559.67346 643.08148 -113.7285 1.8403113e-38
-547.974 645.11102 -111.264 1.8403113e-38
-542.341 659.59802 -113.578 1.8403113e-38
3088.3401 4257.9502 -118.047 1.8403113e-38
-528.73401 639.14203 -104.8 1.8403113e-38
-512.84198 639.87598 -100.928 1.8403113e-38
-543.922 643.61603 -109.841 1.8403113e-38
-527.69299 655.70502 -108.826 1.8403113e-38
-1488.925 -392.5795 -82.866348 1.8403113e-38
-1480 -365.28 -87.6604 1.8403113e-38
-1390.65 -280.905 -86.686699 1.8403113e-38
-1373.38 -270.004 -85.097504 1.8403113e-38
-798.065 296.30099 -84.798103 1.8403113e-38
-764.16052 322.93549 -83.034103 1.8403113e-38
-731.51703 349.39801 -81.547798 1.8403113e-38
-724.91199 356.466 -81.691299 1.8403113e-38
-718.74902 356.673 -80.1698 1.8403113e-38
-715.76196 365.82001 -81.776596 1.8403113e-38
-724.28101 379.05301 -87.383003 1.8403113e-38
-719.90802 379.70999 -86.4356 1.8403113e-38
-1569.79 -486.595 -79.171402 1.8403113e-38
-1559.13 -476.10101 -79.168198 1.8403113e-38
-1509.15 -430.733 -78.148903 1.8403113e-38
-1501.86 -422.26599 -78.478897 1.8403113e-38
-1396.26 -326.14801 -76.396698 1.8403113e-38
-1346.175 -284.90198 -74.2826 1.8403113e-38
-763.69202 287.827 -73.816803 1.8403113e-38
-738.698 327.93402 -77.821548 1.8403113e-38
-732.60901 337.4415 -78.728851 1.8403113e-38
-722.15302 344.47601 -77.879303 1.8403113e-38
-1521.3101 -486.24399 -66.872498 1.8403113e-38
-1513.11 -487.60901 -64.422401 1.8403113e-38
-788.43103 215.17799 -61.314499 1.8403113e-38
-739.93799 262.29401 -61.1292 1.8403113e-38
-746.05499 274.90253 -65.959747 1.8403113e-38
2840.05 3821.6001 -68.437302 1.8403113e-38
-1464.88 -485.77899 -52.569698 1.8403113e-38
-1054.4 -52.611 -59.902199 1.8403113e-38
-1020.49 -46.849201 -52.7281 1.8403113e-38
-767.46997 211.897 -55.1068 1.8403113e-38
-763.24902 222.34801 -56.736198 1.8403113e-38
-753.35699 223.66 -54.5476 1.8403113e-38
-721.91101 249.52 -53.2118 1.8403113e-38
-719.52502 241.084 -50.4156 1.8403113e-38
-723.45898 251.673 -54.1651 1.8403113e-38
-733.83197 263.423 -59.861 1.8403113e-38
-1454.95 -485.94299 -49.988701 1.8403113e-38
-958.91602 -13.533 -45.623001 1.8403113e-38
-935.51099 -10.5931 -40.402802 1.8403113e-38
-721.09698 201.368 -40.525902 1.8403113e-38
-726.22998 229.746 -49.191601 1.8403113e-38
-719.0575 235.05899 -48.73505 1.8403113e-38
2889.8999 3783.6399 -45.8591 1.8403113e-38
2907.22 3780.98 -40.743 1.8403113e-38
-1406.13 -482.15701 -38.493999 1.8403113e-38
-1398.02 -482.927 -36.220699 1.8403113e-38
-730.22803 169.81799 -34.6842 1.8403113e-38
-725.05847 175.8075 -34.914951 1.8403113e-38
-733.42297 181.72701 -38.586899 1.8403113e-38
-712.50201 189.438 -35.237598 1.8403113e-38
-712.95251 195.25101 -36.8592 1.8403113e-38
-1357.39 -481.98499 -26.0795 1.8403113e-38
-1349.3199 -482.48801 -23.886299 1.8403113e-38
-764.88898 107.994 -27.5228 1.8403113e-38
-725.604 122.458 -21.229799 1.8403113e-38
-716.64551 132.1245 -21.445049 1.8403113e-38
-716.28448 141.85651 -23.874599 1.8403113e-38
-723.04498 150.28 -27.7855 1.8403113e-38
-716.22601 152.489 -26.614799 1.8403113e-38
-714.08252 161.32651 -28.356998 1.8403113e-38
-1305.48 -478.33701 -13.757 1.8403113e-38
-810.461 31.566299 -19.365999 1.8403113e-38
-795.48199 37.1362 -16.980801 1.8403113e-38
-766.75348 53.309799 -13.82905 1.8403113e-38
-752.3045 66.803299 -13.6327 1.8403113e-38
-752.45398 76.241203 -16.116501 1.8403113e-38
-735.70398 85.161896 -14.146999 1.8403113e-38
-742.09198 90.251099 -17.098499 1.8403113e-38
-733.09302 99.7397 -17.257099 1.8403113e-38
-740.013 100.744 -19.2861 1.8403113e-38
-728.91803 110.276 -18.9203 1.8403113e-38
-720.67999 121.063 -19.610001 1.8403113e-38
-1295.5699 -502.763 -4.8947201 1.8403113e-38
-1274.1801 -465.121 -9.18153 1.8403113e-38
-1242.83 -466.46799 -0.82100302 1.8403113e-38
-1291.91 -521.27698 0.838314 1.8403113e-38
-1268.62 -511.76801 4.3256402 1.8403113e-38
-1427.1899 -725.46399 19.172001 1.8403113e-38
-1422.025 -693.73547 12.27145 1.8403113e-38
-1331.6 -605.75098 12.5822 1.8403113e-38
-1271.6801 -560.56403 16.190001 1.8403113e-38
-1256.5549 -527.17603 11.40295 1.8403113e-38
2783.6899 3435 17.3368 1.8403113e-38
2783.9299 3414.6799 22.6653 1.8403113e-38
-1197.3 -566.52197 36.744301 1.8403113e-38
2808.1599 3335.6799 49.327999 1.8403113e-38
2803.6001 3350.8201 44.237099 1.8403113e-38
-700.216 -223.382 74.876099 1.8403113e-38
-697.43597 -218.67999 74.368103 1.8403113e-38
-679.87097 -219.104 78.967598 1.8403113e-38
2857.6499 3284.6399 75.203499 1.8403113e-38
2847.8 3294.1101 70.232498 1.8403113e-38
-644.62903 -220.66901 88.380501 1.8403113e-38
-673.09399 -216.507 80.026901 1.8403113e-38
-660.85199 -217.799 83.490402 1.8403113e-38
-652.58002 -213.802 84.569 1.8403113e-38
-646.64301 -219.75 87.627701 1.8403113e-38
-630.96301 -220.033 91.708702 1.8403113e-38
-624.38599 -217.00101 92.603996 1.8403113e-38
-606.12152 -213.034 96.244148 1.8403113e-38
-590.28699 -210.619 99.665604 1.8403113e-38
2920.49 3266.4299 95.983101 1.8403113e-38
-589.06403 -211.985 100.332 1.8403113e-38
-577.297 -211.53101 103.222 1.8403113e-38
-570.23602 -207.377 103.95 1.8403113e-38
-560.06 -207.94299 106.698 1.8403113e-38
-559.55798 -209.90401 107.334 1.8403113e-38
2938.02 3264.47 100.971 1.8403113e-38
-555.08502 -215.881 110.026 1.8403113e-38
