# .PCD v0.7 - Point Cloud Data file format
VERSION 0.7
FIELDS x y z rgb
SIZE 4 4 4 4
TYPE F F F F
COUNT 1 1 1 1
WIDTH 344
HEIGHT 1
VIEWPOINT 0 0 0 1 0 0 0
POINTS 344
DATA ascii
-1258.5601 848.43701 -290.478 1.8403113e-38
-1069.14 982.56897 -290.03601 1.8403113e-38
-1035.02 1008.67 -290.53201 1.8403113e-38
-1021.6 1024.66 -292.41901 1.8403113e-38
-983.70599 1046.25 -290.78 1.8403113e-38
-825.15198 1162.17 -291.48999 1.8403113e-38
-816.729 1167.1 -291.16299 1.8403113e-38
-804.01099 1176.0801 -291.1265 1.8403113e-38
-784.18597 1191.91 -291.60901 1.8403113e-38
-773.19397 1194.67 -290.099 1.8403113e-38
-766.07898 1201.54 -290.62399 1.8403113e-38
-749.31799 1213.27 -290.54199 1.8403113e-38
-738.04797 1234.46 -294.42599 1.8403113e-38
-723.12903 1230.1899 -290.00201 1.8403113e-38
-717.02802 1239.1899 -291.37 1.8403113e-38
-699.16498 1249.3 -290.578 1.8403113e-38
-692.34698 1259.49 -292.14801 1.8403113e-38
-685.86102 1268.3199 -293.39001 1.8403113e-38
-674.151 1269.1899 -291.16501 1.8403113e-38
-668.341 1279.62 -293.01999 1.8403113e-38
-654.22351 1286.74 -292.13647 1.8403113e-38
-635.388 1295.39 -290.70551 1.8403113e-38
-626.15399 1313.78 -294.19 1.8403113e-38
-615.26501 1313.58 -291.823 1.8403113e-38
-605.27698 1318.04 -291.02802 1.8403113e-38
-600.05103 1331.64 -293.944 1.8403113e-38
-589.21899 1334.22 -292.41199 1.8403113e-38
-579.67297 1337.1801 -291.267 1.8403113e-38
-570.46301 1343.99 -291.33099 1.8403113e-38
-563.40802 1353.91 -292.771 1.8403113e-38
-553.073 1357.9301 -291.76999 1.8403113e-38
-544.28497 1363.28 -291.492 1.8403113e-38
-533.87299 1367.13 -290.42599 1.8403113e-38
-526.41302 1376.85 -291.72 1.8403113e-38
-518.37903 1388.6801 -293.51901 1.8403113e-38
-509.28299 1393.78 -293.103 1.8403113e-38
-497.82401 1394.61 -290.918 1.8403113e-38
-490.67801 1406.85 -293.02899 1.8403113e-38
-478.91299 1406.59 -290.45599 1.8403113e-38
-471.746 1419.65 -292.80499 1.8403113e-38
-461.53201 1425.64 -292.41199 1.8403113e-38
-452.71201 1433.1 -292.75 1.8403113e-38
-441.70001 1436.16 -291.323 1.8403113e-38
-433.52899 1447.1899 -292.85501 1.8403113e-38
-426.08801 1467.73 -297.35699 1.8403113e-38
-415.82999 1470.3 -295.94699 1.8403113e-38
-404.66901 1473.99 -294.67099 1.8403113e-38
-394.20099 1475.46 -292.88901 1.8403113e-38
-382.66599 1477.08 -290.92401 1.8403113e-38
-373.87799 1488.6899 -292.49899 1.8403113e-38
-353.733 1505.39 -293.17099 1.8403113e-38
-365.55301 1511.76 -297.561 1.8403113e-38
-342.86301 1513.26 -293.19601 1.8403113e-38
-333.09399 1521.79 -293.65201 1.8403113e-38
-321.651 1526.66 -292.66901 1.8403113e-38
-311.55899 1534.1 -292.733 1.8403113e-38
-289.677 1546.08 -291.64001 1.8403113e-38
-301.26199 1552.08 -295.87201 1.8403113e-38
-267.724 1561.52 -291.55899 1.8403113e-38
-245.248 1575.67 -290.98499 1.8403113e-38
-233.439 1586.5 -291.686 1.8403113e-38
-222.50999 1594.26 -291.66599 1.8403113e-38
-199.241 1616.3199 -293.26501 1.8403113e-38
-150.89301 1640.17 -290.077 1.8403113e-38
-125.882 1659.17 -290.40302 1.8403113e-38
-1495.54 668.31799 -287.38699 1.8403113e-38
-1479.15 676.68298 -286.39001 1.8403113e-38
-1467.73 685.14801 -286.47601 1.8403113e-38
-1256.33 835.36798 -286.13901 1.8403113e-38
-1179.95 879.06897 -282.88699 1.8403113e-38
-1180.96 892.87201 -287.186 1.8403113e-38
-1176.79 902.34698 -289.10501 1.8403113e-38
-1161.55 906.02502 -286.966 1.8403113e-38
-1156.46 914.85699 -288.50201 1.8403113e-38
-1145.96 921.35901 -288.20001 1.8403113e-38
-1136.04 926.89099 -287.73599 1.8403113e-38
-1126.27 933.685 -287.67499 1.8403113e-38
-1118.63 940.63202 -288.112 1.8403113e-38
-1108.77 947.22101 -287.974 1.8403113e-38
-1102.5699 955.12402 -288.99799 1.8403113e-38
-1086.59 956.98401 -286.16199 1.8403113e-38
-1082.5699 966.43201 -288.10599 1.8403113e-38
-1076.3 975.505 -289.46301 1.8403113e-38
-1056.85 986.79102 -288.68201 1.8403113e-38
-1051.0699 994.88898 -289.854 1.8403113e-38
-1040.92 1000.68 -289.41901 1.8403113e-38
-1020.54 1010.56 -288.022 1.8403113e-38
-1004.3 1023.77 -288.49301 1.8403113e-38
-997.505 1030.86 -289.14999 1.8403113e-38
-989.94 1038.62 -289.84299 1.8403113e-38
-788.04602 1180.24 -288.97501 1.8403113e-38
-756.05902 1205.71 -289.73401 1.8403113e-38
-739.22803 1217.27 -289.58899 1.8403113e-38
-705.87097 1241.23 -289.61099 1.8403113e-38
-277.77802 1548.6801 -289.89001 1.8403113e-38
-255.67599 1563.9399 -289.72198 1.8403113e-38
-210.12399 1595.33 -289.35901 1.8403113e-38
-186.625 1612.4 -289.43201 1.8403113e-38
-175.25999 1621.73 -289.78299 1.8403113e-38
-162.567 1630.0601 -289.561 1.8403113e-38
-138.119 1640.62 -287.504 1.8403113e-38
-112.901 1660.37 -288.00601 1.8403113e-38
-100.394 1674.89 -289.65399 1.8403113e-38
-86.958801 1680.67 -288.517 1.8403113e-38
-74.4515 1689.23 -288.39899 1.8403113e-38
-60.404598 1699.58 -288.487 1.8403113e-38
-48.028 1703.12 -286.91299 1.8403113e-38
-33.869202 1711.3199 -286.33899 1.8403113e-38
-20.6168 1721.37 -286.504 1.8403113e-38
-6.7104402 1724.53 -284.492 1.8403113e-38
6.70649 1733.39 -284.272 1.8403113e-38
22.325899 1747.8 -285.22699 1.8403113e-38
36.642899 1760.26 -285.879 1.8403113e-38
52.1833 1770.5601 -285.63599 1.8403113e-38
67.530502 1786.59 -287.12701 1.8403113e-38
81.058998 1782.28 -282.98599 1.8403113e-38
97.135902 1799.95 -284.80899 1.8403113e-38
114.496 1815.41 -285.70499 1.8403113e-38
128.35699 1818.5 -283.68301 1.8403113e-38
145.584 1830.79 -283.67001 1.8403113e-38
162.30099 1845.97 -284.61899 1.8403113e-38
178.951 1853.1899 -283.228 1.8403113e-38
197.24699 1872.79 -285.15302 1.8403113e-38
216.133 1887.25 -285.42899 1.8403113e-38
231.276 1891.39 -283.44699 1.8403113e-38
250.369 1904.55 -283.29501 1.8403113e-38
269.06299 1920.63 -284.09299 1.8403113e-38
288.16199 1931.53 -283.272 1.8403113e-38
307.39499 1947.24 -283.84601 1.8403113e-38
328.64301 1963.37 -284.116 1.8403113e-38
346.73001 1973.09 -283.16 1.8403113e-38
372.09 1999.96 -285.73999 1.8403113e-38
390.08499 2007.4301 -284.13699 1.8403113e-38
411.59799 2019.89 -283.26501 1.8403113e-38
433.772 2038.09 -283.953 1.8403113e-38
453.86801 2044.55 -281.60699 1.8403113e-38
478.29599 2066.9099 -283.048 1.8403113e-38
499.86099 2075.6799 -281.07401 1.8403113e-38
526.75299 2102.1101 -283.19699 1.8403113e-38
550.65997 2114.95 -281.93201 1.8403113e-38
575.45599 2133.52 -282.17499 1.8403113e-38
599.94598 2145.8401 -280.629 1.8403113e-38
624.62201 2162.0701 -280.20499 1.8403113e-38
653.19098 2181.95 -280.035 1.8403113e-38
681.31702 2203.9199 -280.578 1.8403113e-38
741.284 2248.05 -280.92999 1.8403113e-38
-1224.8 806.36102 -270.87399 1.8403113e-38
-1166.76 859.46503 -274.29001 1.8403113e-38
-936.92902 1015.76 -271.845 1.8403113e-38
709.06799 2219.5601 -279.32599 1.8403113e-38
765.57098 2254.1299 -277.58099 1.8403113e-38
796.50098 2277.49 -277.94199 1.8403113e-38
830.90503 2302.4099 -278.026 1.8403113e-38
864.513 2328.5601 -278.64301 1.8403113e-38
898.104 2349.1299 -277.616 1.8403113e-38
932.64899 2374.5 -277.80099 1.8403113e-38
969.00299 2397.73 -276.97501 1.8403113e-38
999.73602 2413.6101 -275.16101 1.8403113e-38
1043.26 2447.1899 -275.879 1.8403113e-38
1082.15 2475.1599 -275.914 1.8403113e-38
1119.46 2494.8401 -273.83301 1.8403113e-38
1162.38 2526.98 -274.25 1.8403113e-38
1205.77 2554.1599 -273.10001 1.8403113e-38
1252.46 2589.45 -273.64899 1.8403113e-38
1299.6801 2619.6899 -272.59201 1.8403113e-38
1347.66 2653.8 -272.521 1.8403113e-38
1403.1801 2693.5901 -272.53101 1.8403113e-38
1457.99 2734.7 -273.08401 1.8403113e-38
1527.88 2791.8899 -275.20001 1.8403113e-38
1574.23 2816.76 -272.73901 1.8403113e-38
1634.63 2855.9399 -271.535 1.8403113e-38
1695.37 2898.1499 -271.15799 1.8403113e-38
-1391.13 673.26898 -266.73001 1.8403113e-38
-1223.71 771.09802 -260.20801 1.8403113e-38
-1219.8 780.27399 -262.095 1.8403113e-38
-1222.13 793.724 -266.56699 1.8403113e-38
-1177.4 817.60797 -264.159 1.8403113e-38
-1166.45 822.78497 -263.37 1.8403113e-38
-1164.04 833.83398 -266.129 1.8403113e-38
-1165.34 845.94 -269.98801 1.8403113e-38
1760.87 2940.5 -269.81201 1.8403113e-38
1829.11 2989.0901 -269.73099 1.8403113e-38
1899.36 3033.5901 -268.01501 1.8403113e-38
1965.16 3074.8101 -266.27301 1.8403113e-38
2047.5601 3130.74 -265.36499 1.8403113e-38
2126.79 3184.9399 -264.61301 1.8403113e-38
2214.5 3242.4199 -263.043 1.8403113e-38
2321.01 3325.22 -264.97699 1.8403113e-38
2415.03 3384.6299 -262.63699 1.8403113e-38
2511.48 3449.3301 -261.34698 1.8403113e-38
2626.77 3527.9099 -260.173 1.8403113e-38
-1234.21 730.09601 -250.299 1.8403113e-38
-1235.9 741.62201 -254.06599 1.8403113e-38
-1230.9 751.38098 -255.896 1.8403113e-38
-1228.89 761.39203 -258.43301 1.8403113e-38
2744.1201 3610.8 -259.83701 1.8403113e-38
2869.77 3694.1499 -257.879 1.8403113e-38
2982.8 3765.53 -255.054 1.8403113e-38
-1308.98 656.90399 -244.481 1.8403113e-38
-1244.1899 694.82001 -241.9735 1.8403113e-38
-1243.29 711.42798 -246.696 1.8403113e-38
-1237.25 719.57898 -247.83 1.8403113e-38
3088.6001 3820.3101 -248.84599 1.8403113e-38
-1253.0901 654.38403 -231.892 1.8403113e-38
-1248.77 669.38599 -235.41701 1.8403113e-38
-1252.01 681.01599 -239.54601 1.8403113e-38
-806.69 899.58801 -209.87 1.8403113e-38
2804.27 3460.9099 -202.735 1.8403113e-38
2804.1699 3406.0701 -186.52699 1.8403113e-38
2846.51 3401.1499 -176.10001 1.8403113e-38
-1083.04 536.54102 -160.98599 1.8403113e-38
-1174.86 433.703 -150.009 1.8403113e-38
-1168.2 441.104 -150.789 1.8403113e-38
-1131.76 443.98499 -143.92 1.8403113e-38
-580.55298 815.99103 -137.215 1.8403113e-38
-564.31598 784.71802 -124.52 1.8403113e-38
-999.57202 427.48099 -111.026 1.8403113e-38
-609.37201 712.05298 -112.562 1.8403113e-38
-591.24902 717.33801 -110.286 1.8403113e-38
-582.84198 724.83801 -110.725 1.8403113e-38
-581.70502 740.72198 -115.184 1.8403113e-38
-1023.51 401.465 -108.399 1.8403113e-38
-976.37952 434.26199 -108.119 1.8403113e-38
-952.26501 440.24899 -104.781 1.8403113e-38
-936.31702 443.48599 -102.36 1.8403113e-38
-594.43701 708.65649 -108.3925 1.8403113e-38
-574.77802 708.11902 -104.068 1.8403113e-38
-568.42297 717.44202 -105.481 1.8403113e-38
-564.38855 733.76404 -109.456 1.8403113e-38
-553.32898 733.70398 -107.095 1.8403113e-38
-549.81799 737.71698 -107.539 1.8403113e-38
-548.74902 745.73401 -109.684 1.8403113e-38
-976.01501 387.513 -94.207001 1.8403113e-38
-871.37402 448.70901 -90.144798 1.8403113e-38
-864.86499 453.23499 -90.105103 1.8403113e-38
2142.76 2631.8601 -97.556198 1.8403113e-38
-884.50201 438.78299 -89.988998 1.8403113e-38
-874.297 442.58499 -88.951797 1.8403113e-38
-849.77698 455.98999 -87.723503 1.8403113e-38
-845.09802 460.78201 -88.150002 1.8403113e-38
2065.6001 2517.99 -80.205399 1.8403113e-38
-910.15198 371.28299 -75.448303 1.8403113e-38
2084.5901 2498.25 -70.340897 1.8403113e-38
-883.37701 361.76401 -66.958199 1.8403113e-38
2102.99 2481.54 -61.496498 1.8403113e-38
2144.75 2483.49 -53.2276 1.8403113e-38
-1368.6801 -73.960899 -40.8424 1.8403113e-38
-1368.14 -63.594398 -43.795101 1.8403113e-38
-1350.5 -47.552898 -44.8055 1.8403113e-38
-1344.9399 -36.101002 -47.015999 1.8403113e-38
-782.26898 343.53 -40.138302 1.8403113e-38
2159.3601 2462.8601 -44.0247 1.8403113e-38
-1374.88 -108.975 -31.7945 1.8403113e-38
-1364.48 -94.277901 -33.939301 1.8403113e-38
-1369.83 -85.623398 -37.633999 1.8403113e-38
-773.47498 337.51999 -36.496399 1.8403113e-38
2127.79 2396.24 -30.999599 1.8403113e-38
-1984.59 -580.33197 -21.493401 1.8403113e-38
-1977.04 -557.80902 -26.557699 1.8403113e-38
-1375.64 -141.825 -22.2335 1.8403113e-38
-1381.63 -121.636 -29.477501 1.8403113e-38
-1369.11 -129.064 -24.626801 1.8403113e-38
-742.31598 309.24899 -21.5278 1.8403113e-38
-756.224 315.409 -26.2978 1.8403113e-38
-753.83368 325.12433 -28.6663 1.8403113e-38
-1978.17 -594.617 -15.906 1.8403113e-38
-1392.3199 -193.235 -10.5525 1.8403113e-38
-1374.2 -175.504 -11.9602 1.8403113e-38
-1387.05 -168.37 -16.795099 1.8403113e-38
-1372.35 -152.366 -18.417101 1.8403113e-38
-1067.64 45.679798 -12.4618 1.8403113e-38
-805.32898 226.905 -10.5111 1.8403113e-38
-790.71802 238.48 -10.8407 1.8403113e-38
-780.85303 246.9135 -11.246099 1.8403113e-38
-774.81403 254.974 -12.352 1.8403113e-38
-765.24451 262.71802 -12.61605 1.8403113e-38
-753.64398 270.20001 -12.3722 1.8403113e-38
-748.448 275.37299 -12.8021 1.8403113e-38
-729.76898 289.33701 -12.9765 1.8403113e-38
-727.60303 296.51501 -14.6419 1.8403113e-38
-733.14099 304.08301 -18.055099 1.8403113e-38
2080.9399 2320.71 -18.5746 1.8403113e-38
-1968.73 -626.71002 -4.4075499 1.8403113e-38
-1972.74 -611.19299 -9.8487597 1.8403113e-38
-1687.75 -409.95599 -9.0171604 1.8403113e-38
-1378.59 -210.916 -2.4112999 1.8403113e-38
-1380.21 -200.61099 -5.8050299 1.8403113e-38
-1010.42 67.340401 -6.7469001 1.8403113e-38
-821.35547 206.5495 -7.8830452 1.8403113e-38
-795.48401 201.414 -0.88145298 1.8403113e-38
-811.90601 215.55499 -8.5459099 1.8403113e-38
-805.22101 221.804 -8.9786301 1.8403113e-38
-787.76001 233.68401 -8.7947302 1.8403113e-38
-713.91901 279.642 -6.7490702 1.8403113e-38
-717.45599 284.55899 -8.9535599 1.8403113e-38
2027.92 2238.27 -5.41151 1.8403113e-38
-1367.79 -241.791 9.0131998 1.8403113e-38
-1383.86 -236.375 4.0062599 1.8403113e-38
-1386.63 -226.38901 0.46394199 1.8403113e-38
-930.90802 93.990898 2.2142301 1.8403113e-38
-782.52502 176.603 9.2068996 1.8403113e-38
-791.604 183.2415 5.3186398 1.8403113e-38
-771.96252 196.36749 5.5959549 1.8403113e-38
2012.63 2194.1799 4.3958502 1.8403113e-38
-1707.99 -512.38898 17.009501 1.8403113e-38
-1359.4 -249.213 12.9872 1.8403113e-38
-861.57397 116.224 10.3256 1.8403113e-38
-815.27698 132.739 15.248 1.8403113e-38
-802.58398 140.752 15.5662 1.8403113e-38
-801.29999 151.935 12.5289 1.8403113e-38
-798.18701 158.214 11.3304 1.8403113e-38
-784.07397 150.24699 16.678301 1.8403113e-38
-791.05603 164.606 10.9496 1.8403113e-38
-783.927 171.38699 10.4533 1.8403113e-38
2033.87 2179.3701 13.2785 1.8403113e-38
2172.3301 2267.02 16.677099 1.8403113e-38
-1702.36 -541.47302 26.8085 1.8403113e-38
-1715.29 -531.39801 21.0867 1.8403113e-38
2211.8799 2265.47 25.517099 1.8403113e-38
-1704.92 -558.25299 31.2323 1.8403113e-38
-1641.99 -540.46899 39.302399 1.8403113e-38
2219.02 2239.9399 34.584999 1.8403113e-38
-1612.27 -538.70203 45.076698 1.8403113e-38
2197.8999 2188.6299 45.295101 1.8403113e-38
-2012.13 -845.953 51.2784 1.8403113e-38
-1674.25 -623.97101 57.179001 1.8403113e-38
-1603.66 -550.14001 50.287498 1.8403113e-38
-1590.4301 -557.28802 55.205799 1.8403113e-38
2172.1799 2137.8301 54.877602 1.8403113e-38
-1886.25 -789.5 61.244598 1.8403113e-38
-1856.04 -788.979 67.490601 1.8403113e-38
2166.1799 2100.4299 64.676003 1.8403113e-38
-1816.83 -802.255 79.729103 1.8403113e-38
-1837.6899 -797.50403 73.901497 1.8403113e-38
2278.02 2157.0601 71.614197 1.8403113e-38
2456.3 2258.1299 79.481201 1.8403113e-38
-1793.4399 -806.935 86.069 1.8403113e-38
2385.01 2173.24 89.495598 1.8403113e-38
-1770.95 -809.99103 91.738197 1.8403113e-38
-1741.05 -809.47101 97.919998 1.8403113e-38
2352.8101 2115.8301 99.6604 1.8403113e-38
-1720.3101 -813.02002 103.365 1.8403113e-38
-783.46399 -161.65199 109.11 1.8403113e-38
2906.8301 2482.8401 108.442 1.8403113e-38
