# .PCD v0.7 - Point Cloud Data file format
VERSION 0.7
FIELDS x y z rgb
SIZE 4 4 4 4
TYPE F F F F
COUNT 1 1 1 1
WIDTH 355
HEIGHT 1
VIEWPOINT 0 0 0 1 0 0 0
POINTS 355
DATA ascii
2632.25 -1084.23 -291.53799 1.8403113e-38
2597.6699 -1039.49 -291.82101 1.8403113e-38
2466.4199 -873.35999 -292.073 1.8403113e-38
2434.6001 -834.47498 -291.82001 1.8403113e-38
2403.23 -796.61603 -291.45901 1.8403113e-38
2373.2 -760.17401 -291.16101 1.8403113e-38
2350.8601 -727.91498 -292.10599 1.8403113e-38
2322.73 -693.73602 -291.83701 1.8403113e-38
2295.1201 -660.48102 -291.50601 1.8403113e-38
2265.3101 -626.99701 -290.60001 1.8403113e-38
2248.8 -599.61902 -292.10101 1.8403113e-38
2219.1899 -567.50897 -290.94199 1.8403113e-38
2179.1399 -512.57001 -291.98001 1.8403113e-38
2154.99 -484.32999 -291.49701 1.8403113e-38
2109.47 -430.513 -290.724 1.8403113e-38
2098.3701 -408.328 -292.586 1.8403113e-38
2099.1499 -390.341 -296.88599 1.8403113e-38
2048.4099 -356.009 -290.20999 1.8403113e-38
2030.04 -332.71701 -290.254 1.8403113e-38
2014.25 -310.616 -290.76199 1.8403113e-38
1993.53 -287.45001 -290.10999 1.8403113e-38
1980.12 -266.789 -290.96899 1.8403113e-38
1958.95 -244.33099 -290.02802 1.8403113e-38
1928.25 -203.713 -290.48599 1.8403113e-38
1914.03 -184.183 -290.85999 1.8403113e-38
1882.1801 -145.276 -290.60199 1.8403113e-38
1782.89 -21.395599 -290.384 1.8403113e-38
1700.27 87.135101 -291.436 1.8403113e-38
1672.1899 116.518 -290.09399 1.8403113e-38
1661.8199 130.554 -290.32101 1.8403113e-38
1653.26 144.284 -290.99399 1.8403113e-38
1636.77 171.25999 -292.409 1.8403113e-38
1620.1801 184.862 -290.763 1.8403113e-38
1610.21 197.97301 -290.896 1.8403113e-38
1603.04 210.854 -291.76999 1.8403113e-38
1592.87 223.655 -291.77301 1.8403113e-38
1575.12 248.763 -292.405 1.8403113e-38
1552.1801 273.17999 -291.40201 1.8403113e-38
1503.8101 331.59201 -290.858 1.8403113e-38
1486.35 354.078 -290.978 1.8403113e-38
1460.02 386.83899 -290.89999 1.8403113e-38
1424.15 428.66901 -290.16101 1.8403113e-38
1402.84 459.73001 -291.12601 1.8403113e-38
1383.59 479.022 -290.01199 1.8403113e-38
1370.59 499.13501 -290.86801 1.8403113e-38
691.07599 1350.77 -290.24799 1.8403113e-38
2442 -885.164 -282.44101 1.8403113e-38
2180.05 -532.41803 -287.741 1.8403113e-38
2120.3501 -452.92001 -288.746 1.8403113e-38
1939.45 -222.761 -289.35901 1.8403113e-38
1893.9301 -163.577 -289.80099 1.8403113e-38
1859.79 -124.919 -288.83499 1.8403113e-38
1842.9301 -106.159 -288.28101 1.8403113e-38
1827.79 -88.086899 -288.065 1.8403113e-38
1820.14 -71.745399 -289.58801 1.8403113e-38
1803.73 -53.986301 -288.93701 1.8403113e-38
1791.95 -37.348999 -289.349 1.8403113e-38
1767.9399 -4.7179499 -289.90302 1.8403113e-38
1751.87 11.8318 -289.07599 1.8403113e-38
1737.59 27.8325 -288.63199 1.8403113e-38
1717.39 44.316601 -286.61401 1.8403113e-38
1711.49 58.726898 -288.19601 1.8403113e-38
1705.46 73.0326 -289.71899 1.8403113e-38
1679.55 102.572 -289.03101 1.8403113e-38
1636.88 158.30901 -289.50601 1.8403113e-38
1571.0601 236.33299 -288.43201 1.8403113e-38
1553.13 260.92099 -288.89499 1.8403113e-38
1530.98 284.802 -287.996 1.8403113e-38
1524.08 296.64401 -288.715 1.8403113e-38
1515.1801 308.285 -288.81699 1.8403113e-38
1505.24 319.729 -288.577 1.8403113e-38
1487.96 342.35699 -288.78201 1.8403113e-38
1472.26 364.62399 -289.353 1.8403113e-38
1462.85 375.431 -289.12299 1.8403113e-38
1440.97 396.26099 -287.60901 1.8403113e-38
1437.98 407.46799 -289.29501 1.8403113e-38
1429.21 417.853 -289.15201 1.8403113e-38
1414.3 438.67499 -289.621 1.8403113e-38
1403.4399 448.37399 -288.72501 1.8403113e-38
1386.22 468.14099 -288.29901 1.8403113e-38
1373.4 488.35699 -289.22601 1.8403113e-38
1357.5 507.608 -289.05701 1.8403113e-38
1351.76 517.60602 -289.68701 1.8403113e-38
1342.25 526.63599 -289.026 1.8403113e-38
1332.6899 535.52698 -288.31699 1.8403113e-38
1323.08 544.28101 -287.56201 1.8403113e-38
1318.9 554.39099 -288.66299 1.8403113e-38
1311.91 563.68799 -288.77701 1.8403113e-38
1300.3 571.56702 -287.255 1.8403113e-38
1298.63 582.28497 -289.20801 1.8403113e-38
1285.115 594.92603 -288.22052 1.8403113e-38
1273.29 607.914 -287.79501 1.8403113e-38
1266.8199 616.94397 -287.99899 1.8403113e-38
1260.29 625.896 -288.16699 1.8403113e-38
1249.26 633.159 -286.66901 1.8403113e-38
1239.96 640.92297 -285.78 1.8403113e-38
1242.09 652.96301 -289.11401 1.8403113e-38
1225.83 669.12903 -288.14499 1.8403113e-38
1231.79 660.23102 -287.82599 1.8403113e-38
1218.9399 677.599 -288.10001 1.8403113e-38
1210.25 685.24902 -287.358 1.8403113e-38
1199.79 692.02899 -285.914 1.8403113e-38
1197.9 702.526 -287.75601 1.8403113e-38
1194.21 712.24597 -288.905 1.8403113e-38
1172.13 724.66602 -285.42999 1.8403113e-38
1187.01 720.34003 -288.69 1.8403113e-38
1173.3101 736.69501 -288.49301 1.8403113e-38
1163.4301 743.27197 -287.16901 1.8403113e-38
1156.88 751.448 -287.15302 1.8403113e-38
1143.59 767.59198 -287.02499 1.8403113e-38
1156.09 762.63599 -289.46301 1.8403113e-38
1136.86 775.55902 -286.91199 1.8403113e-38
1125.97 781.14001 -285.077 1.8403113e-38
1116.33 799.03198 -286.384 1.8403113e-38
1124.04 791.74902 -286.92999 1.8403113e-38
1109.38 806.71301 -286.14401 1.8403113e-38
1099.97 812.84302 -284.853 1.8403113e-38
1094.52 821.35602 -285.23001 1.8403113e-38
1084.2 838.763 -286.23401 1.8403113e-38
1092.17 831.85303 -286.93799 1.8403113e-38
1076.98 846.10498 -285.83801 1.8403113e-38
1068.92 852.84399 -285.07101 1.8403113e-38
1065.46 862.70898 -286.32001 1.8403113e-38
1045.3 873.07098 -282.92401 1.8403113e-38
1060.37 871.48401 -286.858 1.8403113e-38
1047.6899 887.25897 -286.81799 1.8403113e-38
1034.86 890.26599 -283.84601 1.8403113e-38
1024.86 907.89801 -284.992 1.8403113e-38
1031.77 900.52502 -285.289 1.8403113e-38
1021.58 918.13098 -286.375 1.8403113e-38
1016.73 927.18402 -287.04401 1.8403113e-38
1008.16 933.21899 -285.97299 1.8403113e-38
992.38 946.23499 -284.42499 1.8403113e-38
1001.73 940.97699 -285.89801 1.8403113e-38
991.50299 958.80701 -287.02399 1.8403113e-38
985.698 973.98352 -288.8085 1.8403113e-38
963.86798 988.32098 -285.83801 1.8403113e-38
972.07202 982.14801 -286.77701 1.8403113e-38
952.729 1005.68 -286.59799 1.8403113e-38
962.41101 1000.92 -288.27802 1.8403113e-38
945.03601 1012.32 -285.91 1.8403113e-38
939.276 1020.89 -286.21201 1.8403113e-38
937.35797 1033.49 -288.51999 1.8403113e-38
918.93298 1043.66 -285.57599 1.8403113e-38
932.04303 1042.72 -289.09601 1.8403113e-38
916.04498 1055.54 -287.44501 1.8403113e-38
903.60699 1064.605 -285.95599 1.8403113e-38
894.79999 1077.78 -286.431 1.8403113e-38
872.98102 1099.52 -285.14099 1.8403113e-38
880.11603 1092.09 -285.48999 1.8403113e-38
892.67102 1091.0601 -288.83401 1.8403113e-38
869.32001 1111.3 -286.76801 1.8403113e-38
854.06201 1125.21 -285.573 1.8403113e-38
863.17902 1120.14 -287.021 1.8403113e-38
851.75897 1139.21 -288.08899 1.8403113e-38
833.23999 1149.04 -285.04001 1.8403113e-38
842.51099 1144.17 -286.578 1.8403113e-38
818.42603 1163.91 -284.19 1.8403113e-38
830.53699 1163.03 -287.439 1.8403113e-38
812.25201 1173.21 -284.539 1.8403113e-38
805.44501 1181.7 -284.52301 1.8403113e-38
792.07397 1199.35 -284.71201 1.8403113e-38
800.112 1192.51 -285.453 1.8403113e-38
778.315 1216.84 -284.75601 1.8403113e-38
787.01801 1210.91 -285.89001 1.8403113e-38
769.073 1221.89 -283.26801 1.8403113e-38
764.65503 1234.99 -284.97601 1.8403113e-38
742.00098 1259.4399 -284.06201 1.8403113e-38
753.40802 1257.91 -286.966 1.8403113e-38
762.93103 1253 -288.564 1.8403113e-38
737.01099 1272.48 -285.595 1.8403113e-38
731.396 1284.6801 -286.76001 1.8403113e-38
724.73602 1295.2 -287.246 1.8403113e-38
716.20898 1302.3101 -286.42801 1.8403113e-38
712.29999 1318.6899 -289.026 1.8403113e-38
703.12903 1324.87 -287.81299 1.8403113e-38
695.95801 1335.26 -288.12299 1.8403113e-38
679.24298 1351.6 -287.065 1.8403113e-38
674.82202 1368.8101 -289.70499 1.8403113e-38
654.784 1378.76 -286.25101 1.8403113e-38
664.82202 1373.83 -287.99301 1.8403113e-38
645.80402 1386.24 -285.388 1.8403113e-38
629.34302 1405.45 -285.05099 1.8403113e-38
641.02698 1404.27 -288.11099 1.8403113e-38
613.39801 1427.15 -285.42499 1.8403113e-38
625.198 1426.12 -288.55399 1.8403113e-38
604.55701 1436.14 -284.94299 1.8403113e-38
598.46503 1453.1899 -287.069 1.8403113e-38
589.32898 1462.09 -286.48401 1.8403113e-38
580.08301 1470.9301 -285.854 1.8403113e-38
564.40002 1498.48 -287.62799 1.8403113e-38
574.54498 1491.55 -288.948 1.8403113e-38
553.62201 1503.5 -285.69501 1.8403113e-38
544.41803 1513.95 -285.439 1.8403113e-38
536.64099 1529.87 -286.832 1.8403113e-38
528.88 1546.7 -288.43301 1.8403113e-38
506.42599 1556.08 -284.16299 1.8403113e-38
517.42902 1550.51 -286.035 1.8403113e-38
499.259 1577.4301 -286.95801 1.8403113e-38
488.444 1584.73 -285.53201 1.8403113e-38
479.02802 1598.52 -285.974 1.8403113e-38
468.38501 1607.5601 -284.98999 1.8403113e-38
459.19199 1624.0601 -286.10999 1.8403113e-38
448.806 1635.8 -285.81 1.8403113e-38
439.14999 1652.2 -286.776 1.8403113e-38
429.07001 1667.61 -287.39401 1.8403113e-38
417.28601 1674.39 -285.57599 1.8403113e-38
406.50201 1687.76 -285.53201 1.8403113e-38
395.957 1703.9301 -286.19101 1.8403113e-38
384.60999 1716.2 -285.73901 1.8403113e-38
372.94901 1727.4399 -284.96399 1.8403113e-38
361.854 1744.36 -285.63599 1.8403113e-38
337.92401 1769.3199 -284.47501 1.8403113e-38
350.49301 1761.21 -286.21799 1.8403113e-38
326.01501 1785.05 -284.646 1.8403113e-38
314.30099 1805.53 -285.94901 1.8403113e-38
301.69901 1819.16 -285.44901 1.8403113e-38
288.814 1831.74 -284.629 1.8403113e-38
276.30399 1852.95 -285.87 1.8403113e-38
262.90302 1864.38 -284.64099 1.8403113e-38
249.55901 1880.5601 -284.505 1.8403113e-38
236.108 1900.52 -285.198 1.8403113e-38
222.186 1915.54 -284.633 1.8403113e-38
207.91901 1925.5699 -282.84201 1.8403113e-38
193.625 1945.24 -283.22601 1.8403113e-38
179.019 1966.74 -283.93799 1.8403113e-38
164.104 1977.41 -282.10699 1.8403113e-38
148.909 1996.75 -282.15799 1.8403113e-38
133.354 2017.91 -282.522 1.8403113e-38
117.302 2043.84 -283.82401 1.8403113e-38
101.157 2060.8501 -283.07901 1.8403113e-38
84.270599 2087.5 -284.306 1.8403113e-38
67.373299 2106.2 -283.729 1.8403113e-38
49.535801 2134.53 -285.06601 1.8403113e-38
31.6488 2156.8501 -285.02701 1.8403113e-38
13.7055 2175.1101 -284.05301 1.8403113e-38
-5.42486 2202.98 -284.91901 1.8403113e-38
-24.834499 2228.74 -285.22501 1.8403113e-38
-44.9953 2257.25 -285.94199 1.8403113e-38
-64.622902 2276.8101 -284.78201 1.8403113e-38
-85.676598 2304.96 -285.16299 1.8403113e-38
-106.822 2330 -284.81299 1.8403113e-38
-129.63901 2363.6201 -285.92899 1.8403113e-38
-151.42101 2386.3101 -284.866 1.8403113e-38
-174.52299 2414.6399 -284.703 1.8403113e-38
-197.134 2436.9199 -283.31 1.8403113e-38
2418.3999 -897.05603 -273.026 1.8403113e-38
-215.334 2431.8201 -276.97 1.8403113e-38
2481.45 -1028.01 -261.31699 1.8403113e-38
2393.8701 -908.14801 -263.526 1.8403113e-38
2786.1899 -1431.67 -256.673 1.8403113e-38
2792.8301 -1497.99 -243.537 1.8403113e-38
2774.71 -1454.99 -248.12 1.8403113e-38
2626.8999 -1272.72 -247.30901 1.8403113e-38
2411.1499 -1013.85 -244.498 1.8403113e-38
2779.9399 -1520.8 -234.698 1.8403113e-38
2557.04 -1257.1801 -230.92999 1.8403113e-38
2394.54 -1029.0601 -236.321 1.8403113e-38
2780.77 -1553.0699 -227.623 1.8403113e-38
2432.3301 -1126.84 -224.935 1.8403113e-38
2372.9299 -1065.9301 -221.814 1.8403113e-38
2380.3899 -1045.55 -228.554 1.8403113e-38
2771.46 -1578.61 -219.187 1.8403113e-38
2760.96 -1635.9399 -203.205 1.8403113e-38
2752.99 -1597.74 -209.591 1.8403113e-38
2905.6101 -1846.29 -196.75301 1.8403113e-38
2762.8701 -1670.25 -195.97501 1.8403113e-38
2909.6101 -1921.9 -180.763 1.8403113e-38
2909.3999 -1885.24 -189.00999 1.8403113e-38
2759.6001 -1701.11 -188.05299 1.8403113e-38
2904.73 -1954.9399 -171.888 1.8403113e-38
-130.715 1872.17 -174.28 1.8403113e-38
-2012.1899 4244.1401 -175.716 1.8403113e-38
2900.26 -1988.65 -162.976 1.8403113e-38
-152.769 1840.25 -160.76601 1.8403113e-38
-140.84 1850.9301 -166.584 1.8403113e-38
-2030.9 4200.5801 -160.51801 1.8403113e-38
-166.16 1837.1899 -156.25999 1.8403113e-38
-181.847 1844.63 -153.47501 1.8403113e-38
-194.58099 1838.4301 -148.444 1.8403113e-38
-183.87199 1734.0601 -127.849 1.8403113e-38
-196.662 1680.25 -112.013 1.8403113e-38
-190.60699 1707.65 -119.946 1.8403113e-38
-202.52 1653.78 -104.347 1.8403113e-38
-206.636 1622.51 -96.091301 1.8403113e-38
-2380.8601 4339.96 -92.407097 1.8403113e-38
-220.54401 1584.73 -83.569 1.8403113e-38
-212.125 1597.92 -88.956703 1.8403113e-38
2103.97 -1364.53 -77.5476 1.8403113e-38
-250.591 1563.6899 -70.244202 1.8403113e-38
-239.40401 1566.6801 -74.108902 1.8403113e-38
-230.47 1577.17 -79.028702 1.8403113e-38
-270.646 1550.83 -61.616299 1.8403113e-38
-258.651 1551.1801 -65.112396 1.8403113e-38
1966.14 -1275.14 -58.5354 1.8403113e-38
-281.67999 1547.55 -57.731098 1.8403113e-38
-310.12601 1558.4301 -52.092098 1.8403113e-38
-298.013 1559.14 -55.704899 1.8403113e-38
-1789.15 3448.3 -58.945999 1.8403113e-38
1920.65 -1261.58 -48.6506 1.8403113e-38
-334.73999 1557.58 -44.888 1.8403113e-38
-351.995 1569.46 -42.665401 1.8403113e-38
-323.297 1560.39 -48.784302 1.8403113e-38
1879.25 -1250.63 -39.337502 1.8403113e-38
1844.83 -1245.03 -30.8025 1.8403113e-38
-377.672 1569.66 -35.395802 1.8403113e-38
-363.51599 1566.4 -38.689098 1.8403113e-38
-391.91101 1572.78 -32.046001 1.8403113e-38
-420.62701 1578.5601 -25.176701 1.8403113e-38
-407.021 1577.5699 -28.8281 1.8403113e-38
-435.923 1583.04 -21.8347 1.8403113e-38
-450.90701 1586.46 -18.339399 1.8403113e-38
-466.40601 1590.61 -14.8652 1.8403113e-38
-464.664 1558.6899 -8.1299 1.8403113e-38
-518.89099 1612.73 -4.92731 1.8403113e-38
-504.76501 1612.71 -8.9458399 1.8403113e-38
-548.099 1641.89 -3.2117701 1.8403113e-38
-803.84198 1961.49 -2.77051 1.8403113e-38
-2567.47 4191.9302 -5.71066 1.8403113e-38
1494.33 -953.20697 2.9270999 1.8403113e-38
1461.88 -943.32202 9.9306803 1.8403113e-38
-563.46698 1643.26 0.85385102 1.8403113e-38
-589.72302 1664.71 3.47351 1.8403113e-38
-830.78802 1943.1801 9.0548401 1.8403113e-38
-812.61603 1944.1801 3.65084 1.8403113e-38
-2789.6101 4438.3398 1.7394201 1.8403113e-38
1442.08 -944.54901 15.8497 1.8403113e-38
-850.54102 1944.55 14.3709 1.8403113e-38
-2798.45 4378.4199 17.8347 1.8403113e-38
1411.99 -955.23798 26.8421 1.8403113e-38
1426.6801 -949.64099 21.389999 1.8403113e-38
1394.59 -977.90198 36.9319 1.8403113e-38
1410.12 -973.25299 31.455601 1.8403113e-38
-2805.8799 4317.79 33.689499 1.8403113e-38
1387.89 -1011.74 46.507198 1.8403113e-38
1390.99 -994.45697 41.708199 1.8403113e-38
-2818.46 4265.2998 49.1623 1.8403113e-38
1499.4301 -1172.4301 51.1404 1.8403113e-38
1470.25 -1164.3101 57.611401 1.8403113e-38
1379.0601 -1023.26 51.632599 1.8403113e-38
-783.25098 1668.1801 57.8176 1.8403113e-38
-771.42499 1675.83 52.714401 1.8403113e-38
1443.3101 -1158.01 63.8601 1.8403113e-38
-2824.3101 4204.8701 64.520401 1.8403113e-38
1174.71 -880.73297 77.554703 1.8403113e-38
-2834.23 4150.9302 79.565598 1.8403113e-38
1121.6 -857.07501 87.322899 1.8403113e-38
1129.21 -847.68903 83.026901 1.8403113e-38
1103.51 -872.59198 95.990997 1.8403113e-38
1111.29 -863.35199 91.680099 1.8403113e-38
-2844.04 4097.8501 94.389198 1.8403113e-38
1084.5601 -906.18701 109 1.8403113e-38
1088.91 -892.435 104.645 1.8403113e-38
1094.99 -880.99597 100.321 1.8403113e-38
-2853.79 4045.6101 108.999 1.8403113e-38
