# .PCD v0.7 - Point Cloud Data file format
VERSION 0.7
FIELDS x y z rgb
SIZE 4 4 4 4
TYPE F F F F
COUNT 1 1 1 1
WIDTH 332
HEIGHT 1
VIEWPOINT 0 0 0 1 0 0 0
POINTS 332
DATA ascii
3114.54 1398.27 -291.06299 1.8403113e-38
3087.76 1429.16 -291.50101 1.8403113e-38
3054.29 1465.8101 -291.564 1.8403113e-38
3031.75 1499.66 -293.86899 1.8403113e-38
2995.0901 1534.34 -292.59399 1.8403113e-38
2979.9299 1541.4399 -290.28101 1.8403113e-38
2962.6799 1567.23 -292.017 1.8403113e-38
2934.5601 1598.59 -292.20901 1.8403113e-38
2879.6899 1658.22 -292.20401 1.8403113e-38
2870.9099 1663.58 -291.173 1.8403113e-38
2857.8301 1686.42 -293.298 1.8403113e-38
2841.23 1691.79 -290.17499 1.8403113e-38
2829.72 1713.98 -292.55899 1.8403113e-38
2796.3601 1740.58 -290.17801 1.8403113e-38
2781.9099 1766.45 -292.68301 1.8403113e-38
2747.3301 1795.7 -290.62799 1.8403113e-38
2756.46 1791.47 -292.03 1.8403113e-38
2723.3899 1819.78 -290.14499 1.8403113e-38
2736.4199 1815.98 -292.70001 1.8403113e-38
2716.01 1839.86 -293.116 1.8403113e-38
2708.6899 1843.8101 -292.13 1.8403113e-38
2682.1499 1866.3199 -290.56699 1.8403113e-38
2694.29 1863 -293.00299 1.8403113e-38
2663.8899 1888.95 -291.25201 1.8403113e-38
2675.1201 1885.78 -293.479 1.8403113e-38
2653.72 1907.73 -293.155 1.8403113e-38
2646.26 1911.15 -291.99899 1.8403113e-38
2621.6799 1931.83 -290.513 1.8403113e-38
2642.45 1930.54 -295.75601 1.8403113e-38
2610.0601 1953.96 -292.85199 1.8403113e-38
2623.26 1951.8199 -295.85999 1.8403113e-38
2588.7 1974.05 -292.07901 1.8403113e-38
2599.0901 1971.67 -294.276 1.8403113e-38
2576.4951 1993.2749 -293.5495 1.8403113e-38
2549.8899 2013.33 -291.36301 1.8403113e-38
2557.52 2010.79 -292.77899 1.8403113e-38
2542.2749 2032.95 -294.15802 1.8403113e-38
2525.46 2052.2549 -294.409 1.8403113e-38
2502.6101 2067.3899 -292.01801 1.8403113e-38
2498.5901 2070.45 -291.69601 1.8403113e-38
2486.27 2085.95 -292.21399 1.8403113e-38
2490.3999 2091.3799 -294.659 1.8403113e-38
2461.0701 2105.5 -290.28 1.8403113e-38
2445.1399 2123.3201 -290.405 1.8403113e-38
2453.76 2122.0701 -292.40799 1.8403113e-38
2438.5 2139.98 -292.73199 1.8403113e-38
2428.99 2140.73 -290.36801 1.8403113e-38
2423 2157.51 -292.89801 1.8403113e-38
2418.8 2160.1001 -292.41199 1.8403113e-38
2405.5898 2176.0801 -292.811 1.8403113e-38
2393.1001 2194.2749 -293.94952 1.8403113e-38
2372.55 2206.6299 -291.48901 1.8403113e-38
2370.8601 2210.0801 -291.888 1.8403113e-38
2354.4851 2223.8599 -290.89398 1.8403113e-38
2322.8 2257.3899 -290.66901 1.8403113e-38
2308.3301 2273.4399 -290.74899 1.8403113e-38
2310.2 2270.1799 -290.44601 1.8403113e-38
2303.655 2292.635 -294.22549 1.8403113e-38
2279.5701 2305.0801 -290.83899 1.8403113e-38
2282.3501 2302.3701 -290.91599 1.8403113e-38
2269.6899 2319.01 -291.62601 1.8403113e-38
2249.95 2335.48 -290.39801 1.8403113e-38
2252.01 2332.3899 -290.186 1.8403113e-38
2207.49 2381.21 -290.29001 1.8403113e-38
2142.49 2460.3999 -292.39401 1.8403113e-38
2126.0801 2473.1899 -291.14801 1.8403113e-38
2073.5801 2533.6851 -291.991 1.8403113e-38
2057.1101 2548.76 -291.29401 1.8403113e-38
2060.4299 2546.9299 -291.73199 1.8403113e-38
2047.4751 2565.98 -292.95551 1.8403113e-38
2031.38 2575.99 -291.11099 1.8403113e-38
2036.54 2587.73 -295.388 1.8403113e-38
2024.28 2599.6001 -295.026 1.8403113e-38
2020.24 2600.5701 -294.18301 1.8403113e-38
2007.23 2614.5151 -294.134 1.8403113e-38
1985.36 2623.1299 -290.39801 1.8403113e-38
1994.5601 2629.03 -294.319 1.8403113e-38
1973.55 2641.8999 -291.86099 1.8403113e-38
1980.99 2645.6799 -294.785 1.8403113e-38
1960.52 2652.9399 -291.09201 1.8403113e-38
1963.49 2663.6499 -294.52499 1.8403113e-38
1947.08 2676.78 -293.36499 1.8403113e-38
1931.48 2691.22 -292.745 1.8403113e-38
1915.61 2705.4299 -291.99301 1.8403113e-38
1923.28 2710.51 -295.29999 1.8403113e-38
1909.48 2728.6599 -296.07599 1.8403113e-38
1889.59 2736.8501 -292.76501 1.8403113e-38
1908.6801 2734.79 -297.37299 1.8403113e-38
1888.6899 2742.96 -294.03299 1.8403113e-38
1877.4301 2758.71 -294.89499 1.8403113e-38
1876.4 2764.8401 -296.12799 1.8403113e-38
1858.25 2776.5801 -294.16199 1.8403113e-38
1860.72 2772.97 -293.93399 1.8403113e-38
1845.0149 2793.8501 -294.871 1.8403113e-38
1826.29 2809.4199 -293.69299 1.8403113e-38
1811.27 2819.4299 -292.13501 1.8403113e-38
1831.8199 2811.8301 -295.76801 1.8403113e-38
1795.26 2837.0601 -292.189 1.8403113e-38
1812.52 2831.5601 -295.45901 1.8403113e-38
1795.51 2847.49 -294.82901 1.8403113e-38
1779.55 2856.24 -292.70801 1.8403113e-38
1778.13 2863.2 -294.04401 1.8403113e-38
1763.01 2874.3601 -292.742 1.8403113e-38
1761.79 2882.2 -294.34799 1.8403113e-38
1747.01 2894.95 -293.53101 1.8403113e-38
1745.63 2902.79 -295.091 1.8403113e-38
1730.16 2914.47 -293.82501 1.8403113e-38
1711.27 2929.27 -292.41299 1.8403113e-38
1728.28 2921.4099 -295.03299 1.8403113e-38
1710.16 2938.8999 -294.48901 1.8403113e-38
1693.76 2949.25 -292.647 1.8403113e-38
1691.3101 2955.24 -293.46701 1.8403113e-38
1674.64 2965.3601 -291.492 1.8403113e-38
1656.89 2987.6399 -292.229 1.8403113e-38
1675.01 2981.3999 -295.54599 1.8403113e-38
1653.91 2992.6599 -292.66901 1.8403113e-38
1638.52 3009.72 -292.74799 1.8403113e-38
1636.12 3017.49 -294.01901 1.8403113e-38
1616.0601 3035.5901 -293.10901 1.8403113e-38
1597.915 3054.2451 -292.8425 1.8403113e-38
1578.54 3068.9199 -291.267 1.8403113e-38
1575.62 3076.6101 -292.38 1.8403113e-38
1557.97 3090.9299 -291.18201 1.8403113e-38
1555.37 3101.4299 -293.073 1.8403113e-38
1536.6 3111.73 -290.58099 1.8403113e-38
1534.85 3128.8401 -294.32999 1.8403113e-38
1513.9351 3143.1499 -292.25549 1.8403113e-38
1489.26 3166.6299 -291.431 1.8403113e-38
1493.78 3165.78 -292.42999 1.8403113e-38
1470.49 3186.6299 -291.32999 1.8403113e-38
1467.05 3197.97 -293.20099 1.8403113e-38
1444.915 3214.7148 -291.39801 1.8403113e-38
1418.47 3243.3601 -291.375 1.8403113e-38
1393.33 3268.8899 -290.93201 1.8403113e-38
1367.71 3302.76 -292.414 1.8403113e-38
1340.96 3334.3201 -293.02301 1.8403113e-38
1318.1899 3347.6699 -290.21399 1.8403113e-38
1313.16 3357.71 -291.341 1.8403113e-38
1284.41 3394.25 -292.64499 1.8403113e-38
1254.78 3420.6299 -291.20499 1.8403113e-38
1223.9399 3453.3301 -291.00101 1.8403113e-38
1197.97 3477.75 -290.064 1.8403113e-38
1191.49 3493.29 -292.15701 1.8403113e-38
1164.48 3518.25 -291.07199 1.8403113e-38
1158.1801 3526.8799 -291.51199 1.8403113e-38
1087.15 3601.05 -290.76099 1.8403113e-38
1049.14 3641.55 -290.55899 1.8403113e-38
967.30603 3730.1001 -290.45599 1.8403113e-38
876.573 3828.96 -290.51001 1.8403113e-38
3150.52 1319.8 -281.36499 1.8403113e-38
3152.4099 1325.33 -283.23499 1.8403113e-38
3145.9199 1353.76 -288.49899 1.8403113e-38
3133.3401 1362.25 -287.22101 1.8403113e-38
3115.75 1392.26 -289.90399 1.8403113e-38
3069.1201 1438 -288.68399 1.8403113e-38
3035.51 1474.2 -288.603 1.8403113e-38
2999.3301 1509.48 -287.60101 1.8403113e-38
2945.47 1574.16 -289.11401 1.8403113e-38
2916.28 1605.2 -288.944 1.8403113e-38
2896.24 1629.62 -289.591 1.8403113e-38
2888.51 1635.12 -288.87601 1.8403113e-38
2814.02 1718.97 -289.582 1.8403113e-38
2788.3201 1745.24 -289.173 1.8403113e-38
2765.1299 1770.73 -289.242 1.8403113e-38
2460.6299 2101.21 -289.10599 1.8403113e-38
2337.97 2237.26 -289.77301 1.8403113e-38
2335.3401 2240.2 -289.793 1.8403113e-38
2320.4199 2251.9399 -288.68799 1.8403113e-38
2261.25 2318.22 -289.17099 1.8403113e-38
2232.75 2346.6201 -288.534 1.8403113e-38
2218.76 2364.1101 -289.09601 1.8403113e-38
2221.6799 2361.6399 -289.26901 1.8403113e-38
2203.55 2373.8701 -287.42801 1.8403113e-38
2185.3201 2385.6899 -285.45499 1.8403113e-38
2188.3799 2392.52 -287.95901 1.8403113e-38
2174.7949 2405.3999 -287.49298 1.8403113e-38
2161.77 2418.6399 -287.26599 1.8403113e-38
2158 2420.28 -286.66199 1.8403113e-38
2145.875 2434.1299 -286.82501 1.8403113e-38
2138.52 2452.0901 -289.28201 1.8403113e-38
2125.75 2467.95 -289.767 1.8403113e-38
2108.8301 2485 -289.43799 1.8403113e-38
2112.01 2482.97 -289.789 1.8403113e-38
2096.095 2498.4199 -289.33252 1.8403113e-38
2082.1951 2513.28 -289.271 1.8403113e-38
1943.78 2665.23 -289.634 1.8403113e-38
1928.9 2680.3899 -289.38501 1.8403113e-38
1616.63 3019.47 -289.28699 1.8403113e-38
1422.42 3232.1101 -289.66101 1.8403113e-38
1397.4301 3255.76 -288.79401 1.8403113e-38
1371.9301 3284.8401 -289.13 1.8403113e-38
1345.51 3313.54 -289.12399 1.8403113e-38
1289.83 3375.54 -289.48599 1.8403113e-38
1260.48 3405.8799 -289.09799 1.8403113e-38
1230.03 3437.6899 -288.78101 1.8403113e-38
1130.97 3544.5701 -288.57999 1.8403113e-38
1123.95 3557.96 -289.99799 1.8403113e-38
1095.66 3578.0701 -287.379 1.8403113e-38
1057.27 3625.5 -288.78101 1.8403113e-38
1019.88 3654.79 -285.983 1.8403113e-38
1010.04 3679.4199 -289.41599 1.8403113e-38
978.54602 3700.8 -286.24701 1.8403113e-38
935.79199 3745.0701 -285.70099 1.8403113e-38
924.08899 3773.21 -289.50101 1.8403113e-38
889.91998 3796.21 -286.01599 1.8403113e-38
840.98102 3852.21 -286.70401 1.8403113e-38
829.04901 3875.1201 -289.155 1.8403113e-38
789.84601 3908.1699 -286.797 1.8403113e-38
776.64099 3933.74 -289.55899 1.8403113e-38
736.98199 3962.1299 -285.93301 1.8403113e-38
3150.7 1286.5699 -273.224 1.8403113e-38
3146.02 1293.6899 -273.72601 1.8403113e-38
737.58398 3932.1299 -278.70001 1.8403113e-38
-31.4543 4744.79 -272.94199 1.8403113e-38
-50.793201 4763.77 -272.43799 1.8403113e-38
3149.3301 1253.53 -264.715 1.8403113e-38
3150.48 1259.26 -266.43399 1.8403113e-38
3144.6851 1224.25 -256.25702 1.8403113e-38
3142.9299 1187.96 -246.845 1.8403113e-38
3138.6299 1195.33 -247.509 1.8403113e-38
738.51398 3786.3101 -243.01801 1.8403113e-38
739.849 3805.78 -248.173 1.8403113e-38
683.59802 3845.3799 -242.862 1.8403113e-38
3150.04 1117.21 -231.31599 1.8403113e-38
3142.27 1126.03 -231.407 1.8403113e-38
3141.6599 1154.34 -238.21899 1.8403113e-38
3139.3601 1161.21 -239.29601 1.8403113e-38
3143.77 1084.64 -221.61 1.8403113e-38
3145.4399 1090.3199 -223.459 1.8403113e-38
721.52802 3739.8899 -227.03101 1.8403113e-38
-94.989403 4603.6401 -221.14101 1.8403113e-38
3134.99 1059.2 -212.99001 1.8403113e-38
3141.53 1050.45 -212.584 1.8403113e-38
3139.5701 1015.84 -203.534 1.8403113e-38
3135.02 1024.01 -204.328 1.8403113e-38
702.38501 3662.8999 -202.93201 1.8403113e-38
123.587 4282.54 -200.57001 1.8403113e-38
-107.944 4533.27 -200.33099 1.8403113e-38
3140.6101 979.66901 -194.899 1.8403113e-38
3134.3899 988.69202 -195.45399 1.8403113e-38
734.79901 3579.55 -191.076 1.8403113e-38
118.806 4272.9702 -196.931 1.8403113e-38
-108.274 4513.3599 -195.33701 1.8403113e-38
3140.04 943.70898 -185.886 1.8403113e-38
3131.26 954.03601 -186.076 1.8403113e-38
3134.03 913.08051 -176.72699 1.8403113e-38
714.73999 3518.9199 -170.763 1.8403113e-38
722.073 3514.8101 -171.715 1.8403113e-38
-129.114 4442.6602 -172.332 1.8403113e-38
-119.05 4443.1499 -175.14999 1.8403113e-38
3131.4299 873.95398 -166.39101 1.8403113e-38
3128.3899 882.08301 -167.57899 1.8403113e-38
690.55701 3509.8701 -162.05499 1.8403113e-38
677.22302 3530.6499 -163.604 1.8403113e-38
3135.8 837.68451 -158.62399 1.8403113e-38
645.41302 3541.53 -157.76401 1.8403113e-38
635.40503 3551.8401 -157.623 1.8403113e-38
603.73499 3560.1799 -151.19501 1.8403113e-38
583.00897 3597.0801 -154.73399 1.8403113e-38
-134.15401 4365.54 -151.98 1.8403113e-38
3131.6101 798.24402 -147.783 1.8403113e-38
3130.6499 805.638 -149.34801 1.8403113e-38
554.35999 3587.04 -144.58749 1.8403113e-38
-136.79601 4351.8799 -147.905 1.8403113e-38
3126.2051 765.94202 -138.375 1.8403113e-38
523.104 3575.4849 -133.3665 1.8403113e-38
275.63501 3863.3501 -138.008 1.8403113e-38
3125.7749 727.01147 -128.66701 1.8403113e-38
3129.0901 681.62701 -118.373 1.8403113e-38
3124.28 691.64899 -119.553 1.8403113e-38
3126.0701 642.745 -107.982 1.8403113e-38
3120.6001 653.39099 -109.14 1.8403113e-38
3125.1001 605.70447 -98.595398 1.8403113e-38
3127.6201 558.112 -87.543297 1.8403113e-38
3122.5801 569.03302 -88.883202 1.8403113e-38
3121.22 519.28302 -76.260902 1.8403113e-38
3124.6699 524.78497 -78.540901 1.8403113e-38
3122.1799 474.711 -65.536499 1.8403113e-38
3116.76 486.44601 -66.974297 1.8403113e-38
244.465 3602.55 -65.394501 1.8403113e-38
3121.3401 430.418 -54.395599 1.8403113e-38
3116.1499 442.293 -55.931801 1.8403113e-38
3119.49 385.871 -42.9249 1.8403113e-38
3119.3601 394.314 -44.968498 1.8403113e-38
320.81201 3456.9399 -49.967701 1.8403113e-38
3134.8101 327.06 -32.536301 1.8403113e-38
3133.3201 336.82199 -34.542198 1.8403113e-38
304.37399 3420.6101 -36.610802 1.8403113e-38
311.49301 3420.02 -38.374001 1.8403113e-38
3133.05 279.89899 -20.444799 1.8403113e-38
3129.4299 291.60101 -22.358601 1.8403113e-38
284.59552 3396.625 -25.403999 1.8403113e-38
3126.8301 244.29201 -10.004 1.8403113e-38
248.3735 3393.6001 -14.95445 1.8403113e-38
92.176697 3564.3601 -15.1895 1.8403113e-38
94.916298 3572.01 -17.8088 1.8403113e-38
3136.3601 227.388 -8.3916502 1.8403113e-38
86.277802 3509.3101 -0.0448661 1.8403113e-38
81.431503 3527.6499 -3.2665801 1.8403113e-38
-72.011101 3682 -0.19702099 1.8403113e-38
3133.0801 178.981 4.4157 1.8403113e-38
3129.22 191.569 2.34849 1.8403113e-38
-72.020401 3669.8701 2.79491 1.8403113e-38
3129.3999 129.67799 17.5488 1.8403113e-38
3127.3201 141.065 15.3026 1.8403113e-38
-105.731 3649.79 16.773899 1.8403113e-38
-98.229897 3651.47 14.3497 1.8403113e-38
3203.54 8.0434799 27.660801 1.8403113e-38
3127.8999 86.914803 28.489 1.8403113e-38
-120.121 3615.77 29.009701 1.8403113e-38
3237.25 -70.870598 38.075699 1.8403113e-38
-126.33 3612.3999 31.5049 1.8403113e-38
3239.23 -83.4692 40.6507 1.8403113e-38
-133.606 3559.1201 46.582298 1.8403113e-38
-120.75 3553.8999 44.424999 1.8403113e-38
3205.45 -100.426 53.876801 1.8403113e-38
3177.1499 -83.725197 57.343399 1.8403113e-38
-146.18201 3525.01 58.354801 1.8403113e-38
3164.6699 -120.86 69.837898 1.8403113e-38
-152.127 3521.52 60.808899 1.8403113e-38
3166.24 -133.455 72.5187 1.8403113e-38
-182.66701 3499 74.537399 1.8403113e-38
-191.59599 3520.2 71.705002 1.8403113e-38
3213.03 -244.539 87.357399 1.8403113e-38
3198.71 -218.039 84.6651 1.8403113e-38
-284.44601 3568.6399 84.642601 1.8403113e-38
-299.08801 3574.47 87.127296 1.8403113e-38
-698.87903 3969.8201 96.804604 1.8403113e-38
3198.04 -294.58401 103.704 1.8403113e-38
3204.03 -288.99399 100.723 1.8403113e-38
-688.03003 3944.6101 100.111 1.8403113e-38
-1732.7 5009.5801 117.534 1.8403113e-38
