# .PCD v0.7 - Point Cloud Data file format
VERSION 0.7
FIELDS x y z rgb
SIZE 4 4 4 4
TYPE F F F F
COUNT 1 1 1 1
WIDTH 330
HEIGHT 1
VIEWPOINT 0 0 0 1 0 0 0
POINTS 330
DATA ascii
3046.7 3809.77 -283.60599 1.8403113e-38
3084.77 3807.6499 -283.88199 1.8403113e-38
3105.8899 3802.6899 -282.65799 1.8403113e-38
3116.8401 3806.04 -284.17599 1.8403113e-38
3144.9351 3803.5 -284.02399 1.8403113e-38
3177.99 3805.1299 -285.522 1.8403113e-38
3189.8999 3808.6699 -287.13101 1.8403113e-38
2875.45 3817.8201 -281.83899 1.8403113e-38
2910.1001 3818.25 -282.944 1.8403113e-38
2935.0498 3817.665 -283.41602 1.8403113e-38
2991.905 3814.4849 -283.819 1.8403113e-38
3016.4299 3811.22 -283.30499 1.8403113e-38
3022.6499 3810.1201 -283.078 1.8403113e-38
3054.8701 3810.6799 -284.16299 1.8403113e-38
3084.95 3816.1499 -286.97299 1.8403113e-38
2726.3899 3828.26 -281.54599 1.8403113e-38
2799.53 3824.0901 -282.035 1.8403113e-38
2809.01 3829.6699 -284.32001 1.8403113e-38
2852.5 3824.1101 -283.495 1.8403113e-38
2889.22 3828.3 -286.01999 1.8403113e-38
2906.27 3821.8899 -284.16 1.8403113e-38
2963.71 3821.1201 -285.45499 1.8403113e-38
2975.24 3827.03 -287.91699 1.8403113e-38
2568.1499 3837.9199 -280.71799 1.8403113e-38
2590.05 3836.9399 -280.95999 1.8403113e-38
2636.9099 3839.77 -283.271 1.8403113e-38
2659.5901 3838.3701 -283.384 1.8403113e-38
2665.71 3839.8301 -284.08301 1.8403113e-38
2685.4648 3837.2151 -283.67401 1.8403113e-38
2710.5901 3833.8401 -283.138 1.8403113e-38
2734.04 3831.8701 -283.06601 1.8403113e-38
2756.47 3837.51 -285.72601 1.8403113e-38
2763.3201 3839.3101 -286.56699 1.8403113e-38
2778.76 3832.22 -284.41599 1.8403113e-38
2784.1799 3831.45 -284.28699 1.8403113e-38
2833.3301 3831.0701 -285.4935 1.8403113e-38
2863.3601 3830.8999 -286.254 1.8403113e-38
2467.21 3843.8799 -280.11401 1.8403113e-38
2526.55 3844.04 -281.798 1.8403113e-38
2532.9399 3847.9299 -283.384 1.8403113e-38
2548.3401 3843.8201 -282.314 1.8403113e-38
2554.1499 3845.8201 -283.20099 1.8403113e-38
2576.8101 3846.8501 -284.19501 1.8403113e-38
2597.8101 3843.1001 -283.40701 1.8403113e-38
2615.8501 3844.21 -284.30499 1.8403113e-38
2620.3301 3842.4299 -283.78299 1.8403113e-38
2642.5601 3840.49 -283.686 1.8403113e-38
2709.6899 3842.6699 -286.31699 1.8403113e-38
2366.75 3857.03 -282.13501 1.8403113e-38
2387.8601 3859.6699 -283.67099 1.8403113e-38
2402.03 3851.9199 -281.24799 1.8403113e-38
2446.6548 3854.1001 -283.26099 1.8403113e-38
2486.1599 3852.3101 -283.69199 1.8403113e-38
2491.52 3853.71 -284.349 1.8403113e-38
2509.6499 3858.1899 -286.47 1.8403113e-38
2513.28 3854.1299 -285.095 1.8403113e-38
2226.8899 3867.9199 -282.25601 1.8403113e-38
2242.3101 3867.73 -282.60901 1.8403113e-38
2266.8799 3866.46 -282.82101 1.8403113e-38
2286.99 3866.1599 -283.26501 1.8403113e-38
2305.1699 3868.165 -284.4895 1.8403113e-38
2323.46 3869.8899 -285.61801 1.8403113e-38
2347.1399 3861.4199 -283.19299 1.8403113e-38
2363.8301 3866.1599 -285.36899 1.8403113e-38
2383.3201 3860.5701 -283.875 1.8403113e-38
2425.1001 3861.24 -285.26099 1.8403113e-38
2430.3401 3862.9099 -286.013 1.8403113e-38
2162.54 3879.9399 -284.85501 1.8403113e-38
2187.23 3877.46 -284.63199 1.8403113e-38
2205.04 3877.1851 -285.021 1.8403113e-38
2222.8401 3876.6599 -285.31699 1.8403113e-38
2263.4299 3878.1299 -286.96201 1.8403113e-38
2283.53 3876.02 -286.74799 1.8403113e-38
2329.0801 3875.71 -287.884 1.8403113e-38
2344.3799 3872.3601 -287.08701 1.8403113e-38
2411.3101 3871.0901 -288.45901 1.8403113e-38
2045.1801 3889.2 -285.00101 1.8403113e-38
2065.8701 3885.98 -284.39999 1.8403113e-38
2083.98 3884.1851 -284.24402 1.8403113e-38
2104.145 3885.96 -285.44098 1.8403113e-38
2144.6499 3885.7 -286.45599 1.8403113e-38
2167.1599 3880.8 -285.29599 1.8403113e-38
2182.74 3882.3101 -286.26801 1.8403113e-38
2248.0701 3881.3999 -287.728 1.8403113e-38
1854.24 3899.3601 -283.45801 1.8403113e-38
1876.83 3895.71 -282.755 1.8403113e-38
1939.95 3899.0701 -285.702 1.8403113e-38
1956.91 3895.0701 -284.71399 1.8403113e-38
1961.26 3897.6201 -285.76099 1.8403113e-38
1982.6 3894.8799 -285.35101 1.8403113e-38
1998.45 3895.9099 -286.15601 1.8403113e-38
2003.39 3894.5801 -285.811 1.8403113e-38
2018.76 3899.0801 -287.86401 1.8403113e-38
2024.58 3890.1899 -284.79901 1.8403113e-38
2039.84 3895.3601 -287.09299 1.8403113e-38
2060.3401 3895.99 -287.88 1.8403113e-38
2124.2051 3893.0449 -288.5625 1.8403113e-38
1869.79 3903.8501 -285.51501 1.8403113e-38
1894.14 3902.6948 -285.76251 1.8403113e-38
1915.895 3901.105 -285.7825 1.8403113e-38
1934.71 3901.0701 -286.28299 1.8403113e-38
1976.87 3900.78 -287.33301 1.8403113e-38
1112.21 3946.55 -280.26099 1.8403113e-38
1195.6801 3941.1699 -280.59299 1.8403113e-38
1219.36 3944.0701 -282.297 1.8403113e-38
1229.09 3941.53 -281.64099 1.8403113e-38
988.63501 3955.22 -280.022 1.8403113e-38
1071.23 3950.6699 -280.63501 1.8403113e-38
893.04102 3966.3101 -281.42999 1.8403113e-38
940.06403 3962.3799 -281.29199 1.8403113e-38
740.12598 3978.4099 -281.63 1.8403113e-38
797.54498 3970.5801 -280.36099 1.8403113e-38
806.92603 3971.78 -281.056 1.8403113e-38
841.888 3972.3101 -282.20401 1.8403113e-38
583.88098 3987.29 -280.57599 1.8403113e-38
498.53699 3998.24 -282.20999 1.8403113e-38
563.19501 3993.21 -282.15601 1.8403113e-38
368.17001 4002.4299 -280.16 1.8403113e-38
384.64099 4001.3501 -280.22 1.8403113e-38
2462.21 3843.27 -279.75699 1.8403113e-38
1854.88 3879.1101 -276.12799 1.8403113e-38
1090.67 3939.0701 -276.957 1.8403113e-38
1128.75 3937.45 -277.41 1.8403113e-38
1012.78 3940.28 -275.26199 1.8403113e-38
1035.22 3948.22 -278.758 1.8403113e-38
1046.17 3946.0901 -278.284 1.8403113e-38
718.61298 3955.1799 -272.612 1.8403113e-38
866.41901 3959.54 -278.242 1.8403113e-38
916.508 3953.7 -277.496 1.8403113e-38
960.39502 3952.01 -278.08301 1.8403113e-38
720.46899 3963.01 -275.504 1.8403113e-38
336.422 3979.55 -270.98599 1.8403113e-38
759.33301 3971.71 -279.72601 1.8403113e-38
274.056 3985.5601 -271.45801 1.8403113e-38
524.21301 3989.3401 -279.685 1.8403113e-38
331.52899 3992.8301 -275.672 1.8403113e-38
440.48999 3996.4299 -279.96201 1.8403113e-38
458.39999 3993.76 -279.48401 1.8403113e-38
166.614 4007.03 -276.31 1.8403113e-38
213.948 4013.0801 -279.80099 1.8403113e-38
686.71198 3940.04 -266.24301 1.8403113e-38
685.375 3950.3601 -269.952 1.8403113e-38
1854.03 3809.75 -250.93201 1.8403113e-38
1855.9399 3819.02 -254.347 1.8403113e-38
1407.6899 3857.9099 -256.185 1.8403113e-38
1418.25 3852 -254.328 1.8403113e-38
1215.26 3869.99 -255.297 1.8403113e-38
1318.29 3860.3899 -254.634 1.8403113e-38
1323.4 3862.73 -255.62399 1.8403113e-38
1341.55 3869.1899 -258.465 1.8403113e-38
1351.89 3864.49 -257.04501 1.8403113e-38
1377.4 3860.4299 -256.26801 1.8403113e-38
1384.17 3860.1899 -256.366 1.8403113e-38
1246.4399 3871.78 -256.80099 1.8403113e-38
3091.97 3688.1001 -240.688 1.8403113e-38
1243.3 3846.4199 -247.509 1.8403113e-38
3083.8701 3673.25 -235.078 1.8403113e-38
1849.35 3760.5601 -232.95 1.8403113e-38
1848.64 3777.04 -238.912 1.8403113e-38
1845.1899 3727.9399 -220.996 1.8403113e-38
3450.55 3587.8799 -214.14 1.8403113e-38
3451.28 3595.3501 -216.869 1.8403113e-38
3052.3601 3614.0601 -212.73399 1.8403113e-38
3061.6299 3629.25 -218.498 1.8403113e-38
1844.88 3716.01 -216.66 1.8403113e-38
3587.3601 3549.5601 -203.97701 1.8403113e-38
3599.3201 3548.6799 -203.987 1.8403113e-38
3448.4099 3556.45 -202.672 1.8403113e-38
3456.05 3567.8401 -207.01401 1.8403113e-38
3057.4099 3590.1299 -204.187 1.8403113e-38
3060.49 3599.3401 -207.61099 1.8403113e-38
1839.0649 3685.595 -205.45999 1.8403113e-38
1528.3199 3721.01 -209.8 1.8403113e-38
502.81601 3793.5 -208.022 1.8403113e-38
3447.2 3526.3101 -191.69901 1.8403113e-38
3050.4299 3562.79 -194.073 1.8403113e-38
3060.3701 3565.04 -195.162 1.8403113e-38
1834.515 3648.855 -192.00049 1.8403113e-38
-20.2428 3792.8899 -193.472 1.8403113e-38
44.126301 3796.4199 -196.51401 1.8403113e-38
3433.6201 3496.6001 -180.545 1.8403113e-38
3448.71 3498.3201 -181.584 1.8403113e-38
3429.5601 3522.9199 -189.98801 1.8403113e-38
3080.1799 3533.9299 -184.41299 1.8403113e-38
3062.9351 3543.365 -187.366 1.8403113e-38
149.369 3755.9399 -184.707 1.8403113e-38
-15.3541 3780.6299 -189.15601 1.8403113e-38
3549.6899 3463.5901 -171.746 1.8403113e-38
3596.8201 3463.21 -172.89799 1.8403113e-38
3630.1399 3471.72 -176.89999 1.8403113e-38
3521.5701 3485.49 -178.92101 1.8403113e-38
3076.1699 3499.02 -171.634 1.8403113e-38
3085.4399 3512 -176.59801 1.8403113e-38
3072.7 3521.97 -179.869 1.8403113e-38
1828.4399 3614.28 -179.28799 1.8403113e-38
1832.62 3613.71 -179.194 1.8403113e-38
525.12402 3706.6599 -177.11301 1.8403113e-38
-27.162001 3752.3999 -178.58701 1.8403113e-38
3585.8101 3428.97 -160.16901 1.8403113e-38
3643.9099 3424.9099 -160.286 1.8403113e-38
3615.6299 3435.4399 -163.33299 1.8403113e-38
3510.49 3451.28 -166.202 1.8403113e-38
3129.3201 3468.25 -161.92 1.8403113e-38
3158.8799 3463.4199 -160.978 1.8403113e-38
3164.2 3461.23 -160.32899 1.8403113e-38
3200.0701 3465.22 -162.757 1.8403113e-38
3110.76 3474.3701 -163.63499 1.8403113e-38
3141.8701 3471.1699 -163.32401 1.8403113e-38
3092.3701 3486.01 -167.354 1.8403113e-38
3110.99 3480.26 -165.77699 1.8403113e-38
3092.51 3491.8799 -169.487 1.8403113e-38
1819.72 3563.6201 -160.661 1.8403113e-38
1825.545 3584.54 -168.41251 1.8403113e-38
674.38098 3656.22 -162.895 1.8403113e-38
689.07599 3655.26 -162.951 1.8403113e-38
496.521 3686.46 -168.99699 1.8403113e-38
508.961 3687.95 -169.879 1.8403113e-38
585.771 3680.71 -169.358 1.8403113e-38
3191.4099 3453.9099 -158.418 1.8403113e-38
1813.73 3536.2651 -150.569 1.8403113e-38
1818.77 3557.1499 -158.28799 1.8403113e-38
444.57001 3641.8501 -151.384 1.8403113e-38
164.70799 3659.24 -150.03 1.8403113e-38
497.70148 3654.395 -157.394 1.8403113e-38
1809.3 3515.4099 -142.88 1.8403113e-38
475.59601 3634.53 -149.577 1.8403113e-38
-101.479 3653.6599 -140.714 1.8403113e-38
-55.0644 3668.51 -147.377 1.8403113e-38
-621.74902 3696.46 -141.99699 1.8403113e-38
1804.28 3486.27 -132.166 1.8403113e-38
1804.63 3492.6799 -134.502 1.8403113e-38
1809.59 3507.27 -139.93201 1.8403113e-38
-114.342 3648.6899 -138.558 1.8403113e-38
-627.35699 3686.6399 -138.27901 1.8403113e-38
3471.8999 3346.1299 -126.984 1.8403113e-38
1799.64 3465.3201 -124.434 1.8403113e-38
1802.9301 3465.78 -124.693 1.8403113e-38
197.85001 3577.25 -121.181 1.8403113e-38
263.12601 3579.4099 -123.754 1.8403113e-38
264.57501 3587.27 -126.644 1.8403113e-38
-118.217 3607.4199 -123.474 1.8403113e-38
-232.963 3614.21 -122.793 1.8403113e-38
-102.659 3611.54 -125.397 1.8403113e-38
-673.56097 3650.2 -123.787 1.8403113e-38
-671.91199 3661.3899 -127.895 1.8403113e-38
3427.3799 3305.355 -110.966 1.8403113e-38
1801.25 3434.3799 -113.25 1.8403113e-38
1798.4301 3445.75 -117.297 1.8403113e-38
-230.67999 3603.3201 -118.906 1.8403113e-38
3507.6399 3288.47 -107.035 1.8403113e-38
3517.22 3286.05 -106.417 1.8403113e-38
3456.55 3294.72 -107.904 1.8403113e-38
3465.1799 3292.26 -107.247 1.8403113e-38
1760.66 3406.6201 -102.06 1.8403113e-38
1776.5601 3405.5801 -102.119 1.8403113e-38
1738.1801 3416.8899 -105.175 1.8403113e-38
1751.78 3414.8 -104.788 1.8403113e-38
1769.39 3411.48 -104.066 1.8403113e-38
1785.345 3412.98 -105.04601 1.8403113e-38
1793.46 3424.675 -109.514 1.8403113e-38
-641.52802 3590.4099 -102.964 1.8403113e-38
-649.72498 3604.21 -107.751 1.8403113e-38
3492.49 3257.72 -95.458298 1.8403113e-38
-763.38501 3573.28 -93.410202 1.8403113e-38
-750.52899 3581.6299 -96.791298 1.8403113e-38
3456.0901 3239.54 -87.864899 1.8403113e-38
3526.4099 3188.1201 -71.129204 1.8403113e-38
3526.5801 3193.8501 -73.211098 1.8403113e-38
3392.8401 3200.1899 -71.851601 1.8403113e-38
-766.25 3522.72 -74.982803 1.8403113e-38
-763.23999 3533.6899 -79.044701 1.8403113e-38
3415.3201 3179.1101 -64.816002 1.8403113e-38
3404.1599 3180.9399 -65.172401 1.8403113e-38
3388 3193.3899 -69.249001 1.8403113e-38
-778.94098 3486.47 -61.478298 1.8403113e-38
3487.0801 3134.74 -50.678501 1.8403113e-38
3491.6899 3156.95 -58.864849 1.8403113e-38
-775.91302 3474.1001 -57.069401 1.8403113e-38
3473.0901 3107.97 -40.577301 1.8403113e-38
3488.5701 3129.72 -48.895401 1.8403113e-38
-783.03802 3436.6101 -43.268501 1.8403113e-38
3468.22 3083.8999 -31.709499 1.8403113e-38
3480.1899 3081.26 -31.0784 1.8403113e-38
3475.4299 3103.22 -38.919201 1.8403113e-38
-777.82098 3423.8899 -38.796299 1.8403113e-38
3484.9199 3061.9351 -24.194651 1.8403113e-38
-797.38599 3377.49 -21.4188 1.8403113e-38
-796.953 3388.97 -25.5979 1.8403113e-38
-4646.77 3677.5601 -24.8832 1.8403113e-38
3311.1599 3009.51 -0.40871501 1.8403113e-38
-808.24402 3329.2 -3.5960901 1.8403113e-38
-752.008 3330.3899 -5.56639 1.8403113e-38
3303.2949 2986.2549 8.2488308 1.8403113e-38
3299.3701 3002.8401 2.335 1.8403113e-38
-826.086 3293.54 9.8364401 1.8403113e-38
-4668.8501 3592.8201 6.4773998 1.8403113e-38
3306.3599 2967.29 15.046801 1.8403113e-38
-946.44501 3301.6499 10.1884 1.8403113e-38
-4671.9302 3567.1599 15.8752 1.8403113e-38
3370.22 2933.75 25.4697 1.8403113e-38
3312.8799 2946.5701 22.388599 1.8403113e-38
3400.29 2941.95 21.672001 1.8403113e-38
3308.23 2950.3999 21.1273 1.8403113e-38
-990.474 3255.95 27.979799 1.8403113e-38
-964.88098 3264.21 24.2827 1.8403113e-38
3254.0901 2906.3999 38.5769 1.8403113e-38
3199.8701 2879.6201 49.784199 1.8403113e-38
3199.46 2883.55 48.368599 1.8403113e-38
3243.6699 2901.2 40.750401 1.8403113e-38
-961.70001 3211.54 43.311501 1.8403113e-38
-4679.5098 3480.6201 47.491299 1.8403113e-38
3178.2 2864.8301 55.743198 1.8403113e-38
3185.5 2861.4299 56.777802 1.8403113e-38
-4680.1201 3454.72 56.907001 1.8403113e-38
3150.53 2830.1699 69.082703 1.8403113e-38
3173.635 2845.8049 62.773201 1.8403113e-38
3147.2451 2811.895 75.804596 1.8403113e-38
3151.71 2826.45 70.398201 1.8403113e-38
3121.5801 2777.9399 88.829903 1.8403113e-38
3126.6101 2781.51 87.399101 1.8403113e-38
3129.5901 2793.78 82.8629 1.8403113e-38
3138.55 2797.46 81.280296 1.8403113e-38
-4699.04 3369.1899 88.4673 1.8403113e-38
3118.8301 2749.99 99.050201 1.8403113e-38
3118.3701 2765.8201 93.316399 1.8403113e-38
3120.27 2762.1299 94.603302 1.8403113e-38
-4706.1602 3343.8101 97.874603 1.8403113e-38
3114.8901 2732.5898 105.475 1.8403113e-38
3117.6699 2746.4199 100.378 1.8403113e-38
3112.8899 2718.75 110.551 1.8403113e-38
