# .PCD v0.7 - Point Cloud Data file format
VERSION 0.7
FIELDS x y z rgb
SIZE 4 4 4 4
TYPE F F F F
COUNT 1 1 1 1
WIDTH 334
HEIGHT 1
VIEWPOINT 0 0 0 1 0 0 0
POINTS 334
DATA ascii
398.51401 744.38098 -292.72101 1.8403113e-38
418.24899 759.43597 -290.452 1.8403113e-38
423.30801 753.49799 -293.15799 1.8403113e-38
-772.58197 281.039 -283.06 1.8403113e-38
-757.54498 291.577 -281.64499 1.8403113e-38
-722.26001 298.634 -284.25201 1.8403113e-38
-703.88 315.28101 -281.258 1.8403113e-38
-670.28302 321.556 -283.89001 1.8403113e-38
-653.85699 336.061 -281.33899 1.8403113e-38
-624.328 337.258 -285.10101 1.8403113e-38
-608.75897 351.23599 -282.60599 1.8403113e-38
-578.69202 354.83401 -285.63901 1.8403113e-38
-560.14801 375.07599 -281.461 1.8403113e-38
-332.16599 461.14401 -284.729 1.8403113e-38
-318.04001 479.71301 -280.48999 1.8403113e-38
-296.358 476.20901 -284.72299 1.8403113e-38
-284.487 490.547 -281.586 1.8403113e-38
-261.23599 492.004 -284.375 1.8403113e-38
-251.114 502.95001 -282.13 1.8403113e-38
-227.157 507.604 -283.94601 1.8403113e-38
-219.66 512.39001 -283.397 1.8403113e-38
-195.05299 520.24402 -284.23199 1.8403113e-38
-185.802 530.63898 -282.048 1.8403113e-38
-162.909 535.33801 -283.70001 1.8403113e-38
-153.924 545.90002 -281.423 1.8403113e-38
-132.284 548.30103 -283.66901 1.8403113e-38
-123.557 559.021 -281.302 1.8403113e-38
-103.587 557.23102 -284.71799 1.8403113e-38
-74.534103 569.474 -284.707 1.8403113e-38
-94.029297 571.79602 -281.17899 1.8403113e-38
-46.721901 579.46399 -285.276 1.8403113e-38
-65.806602 582.34399 -281.61899 1.8403113e-38
-38.279301 592.479 -282.10001 1.8403113e-38
-14.924551 597.93652 -283.56201 1.8403113e-38
7.7947202 601.888 -285.439 1.8403113e-38
15.8568 616.11298 -281.80301 1.8403113e-38
34.444302 614.302 -285.03201 1.8403113e-38
42.192299 628.65601 -281.30801 1.8403113e-38
63.812401 631.6015 -283.3685 1.8403113e-38
86.390701 641.47699 -283.23801 1.8403113e-38
91.539703 643.80798 -283.18201 1.8403113e-38
109.851 643.93201 -285.72198 1.8403113e-38
116.146 654.854 -282.94501 1.8403113e-38
134.636 658.13898 -284.45001 1.8403113e-38
139.976 663.48199 -283.41 1.8403113e-38
158.884 672.76703 -282.961 1.8403113e-38
163.474 672.513 -283.694 1.8403113e-38
186.22301 677.19501 -285.33099 1.8403113e-38
181.989 681.164 -283.40201 1.8403113e-38
206.7075 685.15198 -285.54901 1.8403113e-38
226.849 691.51001 -286.25601 1.8403113e-38
231.80701 700.02802 -284.09698 1.8403113e-38
249.474 710.52301 -283.06601 1.8403113e-38
253.936 710.57501 -283.67801 1.8403113e-38
273.41299 716.67352 -284.37799 1.8403113e-38
294.91101 725.52051 -284.44049 1.8403113e-38
316.064 737.07947 -283.54498 1.8403113e-38
335.245 733.19 -287.55499 1.8403113e-38
339.01099 748.66498 -282.89301 1.8403113e-38
355.81699 747.27698 -285.729 1.8403113e-38
377.24899 743.76001 -289.931 1.8403113e-38
381.311 748.01703 -289.07501 1.8403113e-38
359.819 753.354 -284.254 1.8403113e-38
401.237 761.86499 -287.23801 1.8403113e-38
436.646 781.323 -285.702 1.8403113e-38
440.49399 784.815 -285.073 1.8403113e-38
457.64301 781.052 -288.754 1.8403113e-38
460.30499 792.065 -285.43399 1.8403113e-38
477.45151 801.54053 -284.672 1.8403113e-38
495.91199 802.90698 -286.81699 1.8403113e-38
515.80701 808.26001 -287.82599 1.8403113e-38
497.76901 815.82397 -282.74399 1.8403113e-38
518.39398 816.58899 -285.396 1.8403113e-38
535.67102 823.16901 -285.62402 1.8403113e-38
552.599 830.90601 -285.41501 1.8403113e-38
554.60901 840.203 -282.57901 1.8403113e-38
572.16504 844.55798 -283.59302 1.8403113e-38
593.92603 849.47302 -285.01199 1.8403113e-38
588.90198 851.88702 -283.49399 1.8403113e-38
606.50702 863.22498 -282.172 1.8403113e-38
610.448 864.48499 -282.30499 1.8403113e-38
625.56 869.45001 -282.76999 1.8403113e-38
631.539 864.52502 -285.26599 1.8403113e-38
646.30444 877.12598 -283.11899 1.8403113e-38
665.46301 883.12549 -283.8075 1.8403113e-38
685.3775 887.25098 -285.23151 1.8403113e-38
702.61151 898.24951 -283.97101 1.8403113e-38
718.44299 906.95502 -283.28201 1.8403113e-38
722.612 907.73297 -283.60901 1.8403113e-38
736.38 915.86798 -282.82101 1.8403113e-38
741.70898 914.15002 -284.14899 1.8403113e-38
758.04346 921.70599 -283.9165 1.8403113e-38
775.10498 927.81598 -284.272 1.8403113e-38
777.98297 931.32599 -283.5 1.8403113e-38
793.6225 940.245 -282.71301 1.8403113e-38
815.23102 942.521 -284.99548 1.8403113e-38
832.96948 952.16504 -284.26151 1.8403113e-38
848.974 960.65002 -283.67099 1.8403113e-38
853.07098 961.92401 -283.82101 1.8403113e-38
866.89801 970.04102 -283.047 1.8403113e-38
870.97601 971.38397 -283.172 1.8403113e-38
887.74298 974.98901 -284.32599 1.8403113e-38
888.73499 981.14398 -282.401 1.8403113e-38
903.35498 988.159 -282.10901 1.8403113e-38
911.10303 984.18799 -284.53299 1.8403113e-38
925.84399 994.99652 -282.98499 1.8403113e-38
943.526 1005.3 -282.022 1.8403113e-38
963.91296 1012.15 -282.5965 1.8403113e-38
978.18701 1023.7 -280.73499 1.8403113e-38
1001.11 1027.95 -282.54199 1.8403113e-38
1000.89 1034.92 -280.173 1.8403113e-38
1023.81 1039.6801 -281.80701 1.8403113e-38
1036.6 1050.01 -280.14499 1.8403113e-38
1056.98 1058.36 -280.215 1.8403113e-38
1064.1 1056.97 -281.68701 1.8403113e-38
1078.61 1065.75 -280.784 1.8403113e-38
1166.72 1104.35 -280.25699 1.8403113e-38
1333.3 1169.71 -281.815 1.8403113e-38
1354.36 1183 -280.32401 1.8403113e-38
1518.36 1250.95 -280.651 1.8403113e-38
-855.92102 277.45499 -272.51099 1.8403113e-38
-848.30298 276.172 -274.01599 1.8403113e-38
-818.78802 271.91299 -279.60699 1.8403113e-38
-805.67999 278.90201 -279.10999 1.8403113e-38
-358.98801 468.03201 -278.63501 1.8403113e-38
-351.711 470.44699 -278.85101 1.8403113e-38
979.823 1028.4301 -279.37701 1.8403113e-38
1016.19 1042.0601 -279.93201 1.8403113e-38
1038.65 1054.13 -279.04901 1.8403113e-38
1079.9 1070.66 -279.319 1.8403113e-38
1101.46 1078.5601 -279.711 1.8403113e-38
1093.6 1080.36 -277.996 1.8403113e-38
1115.76 1087.89 -278.59399 1.8403113e-38
1122.33 1087.5699 -279.63 1.8403113e-38
1135.17 1098.52 -277.76599 1.8403113e-38
1139.6899 1100.26 -277.81699 1.8403113e-38
1157.27 1106.97 -278.048 1.8403113e-38
1181.97 1116.5601 -278.311 1.8403113e-38
1199.96 1126.55 -277.495 1.8403113e-38
1207.37 1126.14 -278.67801 1.8403113e-38
1227.85 1131.61 -279.729 1.8403113e-38
1230.88 1134.98 -279.02802 1.8403113e-38
1247.63 1143.86 -278.41101 1.8403113e-38
1251.37 1146.7 -277.98401 1.8403113e-38
1276.365 1152.505 -279.56 1.8403113e-38
1295.575 1166.015 -277.73602 1.8403113e-38
1323.35 1170.95 -279.99701 1.8403113e-38
1345.16 1183.52 -278.85501 1.8403113e-38
1373.875 1194.845 -279.104 1.8403113e-38
1393.29 1207.0699 -277.73901 1.8403113e-38
1396.0601 1210.99 -276.814 1.8403113e-38
1418.0699 1219.21 -277.159 1.8403113e-38
1423.27 1221.74 -277.043 1.8403113e-38
1448.6 1228.59 -278.315 1.8403113e-38
1452.13 1232.22 -277.595 1.8403113e-38
1476.7151 1242.9751 -277.4545 1.8403113e-38
1502.12 1253.84 -277.392 1.8403113e-38
1530.9301 1266.38 -277.245 1.8403113e-38
1542.96 1265.99 -279.07101 1.8403113e-38
1570.89 1279.97 -278.32101 1.8403113e-38
1557.9399 1280.52 -276.31 1.8403113e-38
1597.12 1289.65 -278.771 1.8403113e-38
1599.61 1294.26 -277.57501 1.8403113e-38
1628.45 1303.42 -278.56699 1.8403113e-38
1630.89 1308.14 -277.32901 1.8403113e-38
1660.6 1317.66 -278.323 1.8403113e-38
1662.1 1322.86 -276.79099 1.8403113e-38
1691.79 1333.14 -277.52802 1.8403113e-38
1702.23 1334.84 -278.42899 1.8403113e-38
1726.5 1348.0699 -277.41 1.8403113e-38
1737.86 1349.6899 -278.47101 1.8403113e-38
1762.96 1363.3199 -277.43701 1.8403113e-38
1772.51 1365.86 -277.92801 1.8403113e-38
1798.4301 1379.91 -276.87201 1.8403113e-38
1816.26 1379.89 -279.39099 1.8403113e-38
1841.2 1395.1 -277.80399 1.8403113e-38
1851.67 1397.87 -278.35199 1.8403113e-38
1876.48 1413.8199 -276.49701 1.8403113e-38
1896.26 1414.04 -279.21301 1.8403113e-38
1916.27 1432.2 -275.94101 1.8403113e-38
1935.17 1433.12 -278.29599 1.8403113e-38
1952.16 1452.74 -274.108 1.8403113e-38
1980.52 1451.59 -278.496 1.8403113e-38
2015.34 1467.47 -278.07501 1.8403113e-38
2027.67 1470.9399 -278.651 1.8403113e-38
2056.6499 1489.22 -276.60199 1.8403113e-38
2080.3999 1490.4 -279.556 1.8403113e-38
2107.3201 1510.15 -276.72501 1.8403113e-38
2132.0601 1511.67 -279.703 1.8403113e-38
2157.8301 1532.62 -276.30801 1.8403113e-38
2185.49 1534.15 -279.694 1.8403113e-38
2213.9399 1555.6 -276.508 1.8403113e-38
2235.8201 1558.77 -278.53101 1.8403113e-38
2270.8201 1580.16 -276.28699 1.8403113e-38
2291.72 1584.01 -277.94199 1.8403113e-38
2333.29 1605.65 -276.54401 1.8403113e-38
2353.21 1610.1801 -277.83301 1.8403113e-38
2387.72 1634.0699 -274.67999 1.8403113e-38
2426.1499 1636.84 -279.172 1.8403113e-38
2464.3101 1661.75 -276.19299 1.8403113e-38
2489.04 1666.84 -277.97501 1.8403113e-38
2529.8301 1692.86 -274.995 1.8403113e-38
2572.2 1697.01 -279.57599 1.8403113e-38
2613.6599 1724.65 -276.147 1.8403113e-38
2652.0701 1730.0601 -279.74899 1.8403113e-38
2694.1599 1759.3101 -275.86899 1.8403113e-38
2737.45 1765.35 -279.94699 1.8403113e-38
2784.0701 1796.15 -276.18399 1.8403113e-38
2820.3999 1803.47 -278.85199 1.8403113e-38
2866.5701 1836.0699 -274.422 1.8403113e-38
2922.5801 1843.86 -279.707 1.8403113e-38
2976.1899 1878.47 -275.65302 1.8403113e-38
3022.21 1887.59 -279.082 1.8403113e-38
3080.23 1924.4 -274.91101 1.8403113e-38
3133.0601 1934.73 -278.89499 1.8403113e-38
3200.3799 1974.1899 -275.14899 1.8403113e-38
3252.0801 1985.77 -278.552 1.8403113e-38
3329.6399 2028.35 -275.20001 1.8403113e-38
3393.04 2041.79 -279.633 1.8403113e-38
3444.0901 2085.9399 -272.01401 1.8403113e-38
3469.6201 2098.4299 -271.42401 1.8403113e-38
-1234.34 149.843 -261.97101 1.8403113e-38
-891.86798 273.582 -268.742 1.8403113e-38
-878 304.354 -260.37201 1.8403113e-38
-365.935 504.04199 -265.573 1.8403113e-38
-368.98099 510.48599 -262.98099 1.8403113e-38
-1180.12 200.052 -252.769 1.8403113e-38
-913.27002 301.784 -256.26099 1.8403113e-38
-915.50201 310.39801 -253.056 1.8403113e-38
-381.694 532.48999 -253.80499 1.8403113e-38
-989.33099 315.311 -240.99699 1.8403113e-38
-945.76398 326.505 -243.384 1.8403113e-38
-938.21899 324.82001 -245.01401 1.8403113e-38
-450.75 526.86603 -245.955 1.8403113e-38
-445.70401 524.53101 -247.45 1.8403113e-38
-415.88599 535.59601 -247.94099 1.8403113e-38
-403.73099 547.22998 -245.752 1.8403113e-38
-378.48001 551.15302 -247.996 1.8403113e-38
-1036.02 324.19901 -231.431 1.8403113e-38
-1026.5 324.41199 -232.702 1.8403113e-38
-993.20502 321.78201 -238.28 1.8403113e-38
3297.98 2127.3999 -237.502 1.8403113e-38
3193.5801 2129.3999 -222.10899 1.8403113e-38
-1103.46 342.01401 -215.944 1.8403113e-38
-1085.89 372.25699 -208.274 1.8403113e-38
3097.6899 2158.96 -198.66701 1.8403113e-38
3101.0901 2168.99 -195.782 1.8403113e-38
-1047.11 454.26001 -186.226 1.8403113e-38
-1050.97 460.10599 -183.72 1.8403113e-38
3101.5801 2206.4199 -183.293 1.8403113e-38
3094.9099 2215.3899 -179.341 1.8403113e-38
3072.01 2249.8701 -164.54401 1.8403113e-38
3071.1001 2259.4099 -161.215 1.8403113e-38
-970.07001 582.14502 -154.17799 1.8403113e-38
-968.62 592.70599 -150.839 1.8403113e-38
-1077.59 571.57898 -142.562 1.8403113e-38
-1067.13 572.60602 -143.692 1.8403113e-38
-978.23199 617.19202 -141.267 1.8403113e-38
3052.51 2293.9099 -147.01401 1.8403113e-38
3051.4399 2303.3799 -143.686 1.8403113e-38
-982.84003 621.38 -139.21201 1.8403113e-38
-1066.21 616.95898 -128.94 1.8403113e-38
3034.2 2337.6699 -129.75101 1.8403113e-38
3028.04 2346.26 -126.001 1.8403113e-38
-1026.62 662.80701 -119.139 1.8403113e-38
3035.71 2384.53 -114.241 1.8403113e-38
3034.3 2393.9199 -110.89 1.8403113e-38
-1023.74 697.71802 -107.83 1.8403113e-38
-1017 712.07001 -103.965 1.8403113e-38
-1023.94 744.99902 -91.936996 1.8403113e-38
-1019.81 740.64801 -93.980202 1.8403113e-38
3047.1201 2433.5901 -99.385597 1.8403113e-38
3054.3301 2444.77 -96.652901 1.8403113e-38
-1014.72 783.14001 -80.439201 1.8403113e-38
3074.1799 2486.6299 -85.403999 1.8403113e-38
3079.21 2497.6101 -82.428703 1.8403113e-38
-1018.7 787.47998 -78.422096 1.8403113e-38
3110.8701 2543.1101 -71.627602 1.8403113e-38
3141.9199 2560.4299 -70.192902 1.8403113e-38
-1006.93 833.90503 -64.503799 1.8403113e-38
-980.099 848.57397 -63.3647 1.8403113e-38
-1006.6 862.37097 -54.997799 1.8403113e-38
-1002.48 872.87 -52.056599 1.8403113e-38
3190.02 2611.6599 -59.784801 1.8403113e-38
3203.27 2625.4299 -57.033298 1.8403113e-38
3279.2 2686.01 -47.413898 1.8403113e-38
3400.1799 2729.27 -49.956799 1.8403113e-38
3407.04 2774.8101 -35.642502 1.8403113e-38
3402.29 2784.8799 -31.5961 1.8403113e-38
3408.1101 2842.1699 -13.1906 1.8403113e-38
3449.4399 2843.03 -18.730499 1.8403113e-38
3336.98 2864.1001 4.19804 1.8403113e-38
3408.98 2898.6201 5.6275201 1.8403113e-38
3403.05 2953.3701 24.832899 1.8403113e-38
3429.26 2950.4199 20.150101 1.8403113e-38
-288.98801 1449.6 40.855301 1.8403113e-38
-257.35001 1476.9399 45.567699 1.8403113e-38
3368.6399 2986.5701 40.826801 1.8403113e-38
3558.9099 3066.4299 40.795399 1.8403113e-38
-996.86798 1185.25 51.968498 1.8403113e-38
-987.401 1184.8 50.484798 1.8403113e-38
-996.56 1207.17 59.280602 1.8403113e-38
-230.03999 1511.3199 53.251499 1.8403113e-38
-225.47099 1511.96 52.822498 1.8403113e-38
-217.27899 1532.27 58.483051 1.8403113e-38
3598.01 3129.23 56.3512 1.8403113e-38
-993.646 1214.3199 61.270401 1.8403113e-38
-997.27802 1233.77 68.308502 1.8403113e-38
-490.785 1447.74 68.687599 1.8403113e-38
-237.57201 1529.46 60.401798 1.8403113e-38
-233.119 1535.1899 61.6968 1.8403113e-38
-240.058 1543.1899 65.359703 1.8403113e-38
-233.006 1545.3 65.072899 1.8403113e-38
-240.974 1555.1 69.483803 1.8403113e-38
-238.931 1553.86 68.779404 1.8403113e-38
3601.3601 3143.26 60.5868 1.8403113e-38
-1001.34 1237.21 70.035896 1.8403113e-38
-994.92297 1264.1699 78.176254 1.8403113e-38
-426.086 1481.62 70.932701 1.8403113e-38
-286.60599 1552.14 74.926598 1.8403113e-38
-277.69101 1554.83 74.571297 1.8403113e-38
-264.54599 1552.77 72.025398 1.8403113e-38
-256.55701 1555.13 71.690903 1.8403113e-38
3611.1101 3196.51 77.081703 1.8403113e-38
-995.185 1287.38 86.002502 1.8403113e-38
-998.17102 1291.3101 87.740601 1.8403113e-38
3611.3701 3209.5901 81.435097 1.8403113e-38
-983.25299 1318.4399 94.740898 1.8403113e-38
-749.90698 1428.52 98.775398 1.8403113e-38
3612.5901 3260.3201 98.284401 1.8403113e-38
-522.93903 1543.21 105.255 1.8403113e-38
-517.70398 1548.74 106.37 1.8403113e-38
3612.5801 3273.47 102.7 1.8403113e-38
-519.39502 1560.45 110.538 1.8403113e-38
