# .PCD v0.7 - Point Cloud Data file format
VERSION 0.7
FIELDS x y z rgb
SIZE 4 4 4 4
TYPE F F F F
COUNT 1 1 1 1
WIDTH 356
HEIGHT 1
VIEWPOINT 0 0 0 1 0 0 0
POINTS 356
DATA ascii
2961.4299 921.72498 -295.56299 1.8403113e-38
2988.53 937.17999 -295.97 1.8403113e-38
3009.71 954.07397 -294.79999 1.8403113e-38
3046.3999 970.159 -296.84799 1.8403113e-38
3071.26 987.83197 -296.14099 1.8403113e-38
3094.95 1005.04 -295.353 1.8403113e-38
3111.6699 1023.47 -292.854 1.8403113e-38
3130.1699 1041.3 -290.87799 1.8403113e-38
877.00201 -318.76599 -280.20999 1.8403113e-38
901.49902 -308.69501 -281.785 1.8403113e-38
937.797 -280.875 -280.12799 1.8403113e-38
949.80902 -275.866 -280.879 1.8403113e-38
961.10303 -273.64301 -282.354 1.8403113e-38
984.23297 -256.47101 -281.47 1.8403113e-38
995.88397 -254.89799 -283.215 1.8403113e-38
1018.24 -236.229 -281.72 1.8403113e-38
1029.12 -233.464 -282.94699 1.8403113e-38
1040.3199 -225.799 -282.72 1.8403113e-38
1050.89 -219.05299 -282.65799 1.8403113e-38
1061.74 -209.317 -281.72198 1.8403113e-38
1071.76 -197.66299 -280.035 1.8403113e-38
1082.76 -194.416 -281.13901 1.8403113e-38
1113.4 -173.88901 -280.65399 1.8403113e-38
1133.85 -162.944 -281.18399 1.8403113e-38
1173.51 -138.256 -281.14001 1.8403113e-38
1192.8 -125.475 -280.879 1.8403113e-38
1212.27 -115.202 -281.42899 1.8403113e-38
1230.47 -100.011 -280.215 1.8403113e-38
1251.04 -96.540398 -283.08099 1.8403113e-38
1259.33 -85.422798 -281.22699 1.8403113e-38
1279.23 -79.637299 -283.24799 1.8403113e-38
1286.9 -69.410301 -281.55301 1.8403113e-38
1297.23 -67.1642 -282.83701 1.8403113e-38
1305.47 -59.552399 -282.06 1.8403113e-38
1316.29 -58.9496 -283.944 1.8403113e-38
1322.12 -44.013302 -280.439 1.8403113e-38
1332.5601 -42.359901 -281.92599 1.8403113e-38
1341.33 -37.2066 -282.01199 1.8403113e-38
1350.8199 -32.705002 -282.43701 1.8403113e-38
1360.74 -30.969 -283.79999 1.8403113e-38
1368.23 -20.999701 -282.14899 1.8403113e-38
1377.1 -16.467899 -282.44501 1.8403113e-38
1386.72 -12.5568 -283.078 1.8403113e-38
1396.2 -9.6325397 -283.98901 1.8403113e-38
1403.64 -0.330053 -282.534 1.8403113e-38
1412.67 3.6031599 -283.047 1.8403113e-38
1422.13 7.8133502 -283.55499 1.8403113e-38
1431.1 11.8957 -284.01001 1.8403113e-38
1440.48 16.2619 -284.457 1.8403113e-38
1445.04 29.8804 -281.11499 1.8403113e-38
1453.87 35.208 -281.15701 1.8403113e-38
1464.25 36.156399 -282.853 1.8403113e-38
1473.4301 40.798302 -283.17401 1.8403113e-38
1482.99 43.613602 -284.133 1.8403113e-38
1502.52 49.7379 -285.979 1.8403113e-38
1490.37 51.7495 -283.03 1.8403113e-38
1503.95 68.737297 -280.37299 1.8403113e-38
1514.7 69.360901 -282.23999 1.8403113e-38
1526.85 68.706802 -284.76999 1.8403113e-38
1532.5 78.501701 -282.82101 1.8403113e-38
1538.92 87.755302 -281.18701 1.8403113e-38
1549.6801 88.747398 -282.94 1.8403113e-38
1561.88 88.512703 -285.349 1.8403113e-38
1569.2 95.301498 -284.64999 1.8403113e-38
1575.84 103.984 -283.23599 1.8403113e-38
1588.17 103.012 -285.89801 1.8403113e-38
1597.84 107.137 -286.47299 1.8403113e-38
1604.95 114.177 -285.65701 1.8403113e-38
1612.9399 120.773 -285.146 1.8403113e-38
1622.09 124.849 -285.638 1.8403113e-38
1632.1899 128.537 -286.42999 1.8403113e-38
1640.1899 134.299 -286.17899 1.8403113e-38
1648.55 140.42101 -285.88501 1.8403113e-38
1656.45 146.313 -285.57599 1.8403113e-38
1664.71 152.57001 -285.22101 1.8403113e-38
1674.28 156.38699 -285.87299 1.8403113e-38
1686.3049 165.87201 -285.241 1.8403113e-38
1703.88 176.4915 -285.3205 1.8403113e-38
1716.29 185.621 -284.87201 1.8403113e-38
1723.2 192.75301 -283.98901 1.8403113e-38
1732.96 197.48 -284.396 1.8403113e-38
1739.76 204.733 -283.45401 1.8403113e-38
1750.75 208.265 -284.466 1.8403113e-38
1761.38 211.58 -285.47601 1.8403113e-38
1767.76 220.05901 -284.07401 1.8403113e-38
1784.495 224.882 -285.78699 1.8403113e-38
1794.49 236.52299 -284.09799 1.8403113e-38
1806.09 240.04601 -285.229 1.8403113e-38
1818.72 242.06 -287.02701 1.8403113e-38
1824.08 251.58501 -285.104 1.8403113e-38
1836.71 253.841 -286.827 1.8403113e-38
1844.0601 261.60999 -285.82901 1.8403113e-38
1848.13 271.52802 -283.539 1.8403113e-38
1863.25 272.67599 -286.08099 1.8403113e-38
1871.55 279.073 -285.69 1.8403113e-38
3143.6399 1060.21 -287.60501 1.8403113e-38
3149.0601 1078.1899 -283.07901 1.8403113e-38
215.75 -699.37799 -271.34201 1.8403113e-38
289.15701 -650.422 -270.25201 1.8403113e-38
310.12299 -639.12799 -270.77301 1.8403113e-38
331.93399 -626.948 -271.181 1.8403113e-38
353.85599 -611.57703 -270.62299 1.8403113e-38
374.78 -599.84399 -271 1.8403113e-38
392.37399 -594.078 -272.58499 1.8403113e-38
412.19699 -583.76501 -273.19101 1.8403113e-38
431.116 -573.04901 -273.49799 1.8403113e-38
449.23599 -566.021 -274.79401 1.8403113e-38
468.064 -554.01099 -274.68399 1.8403113e-38
487.936 -540.138 -274.19699 1.8403113e-38
503.93399 -535.172 -275.724 1.8403113e-38
522.20001 -524.63898 -275.96301 1.8403113e-38
540.69299 -510.04401 -274.98801 1.8403113e-38
556.086 -507.54999 -277.16501 1.8403113e-38
573.091 -496.35501 -276.957 1.8403113e-38
591.03802 -483.25601 -276.341 1.8403113e-38
605.651 -479.24301 -277.89801 1.8403113e-38
622.23401 -469.578 -278.08301 1.8403113e-38
639.56897 -453.047 -276.28799 1.8403113e-38
655.49103 -444.005 -276.539 1.8403113e-38
670.18298 -436.60199 -277.06299 1.8403113e-38
684.55902 -432.94699 -278.685 1.8403113e-38
700.92902 -415.81201 -276.51801 1.8403113e-38
715.39502 -409.98901 -277.487 1.8403113e-38
729.30298 -403.009 -277.98999 1.8403113e-38
744.534 -391.22699 -277.26099 1.8403113e-38
757.65997 -386.85199 -278.422 1.8403113e-38
771.61499 -380.51901 -279.13501 1.8403113e-38
786.40698 -363.52701 -276.70901 1.8403113e-38
799.62402 -359.806 -278.08899 1.8403113e-38
812.29401 -354.97198 -279.01999 1.8403113e-38
826.99103 -337.655 -276.47601 1.8403113e-38
839.052 -335.465 -278.10901 1.8403113e-38
852.06403 -329.379 -278.71701 1.8403113e-38
864.10303 -326.02701 -279.98599 1.8403113e-38
889.409 -308.51501 -279.414 1.8403113e-38
913.98199 -292.50201 -279.16501 1.8403113e-38
926.32098 -284.823 -279.15201 1.8403113e-38
973.14001 -256.966 -279.49799 1.8403113e-38
1006.73 -235.12399 -279.17401 1.8403113e-38
1091.99 -176.933 -277.495 1.8403113e-38
1103.05 -176.36501 -279.43799 1.8403113e-38
1123.5 -164.63901 -279.72601 1.8403113e-38
1143.36 -150.72099 -279.22198 1.8403113e-38
1152.9399 -144.17101 -279.03 1.8403113e-38
1162.51 -134.64 -277.914 1.8403113e-38
1182.9 -128.576 -279.94299 1.8403113e-38
1202.12 -116.595 -279.91699 1.8403113e-38
1220.8199 -103.406 -279.41599 1.8403113e-38
1239.76 -92.719803 -279.737 1.8403113e-38
1267.41 -76.233597 -279.93201 1.8403113e-38
3148.4299 1096.91 -277.16599 1.8403113e-38
3156.48 1115.13 -273.06799 1.8403113e-38
64.676598 -782.96802 -268.27399 1.8403113e-38
92.733704 -766.40601 -268.52301 1.8403113e-38
123.607 -741.27698 -266.659 1.8403113e-38
150.035 -725.81403 -266.936 1.8403113e-38
175.814 -708.862 -266.62799 1.8403113e-38
199.104 -698.14099 -267.771 1.8403113e-38
243.438 -677.45398 -269.86099 1.8403113e-38
268.021 -659.43903 -268.99399 1.8403113e-38
1844.22 315.198 -269.27499 1.8403113e-38
3165.3601 1134.4399 -268.79199 1.8403113e-38
3172.1001 1152.85 -264.38501 1.8403113e-38
62.285801 -751.71301 -258.14301 1.8403113e-38
3176.7 1172.14 -259.298 1.8403113e-38
3174.26 1190.01 -253.299 1.8403113e-38
62.433998 -714.97498 -246.802 1.8403113e-38
3187.3601 1210.1801 -249.56599 1.8403113e-38
3186.5701 1228.29 -243.81 1.8403113e-38
3453.23 1380.73 -247.711 1.8403113e-38
3483.21 1407.12 -245.287 1.8403113e-38
69.120903 -669.20398 -233.91701 1.8403113e-38
1778.28 380.517 -236.42799 1.8403113e-38
3196.3601 1248.46 -239.44299 1.8403113e-38
3200.1499 1267.1899 -234.37 1.8403113e-38
3216.45 1288.51 -230.896 1.8403113e-38
3472.03 1426.1 -237.27 1.8403113e-38
3477.1399 1448.86 -231.20399 1.8403113e-38
71.9814 -630.15601 -222.38 1.8403113e-38
1764.33 403.47699 -226.64999 1.8403113e-38
1765.48 413.66 -223.71899 1.8403113e-38
1765.27 425.28799 -220.08099 1.8403113e-38
3215.96 1306.95 -225.09599 1.8403113e-38
3223.05 1327.42 -220.12 1.8403113e-38
3470.48 1468.53 -223.842 1.8403113e-38
74.702301 -594.16699 -211.763 1.8403113e-38
1761.6 438.772 -215.205 1.8403113e-38
1777.1801 438.54401 -218.259 1.8403113e-38
1788.7 440.94601 -219.72301 1.8403113e-38
3478.1001 1491.95 -218.052 1.8403113e-38
3468.1499 1510.9399 -210.269 1.8403113e-38
72.843102 -565.62903 -202.575 1.8403113e-38
3472.4399 1533.89 -203.989 1.8403113e-38
75.121803 -532.42102 -192.73399 1.8403113e-38
1734.46 490.048 -194.136 1.8403113e-38
3485.4199 1557.8199 -199.069 1.8403113e-38
3505.72 1584.78 -194.612 1.8403113e-38
74.7108 -503.20801 -183.614 1.8403113e-38
1725.26 506.13699 -187.394 1.8403113e-38
1735.74 509.09201 -188.48801 1.8403113e-38
1723.8101 526.5 -180.815 1.8403113e-38
1749.0699 539.185 -181.728 1.8403113e-38
3508.54 1606.9399 -188.295 1.8403113e-38
3512.8799 1630.6801 -181.77901 1.8403113e-38
67.103302 -487.87 -177.41 1.8403113e-38
58.0201 -473.81799 -171.321 1.8403113e-38
1728.59 533.13898 -179.677 1.8403113e-38
1715.4399 550.68903 -171.72501 1.8403113e-38
1737.28 555.59998 -174.38901 1.8403113e-38
3517.21 1653.48 -175.552 1.8403113e-38
-0.77063102 -483.14401 -162.946 1.8403113e-38
16.2012 -483.98999 -166.459 1.8403113e-38
34.835602 -483.36301 -169.834 1.8403113e-38
1708.29 582.31897 -160.56599 1.8403113e-38
3523.02 1677.9301 -169.09801 1.8403113e-38
3516.3501 1698.0601 -161.592 1.8403113e-38
-35.465302 -480.535 -155.493 1.8403113e-38
-50.907398 -475.51401 -150.981 1.8403113e-38
-16.1991 -478.461 -158.54201 1.8403113e-38
1700.02 595.685 -154.84599 1.8403113e-38
3524.5801 1723.46 -155.30701 1.8403113e-38
-72.600098 -480.41501 -148.343 1.8403113e-38
-107.021 -475.49701 -140.22701 1.8403113e-38
-86.329102 -472.63 -143.304 1.8403113e-38
1689.27 610.59003 -148.174 1.8403113e-38
1685.04 625.28149 -142.817 1.8403113e-38
2235.0901 943.229 -149.77699 1.8403113e-38
3528.03 1746.6 -148.80701 1.8403113e-38
3533.8501 1771.72 -142.145 1.8403113e-38
-124.874 -472.94501 -136.01801 1.8403113e-38
-139.711 -467.48801 -131.487 1.8403113e-38
1671.3 644.73901 -134.164 1.8403113e-38
3534 1794.1801 -135.224 1.8403113e-38
-957.08002 -967.21301 -129.57899 1.8403113e-38
-961.422 -939.95203 -120.311 1.8403113e-38
-201.481 -469.42801 -120.255 1.8403113e-38
-178.54601 -466.578 -123.766 1.8403113e-38
-157.58099 -464.57199 -127.161 1.8403113e-38
1656.39 660.61401 -126.393 1.8403113e-38
2020.49 874.60101 -129.911 1.8403113e-38
2018.26 883.67798 -126.674 1.8403113e-38
2017.95 892.90997 -123.758 1.8403113e-38
3535.53 1818.3199 -128.047 1.8403113e-38
3538.0801 1841.78 -121.273 1.8403113e-38
-959.82599 -905.67999 -110.01 1.8403113e-38
-243.267 -470.19199 -112.487 1.8403113e-38
-224.541 -473.23901 -117.018 1.8403113e-38
1639.36 676.77698 -118.129 1.8403113e-38
1635.04 686.45697 -114.306 1.8403113e-38
1639.87 691.11603 -113.789 1.8403113e-38
1648.27 694.453 -114.366 1.8403113e-38
1647.85 701.685 -112.048 1.8403113e-38
2010.6899 902.40002 -119.429 1.8403113e-38
2012.14 911.336 -116.942 1.8403113e-38
2010.53 920.10602 -113.919 1.8403113e-38
2024.49 928.02899 -114.141 1.8403113e-38
2039.3199 935.672 -114.616 1.8403113e-38
2072.71 942.84698 -118.792 1.8403113e-38
3548.5901 1869.23 -114.79 1.8403113e-38
-306.85599 -470.50699 -100.405 1.8403113e-38
-265.89301 -472.728 -108.938 1.8403113e-38
-282.76099 -466.97 -103.925 1.8403113e-38
1637.9399 713.547 -106.478 1.8403113e-38
1643.4399 717.88501 -106.189 1.8403113e-38
1632.38 729.854 -100.366 1.8403113e-38
1738.12 774.534 -106.792 1.8403113e-38
1740.5 780.84601 -105.296 1.8403113e-38
1751.28 785.03101 -106.065 1.8403113e-38
1746.16 793.57202 -102.44 1.8403113e-38
1762.46 796.39801 -104.688 1.8403113e-38
1757.2 804.89801 -101.049 1.8403113e-38
1767.86 809.505 -101.667 1.8403113e-38
1840.6801 852.95398 -102.168 1.8403113e-38
1869.13 863.41199 -104.381 1.8403113e-38
1870.8 870.76398 -102.425 1.8403113e-38
1894.63 875.20099 -105.616 1.8403113e-38
1898.13 882.48798 -104.032 1.8403113e-38
3549.72 1892.6 -107.774 1.8403113e-38
3551.22 1917.41 -100.384 1.8403113e-38
-953.38599 -868.86603 -99.849701 1.8403113e-38
-958.065 -841.79797 -90.576401 1.8403113e-38
-348.70599 -468.073 -91.635101 1.8403113e-38
-325.745 -466.55701 -95.563797 1.8403113e-38
1633.35 736.06299 -98.6297 1.8403113e-38
1633.0349 746.35553 -95.384354 1.8403113e-38
1638.8199 754.12 -94.090103 1.8403113e-38
1635.0699 762.03302 -90.922699 1.8403113e-38
1653.41 775.17603 -90.366798 1.8403113e-38
1673.6899 781.50098 -92.294296 1.8403113e-38
1680.5699 785.78601 -92.286102 1.8403113e-38
1761.51 818.14697 -97.7742 1.8403113e-38
1769.27 823.60602 -97.572304 1.8403113e-38
1762.75 832.10602 -93.691704 1.8403113e-38
1785.5601 834.32202 -97.375298 1.8403113e-38
1787.4399 840.99597 -95.6707 1.8403113e-38
1813.13 843.20398 -99.908997 1.8403113e-38
1813.05 850.47101 -97.642998 1.8403113e-38
1833.8101 861.59003 -98.179398 1.8403113e-38
3550.9399 1940.5601 -93.167297 1.8403113e-38
-950.70502 -805.33099 -80.699898 1.8403113e-38
-400.991 -475.55099 -83.933998 1.8403113e-38
-371.71301 -468.04999 -87.220901 1.8403113e-38
1635.85 768.44598 -89.086304 1.8403113e-38
1633.73 775.55902 -86.478897 1.8403113e-38
1647.5601 783.60602 -86.6381 1.8403113e-38
3560.3701 1968.63 -86.284203 1.8403113e-38
-958.28998 -781.82098 -71.970901 1.8403113e-38
-478.10501 -506.741 -78.815903 1.8403113e-38
-426.97299 -477.79501 -79.651703 1.8403113e-38
3560.54 1992.29 -78.994301 1.8403113e-38
3568.46 2020.33 -71.833099 1.8403113e-38
-964.11401 -758.40698 -63.6092 1.8403113e-38
3577.4099 2047.88 -65.020798 1.8403113e-38
-973.37201 -736.87903 -55.172901 1.8403113e-38
3576.4199 2072.8799 -57.093201 1.8403113e-38
-1030.5601 -728.98999 -41.777302 1.8403113e-38
-995.94202 -728.58099 -48.281399 1.8403113e-38
3576.51 2097.26 -49.567402 1.8403113e-38
3584.1899 2126.3 -42.0504 1.8403113e-38
-1062.3 -727.81897 -35.3349 1.8403113e-38
3590.1699 2153.6699 -34.724899 1.8403113e-38
-1097.92 -727.96802 -28.557301 1.8403113e-38
3578.0901 2174.46 -25.9779 1.8403113e-38
-1117.46 -686.35699 -11.9372 1.8403113e-38
-1214.3101 -735.32098 -8.5398502 1.8403113e-38
-855.42499 -501.41 -4.8905501 1.8403113e-38
3340.3 2090.1101 -6.5354199 1.8403113e-38
-1177.12 -676.427 2.5643799 1.8403113e-38
3305.21 2097.6499 2.5225101 1.8403113e-38
3268.76 2102.8799 11.121 1.8403113e-38
3255.26 2119.9299 18.984501 1.8403113e-38
-841.50403 -392.07001 26.282301 1.8403113e-38
3228.6399 2129.1799 26.948299 1.8403113e-38
3211.3501 2143.98 34.838402 1.8403113e-38
-564.18597 -159.388 45.174702 1.8403113e-38
3201.49 2161.3401 42.100899 1.8403113e-38
-534.10303 -98.069397 58.389599 1.8403113e-38
-506.11499 -97.097801 53.329201 1.8403113e-38
3178.6599 2172.9299 50.060699 1.8403113e-38
3171.1799 2191.4299 57.217602 1.8403113e-38
-576.39203 -109.721 62.8839 1.8403113e-38
-586.67297 -97.151703 68.743401 1.8403113e-38
3156.9199 2207.3601 64.8787 1.8403113e-38
-607.09302 -92.496201 74.095497 1.8403113e-38
3153.47 2228.1399 71.971298 1.8403113e-38
3151.05 2250.8 79.448997 1.8403113e-38
-589.05798 -60.576302 80.519798 1.8403113e-38
-576.82098 -34.089199 86.373299 1.8403113e-38
3142.8401 2269.0801 86.679604 1.8403113e-38
-579.72699 -17.077999 92.194801 1.8403113e-38
-583.71698 -1.79785 97.688103 1.8403113e-38
3142.54 2293.29 94.231003 1.8403113e-38
-580.33899 18.9244 103.454 1.8403113e-38
-603.52399 22.047701 108.862 1.8403113e-38
3136.5 2313.0701 101.508 1.8403113e-38
3138.24 2338.95 109.185 1.8403113e-38
