# .PCD v0.7 - Point Cloud Data file format
VERSION 0.7
FIELDS x y z rgb
SIZE 4 4 4 4
TYPE F F F F
COUNT 1 1 1 1
WIDTH 346
HEIGHT 1
VIEWPOINT 0 0 0 1 0 0 0
POINTS 346
DATA ascii
1764.09 -3.31113 -280.09601 1.8403113e-38
1772.76 2.2390001 -280.02301 1.8403113e-38
1794.585 14.92045 -280.24298 1.8403113e-38
1834.6 37.792801 -280.763 1.8403113e-38
1842.33 44.665901 -280.10199 1.8403113e-38
1970.1801 121.308 -280.659 1.8403113e-38
1998.59 138.336 -280.784 1.8403113e-38
2035.8 163.09399 -280.185 1.8403113e-38
2076.4099 186.808 -280.55701 1.8403113e-38
2107.3501 205.653 -280.60001 1.8403113e-38
1049.16 -409.853 -270.146 1.8403113e-38
1071.84 -395.841 -270.116 1.8403113e-38
1094.05 -385.29099 -271.069 1.8403113e-38
1126.34 -365.01099 -270.92401 1.8403113e-38
1158.22 -344.89099 -270.75 1.8403113e-38
1247.9399 -288.01901 -270.18201 1.8403113e-38
1267.48 -278.52701 -270.95599 1.8403113e-38
1286.76 -268.73499 -271.58801 1.8403113e-38
1296.38 -262.741 -271.56 1.8403113e-38
1305.42 -256.79001 -271.435 1.8403113e-38
1314.6899 -249.728 -271.00699 1.8403113e-38
1323.95 -245.49899 -271.45801 1.8403113e-38
1333.03 -238.30299 -270.95401 1.8403113e-38
1342.59 -235.778 -271.98999 1.8403113e-38
1355.5701 -224.36099 -270.918 1.8403113e-38
1370.6899 -221.97 -273.05499 1.8403113e-38
1380.13 -219.142 -273.97299 1.8403113e-38
1387.98 -208.81599 -272.26401 1.8403113e-38
1398.35 -209.476 -274.444 1.8403113e-38
1406.8101 -201.75101 -273.65601 1.8403113e-38
1416.08 -198.633 -274.453 1.8403113e-38
1423.78 -188.991 -272.92801 1.8403113e-38
1433.83 -188.425 -274.66599 1.8403113e-38
1444.0699 -186.70399 -276.07999 1.8403113e-38
1451.36 -177.95 -274.75101 1.8403113e-38
1460.9 -174.298 -275.43399 1.8403113e-38
1468.3101 -166.332 -274.37399 1.8403113e-38
1478.42 -164.297 -275.668 1.8403113e-38
1486.02 -157.10001 -274.88101 1.8403113e-38
1493.27 -147.92 -273.41299 1.8403113e-38
1504.27 -149.33 -275.944 1.8403113e-38
1514.3101 -146.965 -277.12 1.8403113e-38
1518.63 -132.63499 -273.49799 1.8403113e-38
1527.79 -128.422 -273.93301 1.8403113e-38
1537.25 -126.049 -274.99799 1.8403113e-38
1545.55 -119.974 -274.694 1.8403113e-38
1554.17 -115.748 -275.022 1.8403113e-38
1563.1801 -111.235 -275.33801 1.8403113e-38
1569.1899 -101.83 -273.564 1.8403113e-38
1575.0699 -91.344803 -271.42899 1.8403113e-38
1586.51 -92.708603 -274.03101 1.8403113e-38
1597.5601 -92.061203 -275.93301 1.8403113e-38
1607.3101 -89.887299 -277.11499 1.8403113e-38
1615.1899 -83.287399 -276.56601 1.8403113e-38
1623.52 -78.502899 -276.66599 1.8403113e-38
1630.79 -70.975601 -275.715 1.8403113e-38
1641.91 -70.9011 -277.81 1.8403113e-38
1649.08 -63.244801 -276.79901 1.8403113e-38
1658.74 -60.578701 -277.81 1.8403113e-38
1667.8 -55.975601 -278.10599 1.8403113e-38
1675.91 -50.768902 -278.034 1.8403113e-38
1681.25 -40.5373 -275.87701 1.8403113e-38
1692.4 -39.891399 -277.798 1.8403113e-38
1702.92 -37.304199 -278.99799 1.8403113e-38
1711.96 -33.351101 -279.49301 1.8403113e-38
1719.74 -26.745199 -278.92401 1.8403113e-38
1728.17 -21.8804 -279.01901 1.8403113e-38
1738.09 -18.1586 -279.75299 1.8403113e-38
1745.9 -12.3886 -279.448 1.8403113e-38
1751.73 -3.2937 -277.73801 1.8403113e-38
1779.8 9.0118504 -279.263 1.8403113e-38
1805.02 26.0002 -278.79199 1.8403113e-38
1814.34 30.191401 -279.26599 1.8403113e-38
1823.4 35.496498 -279.34299 1.8403113e-38
1849.63 51.267899 -279.44299 1.8403113e-38
1857.24 58.264599 -278.72101 1.8403113e-38
1863.1 66.3209 -277.33701 1.8403113e-38
1875.9399 68.125603 -279.22198 1.8403113e-38
1885.76 72.367203 -279.77399 1.8403113e-38
1894.5601 78.366203 -279.58801 1.8403113e-38
1903.65 83.450401 -279.742 1.8403113e-38
1907.52 94.091103 -277.17599 1.8403113e-38
1919.3199 96.7836 -278.58701 1.8403113e-38
1931.5 99.9832 -279.91199 1.8403113e-38
1938.35 107.296 -278.948 1.8403113e-38
1945.49 115.035 -277.905 1.8403113e-38
1956.5601 118.817 -278.84 1.8403113e-38
1976.86 128.931 -279.56601 1.8403113e-38
1985.3 135.82001 -279.035 1.8403113e-38
2006.22 146.00999 -279.85599 1.8403113e-38
2010.4301 155.62 -277.67499 1.8403113e-38
2021.74 160.599 -278.28299 1.8403113e-38
2047.155 174.66 -278.758 1.8403113e-38
2058.3999 186.37801 -277.263 1.8403113e-38
2082.0801 196.22501 -278.71399 1.8403113e-38
2092.1599 202.17799 -278.78601 1.8403113e-38
2111.74 215.36501 -278.42099 1.8403113e-38
421.85101 -769.88599 -262.444 1.8403113e-38
447.44199 -747.72198 -260.439 1.8403113e-38
464.694 -743.20001 -262.32001 1.8403113e-38
487.815 -725.07202 -261.09601 1.8403113e-38
504.03601 -722.00098 -263.23099 1.8403113e-38
523.54498 -711.65698 -263.73499 1.8403113e-38
542.82397 -699.08002 -263.50201 1.8403113e-38
562.52301 -686.495 -263.34698 1.8403113e-38
579.117 -679.98199 -264.48499 1.8403113e-38
598.05798 -667.93597 -264.353 1.8403113e-38
614.32599 -661.091 -265.32599 1.8403113e-38
633.11902 -647.75 -264.76401 1.8403113e-38
647.92401 -644.30298 -266.513 1.8403113e-38
666.82501 -628.74402 -265.28299 1.8403113e-38
683.20697 -618.461 -265.211 1.8403113e-38
699.77002 -609.09003 -265.45599 1.8403113e-38
714.77399 -602.24701 -266.189 1.8403113e-38
730.98602 -592.56799 -266.272 1.8403113e-38
746.61298 -581.67902 -265.86801 1.8403113e-38
761.10199 -577.349 -267.28201 1.8403113e-38
775.73499 -569.01001 -267.48001 1.8403113e-38
791.43799 -557.79797 -266.991 1.8403113e-38
804.15399 -556.76099 -269.08899 1.8403113e-38
821.21503 -536.745 -266.12701 1.8403113e-38
833.52802 -536.414 -268.36801 1.8403113e-38
849.34198 -519.90302 -266.255 1.8403113e-38
861.97498 -516.49103 -267.60101 1.8403113e-38
875.75299 -509.22501 -267.96899 1.8403113e-38
889.09497 -499.87601 -267.608 1.8403113e-38
902.44299 -493.32101 -268.11499 1.8403113e-38
915.08301 -486.60501 -268.43799 1.8403113e-38
928.30402 -478.867 -268.55399 1.8403113e-38
940.58099 -472.89001 -269.03601 1.8403113e-38
953.43103 -465.884 -269.30801 1.8403113e-38
965.96002 -454.92099 -268.29099 1.8403113e-38
978.69098 -445.78601 -267.88101 1.8403113e-38
989.99298 -445.13599 -269.82999 1.8403113e-38
1002.61 -433.88 -268.73999 1.8403113e-38
1014.11 -428.255 -269.18301 1.8403113e-38
1026.27 -418.70999 -268.53699 1.8403113e-38
1037.45 -414.81 -269.45499 1.8403113e-38
1060.47 -396.207 -268.065 1.8403113e-38
1082.77 -384.89001 -268.798 1.8403113e-38
1104.61 -362.716 -266.07599 1.8403113e-38
1115.76 -365.79999 -269.155 1.8403113e-38
1137.09 -353.60901 -269.431 1.8403113e-38
1147.27 -345.98599 -269.00601 1.8403113e-38
1167.9301 -332.35999 -268.70999 1.8403113e-38
1177.67 -315.90601 -265.45901 1.8403113e-38
1187.77 -313.68201 -266.69101 1.8403113e-38
1198.27 -310.358 -267.65799 1.8403113e-38
1207.84 -303.23999 -267.271 1.8403113e-38
1218.3199 -300.69601 -268.47699 1.8403113e-38
1228.37 -299.09 -269.89301 1.8403113e-38
1238.09 -290.724 -269.147 1.8403113e-38
1257.3101 -278.57101 -269.034 1.8403113e-38
1276.63 -268.94101 -269.72501 1.8403113e-38
81.3582 -950.35602 -253.62601 1.8403113e-38
115.527 -925.505 -252.42 1.8403113e-38
143.272 -909.38397 -252.69901 1.8403113e-38
171.896 -892.42401 -252.886 1.8403113e-38
197.147 -879.14801 -253.573 1.8403113e-38
221.067 -869.41699 -255.10699 1.8403113e-38
245.34599 -856.46802 -255.711 1.8403113e-38
273.535 -836.50702 -254.883 1.8403113e-38
291.272 -835.38202 -257.91 1.8403113e-38
318.40701 -815.72998 -256.978 1.8403113e-38
339.125 -807.06799 -258.23401 1.8403113e-38
363.16501 -792.20099 -258.19699 1.8403113e-38
383.83801 -782.18799 -259.02499 1.8403113e-38
406.15201 -769.51099 -259.34 1.8403113e-38
78.4814 -921.40302 -244.09599 1.8403113e-38
80.297401 -883.62598 -232.722 1.8403113e-38
83.954002 -845.52301 -221.597 1.8403113e-38
82.864098 -814.76501 -211.847 1.8403113e-38
81.911201 -786.15503 -202.78999 1.8403113e-38
84.937202 -750.56799 -192.325 1.8403113e-38
92.414902 -710.53699 -181.32899 1.8403113e-38
91.171303 -683.53497 -172.716 1.8403113e-38
96.488701 -648.78198 -162.946 1.8403113e-38
3499.4099 1443.0699 -161.661 1.8403113e-38
91.676697 -628.51898 -155.744 1.8403113e-38
1792.59 420.26099 -154.112 1.8403113e-38
3506.51 1466.6801 -155.68401 1.8403113e-38
93.990601 -599.72101 -147.25 1.8403113e-38
3503.98 1486.87 -148.942 1.8403113e-38
3507.76 1509.9 -142.51601 1.8403113e-38
90.986397 -577.92999 -139.918 1.8403113e-38
91.7929 -552.55103 -132.198 1.8403113e-38
1760.5 447.53299 -139.541 1.8403113e-38
1748.74 462.58701 -132.634 1.8403113e-38
1748.1899 470.54599 -130.06 1.8403113e-38
3511.55 1532.02 -136.373 1.8403113e-38
84.774597 -537.26501 -126.12 1.8403113e-38
1747.72 478.74301 -127.428 1.8403113e-38
1733.5601 493.88199 -120.037 1.8403113e-38
3512.96 1554.67 -129.616 1.8403113e-38
3513.47 1576.09 -123.067 1.8403113e-38
87.429298 -510.42999 -118.3 1.8403113e-38
55.7925 -505.40701 -110.72 1.8403113e-38
71.932999 -507.01501 -114.291 1.8403113e-38
1713.4399 512.14203 -110.541 1.8403113e-38
3527.75 1603.01 -117.433 1.8403113e-38
3531.6001 1625.85 -111.082 1.8403113e-38
38.4394 -503.99701 -106.98 1.8403113e-38
24.093399 -499.707 -102.918 1.8403113e-38
1716.58 517.43799 -109.496 1.8403113e-38
1715.58 525.18701 -106.902 1.8403113e-38
1719.47 530.06897 -106.127 1.8403113e-38
1720.89 536.51001 -104.399 1.8403113e-38
3532.1001 1648.84 -104.043 1.8403113e-38
-7.02039 -492.55899 -94.778603 1.8403113e-38
7.94239 -496.39001 -98.815002 1.8403113e-38
-23.180901 -488.89801 -90.567001 1.8403113e-38
1702.38 555.42749 -95.007355 1.8403113e-38
1707.02 563.14203 -93.496696 1.8403113e-38
1705.46 570.55603 -90.9011 1.8403113e-38
1769.52 611.44098 -90.407997 1.8403113e-38
1791.95 610.52301 -94.962799 1.8403113e-38
1801.73 614.37201 -95.629997 1.8403113e-38
1791.12 624.34302 -90.5168 1.8403113e-38
3531.73 1670.5601 -97.234802 1.8403113e-38
3533.6599 1694.3 -90.237602 1.8403113e-38
-43.306801 -490.78799 -87.3228 1.8403113e-38
-58.8699 -485.98901 -82.871696 1.8403113e-38
1701.9301 578.41101 -87.791901 1.8403113e-38
1708.16 582.354 -87.753502 1.8403113e-38
1710.6899 587.57001 -86.616203 1.8403113e-38
1709.73 594.49402 -84.285797 1.8403113e-38
1733.5801 594.73047 -88.752396 1.8403113e-38
1734.11 604.15802 -85.9291 1.8403113e-38
1742.92 607.57898 -86.543297 1.8403113e-38
1750.6899 611.16803 -86.9095 1.8403113e-38
1781.41 634.12799 -85.632797 1.8403113e-38
1791.86 637.5 -86.575699 1.8403113e-38
1784.74 646.29199 -82.493599 1.8403113e-38
3535.6799 1717.12 -83.5438 1.8403113e-38
-118.467 -486.93399 -71.821701 1.8403113e-38
-96.717102 -484.48001 -75.199997 1.8403113e-38
-75.838898 -483.71201 -78.935501 1.8403113e-38
1776.48 654.89801 -78.251404 1.8403113e-38
1772.875 665.50598 -74.2742 1.8403113e-38
3545.5701 1744.11 -77.049202 1.8403113e-38
3547.1101 1767.14 -70.197998 1.8403113e-38
-154.64101 -481.875 -63.366901 1.8403113e-38
-134.106 -481.35199 -67.113197 1.8403113e-38
1767.22 676.42102 -69.812599 1.8403113e-38
1765.585 686.02246 -66.521103 1.8403113e-38
1765.71 695.15002 -63.713799 1.8403113e-38
1767.35 701.07098 -62.189301 1.8403113e-38
3548.0601 1791.25 -62.902199 1.8403113e-38
-199.28 -484.526 -55.693298 1.8403113e-38
-176.498 -482.371 -59.360699 1.8403113e-38
-215.702 -478.81299 -50.7952 1.8403113e-38
1759.34 708.60199 -58.328098 1.8403113e-38
1755.13 715.53998 -55.373699 1.8403113e-38
1752.895 724.73596 -52.095947 1.8403113e-38
3555.6299 1816.99 -56.357101 1.8403113e-38
-947.17102 -901.59802 -42.7369 1.8403113e-38
-243.59399 -485.35999 -47.517601 1.8403113e-38
-260.08401 -479.18201 -42.462399 1.8403113e-38
1752.46 733.54901 -49.2798 1.8403113e-38
1742.2949 743.87848 -44.139198 1.8403113e-38
3556.0801 1841.28 -48.907101 1.8403113e-38
3564.05 1867.6899 -42.228901 1.8403113e-38
-934.63397 -862.96698 -33.138302 1.8403113e-38
-708.888 -724.789 -33.237099 1.8403113e-38
-338.30899 -488.439 -30.445499 1.8403113e-38
-308.41299 -481.858 -34.093899 1.8403113e-38
-288.95901 -485.776 -39.012199 1.8403113e-38
1737.79 755.88751 -39.556 1.8403113e-38
1741.275 766.73749 -36.8545 1.8403113e-38
1730.0699 776.37903 -31.729799 1.8403113e-38
1729.9301 781.76801 -30.0319 1.8403113e-38
3563.98 1892.16 -34.623402 1.8403113e-38
-935.36603 -834.63599 -24.2097 1.8403113e-38
-383.61499 -485.828 -21.012199 1.8403113e-38
-363.04901 -488.668 -25.807699 1.8403113e-38
1724.91 787.81598 -27.2005 1.8403113e-38
1723.5701 795.98645 -24.409 1.8403113e-38
2251.7 1120.3 -24.3153 1.8403113e-38
3564.0701 1915.6801 -27.344 1.8403113e-38
-919.547 -794.62097 -14.8065 1.8403113e-38
-415.995 -492.047 -16.778601 1.8403113e-38
1689.86 805.974 -14.8958 1.8403113e-38
3570.8 1943.52 -19.989401 1.8403113e-38
3576.75 1970.1 -12.8747 1.8403113e-38
-969.474 -779.61499 -0.64819098 1.8403113e-38
-927.27698 -772.84698 -6.58006 1.8403113e-38
1673.8199 811.98297 -9.97719 1.8403113e-38
1681.17 816.52301 -9.9686699 1.8403113e-38
1664.01 822.198 -4.9425502 1.8403113e-38
1672.26 826.745 -5.1024799 1.8403113e-38
1668.73 831.83801 -2.8487101 1.8403113e-38
1695.5601 836.43903 -6.5294399 1.8403113e-38
1698.8199 841.68103 -5.52281 1.8403113e-38
1701.03 846.70898 -4.3844399 1.8403113e-38
1704.36 857.09003 -1.79715 1.8403113e-38
1711.08 852.17798 -4.6003699 1.8403113e-38
1707.4301 862.49799 -0.704368 1.8403113e-38
1918.8199 982.42102 -3.7334001 1.8403113e-38
1923.79 990.23999 -2.2527001 1.8403113e-38
3582.8701 1998.28 -5.2999902 1.8403113e-38
-968.25201 -750.789 8.0623302 1.8403113e-38
1699.63 867.21399 2.24314 1.8403113e-38
1706.54 875.36304 3.4573801 1.8403113e-38
1690.72 882.09003 8.5552197 1.8403113e-38
1921.8101 997.19397 0.28131899 1.8403113e-38
1931.5 1006.09 1.19823 1.8403113e-38
1915.77 1010.27 5.48701 1.8403113e-38
1925.3101 1019.29 6.4699702 1.8403113e-38
1925.01 1026.65 8.8091097 1.8403113e-38
3581.9299 2022.17 2.29336 1.8403113e-38
-1030.52 -771.83002 13.3856 1.8403113e-38
1685.6899 886.62299 10.918 1.8403113e-38
1685.4351 894.19653 13.31655 1.8403113e-38
1696.88 902.96002 13.8572 1.8403113e-38
1711.3199 909.57898 13.1617 1.8403113e-38
1736.48 918.00702 10.9878 1.8403113e-38
1924.7 1033.66 11.0432 1.8403113e-38
3587.46 2050.6101 10.065 1.8403113e-38
3585.99 2074.6499 17.802299 1.8403113e-38
-1064.37 -742.34998 28.975 1.8403113e-38
-1032.21 -745.104 21.998301 1.8403113e-38
1675.27 915.40399 21.8318 1.8403113e-38
1680.26 926.04999 24.183599 1.8403113e-38
1694.4399 923.13202 20.5798 1.8403113e-38
1687.29 934.76648 25.5501 1.8403113e-38
3598.9399 2107.4199 25.501301 1.8403113e-38
-1093.2 -735.37402 36.626598 1.8403113e-38
3596.9199 2131.6599 33.406502 1.8403113e-38
-1125.49 -731.79303 43.882198 1.8403113e-38
3600.3201 2160.2 41.617001 1.8403113e-38
-1463.25 -908.65503 53.300201 1.8403113e-38
-1128.1 -705.76001 52.456902 1.8403113e-38
3575.74 2172.73 50.181 1.8403113e-38
-1421.54 -849.28198 63.780899 1.8403113e-38
3343.6399 2072.54 63.2743 1.8403113e-38
-1431.73 -826.961 72.646004 1.8403113e-38
3289.4299 2090.0801 79.033798 1.8403113e-38
3335.5601 2091.53 70.703201 1.8403113e-38
-1065.5699 -559.41998 85.954399 1.8403113e-38
3274.24 2104.6299 86.437897 1.8403113e-38
-1086.86 -548.57098 93.373596 1.8403113e-38
3259.28 2120.3799 94.171997 1.8403113e-38
-1111.21 -538.15997 101.236 1.8403113e-38
-1090.64 -501.125 108.811 1.8403113e-38
3241.29 2133.03 101.52 1.8403113e-38
3219.28 2144.22 109.183 1.8403113e-38
