# .PCD v0.7 - Point Cloud Data file format
VERSION 0.7
FIELDS x y z rgb
SIZE 4 4 4 4
TYPE F F F F
COUNT 1 1 1 1
WIDTH 361
HEIGHT 1
VIEWPOINT 0 0 0 1 0 0 0
POINTS 361
DATA ascii
2477.05 1856.67 -301.47101 1.8403113e-38
2480.8 1869.05 -305.224 1.8403113e-38
2467.24 1880.8101 -303.73999 1.8403113e-38
1808.75 2772.6101 -300.26401 1.8403113e-38
1789.02 2801.05 -300.52802 1.8403113e-38
1740.0699 2867.1799 -300.233 1.8403113e-38
2872.55 1259.67 -290.44901 1.8403113e-38
2863.3601 1279.2 -291.914 1.8403113e-38
2844.6299 1301.37 -291.13199 1.8403113e-38
2832.24 1321.26 -291.73001 1.8403113e-38
2812.1399 1343.04 -290.461 1.8403113e-38
2797.46 1362.9 -290.38 1.8403113e-38
2791.0701 1380.24 -292.20099 1.8403113e-38
2770.3601 1401.0601 -290.548 1.8403113e-38
2757.95 1419.4 -290.81201 1.8403113e-38
2744.4199 1437.74 -290.74301 1.8403113e-38
2736.4099 1454.52 -291.96899 1.8403113e-38
2732.99 1470.12 -294.29401 1.8403113e-38
2717.0801 1488.22 -293.47299 1.8403113e-38
2706.7 1504.9 -293.978 1.8403113e-38
2690.46 1522.47 -292.94601 1.8403113e-38
2681.6799 1538.35 -293.755 1.8403113e-38
2664.1699 1555.5699 -292.27301 1.8403113e-38
2660.8401 1570.1 -294.39899 1.8403113e-38
2642.0801 1586.96 -292.47101 1.8403113e-38
2630.8301 1602.35 -292.44501 1.8403113e-38
2617.53 1617.8 -291.827 1.8403113e-38
2607.9199 1632.53 -292.14301 1.8403113e-38
2593.3999 1647.65 -291.095 1.8403113e-38
2587.3799 1661.5601 -292.29401 1.8403113e-38
2572.6001 1676.25 -291.078 1.8403113e-38
2563.47 1690.13 -291.353 1.8403113e-38
2554.22 1703.86 -291.56 1.8403113e-38
2540.04 1717.79 -290.35999 1.8403113e-38
2529.6001 1731.21 -290.15201 1.8403113e-38
2522.8999 1744.24 -290.95901 1.8403113e-38
2517.05 1757.1 -291.983 1.8403113e-38
2508.2 1769.98 -292.13 1.8403113e-38
2493.5 1782.89 -290.55499 1.8403113e-38
2495.01 1795.1899 -293.63 1.8403113e-38
2474.3501 1807.8101 -290.237 1.8403113e-38
2471.8201 1820 -292.09799 1.8403113e-38
2472.0701 1832.17 -294.772 1.8403113e-38
2468.3799 1844.3 -296.27701 1.8403113e-38
2441.1699 1891.73 -298.39301 1.8403113e-38
2413.1399 1902.09 -292.34799 1.8403113e-38
2405.0901 1913.3199 -292.37399 1.8403113e-38
2398.8501 1924.58 -292.94101 1.8403113e-38
2383.02 1934.92 -290.48499 1.8403113e-38
2394.6699 1947.61 -296.63 1.8403113e-38
2372.04 1956.98 -291.96399 1.8403113e-38
2375.8999 1968.96 -295.66101 1.8403113e-38
2360.72 1978.73 -293.276 1.8403113e-38
2348.3301 1988.61 -291.73599 1.8403113e-38
2347.1799 1999.89 -293.80899 1.8403113e-38
2339.3501 2010.1801 -293.70099 1.8403113e-38
2339.8999 2021.71 -296.32599 1.8403113e-38
2323.48 2030.4301 -293.34799 1.8403113e-38
2323.8501 2041.87 -295.90399 1.8403113e-38
2307.3201 2050.2 -292.81201 1.8403113e-38
2301 2060.28 -293.103 1.8403113e-38
2297.3899 2070.8401 -294.29901 1.8403113e-38
2280.6699 2089.79 -293.42001 1.8403113e-38
2297.4099 2082.1699 -296.72501 1.8403113e-38
2269.45 2098.4299 -291.95901 1.8403113e-38
2270.1499 2109.8201 -294.599 1.8403113e-38
2256.05 2117.53 -292.09201 1.8403113e-38
2254.74 2128.3999 -294.02802 1.8403113e-38
2241.46 2136.03 -291.746 1.8403113e-38
2233.8799 2156.26 -293.83701 1.8403113e-38
2251.8301 2150.1599 -297.82001 1.8403113e-38
2229.52 2166.2 -294.673 1.8403113e-38
2232.29 2178.3401 -298.086 1.8403113e-38
2209.76 2182.4399 -292.32199 1.8403113e-38
2205.1899 2192.1399 -293.04901 1.8403113e-38
2200.55 2201.8 -293.74399 1.8403113e-38
2199.3799 2212.6799 -295.72501 1.8403113e-38
2194.5701 2222.28 -296.35901 1.8403113e-38
2178.5601 2238.97 -295.20599 1.8403113e-38
2185.27 2230.1799 -295.30499 1.8403113e-38
2166.53 2245.5901 -293.077 1.8403113e-38
2161.47 2254.8799 -293.57101 1.8403113e-38
2159.8101 2265.5801 -295.36801 1.8403113e-38
2149.3899 2272.5801 -293.793 1.8403113e-38
2131.04 2287.3 -291.53299 1.8403113e-38
2143.25 2281.3301 -293.85501 1.8403113e-38
2132.5 2299.4199 -294.55099 1.8403113e-38
2121.9099 2305.97 -292.83099 1.8403113e-38
2114.6899 2314.02 -292.422 1.8403113e-38
2110.78 2323.6599 -293.33099 1.8403113e-38
2110.99 2335.3999 -295.901 1.8403113e-38
2088.5901 2347.1299 -291.80899 1.8403113e-38
2099.3799 2341.1299 -293.70401 1.8403113e-38
2083.5801 2356.1299 -292.254 1.8403113e-38
2076.8401 2364.1799 -291.98901 1.8403113e-38
2071.6899 2373.0901 -292.37299 1.8403113e-38
2055.49 2387.4199 -290.66299 1.8403113e-38
2043.9301 2404.3301 -290.871 1.8403113e-38
2039.24 2413.47 -291.44101 1.8403113e-38
2010.75 2455.97 -292.12799 1.8403113e-38
1983.71 2486.8601 -290.76099 1.8403113e-38
1993.58 2481.47 -292.51599 1.8403113e-38
1976.8101 2494.4199 -290.34299 1.8403113e-38
1913.08 2588.0701 -291.57501 1.8403113e-38
1908.8101 2598.24 -292.487 1.8403113e-38
1900.39 2604.4399 -291.33301 1.8403113e-38
1898.6 2617.21 -293.53299 1.8403113e-38
1891.37 2624.6399 -292.99301 1.8403113e-38
1889.3101 2637.4399 -295.121 1.8403113e-38
1883.21 2646.1799 -295.189 1.8403113e-38
1875.75 2653.49 -294.55099 1.8403113e-38
1853 2675.05 -292.45499 1.8403113e-38
1865.66 2673.54 -295.866 1.8403113e-38
1877.74 2671.1799 -298.91901 1.8403113e-38
1853.3 2691.3899 -296.03601 1.8403113e-38
1827.23 2709.47 -292.21899 1.8403113e-38
1847.9 2701.3401 -296.57001 1.8403113e-38
1843.6 2712.72 -297.733 1.8403113e-38
1823.97 2722.21 -293.98001 1.8403113e-38
1818.22 2732.01 -294.37701 1.8403113e-38
1811.2 2740.28 -294.077 1.8403113e-38
1792.46 2768.6299 -294.61099 1.8403113e-38
1813.79 2761.3101 -299.33301 1.8403113e-38
1788.9301 2782.1201 -296.45499 1.8403113e-38
1774.39 2799.02 -295.78299 1.8403113e-38
1770.96 2813.29 -297.82001 1.8403113e-38
1767.33 2827.5901 -299.806 1.8403113e-38
1747.34 2837.05 -295.936 1.8403113e-38
1756.3199 2830.77 -297.242 1.8403113e-38
1741.8101 2848.8799 -296.83401 1.8403113e-38
1728.36 2869.25 -297.22501 1.8403113e-38
1722.89 2881.8401 -298.30499 1.8403113e-38
1706.83 2898.73 -297.181 1.8403113e-38
1715.85 2891.96 -298.39099 1.8403113e-38
1701.86 2912.9299 -298.74799 1.8403113e-38
1684.71 2928.71 -297.06799 1.8403113e-38
1693.1 2920.4299 -297.771 1.8403113e-38
1679.71 2943.7 -298.79599 1.8403113e-38
1670.23 2950.1899 -297.39001 1.8403113e-38
1650.6899 2962.0901 -294.17401 1.8403113e-38
1662.37 2960.03 -297.17499 1.8403113e-38
1646.29 2979.5601 -296.61301 1.8403113e-38
1636.1 2984.9299 -294.755 1.8403113e-38
1629.36 2998.04 -295.57101 1.8403113e-38
1621.6801 3009.3799 -295.733 1.8403113e-38
1618.33 3031.24 -299.41599 1.8403113e-38
1609.9 3041.6699 -299.16101 1.8403113e-38
1602.05 3053.8301 -299.44699 1.8403113e-38
1582.46 3069.1001 -296.935 1.8403113e-38
1594.05 3065.95 -299.677 1.8403113e-38
1574.2 3081.1101 -297.069 1.8403113e-38
1566.11 3093.98 -297.436 1.8403113e-38
1558.8 3109.53 -298.603 1.8403113e-38
1548.16 3115.99 -296.84799 1.8403113e-38
1530.22 3139.6001 -296.608 1.8403113e-38
1540.78 3132.3701 -298.17401 1.8403113e-38
1510.52 3159.3401 -295.022 1.8403113e-38
1523.59 3159.5801 -298.922 1.8403113e-38
1506.16 3188.48 -299.96301 1.8403113e-38
1495.04 3195.47 -298.17899 1.8403113e-38
1484.61 3205.1499 -297.173 1.8403113e-38
1464.55 3228.97 -296.35101 1.8403113e-38
1477 3225.9299 -299.371 1.8403113e-38
1456.6801 3250.6101 -298.65799 1.8403113e-38
1445.8199 3260.98 -297.673 1.8403113e-38
1435.89 3275.97 -297.95099 1.8403113e-38
1425.53 3289.97 -297.89001 1.8403113e-38
1414.5699 3302.03 -297.23599 1.8403113e-38
1404.39 3318.74 -297.806 1.8403113e-38
1393.04 3330.6599 -297.01001 1.8403113e-38
1382.74 3349.1599 -297.927 1.8403113e-38
1370.84 3359.97 -296.73099 1.8403113e-38
1360.65 3382.1799 -298.474 1.8403113e-38
1348.35 3392.8401 -297.12799 1.8403113e-38
1336.3101 3406.3 -296.45499 1.8403113e-38
1324.33 3421.5901 -296.194 1.8403113e-38
1312.12 3436.8101 -295.84799 1.8403113e-38
1300.14 3455.8 -296.375 1.8403113e-38
1288.0699 3476.6499 -297.27399 1.8403113e-38
1275.28 3493.5701 -297.11899 1.8403113e-38
1262.23 3510.3899 -296.867 1.8403113e-38
1249.23 3531.01 -297.444 1.8403113e-38
1235.48 3545.71 -296.53299 1.8403113e-38
1221.6899 3563.23 -296.21301 1.8403113e-38
1207.96 3586.49 -297.138 1.8403113e-38
1193.09 3594.0801 -294.37799 1.8403113e-38
1178.86 3620.0701 -295.737 1.8403113e-38
1164.08 3642.0601 -296.08099 1.8403113e-38
1148.74 3655.1599 -294.35999 1.8403113e-38
1133.47 3686.6899 -296.59799 1.8403113e-38
1117.61 3707.3701 -296.345 1.8403113e-38
1101.42 3725.98 -295.54901 1.8403113e-38
1084.98 3739.5601 -293.60901 1.8403113e-38
1067.96 3771.6101 -295.44101 1.8403113e-38
1050.6 3796.6799 -295.68201 1.8403113e-38
1032.6801 3825.52 -296.56601 1.8403113e-38
1014.77 3843.45 -295.12 1.8403113e-38
732.34399 4210.5898 -290.345 1.8403113e-38
648.60602 4329.79 -291.14099 1.8403113e-38
2896.28 1183.6899 -281.20801 1.8403113e-38
2894.3201 1201.59 -284.45599 1.8403113e-38
2898.6799 1217.23 -289.08099 1.8403113e-38
2882.47 1239.65 -289.095 1.8403113e-38
2054.25 2374.8799 -287.61899 1.8403113e-38
2045.3199 2393.23 -288.90701 1.8403113e-38
2028.15 2418.5 -289.24899 1.8403113e-38
2023.34 2427.51 -289.75699 1.8403113e-38
2014.55 2433.8799 -288.52701 1.8403113e-38
2005.73 2440.1399 -287.26501 1.8403113e-38
1998.72 2459.98 -289.43799 1.8403113e-38
1992.02 2467.6799 -289.11099 1.8403113e-38
1956.97 2504.6499 -286.68201 1.8403113e-38
1967.64 2500.1799 -288.86899 1.8403113e-38
1952.13 2513.74 -287.20001 1.8403113e-38
1938.61 2528.8201 -286.436 1.8403113e-38
1947.21 2522.8101 -287.686 1.8403113e-38
1935.6801 2539.6299 -287.884 1.8403113e-38
1931.92 2549.8501 -288.95901 1.8403113e-38
1923.15 2555.6699 -287.61899 1.8403113e-38
1918.53 2565.1899 -288.29099 1.8403113e-38
1909.67 2570.8701 -286.892 1.8403113e-38
765.19897 4127.73 -282.323 1.8403113e-38
620.87903 4360.8799 -289.61401 1.8403113e-38
594.16699 4383.9399 -286.67001 1.8403113e-38
468.32901 4537.1201 -282.323 1.8403113e-38
433.44601 4581.8101 -281.59299 1.8403113e-38
2896.9399 1148.74 -273.93301 1.8403113e-38
2898.0701 1165.72 -277.896 1.8403113e-38
1002.81 3745.6399 -270.69601 1.8403113e-38
576.35901 4362.2002 -276.77802 1.8403113e-38
513.146 4444.7598 -275.79401 1.8403113e-38
377.93399 4606.77 -270.56799 1.8403113e-38
403.37799 4604.0298 -277.48099 1.8403113e-38
2894.4199 1096.96 -262.129 1.8403113e-38
2893.29 1115.09 -265.66901 1.8403113e-38
2890.1599 1133.86 -268.759 1.8403113e-38
970.01001 3745.48 -260.996 1.8403113e-38
986.65302 3741.71 -265.095 1.8403113e-38
351.896 4611.1802 -263.83801 1.8403113e-38
2894.0601 1043.45 -250.586 1.8403113e-38
2898.8701 1059.39 -255.411 1.8403113e-38
2893.5601 1079.54 -258.15302 1.8403113e-38
953.54498 3746.1599 -256.29001 1.8403113e-38
936.125 3757.47 -253.573 1.8403113e-38
572.37701 4278.4399 -257.70801 1.8403113e-38
329.23099 4602.9199 -255.395 1.8403113e-38
2901.0701 985.448 -240.25999 1.8403113e-38
2898.3301 1005.14 -243.659 1.8403113e-38
2897.1799 1023.93 -247.338 1.8403113e-38
920.12799 3751.98 -247.686 1.8403113e-38
902.78601 3760.04 -244.3 1.8403113e-38
280.54001 4598.1699 -240.033 1.8403113e-38
300.89001 4614.48 -249.515 1.8403113e-38
2900.6399 948.39697 -232.217 1.8403113e-38
2899.1699 967.79498 -235.927 1.8403113e-38
886.31097 3759.1499 -239.255 1.8403113e-38
869.01501 3764.96 -235.399 1.8403113e-38
249.646 4616.8198 -234.91499 1.8403113e-38
2901.25 891.15302 -220.166 1.8403113e-38
2901.24 910.28699 -224.25 1.8403113e-38
2900.1499 929.81 -228.101 1.8403113e-38
855.84601 3738.3701 -225.838 1.8403113e-38
839.03802 3740.95 -221.438 1.8403113e-38
223.79201 4618.0898 -227.57001 1.8403113e-38
197.57001 4620.0698 -220.265 1.8403113e-38
2901.5701 852.26703 -211.951 1.8403113e-38
2902.8201 871.04303 -216.33 1.8403113e-38
786.08698 3761.4299 -210.211 1.8403113e-38
171.589 4620.8398 -212.776 1.8403113e-38
2907.8501 789.34998 -200.35899 1.8403113e-38
2903.6799 811.71002 -203.908 1.8403113e-38
2901.8701 832.50299 -207.81599 1.8403113e-38
765.93799 3780.8999 -208.43401 1.8403113e-38
146.84599 4617.6099 -204.79401 1.8403113e-38
2912.9099 745.77399 -192.53799 1.8403113e-38
2915.1899 764.86102 -197.289 1.8403113e-38
122.113 4614.1401 -196.76601 1.8403113e-38
2910.29 705.97601 -183.263 1.8403113e-38
2907.05 728.72803 -187.17 1.8403113e-38
95.018997 4616.9902 -189.39101 1.8403113e-38
67.482498 4620.5098 -182.02901 1.8403113e-38
2912.6899 640.83301 -170.052 1.8403113e-38
2913.52 661.73199 -174.75999 1.8403113e-38
2916.6299 680.987 -179.79201 1.8403113e-38
43.028999 4615.3799 -173.72701 1.8403113e-38
2928.4299 586.60498 -163.104 1.8403113e-38
2928.97 608.31097 -167.89999 1.8403113e-38
28.757 4584.04 -162.827 1.8403113e-38
2936.3899 536.14899 -154.668 1.8403113e-38
2931.74 562.013 -158.82401 1.8403113e-38
-42.965599 4629.9502 -151.502 1.8403113e-38
-13.1762 4622.9199 -158.77699 1.8403113e-38
3168.45 157.534 -142.145 1.8403113e-38
2939.75 464.18399 -140.28101 1.8403113e-38
2935.96 490.41599 -144.769 1.8403113e-38
2932.6699 515.92401 -149.25 1.8403113e-38
-69.8451 4629.3198 -143.44701 1.8403113e-38
3175.1201 123.633 -136.869 1.8403113e-38
2944.05 413.117 -130.63499 1.8403113e-38
2941.6499 439.009 -135.461 1.8403113e-38
-95.593498 4625.6699 -135.08 1.8403113e-38
3172.8 67.472801 -124.184 1.8403113e-38
3168.3899 100.388 -129.91901 1.8403113e-38
2944.03 364.07199 -120.151 1.8403113e-38
2948.49 385.26599 -125.993 1.8403113e-38
-125.752 4631.8101 -127.507 1.8403113e-38
3169.1699 10.9998 -111.048 1.8403113e-38
3172.28 38.295502 -117.797 1.8403113e-38
-177.82401 4624.1001 -110.517 1.8403113e-38
-152.80701 4630.3599 -119.225 1.8403113e-38
3167.97 -18.3417 -104.426 1.8403113e-38
3170.3899 -82.695 -91.388298 1.8403113e-38
3172.3301 -53.1366 -98.2752 1.8403113e-38
-162.985 4532.7002 -95.359398 1.8403113e-38
-236.364 4628.8701 -94.287003 1.8403113e-38
3167.3701 -111.647 -84.312897 1.8403113e-38
-264.043 4627.21 -85.7761 1.8403113e-38
3167.46 -176.68401 -70.443398 1.8403113e-38
3171.22 -147.554 -77.776001 1.8403113e-38
-292.65799 4627.0498 -77.3106 1.8403113e-38
3164.0601 -206.56799 -63.056702 1.8403113e-38
-278.72198 4542.98 -63.453999 1.8403113e-38
3163.8301 -240.049 -55.833302 1.8403113e-38
-268.99799 4469.9302 -50.709099 1.8403113e-38
3160.71 -305.91199 -40.8419 1.8403113e-38
3165.97 -276.49799 -48.675999 1.8403113e-38
-293.25101 4463.3398 -42.1563 1.8403113e-38
3162.6599 -343.33499 -33.419701 1.8403113e-38
-293.69699 4412.6001 -31.182501 1.8403113e-38
3162.0701 -378.72198 -25.687201 1.8403113e-38
-298.20801 4370.7402 -20.9104 1.8403113e-38
3161.04 -414.22699 -17.7964 1.8403113e-38
-293.776 4314.1602 -10.127 1.8403113e-38
3159.6001 -487.80801 -1.6493599 1.8403113e-38
3161.5601 -452.069 -9.8640804 1.8403113e-38
-297.435 4273.3999 -0.33946401 1.8403113e-38
3153.23 -519.12903 6.9189 1.8403113e-38
-300.49899 4232.73 9.2546997 1.8403113e-38
3069.6399 -460.98901 19.125299 1.8403113e-38
-301.948 4190.4199 18.7202 1.8403113e-38
2940.05 -345.84698 32.708801 1.8403113e-38
-215.66901 4004.6699 32.986599 1.8403113e-38
2907.5901 -379.827 49.533699 1.8403113e-38
2924.22 -363.29199 41.0993 1.8403113e-38
55.956699 3525.3999 55.3573 1.8403113e-38
2772.8301 -284.54501 68.883102 1.8403113e-38
2796.26 -278.49899 60.687599 1.8403113e-38
49.952 3504.1499 61.665199 1.8403113e-38
24.814699 3513.22 67.135597 1.8403113e-38
-174.842 3789.0701 67.0242 1.8403113e-38
2759.8201 -303.754 76.819199 1.8403113e-38
-34.3829 3542.8899 78.237297 1.8403113e-38
2735.6799 -308.565 84.960602 1.8403113e-38
108.923 3300.79 87.741096 1.8403113e-38
3133.8899 -922.51099 98.806801 1.8403113e-38
2764.3799 -383.48599 92.512901 1.8403113e-38
99.7229 3263.01 98.523903 1.8403113e-38
107.032 3277.78 93.2155 1.8403113e-38
2868.26 -603.901 108.999 1.8403113e-38
75.091499 3247.95 109 1.8403113e-38
80.990799 3264.5 103.726 1.8403113e-38
