# .PCD v0.7 - Point Cloud Data file format
VERSION 0.7
FIELDS x y z rgb
SIZE 4 4 4 4
TYPE F F F F
COUNT 1 1 1 1
WIDTH 297
HEIGHT 1
VIEWPOINT 0 0 0 1 0 0 0
POINTS 297
DATA ascii
317.314 -218.505 -292.76401 1.8403113e-38
320.336 -200.772 -291.746 1.8403113e-38
315.45001 -194.67101 -293.552 1.8403113e-38
334.34802 -1064.9351 -282.65399 1.8403113e-38
338.685 -950.37701 -281.60501 1.8403113e-38
335.41599 -933.69 -282.87201 1.8403113e-38
339.07599 -928.81299 -281.56201 1.8403113e-38
333.362 -912.867 -283.715 1.8403113e-38
334.36301 -908.77399 -283.37 1.8403113e-38
333.495 -891.61499 -283.76501 1.8403113e-38
335.48401 -887.33801 -283.061 1.8403113e-38
336.40399 -868.03302 -282.81549 1.8403113e-38
339.47198 -848.45099 -281.789 1.8403113e-38
341.60699 -844.297 -281.03101 1.8403113e-38
335.32599 -826.71399 -283.39899 1.8403113e-38
336.46851 -805.935 -283.07901 1.8403113e-38
337.03101 -785.39252 -282.96899 1.8403113e-38
335.13751 -765.27148 -283.75098 1.8403113e-38
332.6395 -745.22803 -284.7525 1.8403113e-38
332.81201 -724.92999 -284.784 1.8403113e-38
333.789 -704.64349 -284.522 1.8403113e-38
334.63049 -684.43604 -284.30902 1.8403113e-38
329.181 -662.677 -286.39301 1.8403113e-38
334.914 -666.12201 -284.29001 1.8403113e-38
334.96149 -644.2265 -284.37451 1.8403113e-38
333.03699 -624.13251 -285.16748 1.8403113e-38
336.60999 -604.09851 -283.9595 1.8403113e-38
335.27499 -585.784 -284.53 1.8403113e-38
343.86499 -582.54102 -281.41901 1.8403113e-38
337.32599 -562.16498 -283.89301 1.8403113e-38
340.88 -565.99597 -282.582 1.8403113e-38
337.69 -542.06403 -283.853 1.8403113e-38
341.17999 -545.96301 -282.565 1.8403113e-38
337.29001 -523.66504 -284.0835 1.8403113e-38
335.0195 -503.15149 -285.005 1.8403113e-38
335.8905 -482.90149 -284.78149 1.8403113e-38
336.63202 -462.569 -284.6055 1.8403113e-38
338.17499 -442.30353 -284.13751 1.8403113e-38
344.36899 -424.72601 -281.965 1.8403113e-38
336.668 -419.52301 -284.79199 1.8403113e-38
340.54901 -403.298 -283.45401 1.8403113e-38
337.54501 -398.91199 -284.56799 1.8403113e-38
346.29099 -383.77399 -281.45401 1.8403113e-38
337.85199 -378.05499 -284.552 1.8403113e-38
335.88199 -360.289 -285.35101 1.8403113e-38
329.37701 -354.827 -287.74399 1.8403113e-38
342.315 -340.75201 -283.10001 1.8403113e-38
334.07999 -334.67999 -286.125 1.8403113e-38
336.38251 -315.76147 -285.375 1.8403113e-38
336.76398 -294.2135 -285.33551 1.8403113e-38
335.73248 -271.98352 -285.81351 1.8403113e-38
339.89401 -253.295 -284.38599 1.8403113e-38
325.862 -244.34 -289.53299 1.8403113e-38
329.40601 -227.11301 -288.323 1.8403113e-38
338.95001 -185.174 -285.04401 1.8403113e-38
334.151 -179.021 -286.819 1.8403113e-38
335.99799 -160.69501 -286.23099 1.8403113e-38
341.73599 -158.985 -284.151 1.8403113e-38
338.142 -135.93451 -285.56549 1.8403113e-38
343.00952 -114.3325 -283.89349 1.8403113e-38
347.034 -94.339798 -282.521 1.8403113e-38
344.384 -88.622803 -283.51199 1.8403113e-38
343.366 -67.934601 -283.978 1.8403113e-38
334.94 -59.018398 -287.086 1.8403113e-38
342.74899 -42.6012 -284.32001 1.8403113e-38
344.49301 -39.0116 -283.702 1.8403113e-38
338.5 -14.7125 -285.995 1.8403113e-38
341.15302 -11.5838 -285.04401 1.8403113e-38
338.94299 11.0739 -285.953 1.8403113e-38
342.48199 13.6955 -284.677 1.8403113e-38
339.905 37.030701 -285.72198 1.8403113e-38
341.88501 40.629902 -285.01901 1.8403113e-38
336.57599 66.253304 -287.069 1.8403113e-38
342.64999 67.2612 -284.86301 1.8403113e-38
342.49799 92.53775 -285.03552 1.8403113e-38
349.116 113.619 -282.724 1.8403113e-38
335.64099 128.186 -287.69601 1.8403113e-38
345.19 145.14 -284.29901 1.8403113e-38
338.19101 155.494 -286.89401 1.8403113e-38
343.513 175.87801 -285.05099 1.8403113e-38
338.24799 185.25301 -287.01099 1.8403113e-38
344.03799 205.733 -284.99799 1.8403113e-38
338.957 215.24699 -286.89099 1.8403113e-38
343.72299 237.021 -285.25699 1.8403113e-38
332.12 252.13699 -289.54999 1.8403113e-38
342.63699 269.80899 -285.80399 1.8403113e-38
340.15302 277.74301 -286.74399 1.8403113e-38
338.668 306.05899 -287.41599 1.8403113e-38
333.461 316.638 -289.35999 1.8403113e-38
348.47198 331.112 -283.96399 1.8403113e-38
335.58899 348.931 -288.73499 1.8403113e-38
341.82001 371.89001 -286.573 1.8403113e-38
339.15399 380.76999 -287.58401 1.8403113e-38
346.61801 403.13101 -284.97101 1.8403113e-38
345.51901 410.75101 -285.40601 1.8403113e-38
347.328 439.28699 -284.88 1.8403113e-38
344.35599 449.04099 -286.00601 1.8403113e-38
351.59399 472.94101 -283.483 1.8403113e-38
344.129 487.68799 -286.26801 1.8403113e-38
350.69101 513.14301 -283.99701 1.8403113e-38
349.46201 521.68701 -284.48401 1.8403113e-38
349.48901 555.15399 -284.629 1.8403113e-38
345.87701 566.68201 -285.996 1.8403113e-38
351.897 594.62 -283.935 1.8403113e-38
344.72101 610.685 -286.62 1.8403113e-38
351.845 642.47046 -284.1745 1.8403113e-38
355.354 679.62598 -283.069 1.8403113e-38
347.01401 698.34998 -286.19101 1.8403113e-38
350.59201 732.95801 -285.04901 1.8403113e-38
346.25 747.302 -286.69501 1.8403113e-38
351.96701 780.62402 -284.76801 1.8403113e-38
345.60199 798.24298 -287.16599 1.8403113e-38
354.01199 829.43903 -284.24899 1.8403113e-38
342.298 855.164 -288.63199 1.8403113e-38
349.474 889.80902 -286.17999 1.8403113e-38
345.57901 905.41199 -287.67001 1.8403113e-38
352.08801 942.67401 -285.47299 1.8403113e-38
344.724 964.112 -288.25201 1.8403113e-38
352.90701 1000.82 -285.444 1.8403113e-38
348.67401 1018.37 -287.065 1.8403113e-38
357.40302 1056.09 -284.06299 1.8403113e-38
352.52499 1075.45 -285.927 1.8403113e-38
364.918 1109.16 -281.573 1.8403113e-38
353.88699 1139.62 -285.728 1.8403113e-38
369.905 1169.25 -280.035 1.8403113e-38
359.496 1199.99 -283.966 1.8403113e-38
365.98599 1248.5699 -281.828 1.8403113e-38
363.42499 1266.71 -282.84399 1.8403113e-38
354.39999 1361.64 -286.56699 1.8403113e-38
358.06 1438.15 -285.58899 1.8403113e-38
363.26401 1500.09 -283.98099 1.8403113e-38
357.397 1528.42 -286.24701 1.8403113e-38
365.841 1588.09 -283.45001 1.8403113e-38
366.10199 1605.01 -283.43301 1.8403113e-38
370.58499 1677.54 -282.13599 1.8403113e-38
364.84799 1708.98 -284.37 1.8403113e-38
375.595 1772.91 -280.754 1.8403113e-38
365.52399 1816.38 -284.62 1.8403113e-38
370.54099 1921.7 -283.28 1.8403113e-38
379.931 2001.02 -280.229 1.8403113e-38
371.13699 2046.9399 -283.642 1.8403113e-38
371.39301 2184.0601 -284.18201 1.8403113e-38
375.18201 2323.8301 -283.44901 1.8403113e-38
380.42099 2472.77 -282.23001 1.8403113e-38
384.86099 2639.4299 -281.38501 1.8403113e-38
387.10101 2831.6201 -281.457 1.8403113e-38
396.52802 3268.51 -280.04501 1.8403113e-38
351.37299 -1331.86 -275.224 1.8403113e-38
350.11099 -1327.78 -275.703 1.8403113e-38
346.3255 -1305.61 -277.18298 1.8403113e-38
340.73849 -1282.4299 -279.32349 1.8403113e-38
362.05899 -1246.12 -271.73199 1.8403113e-38
353.20001 -949.88898 -276.32401 1.8403113e-38
376.47601 1306.01 -278.276 1.8403113e-38
374.987 1389.91 -279.20499 1.8403113e-38
379.26401 1878.84 -279.90799 1.8403113e-38
382.91 2127.6201 -279.73001 1.8403113e-38
384.75 2268.9099 -279.71301 1.8403113e-38
392.82599 2405.3 -277.40399 1.8403113e-38
396.62601 2568.75 -276.776 1.8403113e-38
404.345 2736.75 -274.74301 1.8403113e-38
405.37799 2947.52 -275.341 1.8403113e-38
395.61401 3023.72 -279.24701 1.8403113e-38
415.32401 3150.5701 -272.659 1.8403113e-38
418.022 3409.3999 -272.87299 1.8403113e-38
404.94299 3515.3 -278.12299 1.8403113e-38
379.41101 -1066.9301 -266.245 1.8403113e-38
384.49152 -1023.03 -264.59802 1.8403113e-38
385.44901 -1003.13 -264.34201 1.8403113e-38
386.138 -999.047 -264.10999 1.8403113e-38
381.29901 -983.33398 -265.944 1.8403113e-38
383.84799 -978.66199 -265.03699 1.8403113e-38
392.3035 -956.86951 -262.061 1.8403113e-38
415.55499 -1210.48 -252.427 1.8403113e-38
464.505 -1034.72 -235.424 1.8403113e-38
547.83398 -1035.425 -205.09399 1.8403113e-38
551.008 -1016.64 -204.026 1.8403113e-38
604.98999 -1026.79 -184.33249 1.8403113e-38
625.47302 -1167.86 -176.226 1.8403113e-38
643.47699 -1041.65 -170.257 1.8403113e-38
637.02148 -1028.76 -172.6655 1.8403113e-38
666.59003 -1143.4 -161.375 1.8403113e-38
645.76703 -1061.74 -169.33099 1.8403113e-38
644.49799 -1059.17 -169.804 1.8403113e-38
663.99799 -1033.85 -162.82401 1.8403113e-38
758.13599 2275.0801 -143.85201 1.8403113e-38
747.77301 2280.6201 -147.64799 1.8403113e-38
739.34601 -1108.22 -135.05901 1.8403113e-38
750.138 -1103.8 -131.151 1.8403113e-38
766.172 -1108.4299 -125.29449 1.8403113e-38
802.67499 -1100.13 -112.048 1.8403113e-38
799.763 -1099.24 -113.112 1.8403113e-38
837.02301 2097.6499 -114.321 1.8403113e-38
862.63898 2015.67 -104.62 1.8403113e-38
918.52399 1920.14 -83.839897 1.8403113e-38
925.30701 1925.72 -81.397102 1.8403113e-38
959.90503 1932 -68.834297 1.8403113e-38
964.55103 1950.24 -67.227501 1.8403113e-38
987.07599 2032.78 -59.411201 1.8403113e-38
994.78802 2035.2 -56.615898 1.8403113e-38
1002.03 -971.14899 -40.0909 1.8403113e-38
986.46198 -969.17603 -45.765598 1.8403113e-38
994.24298 -965.216 -42.952 1.8403113e-38
1001.02 -969.76501 -40.462898 1.8403113e-38
1028.96 2053.26 -44.261101 1.8403113e-38
1036.33 2058.51 -41.6035 1.8403113e-38
1004.71 -1292.78 -37.630402 1.8403113e-38
1021.1 -1270.71 -31.7658 1.8403113e-38
1023.12 -1160.2 -31.540899 1.8403113e-38
1013.55 -1150.73 -35.069401 1.8403113e-38
1027.4 -1151.05 -30.0252 1.8403113e-38
1021.03 -1144.3199 -32.373901 1.8403113e-38
1013.135 -1134.7151 -35.2929 1.8403113e-38
1017.635 -981.47052 -34.3624 1.8403113e-38
1025.24 -987.1745 -31.569351 1.8403113e-38
1006.65 -977.41101 -38.378601 1.8403113e-38
1012.08 -975.01599 -36.415001 1.8403113e-38
1039.105 -1175.025 -25.655649 1.8403113e-38
1051.63 -1176.625 -21.09 1.8403113e-38
1029.14 -1167.71 -29.3141 1.8403113e-38
1030.16 -1169.8 -28.9333 1.8403113e-38
1046.1699 -992.63098 -23.92675 1.8403113e-38
1056.39 -993.995 -20.200701 1.8403113e-38
1038.875 -987.04651 -26.60655 1.8403113e-38
1073.03 2060.1101 -28.254 1.8403113e-38
1079.75 2071.1699 -25.861799 1.8403113e-38
1065.05 -1217.52 -16.016001 1.8403113e-38
1070.3 -1212.76 -14.1278 1.8403113e-38
1061.4399 -1182.0551 -17.4942 1.8403113e-38
1073.41 -1031.25 -13.8331 1.8403113e-38
1077.3101 -1024.2 -12.4494 1.8403113e-38
1067.03 -1011.14 -16.249399 1.8403113e-38
1075.0249 -1014.4351 -13.32545 1.8403113e-38
1064.1533 -1003.8734 -17.329666 1.8403113e-38
1057.47 -995.19397 -19.803499 1.8403113e-38
1116.22 2075.0801 -12.6068 1.8403113e-38
1096.5 -1289.67 -4.2356601 1.8403113e-38
1087.96 -1279.25 -7.3924899 1.8403113e-38
1100.62 -1276.17 -2.7989199 1.8403113e-38
1099.9301 -1250.88 -3.1693399 1.8403113e-38
1100.8 -1228.55 -2.9538 1.8403113e-38
1093.245 -1216.465 -5.75981 1.8403113e-38
1104.58 -1217.04 -1.63159 1.8403113e-38
1087.98 -1200.88 -7.74968 1.8403113e-38
1091.61 -1198.55 -6.4362798 1.8403113e-38
1088.135 -1026.46 -8.49755 1.8403113e-38
1125.8199 2061.1899 -9.04953 1.8403113e-38
1161.66 2069.3701 3.95823 1.8403113e-38
1166.8199 2101.0701 5.6891398 1.8403113e-38
1202.72 2115.6101 18.687401 1.8403113e-38
1206.58 2173.1399 19.8281 1.8403113e-38
1188.71 -1116.16 28.5203 1.8403113e-38
1216.35 -1060.38 38.323101 1.8403113e-38
1248.09 2114.24 35.204399 1.8403113e-38
1253.87 2154.72 37.121201 1.8403113e-38
1244.46 -1023.91 48.382801 1.8403113e-38
1297.3101 3562.22 46.430199 1.8403113e-38
1264.0625 -1032.8875 55.559174 1.8403113e-38
1254.665 -1027.3999 52.112202 1.8403113e-38
1291.95 2142.98 51.037102 1.8403113e-38
1299.64 2155.3899 53.778099 1.8403113e-38
1309.8199 3557.6201 51.0037 1.8403113e-38
1281.13 -1036.25 61.786701 1.8403113e-38
1277.21 -1027.8301 60.320702 1.8403113e-38
1285.74 -1026.3101 63.419601 1.8403113e-38
1294.7198 -1025.64 66.683434 1.8403113e-38
1301.0601 -1023.24 68.978699 1.8403113e-38
1361.4 3956.8501 67.931602 1.8403113e-38
1322.13 -1241.6801 77.656601 1.8403113e-38
1320.79 -1238.41 77.152397 1.8403113e-38
1327.1899 -1151.28 79.081596 1.8403113e-38
1317.78 -1040.71 75.1465 1.8403113e-38
1310.8101 -1039.8 72.605103 1.8403113e-38
1324.6851 -1038.9 77.651398 1.8403113e-38
1306.415 -1027.0449 70.946198 1.8403113e-38
1316 -1028.3101 74.438652 1.8403113e-38
1374.3101 4028.03 72.301399 1.8403113e-38
1330.64 -1241.0601 80.752296 1.8403113e-38
1342.49 -1242.78 85.072304 1.8403113e-38
1333.8 -1231.4399 81.857201 1.8403113e-38
1341.78 -1233.61 84.7705 1.8403113e-38
1352.635 -1234.485 88.726746 1.8403113e-38
1331.96 -1114.59 80.647697 1.8403113e-38
1337.02 -1051.47 82.198799 1.8403113e-38
1334.785 -1041.275 81.335602 1.8403113e-38
1332.12 -1034.03 80.334198 1.8403113e-38
1372.8101 -1244.99 96.116997 1.8403113e-38
1383.02 -1243.6801 99.824898 1.8403113e-38
1362.7 -1234.0601 92.38665 1.8403113e-38
1371.8 -1233.87 95.696602 1.8403113e-38
1381.6 -1236.58 99.276398 1.8403113e-38
1435.24 3647.3 96.233803 1.8403113e-38
1391.36 -1242.11 102.853 1.8403113e-38
1402.22 -1246.48 106.8265 1.8403113e-38
1393.4301 -1235.1899 103.574 1.8403113e-38
1447.5601 3605.24 100.911 1.8403113e-38
1411.4301 -1246.62 110.178 1.8403113e-38
