# .PCD v0.7 - Point Cloud Data file format
VERSION 0.7
FIELDS x y z rgb
SIZE 4 4 4 4
TYPE F F F F
COUNT 1 1 1 1
WIDTH 360
HEIGHT 1
VIEWPOINT 0 0 0 1 0 0 0
POINTS 360
DATA ascii
2452.54 3054.1201 -281.01001 1.8403113e-38
2324.8899 3249.6101 -283 1.8403113e-38
2332.1001 3241.3101 -283.45401 1.8403113e-38
2294.75 3283.73 -280.98801 1.8403113e-38
2287.55 3293.74 -280.89099 1.8403113e-38
2275.01 3316.75 -281.871 1.8403113e-38
2267.03 3324.6899 -281.11301 1.8403113e-38
2244.8999 3355.6001 -280.84299 1.8403113e-38
2238.1299 3366.8101 -281.12201 1.8403113e-38
2229.9299 3376.51 -280.66199 1.8403113e-38
2207.1201 3408.3401 -280.37799 1.8403113e-38
2199.1599 3419.6201 -280.31299 1.8403113e-38
2176.77 3456.3201 -281.16 1.8403113e-38
2167.8501 3466.55 -280.591 1.8403113e-38
2159.98 3478.3 -280.651 1.8403113e-38
2151.73 3491.1399 -280.823 1.8403113e-38
2143.23 3501.8999 -280.48999 1.8403113e-38
2134.9399 3515.5701 -280.82101 1.8403113e-38
2126.1299 3526.24 -280.37799 1.8403113e-38
2108.9299 3552.24 -280.57401 1.8403113e-38
2099.8999 3565.74 -280.64801 1.8403113e-38
2092.04 3581.78 -281.59299 1.8403113e-38
2073.8 3609.29 -281.793 1.8403113e-38
2043.67 3646.0601 -280.33099 1.8403113e-38
1971.99 3750.27 -280.298 1.8403113e-38
1938.96 3804.23 -281.51199 1.8403113e-38
1926.97 3815.5901 -280.254 1.8403113e-38
1916.1 3842.4099 -282.522 1.8403113e-38
1904.34 3859.4099 -282.496 1.8403113e-38
1891.95 3879.3501 -282.88699 1.8403113e-38
1880.03 3900.0701 -283.582 1.8403113e-38
1867.53 3925.6799 -285.10901 1.8403113e-38
1854.11 3936.54 -283.323 1.8403113e-38
1840.76 3960.05 -284.16 1.8403113e-38
1827.5699 3980.45 -284.40601 1.8403113e-38
1813.03 3995.98 -283.245 1.8403113e-38
1799.5699 4023.02 -284.77899 1.8403113e-38
1784.87 4049.0801 -285.73999 1.8403113e-38
1770.3199 4069.1101 -285.50299 1.8403113e-38
1754.78 4093.01 -285.76401 1.8403113e-38
1739.65 4118.6899 -286.51801 1.8403113e-38
1723.28 4138.4399 -285.67599 1.8403113e-38
1707.39 4157.04 -284.742 1.8403113e-38
1690.29 4184.3701 -285.245 1.8403113e-38
1673.71 4203.7002 -284.255 1.8403113e-38
1655.66 4234.6802 -285.22501 1.8403113e-38
1637.86 4267.4702 -286.642 1.8403113e-38
1618.84 4296.21 -286.858 1.8403113e-38
1600.42 4320.8599 -286.41199 1.8403113e-38
1580.41 4350.27 -286.46701 1.8403113e-38
1561.83 4364.7998 -283.88901 1.8403113e-38
1540.33 4401.71 -285.04501 1.8403113e-38
1519.98 4428.6602 -284.491 1.8403113e-38
1497.97 4458.3301 -284.004 1.8403113e-38
1476.39 4487.8501 -283.61401 1.8403113e-38
3126.25 2020.45 -270.11401 1.8403113e-38
3116.8101 2034.21 -270.116 1.8403113e-38
3110.1599 2048.02 -270.96799 1.8403113e-38
3102.3999 2061.22 -271.35901 1.8403113e-38
3094.5601 2074.8799 -271.82401 1.8403113e-38
3077.54 2101.29 -272.159 1.8403113e-38
3064.54 2114.3601 -270.953 1.8403113e-38
3054.3201 2127.5601 -270.60901 1.8403113e-38
3045.9099 2139.8501 -270.616 1.8403113e-38
3038.3501 2152.52 -270.95999 1.8403113e-38
3028.78 2164.5801 -270.573 1.8403113e-38
3028.6899 2176.6001 -273.02499 1.8403113e-38
3013.1699 2188.6399 -270.849 1.8403113e-38
3010 2200.6201 -272.367 1.8403113e-38
3001.97 2212.0701 -272.31601 1.8403113e-38
2993.8101 2223.96 -272.32001 1.8403113e-38
2979.8501 2235.1699 -270.439 1.8403113e-38
2973.4299 2246.74 -270.89801 1.8403113e-38
2972.6899 2257.73 -272.944 1.8403113e-38
2962.26 2269.0601 -272.147 1.8403113e-38
2950.8401 2279.6201 -270.897 1.8403113e-38
2947.8799 2290.8999 -272.33499 1.8403113e-38
2939.1599 2301.3101 -271.86301 1.8403113e-38
2936.98 2312.52 -273.51801 1.8403113e-38
2927.1499 2322.6399 -272.65399 1.8403113e-38
2920.98 2333.4299 -273.02802 1.8403113e-38
2918.6001 2343.9299 -274.478 1.8403113e-38
2907.52 2354.1101 -273.25299 1.8403113e-38
2902.1399 2364.1799 -273.71399 1.8403113e-38
2896.6001 2374.71 -274.21899 1.8403113e-38
2892 2384.74 -274.909 1.8403113e-38
2881.5801 2394.49 -273.79099 1.8403113e-38
2874.02 2403.95 -273.47101 1.8403113e-38
2874.74 2415.0901 -275.98499 1.8403113e-38
2863.28 2423.8 -274.341 1.8403113e-38
2857.27 2433.79 -274.59799 1.8403113e-38
2854.1001 2443.7 -275.689 1.8403113e-38
2843.28 2452.6699 -274.29001 1.8403113e-38
2839.04 2462.25 -274.99301 1.8403113e-38
2837.3799 2472.8701 -276.68399 1.8403113e-38
2831.1299 2481.98 -276.686 1.8403113e-38
2824.6799 2491.51 -276.71399 1.8403113e-38
2815.01 2505.1201 -276.61749 1.8403113e-38
2798.79 2516.9199 -274.18399 1.8403113e-38
2797.5801 2527.49 -275.99799 1.8403113e-38
2793.6899 2536.8301 -276.75601 1.8403113e-38
2783.2 2544.8 -275.25201 1.8403113e-38
2773.74 2552.3999 -273.98001 1.8403113e-38
2769.5 2562 -274.685 1.8403113e-38
2753.77 2578.25 -273.314 1.8403113e-38
2764.4399 2570.79 -274.98099 1.8403113e-38
2753.0701 2588.3799 -275.194 1.8403113e-38
2740.51 2594.99 -272.78799 1.8403113e-38
2737.8899 2604.4399 -273.94699 1.8403113e-38
2738.54 2615.6299 -276.44901 1.8403113e-38
2726.9099 2621.75 -274.22299 1.8403113e-38
2714.8101 2638.47 -274.03799 1.8403113e-38
2720.3601 2630.2 -273.99799 1.8403113e-38
2715.98 2649.99 -276.76199 1.8403113e-38
2702.47 2654.9099 -273.72299 1.8403113e-38
2702.6001 2666.04 -276.05499 1.8403113e-38
2691.6201 2671.8301 -273.95401 1.8403113e-38
2677.96 2687.3201 -273.04901 1.8403113e-38
2686.4299 2680.6101 -274.20599 1.8403113e-38
2675.1899 2697.1899 -274.25201 1.8403113e-38
2669.1699 2704.97 -274.04901 1.8403113e-38
2655.0601 2719.9099 -272.89401 1.8403113e-38
2661.1899 2712.28 -273.159 1.8403113e-38
2645.3201 2726.1599 -271.26001 1.8403113e-38
2646.5701 2737.6201 -273.996 1.8403113e-38
2640.03 2745.51 -273.66101 1.8403113e-38
2630.3899 2751.0801 -271.91599 1.8403113e-38
2626.21 2760.2 -272.54099 1.8403113e-38
2619.46 2778.9099 -274.37201 1.8403113e-38
2627.0601 2771.72 -275.17099 1.8403113e-38
2616.0801 2788.04 -275.241 1.8403113e-38
2602.79 2791.6201 -271.98901 1.8403113e-38
2599.29 2800.6399 -272.80099 1.8403113e-38
2599.3999 2812.6101 -275.29901 1.8403113e-38
2588.5601 2828.95 -275.41599 1.8403113e-38
2593.3601 2820.0801 -275.02899 1.8403113e-38
2582.3999 2836.3301 -275.08801 1.8403113e-38
2572.8401 2841.8899 -273.36401 1.8403113e-38
2571.9399 2852.9399 -275.37299 1.8403113e-38
2559.6899 2868.28 -274.85699 1.8403113e-38
2569.1201 2863.3201 -276.66599 1.8403113e-38
2549.96 2873.5 -273.01401 1.8403113e-38
2550.9199 2886.26 -275.93301 1.8403113e-38
2544.04 2893.6699 -275.396 1.8403113e-38
2544.74 2906.51 -278.25299 1.8403113e-38
2538.4299 2914.46 -277.996 1.8403113e-38
2525.9199 2929.8 -277.40601 1.8403113e-38
2530.9199 2920.76 -277.04099 1.8403113e-38
2521.8601 2939.0601 -278.095 1.8403113e-38
2513.8701 2945.5601 -277.03699 1.8403113e-38
2497.3799 2957.3201 -274.51501 1.8403113e-38
2508.25 2953.5 -276.98801 1.8403113e-38
2496.49 2969.6299 -276.78101 1.8403113e-38
2483.0801 2984.27 -275.77802 1.8403113e-38
2493.0601 2980.3999 -277.97299 1.8403113e-38
2478.8 2994.3301 -276.56799 1.8403113e-38
2464.3401 3008.01 -275.04599 1.8403113e-38
2476.0901 3005.3601 -278.02499 1.8403113e-38
2455.48 3027.6001 -276.427 1.8403113e-38
2464.71 3022.3899 -278.12 1.8403113e-38
2453.6399 3039.97 -278.422 1.8403113e-38
2444.1001 3059.54 -279.59399 1.8403113e-38
2432.1599 3061.6599 -276.44901 1.8403113e-38
2428.6001 3072.6101 -277.638 1.8403113e-38
2414.72 3087.5801 -276.55899 1.8403113e-38
2426.3701 3086.0601 -279.742 1.8403113e-38
2403.51 3106.04 -277.00101 1.8403113e-38
2412.25 3101.02 -278.58701 1.8403113e-38
2394.95 3112.04 -275.668 1.8403113e-38
2393.0601 3125.8899 -277.95599 1.8403113e-38
2386.6201 3134.8101 -277.862 1.8403113e-38
2381.6001 3144.8999 -278.436 1.8403113e-38
2373.3 3151.46 -277.29599 1.8403113e-38
2371.3701 3166.1299 -279.73901 1.8403113e-38
2354.21 3177.9199 -277.02399 1.8403113e-38
2361.8 3171.05 -277.883 1.8403113e-38
2341.0601 3195.75 -276.75 1.8403113e-38
2350.3799 3191.3401 -278.63599 1.8403113e-38
2337.46 3209.9399 -278.59399 1.8403113e-38
2329.54 3216.6299 -277.59698 1.8403113e-38
2303.0801 3254.8601 -277.539 1.8403113e-38
2313.28 3251.6201 -279.92999 1.8403113e-38
2298.55 3269.02 -279.09799 1.8403113e-38
2278.8999 3300.0801 -279.60101 1.8403113e-38
2256.78 3329.4399 -279.017 1.8403113e-38
2250.3301 3340.6799 -279.39801 1.8403113e-38
2220.95 3383.29 -279.36401 1.8403113e-38
2213.6799 3395.51 -279.702 1.8403113e-38
2190.8401 3428.8401 -279.71799 1.8403113e-38
2182.9399 3440.9299 -279.84 1.8403113e-38
2116.3401 3536.1599 -279.483 1.8403113e-38
2080.3201 3586.8301 -279.11801 1.8403113e-38
2060.8899 3610.46 -278.15799 1.8403113e-38
2051.5601 3623.5 -278.048 1.8403113e-38
2033.6801 3658.0801 -279.81 1.8403113e-38
2021.6899 3664.53 -277.54199 1.8403113e-38
2011.22 3675.46 -276.651 1.8403113e-38
2002.4301 3698.8101 -278.828 1.8403113e-38
1990.46 3703.9099 -276.289 1.8403113e-38
1982.12 3732.8999 -279.76099 1.8403113e-38
1960.3199 3763.8999 -279.60599 1.8403113e-38
1949.53 3780.1799 -279.728 1.8403113e-38
3234.5601 1822.85 -261.88699 1.8403113e-38
3235.47 1837.09 -265.095 1.8403113e-38
3222 1854.27 -264.59201 1.8403113e-38
3216.97 1869.76 -266.27701 1.8403113e-38
3202.24 1886.73 -265.354 1.8403113e-38
3198.8101 1901.5 -267.36801 1.8403113e-38
3186.6101 1917.4 -266.98801 1.8403113e-38
3179.1101 1932.73 -267.897 1.8403113e-38
3165.6799 1948.42 -267.10001 1.8403113e-38
3158.8501 1963.23 -268.10101 1.8403113e-38
3148 1977.96 -267.88199 1.8403113e-38
3142.8101 1992.14 -269.246 1.8403113e-38
3126.9299 2007.3101 -267.608 1.8403113e-38
3077.95 2088.76 -269.698 1.8403113e-38
1464.95 4415.27 -265.22699 1.8403113e-38
1462.11 4289.7998 -238.51601 1.8403113e-38
1458.76 4177.9399 -214.45799 1.8403113e-38
3012.6699 1859.25 -202.819 1.8403113e-38
3013.3999 1871.5 -205.562 1.8403113e-38
3015.23 1797.11 -190.78101 1.8403113e-38
3010.8101 1810.71 -192.256 1.8403113e-38
3016.6201 1821.5 -196.22501 1.8403113e-38
3013.8201 1834.42 -198.047 1.8403113e-38
3010.1001 1848.11 -199.75301 1.8403113e-38
1457.83 4068.1101 -191.54601 1.8403113e-38
3019.3701 1745.12 -181.311 1.8403113e-38
3010.8601 1760.6899 -181.965 1.8403113e-38
3017.0901 1771.36 -186.032 1.8403113e-38
3013.8301 1784.78 -187.82001 1.8403113e-38
3017.9199 1694.04 -170.34801 1.8403113e-38
3017.23 1707.02 -172.817 1.8403113e-38
3012.97 1721.97 -174.618 1.8403113e-38
3011.1101 1735.2 -176.786 1.8403113e-38
1451.2 4004.1399 -176.375 1.8403113e-38
3009.8601 1657.77 -160.45399 1.8403113e-38
3016.9299 1668.1899 -164.722 1.8403113e-38
3016.48 1681.23 -167.276 1.8403113e-38
3021.01 1598.64 -151.614 1.8403113e-38
3014.3501 1615.84 -153.16 1.8403113e-38
3017.0701 1627.74 -156.42999 1.8403113e-38
3013.6499 1643.08 -158.565 1.8403113e-38
1450.97 3910.9299 -157.09599 1.8403113e-38
3016.74 1559.5601 -142.28101 1.8403113e-38
3019.96 1571.51 -145.71001 1.8403113e-38
3017.1499 1587.13 -148.084 1.8403113e-38
1448.5601 3836.2 -140.97301 1.8403113e-38
3016.8601 1502.59 -130.576 1.8403113e-38
3017.1299 1516.49 -133.521 1.8403113e-38
3016.6599 1531.39 -136.45 1.8403113e-38
3014.8999 1546.14 -138.963 1.8403113e-38
3021.4199 1455.51 -122.243 1.8403113e-38
3018.1799 1472.63 -124.797 1.8403113e-38
3023.02 1484.15 -128.62399 1.8403113e-38
1448.0601 3761.5801 -125.447 1.8403113e-38
3026.45 1391.46 -110.552 1.8403113e-38
3023.9399 1408.91 -113.395 1.8403113e-38
3025.1201 1423.1 -116.674 1.8403113e-38
3018.8701 1442.45 -118.786 1.8403113e-38
1443.58 3712.21 -113.927 1.8403113e-38
3026.9199 1344.13 -100.94 1.8403113e-38
3022.98 1362.35 -103.51 1.8403113e-38
3019.1599 1381 -106.208 1.8403113e-38
1443.13 3649.3101 -100.83 1.8403113e-38
3031.9399 1291.1801 -91.533401 1.8403113e-38
3025.72 1312.53 -94.068398 1.8403113e-38
3027.05 1327.51 -97.552696 1.8403113e-38
1439.46 3604.8101 -90.559799 1.8403113e-38
3027.6001 1244.05 -80.520203 1.8403113e-38
3027.23 1260.99 -83.899597 1.8403113e-38
3031.0601 1275.49 -88.034897 1.8403113e-38
3033.77 1186.2 -70.448898 1.8403113e-38
3031.29 1206.38 -73.864098 1.8403113e-38
3029.76 1224.6801 -77.174004 1.8403113e-38
1438.9301 3551.6699 -79.448799 1.8403113e-38
1250.9 3792.79 -72.7267 1.8403113e-38
3039.8201 1126.8 -60.021999 1.8403113e-38
3035.3301 1148.62 -63.174 1.8403113e-38
3031.78 1170.23 -66.560799 1.8403113e-38
1435.36 3465.75 -60.672401 1.8403113e-38
1436.84 3507.2 -69.658203 1.8403113e-38
1235.22 3796.9099 -68.872002 1.8403113e-38
1217.4 3809.5801 -66.138603 1.8403113e-38
1199.01 3820.9399 -62.961102 1.8403113e-38
1078.9 3991.1899 -62.011299 1.8403113e-38
3037 1091.33 -51.865799 1.8403113e-38
3039.05 1108.16 -55.949501 1.8403113e-38
1431.5699 3434.8401 -53.167198 1.8403113e-38
1189.24 3807.75 -57.312 1.8403113e-38
1169.01 3823.48 -54.4851 1.8403113e-38
1135.26 3878.6299 -55.725101 1.8403113e-38
1072.24 3965.9199 -54.807301 1.8403113e-38
3047.9399 1022.11 -40.882599 1.8403113e-38
3044.49 1045.72 -44.715099 1.8403113e-38
3040.28 1068.64 -48.176498 1.8403113e-38
1420.6899 3394.3 -41.546398 1.8403113e-38
1426.6801 3412.71 -47.136902 1.8403113e-38
1070.23 3927.3601 -46.2565 1.8403113e-38
3044.25 984.612 -32.049801 1.8403113e-38
3043.52 1006.37 -36.314499 1.8403113e-38
1391.58 3388.8501 -31.690399 1.8403113e-38
1401.28 3390.0801 -34.8535 1.8403113e-38
1411.21 3392.29 -38.287899 1.8403113e-38
1066.88 3855.3201 -30.406099 1.8403113e-38
1070.96 3885.3999 -37.8284 1.8403113e-38
3048.25 938.60999 -23.7705 1.8403113e-38
3045.9299 962.633 -28.023701 1.8403113e-38
1378.11 3398.8701 -29.715099 1.8403113e-38
1065.4399 3821.8201 -23.071301 1.8403113e-38
3053.73 867.67102 -10.7951 1.8403113e-38
3051.79 891.47699 -15.119 1.8403113e-38
3050.79 915.02502 -19.6707 1.8403113e-38
1055.23 3774.02 -10.1586 1.8403113e-38
1061.5699 3793.6599 -16.1054 1.8403113e-38
3054.77 820.63898 -1.41572 1.8403113e-38
3054.1201 843.92297 -6.0195098 1.8403113e-38
1040.16 3773.3101 -5.4876299 1.8403113e-38
1020.79 3783.6299 -1.80436 1.8403113e-38
3060.6799 766.62402 7.9426599 1.8403113e-38
3055.24 795.97998 3.52654 1.8403113e-38
990.534 3782.55 7.4955401 1.8403113e-38
1001.83 3790.74 2.4184999 1.8403113e-38
3059.8601 718.06799 18.196699 1.8403113e-38
3060.46 741.73798 13.1372 1.8403113e-38
959.73297 3781.74 16.9021 1.8403113e-38
975.26599 3781.1799 12.358 1.8403113e-38
3064.27 661.612 28.5054 1.8403113e-38
3058.3401 693.771 23.659901 1.8403113e-38
939.96002 3789 21.3395 1.8403113e-38
923.37201 3790.98 25.906099 1.8403113e-38
3083.1201 585.422 38.552898 1.8403113e-38
3078.1499 618.01398 33.327099 1.8403113e-38
896.82501 3779.98 36.137798 1.8403113e-38
908.83899 3787.1599 31.053801 1.8403113e-38
848.16901 3839.1899 38.533298 1.8403113e-38
3085.71 553.64697 44.3242 1.8403113e-38
848.29797 3808.75 44.767502 1.8403113e-38
3086.54 494.94101 56.1735 1.8403113e-38
3084.1599 527.74902 50.1245 1.8403113e-38
859.69598 3729.5901 57.662102 1.8403113e-38
839.92603 3792.8799 50.5509 1.8403113e-38
3091.22 428.66299 68.4263 1.8403113e-38
3089.77 461.76001 62.040901 1.8403113e-38
828.05902 3727.6599 67.550499 1.8403113e-38
842.58398 3730.26 62.656399 1.8403113e-38
3092.9399 395.996 74.6418 1.8403113e-38
810.854 3727.97 72.647903 1.8403113e-38
789.99799 3735.26 77.402603 1.8403113e-38
3192.78 193.633 86.393097 1.8403113e-38
3131.3999 311.099 80.599701 1.8403113e-38
777.94 3726.6899 82.787498 1.8403113e-38
756.33698 3734.3799 87.682404 1.8403113e-38
3172.0901 186.11 94.148399 1.8403113e-38
723.59998 3731.0801 98.183601 1.8403113e-38
739.40802 3733.05 93.0364 1.8403113e-38
3193.1599 82.4459 109.192 1.8403113e-38
3165.3899 160.541 101.43 1.8403113e-38
684.52802 3736.1299 108.866 1.8403113e-38
705.49103 3731.03 103.627 1.8403113e-38
