# .PCD v0.7 - Point Cloud Data file format
VERSION 0.7
FIELDS x y z rgb
SIZE 4 4 4 4
TYPE F F F F
COUNT 1 1 1 1
WIDTH 361
HEIGHT 1
VIEWPOINT 0 0 0 1 0 0 0
POINTS 361
DATA ascii
601.94397 -123.802 -293.591 1.8403113e-38
584.17499 -82.862999 -296.21799 1.8403113e-38
570.474 -21.341801 -295.57901 1.8403113e-38
554.83197 23.623501 -297.09799 1.8403113e-38
542.22498 81.282204 -296.41599 1.8403113e-38
527.89899 125.351 -297.54999 1.8403113e-38
514.64899 171.395 -298.12799 1.8403113e-38
503.133 222.28999 -297.66299 1.8403113e-38
492.20099 272.211 -297.078 1.8403113e-38
479.629 311.535 -298.01599 1.8403113e-38
469.483 358.55899 -297.41199 1.8403113e-38
457.94299 396.94501 -298.06799 1.8403113e-38
448.20801 440.117 -297.66199 1.8403113e-38
439.892 486.12299 -296.50201 1.8403113e-38
430.98999 527.33502 -295.97699 1.8403113e-38
420.577 560.94299 -296.66101 1.8403113e-38
414.526 607.77502 -294.62799 1.8403113e-38
402.965 633.82098 -296.39099 1.8403113e-38
396.73099 675.85602 -294.85001 1.8403113e-38
389.646 713.14697 -294.03201 1.8403113e-38
380.05701 741.06897 -294.931 1.8403113e-38
368.987 763.42401 -296.84799 1.8403113e-38
365 805.26801 -294.53101 1.8403113e-38
357.362 835.01599 -294.57999 1.8403113e-38
350.16 864.74298 -294.47601 1.8403113e-38
342.703 892.61102 -294.62799 1.8403113e-38
337.06299 924.10999 -293.815 1.8403113e-38
329.36301 949.19299 -294.29999 1.8403113e-38
319.07401 967.02301 -296.345 1.8403113e-38
315.41 1000.23 -294.68201 1.8403113e-38
308.405 1024.37 -295.00601 1.8403113e-38
304.086 1053.87 -293.90601 1.8403113e-38
299.00201 1080.62 -293.319 1.8403113e-38
292.67801 1103.79 -293.48901 1.8403113e-38
287.91699 1129.5699 -292.87399 1.8403113e-38
283.103 1154.4399 -292.36099 1.8403113e-38
279.92499 1181.88 -291.04099 1.8403113e-38
275.83499 1206.63 -290.28101 1.8403113e-38
270.32401 1227.86 -290.336 1.8403113e-38
265.103 1249.0699 -290.29099 1.8403113e-38
239.44501 1347.91 -290.55099 1.8403113e-38
220.27299 1421.02 -290.81 1.8403113e-38
216.20599 1439.4399 -290.60599 1.8403113e-38
211.32401 1456.21 -290.83701 1.8403113e-38
204.36099 1492.89 -290.03 1.8403113e-38
199.047 1507.99 -290.561 1.8403113e-38
193.36301 1522.3 -291.29401 1.8403113e-38
181.92101 1571.4399 -290.95901 1.8403113e-38
179.87 1589.55 -290.07101 1.8403113e-38
174.53101 1603.03 -290.75601 1.8403113e-38
169.34599 1616.52 -291.38501 1.8403113e-38
160.718 1625.52 -293.63 1.8403113e-38
160.049 1644.26 -292.198 1.8403113e-38
154.722 1657.01 -292.94299 1.8403113e-38
156.343 1677.83 -290.51801 1.8403113e-38
153.868 1693.4399 -290.00299 1.8403113e-38
145.272 1701.8 -292.29199 1.8403113e-38
138.01801 1711.67 -293.974 1.8403113e-38
133.52299 1742.1 -292.85199 1.8403113e-38
131.22099 1756.9 -292.34799 1.8403113e-38
125.128 1767.52 -293.55301 1.8403113e-38
125.14 1784.33 -292.052 1.8403113e-38
121.998 1797.6801 -291.974 1.8403113e-38
121.041 1813.01 -290.94699 1.8403113e-38
116.847 1824.96 -291.36301 1.8403113e-38
113.468 1837.58 -291.43301 1.8403113e-38
87.812798 1920.5601 -293.103 1.8403113e-38
86.210503 1933.6899 -292.49899 1.8403113e-38
81.800003 1944.4 -293.103 1.8403113e-38
74.784103 1967.03 -293.565 1.8403113e-38
85.667603 1961.62 -290.20599 1.8403113e-38
67.4608 1989.09 -294.18701 1.8403113e-38
70.549103 2018.38 -290.48999 1.8403113e-38
51.929401 2070.8 -292.396 1.8403113e-38
645.14502 -162.159 -281.758 1.8403113e-38
622.15503 -151.894 -288.95801 1.8403113e-38
261.543 1272.83 -289.43399 1.8403113e-38
256.45901 1293.11 -289.423 1.8403113e-38
252.119 1314.21 -289.07599 1.8403113e-38
245.674 1331.0601 -289.85199 1.8403113e-38
237.373 1371.4301 -289.189 1.8403113e-38
233.129 1390.73 -288.96899 1.8403113e-38
227.114 1406.7 -289.67099 1.8403113e-38
208.791 1476.1801 -289.95401 1.8403113e-38
193.457 1544.45 -289.29001 1.8403113e-38
188.746 1559.5 -289.61301 1.8403113e-38
146.291 1738.6 -288.65799 1.8403113e-38
119.962 1859.3 -287.20801 1.8403113e-38
114.131 1869.21 -288.384 1.8403113e-38
109.098 1879.8101 -289.21701 1.8403113e-38
111.998 1897.37 -286.63101 1.8403113e-38
103.644 1904.8 -288.91699 1.8403113e-38
101.12 1917.28 -288.698 1.8403113e-38
80.484001 1985.26 -289.931 1.8403113e-38
77.313301 2009.96 -288.85199 1.8403113e-38
71.574203 2032.34 -288.88501 1.8403113e-38
66.538902 2041.9 -289.81201 1.8403113e-38
70.969299 2057.8999 -286.82501 1.8403113e-38
64.5812 2066.3899 -288.323 1.8403113e-38
53.803902 2097.28 -289.37799 1.8403113e-38
62.339802 2090.2 -286.995 1.8403113e-38
50.936798 2107.9299 -289.44199 1.8403113e-38
53.020699 2121.51 -287.49799 1.8403113e-38
47.128399 2130.2 -288.80399 1.8403113e-38
47.837101 2142.73 -287.439 1.8403113e-38
43.752602 2152.3999 -288.01999 1.8403113e-38
45.525799 2165.3 -286.246 1.8403113e-38
38.319599 2173.1699 -288.08899 1.8403113e-38
42.824699 2187.3201 -285.23999 1.8403113e-38
40.7967 2197.8601 -285.017 1.8403113e-38
38.8666 2208.3999 -284.76099 1.8403113e-38
26.9048 2213.8999 -288.49301 1.8403113e-38
33.604099 2228.6201 -284.819 1.8403113e-38
23.445999 2235.1101 -287.82599 1.8403113e-38
29.557199 2249.25 -284.41 1.8403113e-38
20.378201 2256.28 -287.02499 1.8403113e-38
18.9904 2266.8401 -286.57501 1.8403113e-38
14.2394 2275.8999 -287.44501 1.8403113e-38
17.373501 2288.28 -285.237 1.8403113e-38
16.278799 2298.79 -284.68799 1.8403113e-38
11.7817 2307.8999 -285.465 1.8403113e-38
5.6005702 2316.3701 -286.892 1.8403113e-38
5.6435399 2327.24 -285.91 1.8403113e-38
4.9044499 2337.74 -285.23599 1.8403113e-38
2.4877999 2347.6001 -285.211 1.8403113e-38
0.154898 2357.47 -285.15601 1.8403113e-38
-3.87802 2366.76 -285.75299 1.8403113e-38
-6.0486302 2376.6599 -285.638 1.8403113e-38
-4.5467601 2387.7 -284.12601 1.8403113e-38
-7.4389701 2397.3201 -284.29001 1.8403113e-38
-13.8607 2405.8999 -285.79199 1.8403113e-38
-14.7955 2416.1101 -285.21399 1.8403113e-38
-14.7349 2426.5601 -284.263 1.8403113e-38
-11.8541 2437.6799 -282.25601 1.8403113e-38
-19.8018 2445.98 -284.323 1.8403113e-38
-16.736099 2457.04 -282.25601 1.8403113e-38
-23.6343 2465.6899 -283.92099 1.8403113e-38
-24.0516 2475.8701 -283.16299 1.8403113e-38
-22.5427 2486.4199 -281.69101 1.8403113e-38
-26.464899 2495.8 -282.23999 1.8403113e-38
-33.1646 2514.8799 -282.90701 1.8403113e-38
-31.307899 2525.3701 -281.31799 1.8403113e-38
-36.778198 2534.5901 -282.42899 1.8403113e-38
-34.747398 2545.03 -280.78201 1.8403113e-38
-37.276199 2554.75 -280.81 1.8403113e-38
-45.317101 2563.73 -282.849 1.8403113e-38
-42.0984 2574.26 -280.77499 1.8403113e-38
-49.410099 2593.5801 -281.63599 1.8403113e-38
-48.7379 2603.74 -280.495 1.8403113e-38
-58.289902 2612.9399 -283.047 1.8403113e-38
-58.394001 2623.0701 -282.18301 1.8403113e-38
-56.535599 2633.3101 -280.61499 1.8403113e-38
-62.108101 2643.05 -281.716 1.8403113e-38
-61.0215 2653.22 -280.427 1.8403113e-38
-68.319099 2662.99 -282.133 1.8403113e-38
-68.0084 2673.1499 -281.11899 1.8403113e-38
-79.385902 2693.23 -283.34799 1.8403113e-38
-76.940903 2703.46 -281.57401 1.8403113e-38
-80.068298 2713.6599 -281.76999 1.8403113e-38
-85.176003 2744.46 -280.832 1.8403113e-38
-89.854103 2754.8999 -281.55301 1.8403113e-38
-90.673302 2765.24 -280.922 1.8403113e-38
-94.236298 2775.76 -281.24301 1.8403113e-38
-103.927 2797.22 -282.755 1.8403113e-38
-109.492 2818.6599 -282.81 1.8403113e-38
-107.904 2829.02 -281.327 1.8403113e-38
-109.052 2839.6799 -280.784 1.8403113e-38
-115.776 2861.6799 -281.19901 1.8403113e-38
-120.249 2883.6599 -280.82101 1.8403113e-38
-125.622 2895.25 -281.686 1.8403113e-38
-125.281 2906 -280.60999 1.8403113e-38
-130.86099 2928.72 -280.55701 1.8403113e-38
-136.04401 2951.6799 -280.34201 1.8403113e-38
-147.228 2987.55 -281.09799 1.8403113e-38
-153.222 3011.6299 -281.07001 1.8403113e-38
-159.7 3036.24 -281.16599 1.8403113e-38
-169.48199 3074.01 -281.25699 1.8403113e-38
-173.118 3086.9399 -281.38901 1.8403113e-38
-183.291 3126.28 -281.479 1.8403113e-38
-193.95 3154.5601 -282.724 1.8403113e-38
-195.101 3179.8899 -280.87601 1.8403113e-38
-198.625 3193.8401 -280.87799 1.8403113e-38
-233.08701 3314.1201 -282.33701 1.8403113e-38
-20.1639 2507.2 -279.00201 1.8403113e-38
-40.654301 2584.5 -279.354 1.8403113e-38
-65.728897 2683.3401 -279.40799 1.8403113e-38
-74.623398 2723.8101 -278.94501 1.8403113e-38
-79.469803 2734.0801 -279.742 1.8403113e-38
-91.112198 2785.8999 -279.23801 1.8403113e-38
-97.804001 2807.1399 -279.70999 1.8403113e-38
-108.231 2850.1201 -279.565 1.8403113e-38
-113.837 2872.05 -279.59201 1.8403113e-38
-123.916 2916.5701 -279.18701 1.8403113e-38
-129.31 2939.3401 -279.064 1.8403113e-38
-136.162 2962.75 -279.39899 1.8403113e-38
-140.82401 2974.8799 -279.965 1.8403113e-38
-145.194 2998.3101 -279.422 1.8403113e-38
-149.14799 3021.95 -278.71399 1.8403113e-38
-153.59599 3046.0601 -278.138 1.8403113e-38
-158.403 3059.01 -278.68201 1.8403113e-38
-168.44901 3097.3201 -278.81799 1.8403113e-38
-163.698 3107.6399 -276.22299 1.8403113e-38
-181.923 3137.96 -279.95599 1.8403113e-38
-185.162 3163.6799 -278.811 1.8403113e-38
-171.772 3195.6499 -271.23999 1.8403113e-38
-196.614 3257.1399 -274.535 1.8403113e-38
-212.483 3277.48 -278.32599 1.8403113e-38
-219.399 3294.05 -279.29199 1.8403113e-38
-224.911 3323.8701 -278.58301 1.8403113e-38
-219.252 3334.8101 -275.612 1.8403113e-38
-228.96001 3353.6001 -277.366 1.8403113e-38
-229.049 3367.6899 -276.14401 1.8403113e-38
-240.07201 3387.73 -278.25 1.8403113e-38
-237.29401 3400.6101 -276.12399 1.8403113e-38
-237.77699 3415.3701 -274.98099 1.8403113e-38
-238.952 3430.6599 -274.035 1.8403113e-38
-247.504 3450.3899 -275.297 1.8403113e-38
-248.332 3465.8799 -274.211 1.8403113e-38
-258.95099 3487.4399 -276.04001 1.8403113e-38
-261.888 3504.6699 -275.543 1.8403113e-38
-265.45999 3522.52 -275.215 1.8403113e-38
-271.28699 3542.05 -275.53299 1.8403113e-38
-272.01501 3558.5701 -274.32001 1.8403113e-38
-276.612 3577.8301 -274.228 1.8403113e-38
-285.81799 3600.51 -275.45901 1.8403113e-38
-296.28699 3676.21 -272.41699 1.8403113e-38
-326.008 3809.45 -271.04901 1.8403113e-38
-334.55399 3835.9299 -271.70801 1.8403113e-38
-340.522 3860.75 -271.60501 1.8403113e-38
-347.849 3907.72 -270.01099 1.8403113e-38
-160.043 3203.26 -266.423 1.8403113e-38
-147.39101 3210.3101 -261.32999 1.8403113e-38
-147.92 3222.9299 -260.39499 1.8403113e-38
-255.541 3596.3401 -265.14499 1.8403113e-38
-339.49301 3880.03 -269.52701 1.8403113e-38
-349.987 3930.4399 -268.74399 1.8403113e-38
-238.153 3600.6399 -258.625 1.8403113e-38
-227.905 3609.79 -254.19501 1.8403113e-38
-376.108 4209.75 -253.105 1.8403113e-38
699.45203 77.653099 -241.25 1.8403113e-38
-360.685 4218.6299 -246.87199 1.8403113e-38
-376.30499 4261.6802 -248.55299 1.8403113e-38
-362.479 4272.7002 -242.69299 1.8403113e-38
-291.625 4049.6599 -237.537 1.8403113e-38
-280.159 4060.72 -232.505 1.8403113e-38
-315.44699 4120.8599 -239.608 1.8403113e-38
-344.672 4279.1201 -235.83701 1.8403113e-38
-322.35101 4280.0898 -227.873 1.8403113e-38
-309.035 4291.3301 -222.174 1.8403113e-38
742.16901 253.336 -210.539 1.8403113e-38
-158.888 3779.45 -214.73801 1.8403113e-38
-189.58701 3925.3 -212.593 1.8403113e-38
-284.26099 4288.7598 -213.659 1.8403113e-38
764.68903 269.888 -201.118 1.8403113e-38
-91.919899 3603.55 -206.757 1.8403113e-38
-258.99399 4285.0898 -205.069 1.8403113e-38
-343.49701 4638.6802 -203.424 1.8403113e-38
1121.86 -1022.66 -190.092 1.8403113e-38
1090.75 -1005.48 -199.54601 1.8403113e-38
-98.983597 3743.04 -196.836 1.8403113e-38
-225.826 4271.0601 -194.612 1.8403113e-38
-218.717 4289.1401 -190.493 1.8403113e-38
1153.39 -1043.54 -180.825 1.8403113e-38
790.341 321.241 -187.495 1.8403113e-38
5.55725 3469.6499 -184.272 1.8403113e-38
-198.661 4290.79 -183.26801 1.8403113e-38
-236.535 4397.1401 -187.17 1.8403113e-38
1184.96 -1057.15 -170.895 1.8403113e-38
862.88898 208.34 -171.938 1.8403113e-38
811.14801 329.39999 -179.42599 1.8403113e-38
832.20001 342.71399 -170.811 1.8403113e-38
45.050301 3453.5701 -171.765 1.8403113e-38
-35.439098 3701.6201 -178.097 1.8403113e-38
-21.068199 3705.0601 -172.71899 1.8403113e-38
-26.5051 3727.3899 -172.64999 1.8403113e-38
-177.461 4290.6201 -175.802 1.8403113e-38
884.64697 224.132 -162.854 1.8403113e-38
850.64697 324.53601 -165.918 1.8403113e-38
50.9786 3462.4099 -168.886 1.8403113e-38
56.9813 3471.2 -165.985 1.8403113e-38
-12.0174 3730.6201 -167.25 1.8403113e-38
-156.47501 4318.1802 -165.94299 1.8403113e-38
-157.972 4348.7002 -163.755 1.8403113e-38
1054.1899 -325.48999 -151.92999 1.8403113e-38
942.698 104.734 -152.992 1.8403113e-38
922.61298 142.071 -156.758 1.8403113e-38
905.13898 220.278 -155.965 1.8403113e-38
1207.79 -891.16101 -148.063 1.8403113e-38
985.17798 62.398602 -141.76801 1.8403113e-38
964.185 100.391 -145.79601 1.8403113e-38
1234.03 -830.534 -133.408 1.8403113e-38
1029 -15.0542 -133.19501 1.8403113e-38
1006.71 14.6204 -138.423 1.8403113e-38
1264.89 -854.30402 -124.633 1.8403113e-38
1342.15 -1074.0699 -116.925 1.8403113e-38
1294.35 -853.89697 -114.198 1.8403113e-38
1372.88 -1067.03 -105.453 1.8403113e-38
1404.49 -1069.65 -94.528801 1.8403113e-38
1435.62 -1067.01 -83.307198 1.8403113e-38
1467.0699 -1067.05 -72.213799 1.8403113e-38
1499.64 -1075.73 -61.490601 1.8403113e-38
242.44901 3834.54 -68.194199 1.8403113e-38
1531.3199 -1076.17 -50.349998 1.8403113e-38
338.59299 3714.6699 -44.930901 1.8403113e-38
1563.86 -1082.26 -39.405899 1.8403113e-38
363.94299 3695.22 -37.715302 1.8403113e-38
371.39001 3701.8799 -34.494099 1.8403113e-38
1596.67 -1089.02 -28.426901 1.8403113e-38
388.647 3693.49 -29.1509 1.8403113e-38
398.237 3696.5801 -25.490801 1.8403113e-38
407.83499 3699.5701 -21.8374 1.8403113e-38
1628.6899 -1089.55 -17.1754 1.8403113e-38
423.17001 3693.1499 -16.9972 1.8403113e-38
432.19 3696.73 -13.4949 1.8403113e-38
1659.92 -1084.84 -5.7355599 1.8403113e-38
442.74899 3697.6599 -9.6860704 1.8403113e-38
455.284 3695.02 -5.4967098 1.8403113e-38
461.81799 3702.6001 -2.5156701 1.8403113e-38
1693.85 -1095.6 5.2836499 1.8403113e-38
478.16199 3692.76 2.3765099 1.8403113e-38
486.16199 3697.54 5.6254401 1.8403113e-38
497.98001 3695.23 9.5904102 1.8403113e-38
1727.28 -1102.1 16.5014 1.8403113e-38
509.259 3693.6599 13.4312 1.8403113e-38
516.35797 3699.9199 16.494101 1.8403113e-38
1761.03 -1109.25 27.7768 1.8403113e-38
528.03003 3697.24 20.3741 1.8403113e-38
548.08698 3697.73 27.496401 1.8403113e-38
535.63501 3702.45 23.521999 1.8403113e-38
2026.77 -2069.01 36.1511 1.8403113e-38
1795.92 -1120.98 39.046299 1.8403113e-38
584.367 3683.5701 39.0406 1.8403113e-38
570.13397 3693.26 34.8797 1.8403113e-38
555.28699 3703.6599 30.5655 1.8403113e-38
598.29999 3695.6799 45.0355 1.8403113e-38
584.185 3705.6001 40.937401 1.8403113e-38
600.086 3714.04 47.3004 1.8403113e-38
587.16699 3768.3899 47.577499 1.8403113e-38
2072.1399 -2089.1899 50.367901 1.8403113e-38
593.55798 3777.6899 50.660702 1.8403113e-38
590.10999 3812.02 52.4986 1.8403113e-38
593.33899 3830.6299 55.2948 1.8403113e-38
2115.6899 -2099.1399 64.851601 1.8403113e-38
636.10901 3745.54 62.816399 1.8403113e-38
655.45001 3745.49 69.6381 1.8403113e-38
641.81201 3756.3501 65.790802 1.8403113e-38
2156.72 -2096.98 79.523804 1.8403113e-38
663.59399 3749.5701 72.875 1.8403113e-38
673.71899 3747.8899 76.299301 1.8403113e-38
682.21802 3750.8501 79.562302 1.8403113e-38
693.51099 3745.1699 83.042198 1.8403113e-38
713.70801 3740.1299 89.721603 1.8403113e-38
700.79303 3751.77 86.198997 1.8403113e-38
2198.01 -2095.3999 94.237 1.8403113e-38
723.57202 3737.9299 93.007004 1.8403113e-38
733.104 3736.5901 96.251801 1.8403113e-38
742.32703 3736.1201 99.464798 1.8403113e-38
2241.3 -2101.1799 108.999 1.8403113e-38
772.53003 3723.49 109 1.8403113e-38
751.52502 3735.55 102.661 1.8403113e-38
761.45398 3732 105.848 1.8403113e-38
