# .PCD v0.7 - Point Cloud Data file format
VERSION 0.7
FIELDS x y z rgb
SIZE 4 4 4 4
TYPE F F F F
COUNT 1 1 1 1
WIDTH 358
HEIGHT 1
VIEWPOINT 0 0 0 1 0 0 0
POINTS 358
DATA ascii
-653.711 -296.94501 -281.00699 1.8403113e-38
-669.54602 -258.81799 -285.22699 1.8403113e-38
-677.13599 -192.938 -285.366 1.8403113e-38
-680.70398 -116.68 -283.63901 1.8403113e-38
-686.72998 -52.939301 -283.29599 1.8403113e-38
-690.33002 15.4196 -281.89301 1.8403113e-38
-696.42297 72.291298 -281.84698 1.8403113e-38
-701.34198 130.00101 -281.34299 1.8403113e-38
-705.99902 185.714 -280.823 1.8403113e-38
-713.95898 229.149 -281.98401 1.8403113e-38
-719.30603 278.125 -281.98001 1.8403113e-38
-723.578 327.93301 -281.55399 1.8403113e-38
-730.18103 369.29501 -282.306 1.8403113e-38
-733.01703 418.89301 -281.37 1.8403113e-38
-738.68201 459.168 -281.82501 1.8403113e-38
-743.021 501.198 -281.73199 1.8403113e-38
-749.34698 536.74902 -282.61301 1.8403113e-38
-753.633 575.87701 -282.61499 1.8403113e-38
-755.40399 619.43799 -281.53201 1.8403113e-38
-760.08502 654.755 -281.828 1.8403113e-38
-766.66998 684.612 -283.02899 1.8403113e-38
-769.14099 722.47198 -282.42401 1.8403113e-38
-775.651 750.43597 -283.673 1.8403113e-38
-774.97198 792.53302 -281.76099 1.8403113e-38
-778.85602 823.888 -281.92599 1.8403113e-38
-784.49103 850.78003 -282.89999 1.8403113e-38
-784.84003 887.23401 -281.58401 1.8403113e-38
-794.19202 905.30701 -284.25201 1.8403113e-38
-796.86102 935.51599 -284.022 1.8403113e-38
-798.63599 966.495 -283.43799 1.8403113e-38
-802.349 993.09302 -283.729 1.8403113e-38
-803.76599 1023.03 -283.05701 1.8403113e-38
-810.63397 1042.7 -284.763 1.8403113e-38
-810.30103 1074.16 -283.39801 1.8403113e-38
-816.06598 1094.6 -284.67401 1.8403113e-38
-817.99402 1120.85 -284.33301 1.8403113e-38
-821.11401 1144.53 -284.52499 1.8403113e-38
-824.44 1167.3199 -284.82599 1.8403113e-38
-823.21802 1196.59 -283.22601 1.8403113e-38
-826.96198 1217.6 -283.74899 1.8403113e-38
-827.71198 1242.6 -283.03101 1.8403113e-38
-833.08099 1260.29 -284.27301 1.8403113e-38
-843.05298 1454.01 -280.21399 1.8403113e-38
-846.59497 1470.45 -280.845 1.8403113e-38
-851.80402 1484.63 -282.168 1.8403113e-38
-856.854 1498.83 -283.43399 1.8403113e-38
-856.04303 1519.59 -282.319 1.8403113e-38
-859.44299 1535.1801 -282.93201 1.8403113e-38
-862.01501 1551.46 -283.21799 1.8403113e-38
-865.04498 1566.99 -283.70001 1.8403113e-38
-865.92297 1584.61 -283.32001 1.8403113e-38
-862.60602 1606.35 -281.26001 1.8403113e-38
-900.21002 1859.91 -284.82901 1.8403113e-38
-893.01398 1851.12 -282.57401 1.8403113e-38
-899.69598 1874.49 -284.06699 1.8403113e-38
-892.86798 1893.51 -280.84299 1.8403113e-38
-898.18201 1903.4301 -282.37399 1.8403113e-38
-901.85498 1914.49 -283.26501 1.8403113e-38
-899.159 1929.9 -281.67899 1.8403113e-38
-907.31201 1937.71 -284.32001 1.8403113e-38
-905.11902 1952.48 -282.94199 1.8403113e-38
-906.74298 1964.55 -283.052 1.8403113e-38
-910.64697 1975.0601 -284.04901 1.8403113e-38
-913.65302 1986.09 -284.70001 1.8403113e-38
-910.89099 2000.61 -283.12601 1.8403113e-38
-908.78198 2014.53 -281.81201 1.8403113e-38
-905.70398 2028.85 -280.13101 1.8403113e-38
-913.146 2036.89 -282.50601 1.8403113e-38
-924.552 2055.0701 -285.91299 1.8403113e-38
-908.97998 2051.55 -280.418 1.8403113e-38
-912.65399 2073.74 -280.86899 1.8403113e-38
-918.09998 2082.8101 -282.48099 1.8403113e-38
-923.71698 2103.7 -283.686 1.8403113e-38
-918.755 2117.9399 -281.327 1.8403113e-38
-927.25897 2125.45 -284.10699 1.8403113e-38
-928.68701 2147.95 -283.733 1.8403113e-38
-935.27301 2156.4399 -285.78 1.8403113e-38
-632.005 -313.83301 -273.82199 1.8403113e-38
-823.17902 1299.47 -279.14001 1.8403113e-38
-824.245 1456.5 -273.311 1.8403113e-38
-871.50702 1853.66 -274.69199 1.8403113e-38
-912.54901 2097.6101 -279.88599 1.8403113e-38
-914.349 2143.1799 -278.73401 1.8403113e-38
-919.31598 2174.8999 -279.276 1.8403113e-38
-922.22803 2184.8401 -279.936 1.8403113e-38
-915.47302 2198.8 -276.939 1.8403113e-38
-918.18103 2208.6799 -277.52802 1.8403113e-38
-919.052 2219.28 -277.42401 1.8403113e-38
-923.34698 2228.49 -278.61301 1.8403113e-38
-922.56848 2245.0249 -277.677 1.8403113e-38
-924.245 2260.51 -277.67099 1.8403113e-38
-924.64899 2271.03 -277.401 1.8403113e-38
-926.74597 2280.9299 -277.76801 1.8403113e-38
-926.07001 2291.71 -277.09698 1.8403113e-38
-930.68799 2300.75 -278.409 1.8403113e-38
-928.92902 2311.77 -277.33701 1.8403113e-38
-924.35901 2323.52 -275.21799 1.8403113e-38
-930.53998 2332.0801 -277.116 1.8403113e-38
-935.75299 2340.99 -278.64999 1.8403113e-38
-931.79999 2352.3501 -276.76999 1.8403113e-38
-927.73999 2363.6299 -274.854 1.8403113e-38
-933.62598 2372.3501 -276.63901 1.8403113e-38
-934.86902 2382.23 -276.69699 1.8403113e-38
-932.35901 2392.9399 -275.36499 1.8403113e-38
-936.18701 2402.1899 -276.384 1.8403113e-38
-937.17999 2412.0701 -276.353 1.8403113e-38
-938.09003 2421.9399 -276.29099 1.8403113e-38
-937.07001 2432.1599 -275.51801 1.8403113e-38
-943.36603 2441.03 -277.44501 1.8403113e-38
-942.17999 2451.24 -276.61099 1.8403113e-38
-939.97803 2461.5601 -275.40601 1.8403113e-38
-945.12402 2470.72 -276.905 1.8403113e-38
-942.75201 2481 -275.64099 1.8403113e-38
-943.08698 2490.8501 -275.37201 1.8403113e-38
-934.94202 2501.6899 -271.996 1.8403113e-38
-938.841 2511.05 -273.03601 1.8403113e-38
-938.927 2520.8401 -272.67999 1.8403113e-38
-941.73798 2530.3601 -273.32001 1.8403113e-38
-943.46002 2544.9099 -273.367 1.8403113e-38
-946.89801 2559.3601 -274.04001 1.8403113e-38
-947.52197 2569.1201 -273.879 1.8403113e-38
-947.12701 2578.9199 -273.34799 1.8403113e-38
-947.591 2588.6799 -273.129 1.8403113e-38
-944.21503 2598.54 -271.51801 1.8403113e-38
-946.39697 2608.24 -271.923 1.8403113e-38
-944.73901 2618 -270.93701 1.8403113e-38
-948.64301 2627.75 -271.96399 1.8403113e-38
-953.40698 2637.5701 -273.29901 1.8403113e-38
-953.39001 2647.3799 -272.90399 1.8403113e-38
-957.05298 2657.3 -273.83701 1.8403113e-38
-954.99298 2667.0601 -272.70499 1.8403113e-38
-957.55298 2677.02 -273.237 1.8403113e-38
-956.27197 2686.8101 -272.38699 1.8403113e-38
-955.84998 2696.6399 -271.845 1.8403113e-38
-960.97998 2706.8899 -273.29501 1.8403113e-38
-958.51703 2716.6001 -272.01999 1.8403113e-38
-960.66302 2726.71 -272.396 1.8403113e-38
-964.599 2737.0701 -273.41101 1.8403113e-38
-962.82898 2746.8601 -272.383 1.8403113e-38
-960.04303 2756.51 -270.99301 1.8403113e-38
-959.04901 2766.3601 -270.24301 1.8403113e-38
-973.84698 2778.46 -275.11801 1.8403113e-38
-962.414 2786.8799 -270.64899 1.8403113e-38
-963.966 2797.2 -270.80099 1.8403113e-38
-970.08099 2808.3501 -272.573 1.8403113e-38
-968.66199 2818.29 -271.66599 1.8403113e-38
-967.16101 2828.21 -270.73001 1.8403113e-38
-970.211 2839.04 -271.405 1.8403113e-38
-971.40503 2859.8999 -271.01199 1.8403113e-38
-974.17297 2870.8899 -271.578 1.8403113e-38
-973.16101 2881.0701 -270.80899 1.8403113e-38
-976.65698 2892.3899 -271.62601 1.8403113e-38
-979.21399 2924.8101 -271.26801 1.8403113e-38
-982.30603 2936.3799 -271.92899 1.8403113e-38
-980.745 2946.6799 -270.95599 1.8403113e-38
-981.88599 2968.6799 -270.49799 1.8403113e-38
-984.43402 2991.4199 -270.51999 1.8403113e-38
-991.38599 3004.8899 -272.50299 1.8403113e-38
-986.56403 3014.3501 -270.383 1.8403113e-38
-992.38 3027.6899 -271.95999 1.8403113e-38
-990.05103 3038.1299 -270.70401 1.8403113e-38
-989.40802 3049.25 -270.03101 1.8403113e-38
-992.203 3061.8 -270.54599 1.8403113e-38
-993.995 3074.0601 -270.70901 1.8403113e-38
-999.18298 3087.8601 -272.04001 1.8403113e-38
-1001.6 3100.6599 -272.40799 1.8403113e-38
-1000.4 3112 -271.526 1.8403113e-38
-1000.3 3135.9099 -270.54099 1.8403113e-38
-1005.69 3150.5701 -271.91101 1.8403113e-38
-1004.9 3162.45 -271.15601 1.8403113e-38
-1005.55 3187.5801 -270.39801 1.8403113e-38
-1015.47 3205.27 -273.285 1.8403113e-38
-1012.48 3216.46 -271.763 1.8403113e-38
-1017.83 3232.1899 -273.07401 1.8403113e-38
-1020.48 3246.6799 -273.461 1.8403113e-38
-1024.66 3262.2 -274.35599 1.8403113e-38
-1020.35 3273.05 -272.367 1.8403113e-38
-1015.94 3283.8701 -270.345 1.8403113e-38
-1018.03 3298.6001 -270.51901 1.8403113e-38
-1024.0699 3315.9299 -272.01599 1.8403113e-38
-1025.8199 3330.8701 -272.06 1.8403113e-38
-1030.67 3347.96 -273.13599 1.8403113e-38
-1035.3101 3365.1899 -274.13599 1.8403113e-38
-1028.52 3375.1201 -271.28601 1.8403113e-38
-1029.01 3404.5801 -270.29599 1.8403113e-38
-1032.1801 3421.6101 -270.76801 1.8403113e-38
-1034.37 3438.2 -270.90399 1.8403113e-38
-603.55298 -303.53299 -263.12 1.8403113e-38
-806.15302 1458.49 -266.686 1.8403113e-38
-793.479 1453.8 -262.28601 1.8403113e-38
-966.69 2848.5901 -269.75299 1.8403113e-38
-970.88 2901.4299 -269.17801 1.8403113e-38
-972.35699 2912.3401 -269.28 1.8403113e-38
-977.284 2956.4099 -269.319 1.8403113e-38
-980.95599 2979.29 -269.742 1.8403113e-38
-996.492 3122.1699 -269.70801 1.8403113e-38
-1002.29 3173.51 -269.77399 1.8403113e-38
-1025.65 3387.6599 -269.75 1.8403113e-38
-1032.46 3452.04 -269.668 1.8403113e-38
-1031.97 3467.0601 -268.896 1.8403113e-38
-576.23602 -296.79501 -252.96899 1.8403113e-38
-764.75299 1405.62 -253.799 1.8403113e-38
-780.79999 1449.26 -257.87799 1.8403113e-38
-764.65503 1449.54 -252.026 1.8403113e-38
-827.03998 1875.12 -257.754 1.8403113e-38
-815.55701 1870.67 -253.77499 1.8403113e-38
-988.88202 3450.1101 -253.976 1.8403113e-38
-551.04498 -298.495 -243.922 1.8403113e-38
-757.71802 1437.45 -249.994 1.8403113e-38
-769.34003 1720.74 -242.987 1.8403113e-38
-801.13702 1868.8199 -248.631 1.8403113e-38
-785.302 1868.4301 -242.91701 1.8403113e-38
-525.46503 -298.009 -234.64799 1.8403113e-38
-775.32703 1863.25 -239.513 1.8403113e-38
-757.42902 1865.17 -232.96201 1.8403113e-38
-500.55301 -300.19101 -225.72099 1.8403113e-38
-739.65399 1853.65 -226.98599 1.8403113e-38
-728.26703 1850.34 -222.99699 1.8403113e-38
-746.05798 1861.6 -228.989 1.8403113e-38
-297.44101 -1921.49 -216.39999 1.8403113e-38
-474.69299 -297.259 -216.248 1.8403113e-38
-704.62402 1802.41 -216.34 1.8403113e-38
-703.27899 1818.2 -215.228 1.8403113e-38
-701.04999 1834.5699 -213.774 1.8403113e-38
-714.10199 1849.8199 -217.89301 1.8403113e-38
-708.99103 1840.83 -216.399 1.8403113e-38
-450.60101 -302.86301 -207.75301 1.8403113e-38
-252.38699 -1830.11 -196.48199 1.8403113e-38
-287.66901 -1429.6801 -193.39999 1.8403113e-38
-311.315 -1333.2 -198.136 1.8403113e-38
-329.03 -1197.98 -199.19501 1.8403113e-38
-423.10001 -289.647 -197.28 1.8403113e-38
-823.435 3338.1499 -198.54601 1.8403113e-38
-800.12299 3332.9299 -190.31799 1.8403113e-38
-924.07501 4251.7598 -198.8 1.8403113e-38
-924.34302 4282.8701 -197.666 1.8403113e-38
-922.63501 4311.5698 -195.912 1.8403113e-38
-922.56097 4343.7402 -194.612 1.8403113e-38
-917.53302 4368.3599 -191.819 1.8403113e-38
-916.12402 4399.8701 -190.062 1.8403113e-38
-400.09201 -300.655 -189.39101 1.8403113e-38
-793.625 3340.6101 -187.66299 1.8403113e-38
-784.05798 3345.77 -183.99699 1.8403113e-38
-775.96802 3352.05 -180.82201 1.8403113e-38
-776.008 3365.1001 -180.32001 1.8403113e-38
-910.383 4424.5801 -187.007 1.8403113e-38
-911.02197 4461.4399 -185.77901 1.8403113e-38
-911.13098 4498.4399 -184.354 1.8403113e-38
-906.52399 4527.7002 -181.52901 1.8403113e-38
-309.62399 -775.89899 -175.468 1.8403113e-38
-374.534 -296.728 -179.989 1.8403113e-38
-349.08499 -292.54901 -170.616 1.8403113e-38
-765.49402 3375.8799 -176.08899 1.8403113e-38
-766.74103 3410.6201 -175.16499 1.8403113e-38
-768.95898 3426.47 -175.34 1.8403113e-38
-761.02399 3433.1201 -172.207 1.8403113e-38
-889.60498 4534.1401 -175.15199 1.8403113e-38
-906.90997 4607.5498 -178.508 1.8403113e-38
-896.474 4628.1602 -173.91701 1.8403113e-38
-895.80902 4669.2202 -172.05099 1.8403113e-38
-149.42999 -1967.66 -164.675 1.8403113e-38
-311.86801 -573.92999 -168.287 1.8403113e-38
-319.98999 -438.34698 -165.85899 1.8403113e-38
-331.13501 -338.367 -165.93401 1.8403113e-38
-746.88 3379.4199 -169.215 1.8403113e-38
-748.10498 3434.99 -167.45799 1.8403113e-38
-748.52502 3449.54 -167.035 1.8403113e-38
-739.73798 3455.27 -163.62801 1.8403113e-38
-735.05499 3465.04 -161.547 1.8403113e-38
-877.81403 4675.5 -165.29201 1.8403113e-38
-111.294 -1962.41 -150.66901 1.8403113e-38
-730.95898 3475.48 -159.65199 1.8403113e-38
-714.54901 3473.26 -153.802 1.8403113e-38
-725.13 3499.1399 -156.606 1.8403113e-38
-722.01801 3510.99 -155.01199 1.8403113e-38
-731.328 3536.53 -157.369 1.8403113e-38
-734.388 3555.76 -157.715 1.8403113e-38
-735.24902 3572.9199 -157.34801 1.8403113e-38
-733.96198 3587.9399 -156.28799 1.8403113e-38
-733.12903 3603.75 -155.36 1.8403113e-38
-723.26501 3609.1201 -151.57899 1.8403113e-38
-722.74799 3625.71 -150.735 1.8403113e-38
-864.84698 4692.3799 -159.93201 1.8403113e-38
-850.84601 4707.3701 -154.27299 1.8403113e-38
-827.71698 4702.3101 -146.105 1.8403113e-38
-73.930199 -1973.75 -137.599 1.8403113e-38
-806.73602 4701.5298 -138.545 1.8403113e-38
-36.100399 -1974.77 -123.953 1.8403113e-38
-765.01398 4699.2798 -123.538 1.8403113e-38
1.70144 -1976.4399 -110.342 1.8403113e-38
-123.796 -967.552 -115.818 1.8403113e-38
-141.453 -799.65503 -115.562 1.8403113e-38
-745.40802 4700.5801 -116.394 1.8403113e-38
-705.23499 4699.77 -101.89 1.8403113e-38
-725.474 4700.7402 -109.174 1.8403113e-38
39.553398 -1974.77 -96.579803 1.8403113e-38
-685.07098 4698.5801 -94.641502 1.8403113e-38
77.284302 -1985.72 -83.362099 1.8403113e-38
-664.28998 4695.3101 -87.252098 1.8403113e-38
-487.53101 3353.8101 -76.392303 1.8403113e-38
115.119 -1969.36 -69.025101 1.8403113e-38
-442.58801 3334.76 -60.885101 1.8403113e-38
-467.50601 3341.55 -69.632401 1.8403113e-38
-458.03 3342.1001 -66.1819 1.8403113e-38
152.937 -1977.62 -55.669102 1.8403113e-38
-436.80301 3339.73 -58.595798 1.8403113e-38
-426.28 3338.3201 -54.8438 1.8403113e-38
-418.72198 3340.75 -52.013302 1.8403113e-38
-416.90701 3351.0901 -50.9473 1.8403113e-38
-444.41599 3477.3301 -55.904099 1.8403113e-38
190.939 -1988.53 -42.351501 1.8403113e-38
-410.98599 3355.8101 -48.618301 1.8403113e-38
-406.14899 3362.1001 -46.619202 1.8403113e-38
-404.01999 3372.4299 -45.440102 1.8403113e-38
-403.95099 3386.05 -44.876099 1.8403113e-38
-403.69601 3399.72 -44.242901 1.8403113e-38
-455.314 3930.1499 -41.925499 1.8403113e-38
228.845 -1989.09 -28.6588 1.8403113e-38
262.36899 -1864.4301 -11.5954 1.8403113e-38
-379.75 3962.97 -13.287 1.8403113e-38
-444.18301 4523.6099 -14.4102 1.8403113e-38
-408.60101 4516.6802 -1.8108701 1.8403113e-38
-426.48001 4520.7202 -8.1196804 1.8403113e-38
-392.60001 4519.21 4.0788798 1.8403113e-38
-377.57401 4525.46 9.7625999 1.8403113e-38
266.73401 -1114.24 19.674601 1.8403113e-38
-360.104 4521.8799 15.9417 1.8403113e-38
-223.939 3556.55 27.002399 1.8403113e-38
-262.76801 3857.8701 24.879 1.8403113e-38
-326.54901 4519.04 27.970301 1.8403113e-38
-343.41501 4521.0298 21.9466 1.8403113e-38
285.47101 -881.38702 35.669399 1.8403113e-38
-212.754 3549.0801 30.7537 1.8403113e-38
-193.59599 3542.28 37.416 1.8403113e-38
-205.823 3553.77 33.446999 1.8403113e-38
-190.59599 3559.1699 39.169899 1.8403113e-38
-309.746 4516.8901 33.9646 1.8403113e-38
-294.85901 4523.3701 39.6073 1.8403113e-38
324.392 -1049.66 43.091702 1.8403113e-38
-186.755 3574.1599 41.153 1.8403113e-38
-277.323 4516.9902 45.6992 1.8403113e-38
344.89899 -906.25403 56.187099 1.8403113e-38
-245.19099 4517.4399 57.343102 1.8403113e-38
-262.00601 4521.21 51.408699 1.8403113e-38
490.26199 -1936.36 68.0121 1.8403113e-38
390.60199 -1123.65 64.118698 1.8403113e-38
-227.94099 4510.54 63.311401 1.8403113e-38
-212.979 4516.29 68.952202 1.8403113e-38
-195.74001 4508.0801 74.864502 1.8403113e-38
439.776 -986.22803 87.349503 1.8403113e-38
-174.623 4473 81.1166 1.8403113e-38
463.24899 -922.716 98.356102 1.8403113e-38
-66.652199 3824.9399 94.532898 1.8403113e-38
-72.790604 3945.27 97.074303 1.8403113e-38
-131.97701 4502.2998 97.7062 1.8403113e-38
611.401 -2008.1801 108.999 1.8403113e-38
-100.185 4497.02 109 1.8403113e-38
-116.813 4506.1899 103.347 1.8403113e-38
