# .PCD v0.7 - Point Cloud Data file format
VERSION 0.7
FIELDS x y z rgb
SIZE 4 4 4 4
TYPE F F F F
COUNT 1 1 1 1
WIDTH 356
HEIGHT 1
VIEWPOINT 0 0 0 1 0 0 0
POINTS 356
DATA ascii
-1244.61 1917.1899 -285.401 1.8403113e-38
-1246.24 1929.3199 -285.521 1.8403113e-38
-1246.9301 1941.9399 -285.289 1.8403113e-38
-1239.4399 1959.55 -281.89899 1.8403113e-38
-1257.67 1961.11 -288.43701 1.8403113e-38
-1252.54 1989.6 -285.483 1.8403113e-38
-1242.55 1982.96 -282.125 1.8403113e-38
-1246.86 2005.35 -282.82199 1.8403113e-38
-1250.09 2015.83 -283.58899 1.8403113e-38
-1248.25 2029.0601 -282.41199 1.8403113e-38
-1252.9399 2038.63 -283.74301 1.8403113e-38
-1249.17 2052.6399 -281.84 1.8403113e-38
-1262.3199 2069.6899 -285.94299 1.8403113e-38
-1252.83 2062.6399 -282.77899 1.8403113e-38
-1255.64 2084.8 -282.944 1.8403113e-38
-1261.58 2093.6001 -284.75601 1.8403113e-38
-1255.47 2108.1001 -281.987 1.8403113e-38
-1261.23 2116.9299 -283.733 1.8403113e-38
-1256.58 2130.46 -281.52802 1.8403113e-38
-1259.5699 2140.46 -282.22699 1.8403113e-38
-1255.53 2153.4299 -280.26501 1.8403113e-38
-1257.54 2174.8 -280.17099 1.8403113e-38
-1266.3101 2182.3601 -283.05301 1.8403113e-38
-1264.46 2194.0901 -281.93201 1.8403113e-38
-1262.49 2205.75 -280.772 1.8403113e-38
-1263.96 2216.05 -280.90701 1.8403113e-38
-1267.12 2225.73 -281.67801 1.8403113e-38
-1271.09 2235.1399 -282.75299 1.8403113e-38
-1272.3 2245.47 -282.79501 1.8403113e-38
-1266.25 2258.0901 -280.11801 1.8403113e-38
-1272.66 2266.6699 -282.10901 1.8403113e-38
-1271.8 2277.5 -281.379 1.8403113e-38
-1269.9301 2288.5601 -280.27802 1.8403113e-38
-1276.12 2297.27 -282.18301 1.8403113e-38
-1273.16 2308.52 -280.67899 1.8403113e-38
-1283.1899 2347.4299 -282.814 1.8403113e-38
-1278.99 2368.8701 -280.47 1.8403113e-38
-1283.66 2378.1001 -281.80399 1.8403113e-38
-1279.95 2389 -280.04199 1.8403113e-38
-1287.24 2397.79 -282.341 1.8403113e-38
-1287.05 2407.98 -281.88199 1.8403113e-38
-1283.0699 2418.75 -280.02701 1.8403113e-38
-1290.14 2427.72 -282.23999 1.8403113e-38
-1286.91 2438.28 -280.66501 1.8403113e-38
-1291.37 2457.77 -281.52701 1.8403113e-38
-1291.84 2487.76 -280.54599 1.8403113e-38
-1291.83 2497.74 -280.16 1.8403113e-38
-1295.0699 2527.3799 -280.19 1.8403113e-38
-1306.84 2626.99 -280.61899 1.8403113e-38
-1313.95 2667.6201 -281.62701 1.8403113e-38
-1338.09 2923.97 -280.50299 1.8403113e-38
-1342.26 2970.04 -280.24301 1.8403113e-38
-1344.17 2993.49 -280.03101 1.8403113e-38
-1365.58 3172.4399 -280.896 1.8403113e-38
-1372.29 3215.1899 -281.67899 1.8403113e-38
-1375.46 3243.79 -281.728 1.8403113e-38
-1376.83 3258.1899 -281.66901 1.8403113e-38
-1376.39 3271.6899 -280.992 1.8403113e-38
-1383.22 3289.7 -282.771 1.8403113e-38
-1377.5699 3300.3301 -280.31699 1.8403113e-38
-1383.23 3318.0601 -281.68301 1.8403113e-38
-1387.87 3335.4199 -282.69601 1.8403113e-38
-1410.15 3556.8401 -282.242 1.8403113e-38
-1409.77 3573.8601 -281.448 1.8403113e-38
-1037.79 302.33899 -272.66299 1.8403113e-38
-1046.17 338.97601 -274.29001 1.8403113e-38
-1050.92 383.90601 -274.27802 1.8403113e-38
-1054.63 429.66 -273.862 1.8403113e-38
-1063.4301 460.617 -275.85599 1.8403113e-38
-1067.74 501.621 -275.83701 1.8403113e-38
-1070.6801 544.35199 -275.26001 1.8403113e-38
-1076.4399 578.802 -276.01901 1.8403113e-38
-1254.84 2164.8501 -279.57599 1.8403113e-38
-1270.09 2319.6899 -279.14001 1.8403113e-38
-1273.3101 2329.1799 -279.94101 1.8403113e-38
-1273.71 2339.3701 -279.694 1.8403113e-38
-1272.42 2360.1001 -278.427 1.8403113e-38
-1281.73 2449.01 -278.37601 1.8403113e-38
-1287.87 2468.21 -279.862 1.8403113e-38
-1284.29 2478.5701 -278.16699 1.8403113e-38
-1287.0601 2508.0701 -278.034 1.8403113e-38
-1292.51 2517.6001 -279.64001 1.8403113e-38
-1287.22 2537.73 -276.953 1.8403113e-38
-1289.62 2547.5 -277.44501 1.8403113e-38
-1291 2557.3301 -277.565 1.8403113e-38
-1290.42 2567.23 -276.97299 1.8403113e-38
-1292.5699 2577.0801 -277.375 1.8403113e-38
-1290.89 2586.98 -276.384 1.8403113e-38
-1295.7 2596.8701 -277.746 1.8403113e-38
-1295.74 2606.79 -277.37701 1.8403113e-38
-1296.63 2616.73 -277.31799 1.8403113e-38
-1303.8101 2636.8799 -279.14001 1.8403113e-38
-1305.39 2646.97 -279.32599 1.8403113e-38
-1305.01 2656.96 -278.80499 1.8403113e-38
-1308.71 2677.3201 -279.358 1.8403113e-38
-1304.33 2687.01 -277.401 1.8403113e-38
-1312.0601 2697.8201 -279.78201 1.8403113e-38
-1311.26 2707.8701 -279.108 1.8403113e-38
-1313.1899 2718.24 -279.40799 1.8403113e-38
-1310.36 2728.0601 -278.005 1.8403113e-38
-1311.1899 2738.3501 -277.90799 1.8403113e-38
-1315.66 2749.2 -279.10901 1.8403113e-38
-1312.58 2758.99 -277.61801 1.8403113e-38
-1315.71 2774.905 -278.13901 1.8403113e-38
-1316.8 2790.6201 -277.92801 1.8403113e-38
-1320.8 2801.77 -278.94901 1.8403113e-38
-1321.9301 2812.45 -278.948 1.8403113e-38
-1319.27 2822.3799 -277.603 1.8403113e-38
-1323 2833.7 -278.51401 1.8403113e-38
-1321.09 2843.8401 -277.43301 1.8403113e-38
-1328.29 2856.1599 -279.56601 1.8403113e-38
-1322.52 2865.4199 -277.12299 1.8403113e-38
-1331.35 2878.4099 -279.81699 1.8403113e-38
-1329.0699 2888.6101 -278.60101 1.8403113e-38
-1328.53 2899.3 -277.996 1.8403113e-38
-1331.55 2911.05 -278.634 1.8403113e-38
-1327.28 2931.71 -276.29501 1.8403113e-38
-1331.8 2944.1799 -277.45001 1.8403113e-38
-1330.78 2954.97 -276.668 1.8403113e-38
-1341.9301 2981.27 -279.689 1.8403113e-38
-1340.95 3003.79 -278.46899 1.8403113e-38
-1343.87 3016.4399 -279.039 1.8403113e-38
-1343.12 3027.77 -278.33099 1.8403113e-38
-1346.6801 3040.8999 -279.116 1.8403113e-38
-1349.24 3053.76 -279.54599 1.8403113e-38
-1347.28 3064.8501 -278.41101 1.8403113e-38
-1352.22 3078.96 -279.65601 1.8403113e-38
-1344.8101 3087.78 -276.63501 1.8403113e-38
-1347.76 3101.24 -277.186 1.8403113e-38
-1351.4399 3115.1899 -277.983 1.8403113e-38
-1355.85 3129.6499 -279.01901 1.8403113e-38
-1358.38 3143.3999 -279.40701 1.8403113e-38
-1354.78 3154.24 -277.689 1.8403113e-38
-1360.04 3182.48 -278.50601 1.8403113e-38
-1364.5601 3197.8501 -279.55099 1.8403113e-38
-1366.41 3225.26 -279.16501 1.8403113e-38
-1352.85 3327.1201 -270.33701 1.8403113e-38
-1390.29 3490.78 -277.59299 1.8403113e-38
-1398.95 3514.01 -279.836 1.8403113e-38
-1401.28 3532.6101 -279.96399 1.8403113e-38
-1384.75 3570.29 -272.53201 1.8403113e-38
-1417.45 3853.1799 -273.48199 1.8403113e-38
-947.448 -248.62801 -261.16101 1.8403113e-38
-1021.77 286.23199 -267.48599 1.8403113e-38
-1190.79 1940.1801 -265.03601 1.8403113e-38
-1346.89 3337.46 -267.78299 1.8403113e-38
-1349.61 3353.6899 -268.14401 1.8403113e-38
-1351.36 3369.47 -268.17001 1.8403113e-38
-1343.47 3378.6799 -264.96201 1.8403113e-38
-1344.14 3393.98 -264.616 1.8403113e-38
-1339.1899 3405.3701 -262.38599 1.8403113e-38
-1344.21 3424.22 -263.47601 1.8403113e-38
-1352.85 3446.1499 -265.759 1.8403113e-38
-1366.5 3572.02 -265.85901 1.8403113e-38
-1353.42 3577.96 -260.896 1.8403113e-38
-1387.75 3800.6899 -264.754 1.8403113e-38
-945.61798 -145.59 -256.535 1.8403113e-38
-1337.42 3581.1599 -254.98399 1.8403113e-38
-1333.7 3595.23 -253.093 1.8403113e-38
-1337.6801 3616.55 -253.715 1.8403113e-38
-1337.14 3634.03 -252.849 1.8403113e-38
-1369.5601 3761.3999 -259.68201 1.8403113e-38
-1133.92 1904.28 -245.83299 1.8403113e-38
-1136.65 1964.66 -244.50101 1.8403113e-38
-1325.85 3641.48 -248.47301 1.8403113e-38
-1315.91 3650.1599 -244.54201 1.8403113e-38
-1330.85 3683.3999 -248.67 1.8403113e-38
-1314.4 3685.8701 -242.623 1.8403113e-38
-1115.28 1905.72 -239.033 1.8403113e-38
-1105.1851 1944.51 -233.88651 1.8403113e-38
-1109.74 1959.38 -234.96201 1.8403113e-38
-1109.53 1971.5 -234.42101 1.8403113e-38
-834.28003 -302.36301 -222.269 1.8403113e-38
-1073.42 1888.14 -224.55701 1.8403113e-38
-1083.53 1905.3101 -227.55701 1.8403113e-38
-1071.84 1902.15 -223.44701 1.8403113e-38
-1084.72 1916.91 -227.541 1.8403113e-38
-811.40698 -313.09299 -214.40401 1.8403113e-38
-1053.62 1891.98 -217.245 1.8403113e-38
-786.151 -311.90399 -205.217 1.8403113e-38
-832.84399 116.551 -205.63499 1.8403113e-38
-857.14899 270.01099 -208.528 1.8403113e-38
-882.53003 636.729 -203.608 1.8403113e-38
-1026.6899 1889.85 -207.578 1.8403113e-38
-1009.36 1892.59 -201.201 1.8403113e-38
-1020.89 1907.37 -204.80499 1.8403113e-38
-761.685 -314.38 -196.457 1.8403113e-38
-810.37701 119.435 -197.392 1.8403113e-38
-789.77002 114.801 -190.112 1.8403113e-38
-863.92603 638.01801 -196.825 1.8403113e-38
-894.96002 1045.0699 -192.399 1.8403113e-38
-987.73901 1807.99 -196.631 1.8403113e-38
-979.33301 1830.22 -192.733 1.8403113e-38
-979.49402 1843.42 -192.284 1.8403113e-38
-982.52399 1879.37 -191.998 1.8403113e-38
-1002.08 1886.5601 -198.8 1.8403113e-38
-991.245 1883.88 -194.981 1.8403113e-38
-736.539 -312.70499 -187.291 1.8403113e-38
-768.71198 112.3 -182.58701 1.8403113e-38
-838.51703 661.19702 -186.737 1.8403113e-38
-974.67798 1861.26 -189.855 1.8403113e-38
-973.09601 1875.62 -188.729 1.8403113e-38
-711.138 -308.82101 -177.94901 1.8403113e-38
-790.82098 580.58899 -172.575 1.8403113e-38
-797.72601 619.43201 -173.58 1.8403113e-38
-809.99103 638.31299 -177.293 1.8403113e-38
-818.789 667.67297 -179.34801 1.8403113e-38
-685.84698 -304.68701 -168.636 1.8403113e-38
-907.98798 1877.52 -165.092 1.8403113e-38
-660.22198 -297.35001 -159.07899 1.8403113e-38
-635.59698 -295.67499 -150.10201 1.8403113e-38
-876.987 1872.86 -154.05099 1.8403113e-38
-891.46997 1882.39 -158.92599 1.8403113e-38
-880.31897 1881.84 -154.911 1.8403113e-38
-612.48602 -304.62601 -142.082 1.8403113e-38
-859.43597 1879.76 -147.433 1.8403113e-38
-839.32599 1877.5 -140.242 1.8403113e-38
-1006.53 3432.05 -140.959 1.8403113e-38
-587.65997 -300.51501 -132.938 1.8403113e-38
-787.54602 1455.88 -137.71899 1.8403113e-38
-772.57898 1462.09 -132.064 1.8403113e-38
-832.93201 1859.37 -138.625 1.8403113e-38
-829.27698 1850.6899 -137.636 1.8403113e-38
-810.39899 1860.9301 -130.409 1.8403113e-38
-830.87799 1874.72 -137.291 1.8403113e-38
-837.60199 1892.02 -139.05901 1.8403113e-38
-977.29303 3414.5901 -131.048 1.8403113e-38
-562.82001 -295.17401 -123.743 1.8403113e-38
-748.45599 1411.41 -125.282 1.8403113e-38
-748.85602 1437.04 -124.441 1.8403113e-38
-753.83002 1451.87 -125.671 1.8403113e-38
-758.60199 1466.7 -126.827 1.8403113e-38
-750.48297 1553.21 -120.561 1.8403113e-38
-753.65302 1568.6899 -121.113 1.8403113e-38
-786.95099 1877.5699 -121.283 1.8403113e-38
-971.89203 3422.8799 -128.774 1.8403113e-38
-956.70898 3420.1201 -123.385 1.8403113e-38
-538.20898 -290.582 -114.659 1.8403113e-38
-748.39099 1599.75 -118.014 1.8403113e-38
-747.29602 1622 -116.762 1.8403113e-38
-744.46399 1646.72 -114.786 1.8403113e-38
-744.61102 1665.33 -114.123 1.8403113e-38
-740.12701 1691.51 -111.493 1.8403113e-38
-758.30902 1729.79 -116.601 1.8403113e-38
-743.46301 1720.7 -111.577 1.8403113e-38
-744.578 1735.65 -111.406 1.8403113e-38
-757.10699 1748.0601 -115.463 1.8403113e-38
-770.72998 1859.64 -116.102 1.8403113e-38
-776.19202 1865.5699 -117.85 1.8403113e-38
-757.19098 1864.73 -111.006 1.8403113e-38
-770.34302 1886.13 -114.942 1.8403113e-38
-932.65399 3406.78 -115.192 1.8403113e-38
-926.008 3413.21 -112.54 1.8403113e-38
-341.827 -1944.39 -107.2 1.8403113e-38
-514.49701 -293.69199 -106.196 1.8403113e-38
-737.22101 1714.15 -109.57 1.8403113e-38
-730.90002 1804.8101 -103.795 1.8403113e-38
-733.66199 1815.3199 -104.391 1.8403113e-38
-736.59998 1839.52 -104.523 1.8403113e-38
-729.81097 1835.54 -102.219 1.8403113e-38
-740.59601 1847.5699 -105.66 1.8403113e-38
-751.146 1859.75 -109.009 1.8403113e-38
-742.82098 1858.01 -106.063 1.8403113e-38
-907.36401 3405.28 -106.097 1.8403113e-38
-951.09399 3964.54 -100.411 1.8403113e-38
-304.71799 -1954.8 -94.169098 1.8403113e-38
-490.944 -298.569 -97.859299 1.8403113e-38
-872.71503 3377.3799 -94.629402 1.8403113e-38
-870.62 3388.6001 -93.439903 1.8403113e-38
-947.60797 3986.02 -98.322701 1.8403113e-38
-946.95898 4013.73 -97.021896 1.8403113e-38
-943.26398 4036.1899 -94.820602 1.8403113e-38
-267.36499 -1954.87 -80.652802 1.8403113e-38
-466.42899 -292.29401 -88.745201 1.8403113e-38
-442.71399 -294.73801 -80.255898 1.8403113e-38
-858.01801 3386.76 -88.949203 1.8403113e-38
-850.323 3390.95 -86.003098 1.8403113e-38
-847.98401 3402.0701 -84.728699 1.8403113e-38
-846.69098 3414.78 -83.771896 1.8403113e-38
-841.14203 3421.99 -81.486504 1.8403113e-38
-839.57001 3434.72 -80.427399 1.8403113e-38
-418.983 -296.96301 -71.752296 1.8403113e-38
-831.54401 3438.6799 -77.3703 1.8403113e-38
-828.02002 3449 -75.697998 1.8403113e-38
-822.69598 3456.8799 -73.467796 1.8403113e-38
-816.18201 3463.1001 -70.8713 1.8403113e-38
-230.028 -1956.59 -67.205299 1.8403113e-38
-394.71301 -289.99899 -62.700298 1.8403113e-38
-809.61102 3469.25 -68.255898 1.8403113e-38
-812.14001 3489.3999 -68.396202 1.8403113e-38
-801.08197 3488.8799 -64.414299 1.8403113e-38
-797.37799 3534.6899 -61.311298 1.8403113e-38
-808.34198 3571.3 -63.871399 1.8403113e-38
-192.64301 -1961.97 -53.881599 1.8403113e-38
-371.02701 -291.77802 -54.196201 1.8403113e-38
-782.19702 3475.6799 -58.0872 1.8403113e-38
-787.41602 3500.8799 -59.006401 1.8403113e-38
-795.85699 3568.8501 -59.446602 1.8403113e-38
-795.22998 3586.8701 -58.526501 1.8403113e-38
-795.80103 3607.54 -57.938099 1.8403113e-38
-786.06598 3610.0601 -54.317699 1.8403113e-38
-784.31299 3627.3101 -53.019798 1.8403113e-38
-330.84698 -509.28101 -48.020599 1.8403113e-38
-348.20801 -314.289 -46.803299 1.8403113e-38
-684.76599 3534.6399 -20.555599 1.8403113e-38
-80.505798 -1961.03 -13.2592 1.8403113e-38
-170.57001 -983.64697 -8.2588701 1.8403113e-38
-623.24597 3462.6499 -1.0587 1.8403113e-38
-648.49402 3478.6699 -9.5802898 1.8403113e-38
-639.56 3478.8501 -6.3401899 1.8403113e-38
-42.782799 -1969.01 0.0869008 1.8403113e-38
-140.101 -1030.37 0.97150499 1.8403113e-38
-599.43903 3447.8 6.9867902 1.8403113e-38
-611.672 3456.21 2.88253 1.8403113e-38
-6.9609699 -1934.7 14.3718 1.8403113e-38
-588.927 3442.8899 10.6025 1.8403113e-38
-576.00549 3441.7251 15.23435 1.8403113e-38
-566.10699 3447.77 19.0492 1.8403113e-38
-537.64697 3415.54 28.1101 1.8403113e-38
-560.17401 3453.5701 21.4198 1.8403113e-38
18.334801 -1724.37 31.617701 1.8403113e-38
-499.94501 3334.1699 38.625401 1.8403113e-38
70.008904 -1972.88 40.761002 1.8403113e-38
-483.81601 3327.6699 44.212799 1.8403113e-38
-476.823 3327.1101 46.722301 1.8403113e-38
-469.23099 3324.5901 49.3731 1.8403113e-38
-492.854 3333.78 41.176998 1.8403113e-38
-537.16699 3923.8999 47.839401 1.8403113e-38
-537.40198 3976.3 49.77 1.8403113e-38
108.32 -1982.4399 54.259201 1.8403113e-38
-460.47601 3318.1799 52.295399 1.8403113e-38
-456.30801 3325.95 54.103001 1.8403113e-38
-445.55652 3323.2148 57.889153 1.8403113e-38
-533.42603 4013.1599 52.626701 1.8403113e-38
146.55901 -1988.65 67.859901 1.8403113e-38
-436.28299 3325.1201 61.318802 1.8403113e-38
-432.13501 3333.6899 63.149899 1.8403113e-38
-427.08499 3339.3401 65.195 1.8403113e-38
-424.96301 3356.5601 66.624901 1.8403113e-38
-420.63199 3366.03 68.556801 1.8403113e-38
-429.069 3428.8799 67.921097 1.8403113e-38
-468.23499 3757.45 66.384804 1.8403113e-38
182.50301 -1967.61 81.678703 1.8403113e-38
-359.095 3320.78 89.0886 1.8403113e-38
-368.802 3339.25 86.2854 1.8403113e-38
-379.60001 3361.51 83.233902 1.8403113e-38
220.853 -1974.12 95.308502 1.8403113e-38
-331.008 3297.22 98.3479 1.8403113e-38
-339.10901 3311.1299 95.950798 1.8403113e-38
-347.11899 3322.96 93.507004 1.8403113e-38
-354.647 3330.76 91.082397 1.8403113e-38
247.918 -1872.87 108.999 1.8403113e-38
-299.336 3276.1299 109 1.8403113e-38
-306.88599 3292.3999 106.893 1.8403113e-38
-326.04599 3304.03 100.406 1.8403113e-38
-316.8345 3301.75 103.652 1.8403113e-38
