# .PCD v0.7 - Point Cloud Data file format
VERSION 0.7
FIELDS x y z rgb
SIZE 4 4 4 4
TYPE F F F F
COUNT 1 1 1 1
WIDTH 337
HEIGHT 1
VIEWPOINT 0 0 0 1 0 0 0
POINTS 337
DATA ascii
-463.21899 1004.1 -280.28201 1.8403113e-38
-529.427 1069.28 -280.77899 1.8403113e-38
-550.96301 1086.54 -281.948 1.8403113e-38
-571.33002 1107.88 -281.771 1.8403113e-38
-574.26001 1115.47 -280.591 1.8403113e-38
-593.82898 1126.245 -282.90698 1.8403113e-38
-611.15399 1146.65 -282.181 1.8403113e-38
-614.34698 1151.49 -281.771 1.8403113e-38
-633.62299 1169.9 -282.06 1.8403113e-38
-629.46503 1169.6801 -281.04001 1.8403113e-38
-649.66199 1182.72 -282.939 1.8403113e-38
-651.90802 1190.41 -281.55499 1.8403113e-38
-672.388 1201.03 -284.14999 1.8403113e-38
-665.78802 1209.88 -280.17599 1.8403113e-38
-688.28302 1212.46 -285.34698 1.8403113e-38
-688.599 1225.67 -282.05099 1.8403113e-38
-704.62097 1235.46 -283.702 1.8403113e-38
-723.58197 1248.6801 -285.23599 1.8403113e-38
-707.22498 1240.47 -283.09601 1.8403113e-38
-740.97601 1265.76 -285.37701 1.8403113e-38
-723.37 1261.84 -281.81699 1.8403113e-38
-739.552 1281.58 -280.965 1.8403113e-38
-1051.99 1600.38 -280.44 1.8403113e-38
-1250.3 1799.28 -280.98901 1.8403113e-38
-1251.59 1802.78 -280.427 1.8403113e-38
-1263.3 1814.92 -280.36099 1.8403113e-38
-1284.48 1829.9301 -282.01199 1.8403113e-38
-1294.415 1845.585 -280.58499 1.8403113e-38
-1310.6899 1857.67 -281.71301 1.8403113e-38
-1342.96 1867.8 -287.48599 1.8403113e-38
-1339.41 1865.4399 -287.17001 1.8403113e-38
-1313.42 1860.37 -281.729 1.8403113e-38
-1356.47 1880.1 -287.841 1.8403113e-38
-1346.54 1889.4399 -282.883 1.8403113e-38
-1358.16 1906.83 -281.45001 1.8403113e-38
-1392.66 1913.64 -288.64801 1.8403113e-38
-1398.74 1934.1801 -284.97601 1.8403113e-38
-1384.1 1936.5601 -280.57101 1.8403113e-38
-1404.075 1952.835 -281.58749 1.8403113e-38
-1416.99 1968.29 -280.983 1.8403113e-38
-1434.34 1986.355 -280.86249 1.8403113e-38
-1452.925 2002.28 -281.60699 1.8403113e-38
-1575.8199 2129.71 -280.88101 1.8403113e-38
-1603.26 2145.165 -284.043 1.8403113e-38
-1623.11 2167.0601 -283.59 1.8403113e-38
-1631.28 2189.3 -280.021 1.8403113e-38
-1629.4 2185.3601 -280.54199 1.8403113e-38
-1654.26 2209.47 -280.823 1.8403113e-38
567.31702 -9.5548496 -272.33301 1.8403113e-38
501.03799 47.3298 -274.96799 1.8403113e-38
434.66901 112.202 -275.58401 1.8403113e-38
413.164 153.28 -270.65701 1.8403113e-38
371.89099 174.756 -275.86301 1.8403113e-38
354.884 204.933 -272.55701 1.8403113e-38
313.96799 230.157 -276.71201 1.8403113e-38
297.392 261.58701 -272.974 1.8403113e-38
257.81 287.71301 -276.55301 1.8403113e-38
244.097 311.853 -273.936 1.8403113e-38
206.01601 337.866 -277.155 1.8403113e-38
192.144 365.10901 -273.78601 1.8403113e-38
157.228 384.289 -277.931 1.8403113e-38
142.12199 419.41199 -272.86899 1.8403113e-38
108.591 438.375 -276.70999 1.8403113e-38
96.2192 465.129 -273.078 1.8403113e-38
63.1124 487.65201 -275.89999 1.8403113e-38
52.165199 510.77301 -272.827 1.8403113e-38
21.072901 529.13702 -276.19 1.8403113e-38
-16.5996 555.00897 -279.33899 1.8403113e-38
9.7470303 557.25403 -271.93799 1.8403113e-38
-25.8526 574.617 -276.72501 1.8403113e-38
-66.2099 627.414 -273.68799 1.8403113e-38
-61.134499 630.84302 -271.496 1.8403113e-38
-95.1175 651.354 -275.05899 1.8403113e-38
-103.38 671.25598 -272.11301 1.8403113e-38
-129.326 680.21503 -276.547 1.8403113e-38
-138.315 709.93298 -271.28 1.8403113e-38
-163.65199 720.33502 -275.18701 1.8403113e-38
-170.00999 730.78101 -274.164 1.8403113e-38
-195.38499 747.44598 -276.48001 1.8403113e-38
-202.05701 764.78601 -273.77701 1.8403113e-38
-226.873 784.79498 -275.09299 1.8403113e-38
-233.129 802.22998 -272.258 1.8403113e-38
-256.767 816.82397 -274.65302 1.8403113e-38
-262.086 823.66901 -274.28201 1.8403113e-38
-285.29099 841.56299 -275.72101 1.8403113e-38
-290.57999 853.34302 -274.08099 1.8403113e-38
-312.987 866.75702 -276.45801 1.8403113e-38
-318.02899 880.54999 -274.23901 1.8403113e-38
-339.84399 891.41302 -277.116 1.8403113e-38
-344.573 907.21002 -274.30301 1.8403113e-38
-370.34799 928.46503 -275.54999 1.8403113e-38
-365.79501 922.28699 -275.94901 1.8403113e-38
-391.04999 943.87 -276.97601 1.8403113e-38
-395.224 955.90997 -274.98099 1.8403113e-38
-415.91 960.04498 -279.284 1.8403113e-38
-444.01901 987.78601 -279.47699 1.8403113e-38
-419.30899 981.78003 -274.60901 1.8403113e-38
-439.27701 991.04401 -277.41599 1.8403113e-38
-465.832 1024.92 -275.63901 1.8403113e-38
-487.2995 1033.6949 -278.957 1.8403113e-38
-511.44199 1055.04 -279.758 1.8403113e-38
-506.81299 1057.11 -278.02899 1.8403113e-38
-532.70398 1076.79 -279.70801 1.8403113e-38
-552.383 1104.51 -277.72198 1.8403113e-38
-742.388 1324.9 -270.62601 1.8403113e-38
-1262.14 1819.96 -278.77301 1.8403113e-38
-1276.86 1830.3 -279.94299 1.8403113e-38
-1351.3101 1906.04 -279.87601 1.8403113e-38
-1366.9399 1921.51 -279.97299 1.8403113e-38
-1411.53 1974.59 -277.957 1.8403113e-38
-1525.285 2093.8101 -276.96249 1.8403113e-38
-1551.87 2112.1101 -279.17401 1.8403113e-38
-1542.36 2110.28 -277.17801 1.8403113e-38
-1566.3199 2127.6599 -278.94299 1.8403113e-38
-1602.35 2166.6899 -278.30399 1.8403113e-38
-1639.16 2207.45 -277.42599 1.8403113e-38
-1666.65 2227.3501 -279.461 1.8403113e-38
-1666.51 2231.6899 -278.315 1.8403113e-38
-1678.61 2249.8799 -276.80301 1.8403113e-38
-1689.86 2252.95 -278.93399 1.8403113e-38
-1714.84 2274.75 -279.83401 1.8403113e-38
-1706.5 2271.1399 -278.59399 1.8403113e-38
-1727.6801 2296.01 -277.72699 1.8403113e-38
-1747.92 2317.1399 -277.57101 1.8403113e-38
-1759.05 2320.97 -279.47699 1.8403113e-38
-1777.5049 2342.96 -278.638 1.8403113e-38
-1802.8199 2369.8999 -278.311 1.8403113e-38
-1794.6899 2365.5 -277.33099 1.8403113e-38
-1821.23 2395.4199 -276.55801 1.8403113e-38
-1818 2390.78 -276.90799 1.8403113e-38
-1832.2 2416.75 -273.95099 1.8403113e-38
-1849.88 2421.6499 -277.28 1.8403113e-38
-1873.28 2448.6699 -276.435 1.8403113e-38
-1860.51 2443.52 -274.44199 1.8403113e-38
-1902.005 2474.28 -277.33249 1.8403113e-38
-1934.24 2506 -277.578 1.8403113e-38
-1920.66 2500.1799 -275.54901 1.8403113e-38
-1941.79 2529.3601 -273.564 1.8403113e-38
-1957.22 2535.6499 -275.95499 1.8403113e-38
-1988.41 2566.9199 -276.043 1.8403113e-38
-1972.11 2560.1799 -273.543 1.8403113e-38
-2024.87 2599.9399 -277.052 1.8403113e-38
-2007.71 2592.7 -274.45801 1.8403113e-38
-2035 2625.4199 -273.16501 1.8403113e-38
-2051.0701 2632.9099 -275.414 1.8403113e-38
-2091.1699 2668.99 -276.58499 1.8403113e-38
-2076.1899 2661.23 -274.686 1.8403113e-38
-2110.9399 2697.51 -274.41699 1.8403113e-38
-2120 2704.6599 -274.93701 1.8403113e-38
-2145.01 2735.01 -273.66199 1.8403113e-38
-2164.53 2744.3999 -276.31799 1.8403113e-38
-2178.3799 2773.7 -272.418 1.8403113e-38
-2195.8101 2783.1399 -274.51999 1.8403113e-38
-2211 2813.5701 -270.67899 1.8403113e-38
-2226.3501 2823 -272.246 1.8403113e-38
-2254.3101 2857.3301 -270.71701 1.8403113e-38
-2278.0701 2869.24 -273.83301 1.8403113e-38
-2321.24 2915.3301 -273.23599 1.8403113e-38
-2372 2965.3401 -273.608 1.8403113e-38
-2423.6001 3017.73 -273.58899 1.8403113e-38
1945.26 -1384.41 -266.68201 1.8403113e-38
1735.05 -1168.33 -265.923 1.8403113e-38
1549.6899 -977.00098 -265.052 1.8403113e-38
1397.2 -828.94098 -266.72299 1.8403113e-38
1251.0699 -678.71399 -266.19199 1.8403113e-38
1203.5601 -608.815 -260.63501 1.8403113e-38
1121.02 -546.10199 -265.995 1.8403113e-38
1077.36 -479.70099 -260.336 1.8403113e-38
1004.35 -428.14801 -266.078 1.8403113e-38
964.35999 -365.37399 -260.396 1.8403113e-38
896.95099 -318.146 -265.79099 1.8403113e-38
864.53998 -268.15302 -261.41199 1.8403113e-38
799.12799 -218.254 -265.608 1.8403113e-38
769.49298 -171.259 -261.27499 1.8403113e-38
716.75598 -144.386 -268.07199 1.8403113e-38
689.70099 -100.494 -263.86401 1.8403113e-38
638.604 -72.3041 -269.89899 1.8403113e-38
615.09003 -34.351501 -266.29099 1.8403113e-38
542.60602 34.398102 -267.50201 1.8403113e-38
477.28699 91.725502 -269.77499 1.8403113e-38
-740.85602 1339.72 -266.44299 1.8403113e-38
-751.78699 1368.3101 -261.96701 1.8403113e-38
-1479.58 2085.72 -267.186 1.8403113e-38
-2287.22 2900.21 -268.28699 1.8403113e-38
-2342.05 2950.49 -269.64001 1.8403113e-38
-2387.3 3000.26 -268.64801 1.8403113e-38
2077.8401 -1484.0601 -257.79901 1.8403113e-38
1851.29 -1253.28 -257.51801 1.8403113e-38
1651.51 -1048.25 -256.87799 1.8403113e-38
1487.7 -889.19 -258.67099 1.8403113e-38
1339.1 -743.39801 -259.914 1.8403113e-38
-746.36798 1372.12 -259.58899 1.8403113e-38
-1404.09 2039.6899 -259.39301 1.8403113e-38
-1400.9399 2044.63 -257.31201 1.8403113e-38
-741.22601 1437.4301 -241.562 1.8403113e-38
-989.66602 1675.8 -245.013 1.8403113e-38
-1156.95 1843.36 -245.533 1.8403113e-38
-1348.09 2079.1699 -234.78999 1.8403113e-38
-1341.15 2085.01 -231.49899 1.8403113e-38
-1377.51 2110.6299 -234.373 1.8403113e-38
-1030.97 1807.16 -222.14101 1.8403113e-38
-1070.54 1836.79 -224.823 1.8403113e-38
-1342.1801 2104.54 -226.776 1.8403113e-38
-1337.4 2102.4299 -226.07401 1.8403113e-38
-718.78699 1500.13 -219.72301 1.8403113e-38
-1023.99 1809.2 -219.813 1.8403113e-38
-1034.8199 1825.98 -218.327 1.8403113e-38
-1022.78 1832.15 -213.632 1.8403113e-38
-1041.9 1841.77 -216.125 1.8403113e-38
-1039.26 1840.05 -215.882 1.8403113e-38
-1048.65 1857.6 -213.83 1.8403113e-38
-1085.38 1888.92 -215.342 1.8403113e-38
-1064.895 1884.86 -211.07101 1.8403113e-38
-933.05054 1761.605 -208.41199 1.8403113e-38
-982.091 1806.46 -209.653 1.8403113e-38
-975.28802 1808.83 -207.285 1.8403113e-38
-991.03003 1820.3 -208.43401 1.8403113e-38
-980.70099 1825.71 -204.375 1.8403113e-38
-1042.73 1879 -206.826 1.8403113e-38
-889.26099 1765.13 -196.164 1.8403113e-38
-923.396 1795.165 -197.33151 1.8403113e-38
-934.91101 1807.76 -197.09599 1.8403113e-38
-950.60699 1814.3101 -199.49001 1.8403113e-38
-945.26501 1815.5601 -197.787 1.8403113e-38
-926.97101 1811.79 -194.008 1.8403113e-38
-1026.39 1894.79 -198.558 1.8403113e-38
-692.72998 1596.79 -188.26401 1.8403113e-38
-688.86499 1612.8101 -183.16901 1.8403113e-38
-870.07599 1783.3199 -186.543 1.8403113e-38
-784.04199 1749.15 -172.98399 1.8403113e-38
-784.59601 1753.01 -172.14101 1.8403113e-38
-793.96851 1762.71 -172.08899 1.8403113e-38
-837.11603 1799.67 -173.823 1.8403113e-38
-839.71002 1800.63 -174.25101 1.8403113e-38
-675.29199 1673.6899 -164.092 1.8403113e-38
-765.93701 1752.59 -167.41299 1.8403113e-38
-748.46899 1751.04 -163.282 1.8403113e-38
-799.83301 1777.09 -169.935 1.8403113e-38
-797.98798 1783.96 -167.69901 1.8403113e-38
-818.95203 1799.29 -169.213 1.8403113e-38
-821.53101 1800.1801 -169.65401 1.8403113e-38
-744.086 1762.84 -159.132 1.8403113e-38
-792.26599 1812.87 -158.828 1.8403113e-38
1348.67 -294.43701 -142.679 1.8403113e-38
-657.44598 1718.73 -147.955 1.8403113e-38
-712.43799 1788.3199 -144.418 1.8403113e-38
-697.78497 1782.46 -142.119 1.8403113e-38
-653.60901 1752.95 -138.214 1.8403113e-38
-657.21503 1775.27 -133.444 1.8403113e-38
-645.83801 1774.5 -130.69099 1.8403113e-38
-681.12799 1787.825 -136.4305 1.8403113e-38
-656.69202 1781.45 -131.728 1.8403113e-38
-694.617 1792.6899 -138.68201 1.8403113e-38
-665.651 1791.91 -131.377 1.8403113e-38
-702.19897 1800.79 -138.576 1.8403113e-38
1361.86 -235.44099 -124.185 1.8403113e-38
1366.5601 -225.55701 -120.44 1.8403113e-38
-661.46399 1794.95 -129.51401 1.8403113e-38
-1594.615 2794.3398 -115.8735 1.8403113e-38
1401.42 -201.459 -105.247 1.8403113e-38
1406.48 -192.32401 -101.6 1.8403113e-38
-1507.48 2786.9299 -95.192398 1.8403113e-38
-1510.25 2791.77 -94.671097 1.8403113e-38
-1523.33 2814.3101 -92.301102 1.8403113e-38
1433.98 -157.80099 -85.651497 1.8403113e-38
1441.6801 -152.69299 -82.349701 1.8403113e-38
-1512.01 2814.3501 -89.356796 1.8403113e-38
-1503.7151 2831.5049 -82.82235 1.8403113e-38
1523.6899 -194.815 -71.864998 1.8403113e-38
-1508.0699 2853.45 -78.341301 1.8403113e-38
-1499.5 2854.1699 -75.937897 1.8403113e-38
1541.4301 -203.192 -69.408897 1.8403113e-38
-1491.21 2869.22 -69.942101 1.8403113e-38
-1483.55 2870.1299 -67.724602 1.8403113e-38
-1511.51 2900.3701 -67.239799 1.8403113e-38
-1503.8 2901.23 -65.021301 1.8403113e-38
-1539.26 2935.9299 -65.342697 1.8403113e-38
-1526.05 2934.3301 -62.329201 1.8403113e-38
-2564.8701 3980.53 -64.104401 1.8403113e-38
1550.7 -142.952 -51.609901 1.8403113e-38
-1502.455 2945.0552 -53.473198 1.8403113e-38
1557.74 -136.673 -48.182098 1.8403113e-38
-1471.63 2951.6799 -43.792198 1.8403113e-38
-1487.96 2963.8401 -44.914799 1.8403113e-38
1583.11 -99.540199 -32.1157 1.8403113e-38
1591.83 -95.531799 -28.833401 1.8403113e-38
-1347.87 2912.52 -21.731001 1.8403113e-38
-1360.62 2922.8 -22.4083 1.8403113e-38
-1441.9399 2983.22 -28.039 1.8403113e-38
-1428.91 2980.51 -25.3536 1.8403113e-38
1605.1899 -43.948601 -12.1872 1.8403113e-38
-1424.13 2996.98 -19.905399 1.8403113e-38
-1424.21 3001.23 -18.8395 1.8403113e-38
-1400.11 3011.02 -10.0925 1.8403113e-38
-1877.09 3461.9099 -18.4433 1.8403113e-38
1606.88 -31.2572 -8.5048103 1.8403113e-38
-1381.05 2995.98 -8.9994602 1.8403113e-38
-1364.8301 3011.4351 -0.84390295 1.8403113e-38
1636.02 -0.584005 6.8861098 1.8403113e-38
-1360.29 3029.6599 4.9895301 1.8403113e-38
-1370.38 3040.0801 5.03895 1.8403113e-38
-1394.86 3075.1001 7.6473598 1.8403113e-38
-1389.59 3076.1399 9.2759104 1.8403113e-38
-1456.0601 3145 9.6559801 1.8403113e-38
1638.09 11.3509 10.4733 1.8403113e-38
-1398.26 3102.05 13.6536 1.8403113e-38
-1497.35 3195.2 11.7856 1.8403113e-38
-1617.97 3340.98 17.7897 1.8403113e-38
-1710.83 3415.4099 12.7532 1.8403113e-38
1782.0699 -78.5345 24.806499 1.8403113e-38
1671.05 37.112701 25.597601 1.8403113e-38
-1428.65 3229.8401 38.4398 1.8403113e-38
-1426.26 3233.1001 39.892799 1.8403113e-38
1890.36 -120.079 42.2505 1.8403113e-38
1756.11 17.5644 42.643299 1.8403113e-38
-1401.89 3237.3401 47.2939 1.8403113e-38
-1397.9 3239.28 48.821602 1.8403113e-38
1909.51 -73.758202 59.051601 1.8403113e-38
-1443.08 3304.8101 53.8657 1.8403113e-38
-1472.05 3322.9399 50.992401 1.8403113e-38
-1519.1801 3399.77 58.4184 1.8403113e-38
-1526.66 3400.1101 56.564602 1.8403113e-38
-2637.3999 4535.29 58.894798 1.8403113e-38
1915.51 -65.6595 62.6749 1.8403113e-38
-1474.9 3388.8 67.084801 1.8403113e-38
-1473.53 3393.49 68.640503 1.8403113e-38
-2473.28 4394.6802 65.481598 1.8403113e-38
2375.77 -490.091 73.455704 1.8403113e-38
2375.3999 -472.62799 77.824303 1.8403113e-38
-1469.17 3416.76 75.719498 1.8403113e-38
-1515.9 3465.03 75.946999 1.8403113e-38
-2780.1001 4757.29 78.657501 1.8403113e-38
2519.76 -544.992 96.735298 1.8403113e-38
-2688.8701 4744.79 99.105301 1.8403113e-38
-2714.23 4756.1499 95.436501 1.8403113e-38
2537.54 -545.83899 101.127 1.8403113e-38
-2641.1201 4759.6899 115.286 1.8403113e-38
