# .PCD v0.7 - Point Cloud Data file format
VERSION 0.7
FIELDS x y z rgb
SIZE 4 4 4 4
TYPE F F F F
COUNT 1 1 1 1
WIDTH 357
HEIGHT 1
VIEWPOINT 0 0 0 1 0 0 0
POINTS 357
DATA ascii
2280.1699 187.937 -298.276 1.8403113e-38
2278.8601 201.558 -293.64099 1.8403113e-38
1690.62 -56.4594 -280.215 1.8403113e-38
1815.29 4.6858602 -280.965 1.8403113e-38
1849.2 19.264601 -281.83401 1.8403113e-38
1879.27 39.512299 -280.23099 1.8403113e-38
1937.13 67.690903 -280.64401 1.8403113e-38
1952.17 72.795998 -281.47 1.8403113e-38
1966.28 76.714203 -282.53 1.8403113e-38
1985.48 92.151299 -280.69199 1.8403113e-38
1999.65 98.431099 -280.99399 1.8403113e-38
2013.75 102.998 -281.841 1.8403113e-38
2027.9 109.659 -282.017 1.8403113e-38
2036.05 117.676 -280.76199 1.8403113e-38
2055.29 122.065 -282.51401 1.8403113e-38
2068.53 127.777 -282.84799 1.8403113e-38
2083.49 134.76801 -283.04901 1.8403113e-38
2094.97 141.65199 -282.71201 1.8403113e-38
2116.8601 145.798 -284.98199 1.8403113e-38
2121.3101 156.214 -282.33801 1.8403113e-38
2137.0601 163.58099 -282.548 1.8403113e-38
2150.2 170.32001 -282.53101 1.8403113e-38
2164.1299 178.854 -282.06299 1.8403113e-38
2182.5701 183.739 -283.52301 1.8403113e-38
2202.71 190.194 -284.755 1.8403113e-38
2213.0901 198.761 -283.69 1.8403113e-38
2273.6299 218.51601 -287.276 1.8403113e-38
2282.05 228.45 -285.44501 1.8403113e-38
2284.72 242.437 -281.349 1.8403113e-38
2315.96 244.918 -285.702 1.8403113e-38
2322.1599 257.974 -282.48999 1.8403113e-38
2348.8301 262.638 -285.38101 1.8403113e-38
2368.8101 271.80801 -285.70499 1.8403113e-38
2376.8899 282.651 -283.522 1.8403113e-38
2394.9099 292.84601 -283.19 1.8403113e-38
2406.6001 302.923 -281.85101 1.8403113e-38
2429.21 312.36301 -282.522 1.8403113e-38
2457.75 318.509 -285.241 1.8403113e-38
2471.8201 330.79099 -283.57999 1.8403113e-38
2501.3 337.457 -286.285 1.8403113e-38
2512.4099 350.92999 -283.74899 1.8403113e-38
2543.77 357.92499 -286.65701 1.8403113e-38
2556.6299 371.487 -284.38199 1.8403113e-38
2587.01 379.48199 -286.80399 1.8403113e-38
2592.05 395.03201 -282.59299 1.8403113e-38
2618.52 404.44901 -283.90701 1.8403113e-38
2651.26 415.46399 -285.73999 1.8403113e-38
2663.2 428.10901 -283.60999 1.8403113e-38
2684.24 441.806 -282.64099 1.8403113e-38
2714.3999 452.14099 -284.26801 1.8403113e-38
2734.3201 466.71799 -282.828 1.8403113e-38
2745.9199 480.284 -280.34299 1.8403113e-38
494.151 -636.94598 -270.96799 1.8403113e-38
523.54199 -622.18298 -271.03201 1.8403113e-38
593.03003 -585.159 -270.495 1.8403113e-38
645.85303 -558.151 -270.45599 1.8403113e-38
659.76202 -550.01202 -270.112 1.8403113e-38
696.17902 -532.16302 -270.33499 1.8403113e-38
708.91803 -528.30298 -271.186 1.8403113e-38
733.03302 -515.396 -270.98099 1.8403113e-38
756.50299 -503.98999 -271.15601 1.8403113e-38
767.31598 -497.642 -270.88199 1.8403113e-38
802.09497 -481.923 -271.526 1.8403113e-38
824.37097 -468.42899 -270.82599 1.8403113e-38
834.422 -466.327 -271.80399 1.8403113e-38
846.12903 -457.43399 -270.85199 1.8403113e-38
856.10199 -450.41 -270.22 1.8403113e-38
867.51398 -446.09201 -270.70401 1.8403113e-38
877.315 -442.715 -271.22699 1.8403113e-38
888.51898 -434.41299 -270.383 1.8403113e-38
898.23102 -432.78 -271.457 1.8403113e-38
909.31598 -427.14999 -271.461 1.8403113e-38
929.78699 -417.659 -271.76199 1.8403113e-38
939.09601 -411.92801 -271.44 1.8403113e-38
950.52301 -415.41199 -274.457 1.8403113e-38
959.42297 -405.75201 -272.793 1.8403113e-38
970.362 -403.384 -273.83099 1.8403113e-38
979.48999 -398.30701 -273.69101 1.8403113e-38
1008.42 -374.694 -270.80899 1.8403113e-38
1027.61 -365.556 -271.01199 1.8403113e-38
1036.23 -360.082 -270.66 1.8403113e-38
1046.85 -357.987 -271.733 1.8403113e-38
1055.35 -352.38 -271.31799 1.8403113e-38
1073.55 -340.673 -270.526 1.8403113e-38
1085.3199 -344.72101 -273.78201 1.8403113e-38
1095.36 -347.15201 -276.229 1.8403113e-38
1103.4 -333.487 -273.12299 1.8403113e-38
1111.9399 -329.33301 -273.186 1.8403113e-38
1121.62 -323.82199 -272.996 1.8403113e-38
1129.36 -316.79901 -271.996 1.8403113e-38
1140.0699 -315.70599 -273.41101 1.8403113e-38
1147.42 -307.65799 -272.013 1.8403113e-38
1157.83 -305.491 -273.02899 1.8403113e-38
1167.91 -307.27899 -275.27301 1.8403113e-38
1176.97 -300.418 -274.54401 1.8403113e-38
1186.8199 -301.134 -276.401 1.8403113e-38
1194.3101 -289.64999 -273.914 1.8403113e-38
1202.65 -285.75 -274.026 1.8403113e-38
1209.86 -274.18301 -271.46301 1.8403113e-38
1221.2 -279.04099 -274.91101 1.8403113e-38
1228.52 -268.24899 -272.62 1.8403113e-38
1237.98 -267.625 -273.979 1.8403113e-38
1246.4301 -260.245 -272.98001 1.8403113e-38
1255.1801 -257.71799 -273.60501 1.8403113e-38
1271.4399 -245.817 -272.42999 1.8403113e-38
1281.05 -241.65401 -272.66501 1.8403113e-38
1289.3101 -237.99001 -272.84201 1.8403113e-38
1297.6899 -231.101 -271.98901 1.8403113e-38
1305.48 -226.459 -271.76999 1.8403113e-38
1314.91 -221.998 -271.88 1.8403113e-38
1323.84 -219.77 -272.63199 1.8403113e-38
1332.79 -214.306 -272.33801 1.8403113e-38
1341.28 -211.088 -272.694 1.8403113e-38
1354.48 -213.813 -275.758 1.8403113e-38
1361.21 -207.099 -274.69199 1.8403113e-38
1370.9301 -202.97 -274.957 1.8403113e-38
1380.73 -201.908 -276.23001 1.8403113e-38
1388.09 -193.51199 -274.72299 1.8403113e-38
1410.38 -192.66499 -278.12701 1.8403113e-38
1395.52 -188.22099 -274.233 1.8403113e-38
1415.36 -183.188 -275.87601 1.8403113e-38
1425.9 -180.155 -276.63199 1.8403113e-38
1431.7 -172.207 -275.01099 1.8403113e-38
1454.03 -170.401 -278.112 1.8403113e-38
1442.6899 -169.79401 -276.04401 1.8403113e-38
1464.03 -166.188 -278.396 1.8403113e-38
1471.2 -160.35201 -277.68701 1.8403113e-38
1482.21 -157.51199 -278.58401 1.8403113e-38
1487.12 -148.48199 -276.465 1.8403113e-38
1498.63 -146.226 -277.63501 1.8403113e-38
1503.38 -137.123 -275.466 1.8403113e-38
1514.86 -134.675 -276.56799 1.8403113e-38
1525.76 -133.711 -278.05399 1.8403113e-38
1533.8 -126.566 -277.064 1.8403113e-38
1541.1899 -120.98 -276.47299 1.8403113e-38
1553.27 -118.824 -277.76801 1.8403113e-38
1563.01 -115.99 -278.457 1.8403113e-38
1572.09 -109.978 -278.005 1.8403113e-38
1581.2 -106.243 -278.298 1.8403113e-38
1589.58 -99.352097 -277.44601 1.8403113e-38
1596.14 -92.638702 -276.35101 1.8403113e-38
1605.66 -87.014297 -276.099 1.8403113e-38
1617.25 -85.727501 -277.59399 1.8403113e-38
1624.79 -77.835701 -276.28 1.8403113e-38
1634.4301 -74.281799 -276.71899 1.8403113e-38
1642.52 -66.9263 -275.668 1.8403113e-38
1657.47 -68.5411 -278.66 1.8403113e-38
1664.84 -60.3181 -277.20901 1.8403113e-38
1673.76 -55.707699 -277.18799 1.8403113e-38
1695.41 -47.745399 -278.17801 1.8403113e-38
1706.0601 -42.4044 -278.20499 1.8403113e-38
1709.99 -32.980801 -275.798 1.8403113e-38
1724.12 -30.593599 -277.35501 1.8403113e-38
1735.79 -27.9013 -278.41 1.8403113e-38
1747.8199 -23.3311 -278.91199 1.8403113e-38
1757.34 -18.5469 -278.93201 1.8403113e-38
1770.08 -14.3099 -279.66199 1.8403113e-38
1777.36 -7.5219498 -278.66199 1.8403113e-38
1791.58 -4.1928802 -279.92999 1.8403113e-38
1798.04 3.3526199 -278.54901 1.8403113e-38
1817.11 15.8193 -277.65399 1.8403113e-38
1829.79 20.8556 -278.11301 1.8403113e-38
1851.02 32.3428 -277.892 1.8403113e-38
1864.25 35.469601 -279.06299 1.8403113e-38
1883.8101 48.777302 -277.97501 1.8403113e-38
1897.21 54.1674 -278.439 1.8403113e-38
1910.46 57.8946 -279.418 1.8403113e-38
1923.86 63.632999 -279.76901 1.8403113e-38
1970.5601 88.422798 -279.43799 1.8403113e-38
2755.8999 496.582 -276.70499 1.8403113e-38
2758.52 511.43701 -272.31799 1.8403113e-38
-22.413099 -866.737 -260.22 1.8403113e-38
22.8969 -848.146 -261.67001 1.8403113e-38
47.181099 -832.38898 -260.56799 1.8403113e-38
67.784203 -827.685 -262.444 1.8403113e-38
86.244301 -821.89001 -263.61301 1.8403113e-38
111.314 -807.11298 -262.95801 1.8403113e-38
127.717 -804.41998 -264.793 1.8403113e-38
150.179 -793.53699 -264.97101 1.8403113e-38
172.88901 -776.32098 -263.13599 1.8403113e-38
191.19099 -772.92798 -265.05701 1.8403113e-38
210.989 -760.59998 -264.327 1.8403113e-38
228.996 -756.81201 -266.07199 1.8403113e-38
247.616 -745.883 -265.60101 1.8403113e-38
264.96701 -742.61603 -267.40601 1.8403113e-38
283.93301 -729.51398 -266.28699 1.8403113e-38
300.64301 -726.78497 -268.16101 1.8403113e-38
318.83701 -714.22101 -267.08899 1.8403113e-38
337.642 -704.771 -267.129 1.8403113e-38
354.056 -695.49103 -266.82901 1.8403113e-38
371.80899 -687.49103 -267.16501 1.8403113e-38
389.11499 -674.21899 -265.71701 1.8403113e-38
404.02899 -673.21301 -267.853 1.8403113e-38
419.15201 -665.14697 -267.733 1.8403113e-38
435.34799 -659.23297 -268.48901 1.8403113e-38
450.16699 -650.88098 -268.22601 1.8403113e-38
465.79999 -645.58301 -269.08899 1.8403113e-38
481.108 -634.16498 -267.91299 1.8403113e-38
509.39401 -624.32501 -269.39099 1.8403113e-38
538.86499 -607.41498 -268.772 1.8403113e-38
553.66302 -601.24799 -269.21399 1.8403113e-38
566.38501 -595.59302 -269.48001 1.8403113e-38
581.745 -585.39697 -268.70901 1.8403113e-38
609.01801 -569.97998 -268.211 1.8403113e-38
620.86798 -565.75403 -268.797 1.8403113e-38
634.84003 -558.80103 -268.84799 1.8403113e-38
672.57001 -536.84601 -267.95599 1.8403113e-38
685.83899 -530.35699 -268.04199 1.8403113e-38
721.383 -511.871 -267.914 1.8403113e-38
745.27802 -496.86301 -266.991 1.8403113e-38
779.83197 -488.384 -269.94601 1.8403113e-38
790.76099 -476.14499 -267.78 1.8403113e-38
812.66998 -471.41699 -269.86401 1.8403113e-38
918.435 -413.98099 -268.69501 1.8403113e-38
988.46899 -378.82901 -268.85501 1.8403113e-38
996.88 -369.87201 -267.33899 1.8403113e-38
1016.15 -361.85999 -267.922 1.8403113e-38
1064.52 -342.69 -269.68799 1.8403113e-38
1260.28 -242.38 -269.47198 1.8403113e-38
2759.4399 528.85303 -266.82101 1.8403113e-38
2771.5601 542.79303 -264.29999 1.8403113e-38
-171.157 -928.75299 -255.778 1.8403113e-38
-146.83099 -918.565 -256.48999 1.8403113e-38
-119.101 -906.70398 -257.22101 1.8403113e-38
-94.749901 -895.11102 -257.48099 1.8403113e-38
-72.020203 -890.24103 -259.65399 1.8403113e-38
-43.743599 -870.45599 -257.90399 1.8403113e-38
3.8039701 -848.92499 -258.771 1.8403113e-38
2774.1399 560.10999 -259.10901 1.8403113e-38
2776.23 575.07898 -254.59801 1.8403113e-38
2786.3301 591.88202 -250.81599 1.8403113e-38
-175.556 -902.69 -246.59801 1.8403113e-38
2790.1201 606.81299 -246.599 1.8403113e-38
2789.1399 624.41699 -240.726 1.8403113e-38
-174.258 -872.90802 -237.15199 1.8403113e-38
2800.53 639.04401 -237.862 1.8403113e-38
2800.21 656.64203 -232.101 1.8403113e-38
-173.44901 -840.40997 -226.744 1.8403113e-38
2811.3501 671.50702 -229.118 1.8403113e-38
2813.6699 689.099 -223.79601 1.8403113e-38
-171.241 -810.849 -217.52 1.8403113e-38
2814.6899 704.32098 -219.02699 1.8403113e-38
2823.6101 721.93597 -214.785 1.8403113e-38
-169.416 -778.60101 -207.36099 1.8403113e-38
2824.3601 737.22101 -209.951 1.8403113e-38
2813.22 754.72699 -202.433 1.8403113e-38
-171.39799 -756.547 -199.88 1.8403113e-38
-169.20799 -725.33301 -190.117 1.8403113e-38
-166.431 -697.83502 -181.65601 1.8403113e-38
-165.631 -670.06799 -172.78101 1.8403113e-38
-166.79401 -649.11902 -165.79401 1.8403113e-38
-165.791 -622.33502 -157.272 1.8403113e-38
-166.92799 -602.30798 -150.58701 1.8403113e-38
-168.23 -579.59497 -143.005 1.8403113e-38
-171.895 -563.53601 -137.19099 1.8403113e-38
-180.841 -531.021 -125.167 1.8403113e-38
-171.319 -539.409 -129.46001 1.8403113e-38
-183.528 -511.52701 -118.4 1.8403113e-38
-212.689 -503.672 -111.038 1.8403113e-38
-197.328 -508.293 -115.073 1.8403113e-38
-226.48801 -500.14499 -107.616 1.8403113e-38
-242.498 -495.92801 -103.604 1.8403113e-38
-314.539 -491.31699 -90.2145 1.8403113e-38
-293.629 -491.31 -93.664497 1.8403113e-38
-278.418 -494.04599 -97.0634 1.8403113e-38
-255.62199 -491.37299 -99.9599 1.8403113e-38
-371.84299 -489.81699 -80.267097 1.8403113e-38
-350.138 -487.03101 -82.9468 1.8403113e-38
-329.112 -487.50201 -86.571098 1.8403113e-38
-1211.03 -887.38599 -70.675301 1.8403113e-38
-405.55701 -482.16101 -72.2174 1.8403113e-38
-393.03699 -488.80099 -76.438499 1.8403113e-38
-1204.2 -852.97302 -60.641201 1.8403113e-38
-485.78299 -494.42099 -62.948799 1.8403113e-38
-454.70999 -487.85001 -65.947502 1.8403113e-38
-433.37601 -486.77899 -69.122398 1.8403113e-38
-1211.74 -833.80603 -53.178398 1.8403113e-38
-552.96503 -494.052 -51.737099 1.8403113e-38
-536.50702 -498.707 -55.964401 1.8403113e-38
-499.89099 -488.28601 -58.629501 1.8403113e-38
-1214.5601 -807.40503 -44.148602 1.8403113e-38
-635.46503 -500.09698 -40.077301 1.8403113e-38
-611.93103 -502.85599 -44.8577 1.8403113e-38
-581.60498 -496.51599 -47.808102 1.8403113e-38
-1214.38 -782.94702 -36.245201 1.8403113e-38
-710.94598 -518.90198 -33.715099 1.8403113e-38
-665.31 -505.05801 -36.7589 1.8403113e-38
3099.24 1429.33 -30.8361 1.8403113e-38
-1278.01 -775.89301 -23.4513 1.8403113e-38
-1242.61 -775.19702 -29.0702 1.8403113e-38
1742.1801 744.56 -28.9004 1.8403113e-38
3169.28 1473.88 -27.9471 1.8403113e-38
3173.3101 1494.7 -21.860399 1.8403113e-38
-1330.2 -783.71802 -17.3734 1.8403113e-38
-1355.15 -776.078 -10.7765 1.8403113e-38
3174.3601 1517.76 -14.5538 1.8403113e-38
-1412.74 -785.88397 -4.4492602 1.8403113e-38
1634.6801 748.94897 -9.7295704 1.8403113e-38
1648.59 755.49799 -9.9012899 1.8403113e-38
1633.8 761.82098 -5.4082298 1.8403113e-38
1658.46 769.21198 -7.08287 1.8403113e-38
1672.1899 777.26703 -6.7361498 1.8403113e-38
1663.15 782.87799 -3.4243701 1.8403113e-38
1669.83 790.62598 -2.0135601 1.8403113e-38
1674.51 797.32001 -0.61398101 1.8403113e-38
3177.03 1538.42 -8.2931404 1.8403113e-38
3176.6699 1561.27 -0.82114899 1.8403113e-38
-1505.96 -792.17798 8.9006796 1.8403113e-38
-1455.39 -788.83899 1.63515 1.8403113e-38
1634.6801 800.64502 7.0401702 1.8403113e-38
-1537.12 -786.45502 15.901 1.8403113e-38
1626.4301 805.76099 10.0612 1.8403113e-38
1600.88 815.41498 17.411501 1.8403113e-38
1611.1801 810.86401 14.2347 1.8403113e-38
-1694.54 -827.34003 28.6299 1.8403113e-38
-1569.29 -776.91199 24.308201 1.8403113e-38
1583.5699 819.77197 21.681801 1.8403113e-38
1566.97 826.237 26.5201 1.8403113e-38
1533.86 835.81799 35.0947 1.8403113e-38
1548.34 832.01001 31.467699 1.8403113e-38
1529.38 846.409 39.269402 1.8403113e-38
1530.23 840.466 37.201401 1.8403113e-38
-1346.41 -589.97101 48.148998 1.8403113e-38
1534.9551 855.83398 41.406349 1.8403113e-38
1539.4301 865.21997 43.712002 1.8403113e-38
1542.22 874.80298 46.359352 1.8403113e-38
1543.91 884.23999 49.140999 1.8403113e-38
3196.76 1700.9301 41.161701 1.8403113e-38
3193.1001 1720.27 48.0397 1.8403113e-38
-1366.84 -579.23401 55.004299 1.8403113e-38
1521.53 884.24902 52.840199 1.8403113e-38
1525.46 894.1095 55.389351 1.8403113e-38
1535.03 905.646 57.5513 1.8403113e-38
1531.83 910.25 59.5728 1.8403113e-38
-1372.29 -556.13098 63.397499 1.8403113e-38
1531.26 916.448 61.677502 1.8403113e-38
1530.16 928.04102 65.619499 1.8403113e-38
1542.3199 925.26001 62.709301 1.8403113e-38
-1368.11 -531.29602 70.762901 1.8403113e-38
-1366.9 -504.88699 79.129601 1.8403113e-38
1590.78 1000.01 78.954903 1.8403113e-38
1625.87 1005.74 75.020302 1.8403113e-38
-1358.64 -478.40302 86.3573 1.8403113e-38
1557.3199 1006.45 86.570198 1.8403113e-38
1583.14 1003.36 81.304703 1.8403113e-38
1602.0699 1018.24 83.004402 1.8403113e-38
-1042.14 -285.78201 96.583298 1.8403113e-38
1537.92 1031.74 97.974899 1.8403113e-38
1696.62 1088.12 90.061798 1.8403113e-38
1697.52 1096.08 92.494499 1.8403113e-38
-897.146 -191.98399 103.069 1.8403113e-38
-894.44598 -170.99899 109.431 1.8403113e-38
1417.36 987.5 103.53 1.8403113e-38
1427.79 986.44299 101.464 1.8403113e-38
1454 1010.54 104.953 1.8403113e-38
1472.41 1031.9301 108.852 1.8403113e-38
1489.05 1034.45 106.923 1.8403113e-38
