# .PCD v0.7 - Point Cloud Data file format
VERSION 0.7
FIELDS x y z rgb
SIZE 4 4 4 4
TYPE F F F F
COUNT 1 1 1 1
WIDTH 357
HEIGHT 1
VIEWPOINT 0 0 0 1 0 0 0
POINTS 357
DATA ascii
1011.38 -637.336 -280.00101 1.8403113e-38
1123.6801 -585.10101 -282.16101 1.8403113e-38
1132.7 -574.78497 -280.36099 1.8403113e-38
1162.25 -563.03198 -281.57101 1.8403113e-38
1191.37 -550.58502 -282.48401 1.8403113e-38
1220.02 -537.46198 -283.10001 1.8403113e-38
1461.36 -405.05499 -281.245 1.8403113e-38
1513.55 -376.00601 -280.70999 1.8403113e-38
1523.09 -372.521 -281.20001 1.8403113e-38
1541.62 -364.495 -281.74701 1.8403113e-38
1551.11 -360.75201 -282.14499 1.8403113e-38
1560.58 -356.92099 -282.51199 1.8403113e-38
1566.87 -348.328 -280.80801 1.8403113e-38
1575.74 -343.577 -280.77499 1.8403113e-38
1585.11 -339.51801 -281.052 1.8403113e-38
1596.1 -337.664 -282.314 1.8403113e-38
1614.23 -328.327 -282.371 1.8403113e-38
1622.96 -323.16101 -282.18301 1.8403113e-38
1632.24 -318.66199 -282.302 1.8403113e-38
1640.91 -313.33899 -282.05301 1.8403113e-38
1648.36 -306.47198 -281.10001 1.8403113e-38
1660.52 -305.37701 -282.80399 1.8403113e-38
1667.9 -298.35999 -281.789 1.8403113e-38
1675.8101 -292.00601 -281.08099 1.8403113e-38
1686.77 -289.14801 -282.01199 1.8403113e-38
1696.48 -284.759 -282.23999 1.8403113e-38
1701.76 -275.36899 -280.10699 1.8403113e-38
1712.67 -272.216 -280.936 1.8403113e-38
1734.52 -265.552 -282.48401 1.8403113e-38
1746.11 -262.71899 -283.53101 1.8403113e-38
1751.08 -253.036 -281.25101 1.8403113e-38
1763.3101 -250.664 -282.55499 1.8403113e-38
1769.48 -242.209 -280.87399 1.8403113e-38
1781.03 -238.95 -281.776 1.8403113e-38
1790.52 -233.614 -281.66199 1.8403113e-38
1801.38 -229.466 -282.16101 1.8403113e-38
1810.83 -223.927 -281.974 1.8403113e-38
1824.49 -222.067 -283.686 1.8403113e-38
1833.21 -215.67599 -283.10001 1.8403113e-38
1846.92 -213.51801 -284.72299 1.8403113e-38
1852.6899 -204.476 -282.785 1.8403113e-38
1866.41 -202.04401 -284.32199 1.8403113e-38
1875.01 -195.258 -283.58899 1.8403113e-38
1884.3 -188.981 -283.138 1.8403113e-38
1896.55 -184.946 -283.909 1.8403113e-38
1904.29 -177.297 -282.75299 1.8403113e-38
1923.35 -178.146 -286.25 1.8403113e-38
1921.87 -163.48801 -281.276 1.8403113e-38
1937.14 -161.19299 -283.11899 1.8403113e-38
1974.0601 -160.349 -289.09 1.8403113e-38
1951.6801 -158.145 -284.595 1.8403113e-38
1972.99 -146.10699 -284.32001 1.8403113e-38
1985.1899 -140.967 -284.72699 1.8403113e-38
1998.98 -136.726 -285.69199 1.8403113e-38
2004.76 -127.142 -283.582 1.8403113e-38
2018.52 -122.616 -284.45001 1.8403113e-38
2026.62 -114.395 -283.16901 1.8403113e-38
2046.89 -113.527 -286.31799 1.8403113e-38
2060.6699 -108.461 -287.017 1.8403113e-38
2071.99 -101.773 -286.77499 1.8403113e-38
2080.78 -93.5289 -285.60501 1.8403113e-38
2089.51 -85.192398 -284.39499 1.8403113e-38
2099.03 -77.2239 -283.43701 1.8403113e-38
2115.25 -72.766502 -284.74399 1.8403113e-38
2128.9399 -66.752098 -285.121 1.8403113e-38
2140.9199 -59.684101 -284.86899 1.8403113e-38
2156.3 -54.186501 -285.698 1.8403113e-38
2170.8201 -48.057499 -286.17899 1.8403113e-38
2184.47 -41.319199 -286.315 1.8403113e-38
2196.3601 -33.586399 -285.83301 1.8403113e-38
2208.21 -25.704399 -285.298 1.8403113e-38
2224.4099 -19.635599 -286.082 1.8403113e-38
2238.8501 -12.5723 -286.24701 1.8403113e-38
2253.26 -5.3143301 -286.34601 1.8403113e-38
2257.8799 6.2038598 -283.41501 1.8403113e-38
2282.03 9.7853699 -286.345 1.8403113e-38
2291.8899 19.398199 -284.91501 1.8403113e-38
2317.8899 22.8915 -288.186 1.8403113e-38
2331.3 31.523001 -287.672 1.8403113e-38
2329.24 45.959499 -282.672 1.8403113e-38
2357.0701 49.646 -286.19101 1.8403113e-38
2374 57.5448 -286.508 1.8403113e-38
2389.0701 66.299599 -286.23499 1.8403113e-38
2401.3401 76.162598 -285.13199 1.8403113e-38
2420.9399 83.8545 -285.96701 1.8403113e-38
2432.1899 94.388298 -284.47501 1.8403113e-38
2452.6599 102.31 -285.384 1.8403113e-38
2467.52 112.142 -284.729 1.8403113e-38
2488.8799 120.365 -285.69101 1.8403113e-38
2502.72 130.922 -284.629 1.8403113e-38
2520.25 140.696 -284.444 1.8403113e-38
2542.46 149.548 -285.34698 1.8403113e-38
2555.1899 161.01199 -283.80499 1.8403113e-38
2581.1101 169.577 -285.42899 1.8403113e-38
2604.1699 179.177 -286.23499 1.8403113e-38
2623.3799 189.942 -286.01501 1.8403113e-38
2635.8601 202.36099 -284.12299 1.8403113e-38
2662.6101 212.147 -285.49301 1.8403113e-38
2686.45 222.886 -286.064 1.8403113e-38
2706.3999 234.67599 -285.63901 1.8403113e-38
2722.4299 247.418 -284.24399 1.8403113e-38
2727.77 262.09201 -280.41699 1.8403113e-38
317.49899 -971.78497 -270.436 1.8403113e-38
355.077 -954.92902 -271.35901 1.8403113e-38
373.767 -945.76001 -271.565 1.8403113e-38
392.612 -935.49103 -271.44199 1.8403113e-38
408.16599 -933.21698 -273.34 1.8403113e-38
425.98499 -924.409 -273.51501 1.8403113e-38
443.61801 -915.42297 -273.60101 1.8403113e-38
464.55301 -896.17297 -270.93799 1.8403113e-38
478.62601 -896.00299 -273.263 1.8403113e-38
495.98099 -885.57098 -272.83701 1.8403113e-38
512.83301 -875.89001 -272.56601 1.8403113e-38
527.49597 -872.521 -273.961 1.8403113e-38
543.45898 -864.38 -274.03699 1.8403113e-38
559.255 -856.08502 -274.035 1.8403113e-38
575.66302 -844.84601 -273.18799 1.8403113e-38
591.34698 -835.31299 -272.76801 1.8403113e-38
606.35699 -827.50098 -272.789 1.8403113e-38
620.50702 -822.35602 -273.52399 1.8403113e-38
635.67999 -812.39398 -272.879 1.8403113e-38
648.263 -812.62 -275.07999 1.8403113e-38
661.67499 -808.97498 -276.17401 1.8403113e-38
676.41602 -798.61798 -275.32901 1.8403113e-38
690.18903 -791.89801 -275.49301 1.8403113e-38
702.72498 -790.71899 -277.233 1.8403113e-38
715.05499 -790.37799 -279.20801 1.8403113e-38
729.54401 -777.62903 -277.54999 1.8403113e-38
743.16101 -768.53802 -276.923 1.8403113e-38
757.35797 -754.58698 -274.828 1.8403113e-38
770.73199 -744.30499 -273.776 1.8403113e-38
783.65002 -735.80603 -273.22198 1.8403113e-38
795.414 -734.79901 -274.88699 1.8403113e-38
807.388 -731.789 -275.94199 1.8403113e-38
819.414 -727.72699 -276.66699 1.8403113e-38
831.85901 -718.80298 -275.896 1.8403113e-38
844.414 -706.91803 -274.189 1.8403113e-38
855.77399 -706.35999 -275.92999 1.8403113e-38
867.63702 -699.03699 -275.57599 1.8403113e-38
879.37 -691.61603 -275.16901 1.8403113e-38
890.52301 -691.72302 -277.09 1.8403113e-38
902.20398 -681.25299 -275.69101 1.8403113e-38
913.58301 -673.54797 -275.13199 1.8403113e-38
924.82898 -665.75299 -274.522 1.8403113e-38
935.81 -663.58398 -275.67999 1.8403113e-38
946.77197 -660.37097 -276.49899 1.8403113e-38
957.67499 -658.97302 -277.892 1.8403113e-38
968.53101 -650.823 -277.10101 1.8403113e-38
979.23499 -641.638 -275.952 1.8403113e-38
989.74103 -630.47101 -274.13 1.8403113e-38
1000.45 -631.57703 -276.297 1.8403113e-38
1020.82 -610.75 -273.02899 1.8403113e-38
1031.41 -611.59802 -275.09399 1.8403113e-38
1042.16 -614.24799 -277.76599 1.8403113e-38
1051.8 -601.67297 -275.34399 1.8403113e-38
1061.96 -597.53601 -275.73001 1.8403113e-38
1082.91 -596.55798 -278.957 1.8403113e-38
1093.1801 -594.05402 -279.88599 1.8403113e-38
1071.62 -588.60199 -274.483 1.8403113e-38
1102.84 -586.76801 -279.172 1.8403113e-38
1112.88 -583.16498 -279.70999 1.8403113e-38
1141.55 -564.41199 -278.51401 1.8403113e-38
1151.1801 -559.57397 -278.58401 1.8403113e-38
1169.37 -545.03998 -276.97699 1.8403113e-38
1179.87 -545.54999 -278.91699 1.8403113e-38
1197.75 -531.53497 -277.42401 1.8403113e-38
1206.33 -523.51501 -276.29001 1.8403113e-38
1223.8 -510.05801 -274.909 1.8403113e-38
1235.1 -513.73901 -278.005 1.8403113e-38
1243.09 -504.55801 -276.397 1.8403113e-38
1253.7 -505.32001 -278.43799 1.8403113e-38
1262.8 -500.54901 -278.44 1.8403113e-38
1271.85 -495.70901 -278.409 1.8403113e-38
1279.1801 -485.39899 -276.327 1.8403113e-38
1288.0601 -480.439 -276.23001 1.8403113e-38
1297.76 -478.09601 -277.116 1.8403113e-38
1308.36 -478.34399 -278.98801 1.8403113e-38
1314.97 -466.939 -276.431 1.8403113e-38
1326.49 -469.67999 -279.263 1.8403113e-38
1335.17 -464.358 -279.01501 1.8403113e-38
1344.79 -461.60999 -279.75601 1.8403113e-38
1350.97 -450.01801 -277.06601 1.8403113e-38
1357.33 -439.28201 -274.68201 1.8403113e-38
1366.4 -435.48001 -274.98999 1.8403113e-38
1378.73 -439.397 -278.33701 1.8403113e-38
1385.5601 -430.23999 -276.54099 1.8403113e-38
1396.84 -431.35699 -278.81 1.8403113e-38
1402.73 -420.384 -276.26999 1.8403113e-38
1414.83 -423.01999 -279.16501 1.8403113e-38
1423.77 -418.741 -279.298 1.8403113e-38
1428.96 -406.793 -276.32401 1.8403113e-38
1440.28 -407.44299 -278.45001 1.8403113e-38
1445.66 -396.26801 -275.758 1.8403113e-38
1464.83 -390.45599 -277.12601 1.8403113e-38
1474.85 -388.24301 -278.108 1.8403113e-38
1482.58 -381.83499 -277.35001 1.8403113e-38
1493.98 -381.896 -279.298 1.8403113e-38
1502.58 -376.96899 -279.16501 1.8403113e-38
1529.63 -364.16199 -279.612 1.8403113e-38
1600.46 -326.582 -279.479 1.8403113e-38
1719.73 -264.80801 -279.742 1.8403113e-38
2738.78 275.94501 -277.815 1.8403113e-38
2740 291.328 -273.06299 1.8403113e-38
2751.75 305.271 -270.556 1.8403113e-38
-155.82401 -1187.92 -260.04099 1.8403113e-38
-65.343697 -1140.33 -260.005 1.8403113e-38
-42.437599 -1134.7 -262.065 1.8403113e-38
-17.7024 -1125.4301 -263.26199 1.8403113e-38
14.1587 -1103.12 -261.461 1.8403113e-38
36.402401 -1096.66 -263.14099 1.8403113e-38
57.051399 -1092.53 -265.30099 1.8403113e-38
76.638496 -1089.9 -267.767 1.8403113e-38
104.861 -1070.64 -266.33099 1.8403113e-38
129.526 -1057.12 -266.146 1.8403113e-38
153.45799 -1044.1899 -266.02802 1.8403113e-38
174.494 -1036.25 -267.02499 1.8403113e-38
194.91299 -1028.96 -268.12799 1.8403113e-38
217.263 -1017.04 -268.06799 1.8403113e-38
236.879 -1010.19 -269.177 1.8403113e-38
259.57501 -996.026 -268.452 1.8403113e-38
280.388 -985.17902 -268.47601 1.8403113e-38
299.021 -978.57703 -269.5 1.8403113e-38
338.06201 -959.40698 -269.92401 1.8403113e-38
2754.6399 320.474 -266.146 1.8403113e-38
2763.24 335.01501 -262.914 1.8403113e-38
-185.037 -1200.58 -259.181 1.8403113e-38
-190.40199 -1176.88 -250.634 1.8403113e-38
-122.689 -1168.27 -259.311 1.8403113e-38
-92.0439 -1151.54 -259.10501 1.8403113e-38
2754.1799 351.55801 -256.04901 1.8403113e-38
2769.3401 365.50299 -254.119 1.8403113e-38
-261.40799 -1186.46 -241.71201 1.8403113e-38
-190.42 -1145.87 -240.63699 1.8403113e-38
2771.7 380.82501 -249.58 1.8403113e-38
2782.72 395.43799 -246.735 1.8403113e-38
2785.79 410.78699 -242.308 1.8403113e-38
-188.27699 -1112.54 -230.257 1.8403113e-38
2786.77 426.289 -237.476 1.8403113e-38
2789.5601 441.673 -232.991 1.8403113e-38
2800.0801 456.70599 -229.925 1.8403113e-38
2800.6399 472.28101 -225 1.8403113e-38
2810.8999 487.543 -221.81599 1.8403113e-38
2812.1699 503.15601 -216.99899 1.8403113e-38
2822.1599 518.65002 -213.696 1.8403113e-38
-166.306 -1023.86 -205.394 1.8403113e-38
2823.1599 534.34302 -208.806 1.8403113e-38
2824.99 550.03998 -204.058 1.8403113e-38
2837.54 565.87701 -201.076 1.8403113e-38
-161.272 -989.48999 -195.168 1.8403113e-38
2838.1101 581.677 -196.08099 1.8403113e-38
2844.47 597.64203 -192.00999 1.8403113e-38
-157.48 -957.67102 -185.55499 1.8403113e-38
2846.73 613.55701 -187.263 1.8403113e-38
2846.8701 629.41101 -182.177 1.8403113e-38
-160.97 -936.23901 -178.05701 1.8403113e-38
2855.76 645.73499 -178.41901 1.8403113e-38
2860.55 661.95599 -174.002 1.8403113e-38
-153.276 -900.76099 -167.924 1.8403113e-38
-156.036 -879.49298 -160.603 1.8403113e-38
2867.1699 678.38898 -169.825 1.8403113e-38
2872.6599 694.85101 -165.448 1.8403113e-38
2876.02 711.229 -160.739 1.8403113e-38
-156.022 -855.17902 -152.769 1.8403113e-38
2885.1499 728.22601 -156.80499 1.8403113e-38
2894.1299 745.375 -152.797 1.8403113e-38
-158.153 -834.02502 -145.591 1.8403113e-38
2890.1499 761.23297 -147.01199 1.8403113e-38
2897.8301 778.45398 -142.76199 1.8403113e-38
-152.409 -803.76898 -136.811 1.8403113e-38
2896.5 794.659 -137.315 1.8403113e-38
2912.73 813.28601 -134.05499 1.8403113e-38
-153.86501 -782.78302 -129.802 1.8403113e-38
-155.024 -761.85901 -122.862 1.8403113e-38
2910.1101 829.45599 -128.39999 1.8403113e-38
2920.1001 847.565 -124.254 1.8403113e-38
-154.588 -739.50201 -115.73 1.8403113e-38
2918.1499 863.92499 -118.653 1.8403113e-38
2921.9399 881.271 -113.702 1.8403113e-38
-150.547 -713.521 -108.041 1.8403113e-38
-155.418 -698.00598 -102.216 1.8403113e-38
2926.54 898.86603 -108.809 1.8403113e-38
2932.9199 916.91803 -104.071 1.8403113e-38
-155.39799 -677.367 -95.567902 1.8403113e-38
2941.0901 935.474 -99.472 1.8403113e-38
2942.26 952.77301 -94.0942 1.8403113e-38
-155.76801 -657.53198 -89.1129 1.8403113e-38
-153.815 -635.60303 -82.375801 1.8403113e-38
2940.3401 969.47699 -88.386597 1.8403113e-38
2952.8501 989.42603 -84.072403 1.8403113e-38
-158.44299 -620.93799 -76.866798 1.8403113e-38
-158.021 -601.29999 -70.6091 1.8403113e-38
2955.45 1007.35 -78.737701 1.8403113e-38
2966.6001 1027.4301 -74.150902 1.8403113e-38
-162.939 -587.37903 -65.290703 1.8403113e-38
2974.6399 1046.99 -69.206703 1.8403113e-38
2976.71 1065.21 -63.683201 1.8403113e-38
-164.151 -569.95502 -59.4701 1.8403113e-38
-162.28 -549.80798 -53.2934 1.8403113e-38
2988.22 1086.0601 -58.910099 1.8403113e-38
2996.6399 1106.33 -53.800598 1.8403113e-38
-175.953 -544.88898 -49.395401 1.8403113e-38
-180.185 -530.953 -44.188301 1.8403113e-38
-196.672 -528.50897 -40.612301 1.8403113e-38
3004.8501 1126.77 -48.6031 1.8403113e-38
3010.9399 1146.8101 -43.175701 1.8403113e-38
-251.52499 -524.58899 -30.071501 1.8403113e-38
-230.46899 -523.68799 -33.342499 1.8403113e-38
-209.504 -522.51599 -36.510399 1.8403113e-38
3005.3701 1163.5 -36.854099 1.8403113e-38
-269.655 -522.60602 -26.3664 1.8403113e-38
-285.547 -518.45898 -22.341999 1.8403113e-38
-364.25101 -529.96997 -12.7405 1.8403113e-38
-328.12 -518.46301 -15.143 1.8403113e-38
-306.79401 -518.59998 -18.7939 1.8403113e-38
-398.815 -521.28802 -4.0967302 1.8403113e-38
-375.67401 -521.07599 -7.9424 1.8403113e-38
-444.54901 -520.177 3.99615 1.8403113e-38
-466.32199 -518.26898 8.2936401 1.8403113e-38
-417.293 -517.53802 0.23700599 1.8403113e-38
-497.017 -522.552 12.1045 1.8403113e-38
-513.26703 -515.91498 16.9918 1.8403113e-38
-1165.13 -830.35498 25.8993 1.8403113e-38
-621.31201 -535.31702 29.0124 1.8403113e-38
-576.06702 -523.10797 25.294901 1.8403113e-38
-552.34399 -525.20599 20.606501 1.8403113e-38
3189.8999 1446.22 23.0546 1.8403113e-38
3190.95 1468.01 29.8986 1.8403113e-38
-1243.22 -855.26501 31.0788 1.8403113e-38
-1229.36 -821.37097 39.659 1.8403113e-38
-684.289 -539.04102 38.463299 1.8403113e-38
-652.737 -537.40302 33.6549 1.8403113e-38
3191.79 1489.87 36.802101 1.8403113e-38
-1269.66 -821.16998 46.539001 1.8403113e-38
3200.6399 1515.37 43.523201 1.8403113e-38
-1274.9399 -799.29303 54.4823 1.8403113e-38
-1541.88 -904.185 65.824699 1.8403113e-38
-1329.08 -806.34399 61.367802 1.8403113e-38
1716.6801 793.284 61.783901 1.8403113e-38
1738.37 807.54401 62.711201 1.8403113e-38
1795.2 857.71002 69.267998 1.8403113e-38
1910.15 892.14203 60.923801 1.8403113e-38
-1678.15 -954.20898 72.748802 1.8403113e-38
1641.085 783.88147 71.5392 1.8403113e-38
1643.5699 807.00702 78.572197 1.8403113e-38
3206.3899 1629.25 79.254204 1.8403113e-38
-1633.64 -900.93298 82.390999 1.8403113e-38
1641.47 812.61902 80.735901 1.8403113e-38
3211.8301 1654.73 86.545303 1.8403113e-38
-1978.88 -1030.45 99.039597 1.8403113e-38
-1670.03 -893.03699 91.092201 1.8403113e-38
1604.62 829.01001 92.251503 1.8403113e-38
1579.45 836.20203 98.825302 1.8403113e-38
1596.3101 837.85101 96.505699 1.8403113e-38
3229.49 1686.66 93.849998 1.8403113e-38
-1992.59 -1006.74 108.999 1.8403113e-38
3224.52 1707.51 101.41 1.8403113e-38
3225.54 1731.6 109 1.8403113e-38
