# .PCD v0.7 - Point Cloud Data file format
VERSION 0.7
FIELDS x y z rgb
SIZE 4 4 4 4
TYPE F F F F
COUNT 1 1 1 1
WIDTH 360
HEIGHT 1
VIEWPOINT 0 0 0 1 0 0 0
POINTS 360
DATA ascii
2106.26 -344.77499 -295.03299 1.8403113e-38
2112.26 -335.11301 -292.95499 1.8403113e-38
2118.96 -325.93201 -291.15201 1.8403113e-38
2138.46 -324.884 -294.151 1.8403113e-38
888.99902 -952.58801 -282.01199 1.8403113e-38
1032.9399 -881.74799 -283.884 1.8403113e-38
1044.0601 -886.17297 -287.20801 1.8403113e-38
1055.42 -871.45203 -284.422 1.8403113e-38
1066.52 -860.45599 -282.789 1.8403113e-38
1077.51 -856.98901 -283.55701 1.8403113e-38
1130.77 -822.21198 -281.49799 1.8403113e-38
1141.42 -820.12903 -282.64999 1.8403113e-38
1161.45 -801.52399 -280.10101 1.8403113e-38
1172.33 -803.91498 -282.73099 1.8403113e-38
1183.08 -804.323 -284.70099 1.8403113e-38
1191.97 -787.69098 -280.879 1.8403113e-38
1201.71 -780.41498 -280.20801 1.8403113e-38
1222.41 -776.90002 -282.621 1.8403113e-38
1232.33 -772.20599 -282.81 1.8403113e-38
1242.62 -770.23798 -283.939 1.8403113e-38
1260.87 -753.01501 -281.52802 1.8403113e-38
1271.52 -753.60101 -283.539 1.8403113e-38
1289.13 -735.98901 -280.89401 1.8403113e-38
1299.91 -737.25 -283.14401 1.8403113e-38
1310.75 -738.41101 -285.371 1.8403113e-38
1317.11 -720.18298 -280.604 1.8403113e-38
1326.97 -717.52502 -281.43701 1.8403113e-38
1347.11 -713.78497 -283.681 1.8403113e-38
1365.17 -702.448 -283.13 1.8403113e-38
1353.9399 -699.96802 -280.41199 1.8403113e-38
1373.3 -693.96899 -281.797 1.8403113e-38
1382.12 -688.14502 -281.436 1.8403113e-38
1391.15 -683.15698 -281.379 1.8403113e-38
1399.26 -675.414 -280.27802 1.8403113e-38
1408.15 -670.29797 -280.15601 1.8403113e-38
1417.6 -666.896 -280.67899 1.8403113e-38
1428.27 -666.96198 -282.52701 1.8403113e-38
1445.11 -654.46002 -281.39099 1.8403113e-38
1452.73 -646.367 -280.09601 1.8403113e-38
1461.97 -642.599 -280.46799 1.8403113e-38
1481.1 -636.57098 -281.80399 1.8403113e-38
1491.39 -635.16101 -283.11099 1.8403113e-38
1507.36 -621.77002 -281.54099 1.8403113e-38
1527.03 -616.65997 -283.26501 1.8403113e-38
1533.16 -606.36298 -281.00699 1.8403113e-38
1542.92 -603.62 -281.79501 1.8403113e-38
1551.8101 -599.112 -281.86899 1.8403113e-38
1561.54 -596.19897 -282.59799 1.8403113e-38
1570.8199 -592.367 -282.95499 1.8403113e-38
1581.4301 -590.93103 -284.30801 1.8403113e-38
1586.5699 -579.53601 -281.52701 1.8403113e-38
1597.59 -578.75598 -283.16299 1.8403113e-38
1616.38 -571.19501 -283.94901 1.8403113e-38
1602.98 -568.112 -280.66501 1.8403113e-38
1625.02 -566.08398 -283.784 1.8403113e-38
1628.66 -552.90997 -280.17599 1.8403113e-38
1639.14 -550.88202 -281.31799 1.8403113e-38
1656.02 -540.22601 -280.78201 1.8403113e-38
1666.49 -537.91699 -281.83099 1.8403113e-38
1675.9 -533.95001 -282.168 1.8403113e-38
1684.76 -529.125 -282.13501 1.8403113e-38
1690.86 -520.39301 -280.37299 1.8403113e-38
1703.49 -520.76501 -282.65399 1.8403113e-38
1721.58 -511.306 -282.70901 1.8403113e-38
1736.0601 -505.29248 -283.25549 1.8403113e-38
1753.48 -502.755 -285.42099 1.8403113e-38
1760.36 -495.06 -284.12601 1.8403113e-38
1767.16 -487.32199 -282.80399 1.8403113e-38
1775.71 -481.698 -282.45999 1.8403113e-38
1786.6801 -478.85199 -283.423 1.8403113e-38
1792.6801 -470.22501 -281.67801 1.8403113e-38
1801.1 -464.37701 -281.241 1.8403113e-38
1814.5699 -464.02899 -283.43301 1.8403113e-38
1823.6 -458.67899 -283.259 1.8403113e-38
1831.95 -452.55801 -282.72198 1.8403113e-38
1843.53 -449.76199 -283.80499 1.8403113e-38
1851.16 -442.79199 -282.87201 1.8403113e-38
1865.41 -442.43799 -285.19601 1.8403113e-38
1870.29 -432.64099 -282.883 1.8403113e-38
1879.13 -426.76501 -282.509 1.8403113e-38
1894.12 -426.65302 -285.03799 1.8403113e-38
1902.95 -420.55399 -284.58899 1.8403113e-38
1913.84 -416.284 -285.07999 1.8403113e-38
1919.78 -407.47601 -283.26801 1.8403113e-38
1933.46 -405.50699 -284.97601 1.8403113e-38
1948.61 -404.60501 -287.27802 1.8403113e-38
1954.4301 -395.54599 -285.36401 1.8403113e-38
1970.36 -394.93701 -287.89401 1.8403113e-38
1974.61 -384.526 -285.276 1.8403113e-38
1983.9301 -378.26099 -284.85699 1.8403113e-38
1997.6801 -375.418 -286.298 1.8403113e-38
2001.6899 -364.86499 -283.59399 1.8403113e-38
2016.95 -362.90601 -285.57501 1.8403113e-38
2032.25 -360.74701 -287.5 1.8403113e-38
2042.23 -354.46701 -287.189 1.8403113e-38
2051.3999 -347.526 -286.52899 1.8403113e-38
2054.29 -336.121 -283.36099 1.8403113e-38
2064.1201 -329.586 -282.94199 1.8403113e-38
2138.6001 -311.44901 -289.85999 1.8403113e-38
2149.99 -305.04199 -289.75 1.8403113e-38
2153.98 -294.08499 -286.91299 1.8403113e-38
2164.45 -286.98801 -286.42401 1.8403113e-38
2169.0801 -276.43701 -283.828 1.8403113e-38
2187.78 -273.83701 -286.19101 1.8403113e-38
2195.6299 -264.97101 -284.68701 1.8403113e-38
2211 -260.116 -285.75699 1.8403113e-38
2222.1499 -252.819 -285.32001 1.8403113e-38
2235.8101 -246.70599 -285.69501 1.8403113e-38
2251.1799 -241.27901 -286.57999 1.8403113e-38
2264.8301 -234.793 -286.832 1.8403113e-38
2272.4099 -225.207 -285.05099 1.8403113e-38
2286.8701 -218.825 -285.474 1.8403113e-38
2305.6799 -214.25999 -287.22601 1.8403113e-38
2314 -204.689 -285.57401 1.8403113e-38
2332.8 -199.674 -287.18201 1.8403113e-38
2350.75 -194.00999 -288.43201 1.8403113e-38
2354.5 -182.14101 -285.26099 1.8403113e-38
2371.51 -175.72301 -286.10999 1.8403113e-38
2381.3501 -166.213 -284.73901 1.8403113e-38
2399.22 -159.72501 -285.71201 1.8403113e-38
2410.77 -150.59399 -284.755 1.8403113e-38
2432.23 -144.98 -286.62399 1.8403113e-38
2446.4399 -136.444 -286.31299 1.8403113e-38
2459.7 -127.397 -285.67401 1.8403113e-38
2471.99 -117.861 -284.715 1.8403113e-38
2492.5 -110.88 -285.98099 1.8403113e-38
2499.1699 -99.1866 -283.367 1.8403113e-38
2522.3999 -92.573898 -285.21701 1.8403113e-38
2540.0701 -83.941299 -285.46701 1.8403113e-38
2558.6399 -75.322304 -285.87601 1.8403113e-38
2574.3899 -65.644699 -285.461 1.8403113e-38
2586.3301 -54.7267 -283.99799 1.8403113e-38
2606.6599 -45.863201 -284.629 1.8403113e-38
2627.9099 -36.933601 -285.39499 1.8403113e-38
2648.1799 -27.454 -285.81799 1.8403113e-38
2666.52 -17.2269 -285.67099 1.8403113e-38
2685.76 -6.9421301 -285.66 1.8403113e-38
2698.3 5.06914 -283.94601 1.8403113e-38
2705.98 18.2409 -281.02899 1.8403113e-38
181.19 -1294.52 -270.746 1.8403113e-38
204.409 -1284.6801 -271.55801 1.8403113e-38
226.064 -1277.1899 -272.85999 1.8403113e-38
252.804 -1258.98 -271.58499 1.8403113e-38
274.42999 -1250.12 -272.43799 1.8403113e-38
361.67599 -1206.14 -273.23801 1.8403113e-38
383.38 -1193.4399 -272.87299 1.8403113e-38
405.58899 -1178.72 -271.94299 1.8403113e-38
422.60699 -1175.4399 -273.802 1.8403113e-38
441.37201 -1167.49 -274.457 1.8403113e-38
459.60001 -1160.25 -275.24899 1.8403113e-38
478.72299 -1150.1 -275.26199 1.8403113e-38
496.944 -1141.5699 -275.64099 1.8403113e-38
515.31897 -1131.95 -275.694 1.8403113e-38
533.164 -1123.0601 -275.89099 1.8403113e-38
550.823 -1113.99 -275.99799 1.8403113e-38
567.98102 -1105.66 -276.259 1.8403113e-38
584.66101 -1098.08 -276.67899 1.8403113e-38
601.771 -1088.5 -276.52701 1.8403113e-38
618.39899 -1079.67 -276.53601 1.8403113e-38
635.68402 -1067.9 -275.71201 1.8403113e-38
650.30103 -1064.3199 -277.06299 1.8403113e-38
665.35901 -1058.74 -277.84698 1.8403113e-38
681.82202 -1047.4301 -277.03 1.8403113e-38
696.59003 -1041.5601 -277.673 1.8403113e-38
711.47302 -1034.62 -277.98999 1.8403113e-38
728.047 -1020.05 -276.14401 1.8403113e-38
742.36102 -1013.76 -276.57401 1.8403113e-38
755.27502 -1012.99 -278.53601 1.8403113e-38
769.79199 -1004.57 -278.315 1.8403113e-38
783.755 -997.90802 -278.56299 1.8403113e-38
798.336 -987.341 -277.66299 1.8403113e-38
810.75403 -987.03998 -279.69199 1.8403113e-38
824.68701 -978.11499 -279.20801 1.8403113e-38
840.38898 -957.69897 -275.336 1.8403113e-38
865.46997 -950.60602 -277.35001 1.8403113e-38
877.36298 -950.69702 -279.414 1.8403113e-38
854.49298 -944.72498 -273.582 1.8403113e-38
915.11603 -932.28302 -279.95801 1.8403113e-38
903.87201 -928.70099 -276.883 1.8403113e-38
928.04901 -920.53699 -278.397 1.8403113e-38
940.30499 -913.44501 -278.216 1.8403113e-38
952.09497 -910.06097 -279.146 1.8403113e-38
964.35602 -899.90698 -277.98199 1.8403113e-38
976.03198 -895.37201 -278.52301 1.8403113e-38
987.62903 -890.73999 -279.01901 1.8403113e-38
999.29602 -883.15198 -278.578 1.8403113e-38
1010.91 -873.56299 -277.48599 1.8403113e-38
1022.03 -873.414 -279.34 1.8403113e-38
1088.02 -831.56097 -277.18701 1.8403113e-38
1098.52 -821.27802 -275.67999 1.8403113e-38
1109.24 -821.36499 -277.54099 1.8403113e-38
1120.02 -822.30902 -279.689 1.8403113e-38
1151.1899 -806.60498 -279.978 1.8403113e-38
1211.21 -772.13 -279.172 1.8403113e-38
1249.78 -749.53601 -278.51401 1.8403113e-38
1279.12 -738.336 -279.936 1.8403113e-38
1334.72 -706.55902 -279.241 1.8403113e-38
1434.15 -653.67102 -279.263 1.8403113e-38
1468.71 -632.66199 -278.427 1.8403113e-38
1496.38 -621.61102 -279.612 1.8403113e-38
1514.03 -612.43701 -279.685 1.8403113e-38
1643.53 -539.26898 -278.33701 1.8403113e-38
1706.67 -508.14001 -279.14001 1.8403113e-38
2708.78 32.450401 -276.94299 1.8403113e-38
2712.3999 46.487202 -273.05399 1.8403113e-38
2723.5801 59.1637 -270.89401 1.8403113e-38
-55.375301 -1399.26 -263.91699 1.8403113e-38
-32.635101 -1396.17 -266.81699 1.8403113e-38
-6.4152699 -1386.97 -268.34799 1.8403113e-38
38.3377 -1346.3199 -262.94501 1.8403113e-38
77.265198 -1346.55 -269.67999 1.8403113e-38
67.822502 -1329.61 -262.62399 1.8403113e-38
110.213 -1322.47 -267.582 1.8403113e-38
136.474 -1309.13 -267.79001 1.8403113e-38
160.56599 -1298.9301 -268.63599 1.8403113e-38
364.59299 -1164.47 -260.35199 1.8403113e-38
2726.97 73.312401 -266.92899 1.8403113e-38
2731.2 87.326103 -263.14999 1.8403113e-38
2733.3701 101.674 -258.91299 1.8403113e-38
2745.0801 114.623 -256.758 1.8403113e-38
2747.98 128.92599 -252.658 1.8403113e-38
-232.758 -1434.59 -244.91499 1.8403113e-38
349.64301 -1129.13 -246.44 1.8403113e-38
368.62299 -1122.0601 -247.416 1.8403113e-38
2747.8401 143.617 -247.914 1.8403113e-38
2747.55 158.276 -243.157 1.8403113e-38
-145.58701 -1344.1 -230.76401 1.8403113e-38
2749.0801 172.685 -238.78999 1.8403113e-38
2753.4099 186.79601 -234.996 1.8403113e-38
2761.51 200.59 -231.952 1.8403113e-38
-332.966 -1411.6899 -220.416 1.8403113e-38
2766.5701 214.743 -228.271 1.8403113e-38
2767.5901 229.252 -223.784 1.8403113e-38
2776.3201 243.229 -220.787 1.8403113e-38
-354.49301 -1408.35 -215.657 1.8403113e-38
-151.674 -1293.13 -213.349 1.8403113e-38
2777.0801 257.79001 -216.241 1.8403113e-38
2787.53 271.85101 -213.51199 1.8403113e-38
-372.29199 -1370.48 -200.44701 1.8403113e-38
-243.545 -1327.3 -208.604 1.8403113e-38
-176.66901 -1269.12 -201.35899 1.8403113e-38
81.0411 -1156.77 -209.36099 1.8403113e-38
80.861198 -1129.37 -200.528 1.8403113e-38
2789.02 286.436 -209.082 1.8403113e-38
2789.3999 301.05801 -204.44901 1.8403113e-38
2799.48 315.42599 -201.55901 1.8403113e-38
-116.225 -1217.13 -194.99699 1.8403113e-38
58.3326 -1109 -190.13 1.8403113e-38
84.956001 -1096.34 -190.617 1.8403113e-38
2802.55 330.05801 -197.384 1.8403113e-38
2810.4199 344.68799 -194.03 1.8403113e-38
-343.078 -1306.85 -185.004 1.8403113e-38
-252.60001 -1253.71 -183.414 1.8403113e-38
45.5522 -1101.11 -185.409 1.8403113e-38
2809.29 359.42899 -189.101 1.8403113e-38
2820.8501 374.254 -186.31599 1.8403113e-38
2826.3601 389.15601 -182.472 1.8403113e-38
-339.353 -1274.6 -175.283 1.8403113e-38
2826.8101 404.01099 -177.776 1.8403113e-38
2827.1201 418.86301 -173.058 1.8403113e-38
2839.1399 434.21701 -170.183 1.8403113e-38
2844.1201 449.41101 -166.15401 1.8403113e-38
2843.04 464.327 -161.177 1.8403113e-38
2847.75 479.62299 -157.069 1.8403113e-38
2860.21 495.59601 -154.07001 1.8403113e-38
2856.75 510.43301 -148.71201 1.8403113e-38
2864 526.22198 -144.88 1.8403113e-38
2864.2 541.42798 -140.03 1.8403113e-38
-157.57899 -1039.46 -130.84599 1.8403113e-38
2878.0601 558.15698 -137.028 1.8403113e-38
2877.99 573.48297 -132.091 1.8403113e-38
-153.142 -1011.19 -122.523 1.8403113e-38
2884.6599 589.685 -128.028 1.8403113e-38
2890.1899 605.86798 -123.777 1.8403113e-38
-148.95799 -983.80701 -114.444 1.8403113e-38
2897.55 622.42999 -119.714 1.8403113e-38
2895.9099 637.77197 -114.506 1.8403113e-38
2901.98 654.35699 -110.217 1.8403113e-38
-150.424 -963.15601 -107.559 1.8403113e-38
2908.8701 671.21698 -105.98 1.8403113e-38
2914.6299 688.026 -101.565 1.8403113e-38
-144.14799 -934.586 -99.454597 1.8403113e-38
-143.614 -912.677 -92.507896 1.8403113e-38
2921.2 705.12402 -97.196899 1.8403113e-38
2918.8301 720.625 -91.811302 1.8403113e-38
-144.85001 -893.00098 -85.975502 1.8403113e-38
-149.30499 -876.92798 -80.050003 1.8403113e-38
2923.1399 737.49103 -87.130302 1.8403113e-38
2931.1799 755.27002 -82.794502 1.8403113e-38
-142.312 -849.60797 -72.470001 1.8403113e-38
2938.0701 772.98199 -78.284203 1.8403113e-38
2938.97 789.48602 -73.136703 1.8403113e-38
-150.521 -837.82599 -67.280701 1.8403113e-38
-147.16299 -814.91498 -60.495098 1.8403113e-38
2943.5901 806.94598 -68.318001 1.8403113e-38
2952.8799 825.69897 -63.882401 1.8403113e-38
-144.20799 -792.81799 -53.902199 1.8403113e-38
2958.1101 843.63501 -59.016102 1.8403113e-38
2967.99 862.95697 -54.498798 1.8403113e-38
-148.216 -777.64697 -48.342701 1.8403113e-38
-146.17799 -757.08502 -42.085899 1.8403113e-38
2975.74 881.93701 -49.728199 1.8403113e-38
2981.3899 900.52698 -44.722 1.8403113e-38
-143.864 -736.62598 -35.909599 1.8403113e-38
-147.226 -721.57599 -30.499599 1.8403113e-38
2982.0601 917.83801 -39.275799 1.8403113e-38
2988.29 936.909 -34.215801 1.8403113e-38
-144.408 -701.28497 -24.463301 1.8403113e-38
2976.22 950.50098 -27.785101 1.8403113e-38
2966.8999 964.83002 -21.586599 1.8403113e-38
-151.136 -689.565 -19.547501 1.8403113e-38
-147.849 -669.42297 -13.639 1.8403113e-38
2952.71 977.479 -15.0958 1.8403113e-38
-152.722 -656.42102 -8.6286497 1.8403113e-38
-148.961 -636.44897 -2.85622 1.8403113e-38
2945.05 992.15601 -9.0699396 1.8403113e-38
2929.71 1004.12 -2.60116 1.8403113e-38
-153.481 -623.487 2.0812299 1.8403113e-38
-155.509 -608.65302 7.1933699 1.8403113e-38
2927.46 1020.55 3.0623 1.8403113e-38
2934.4399 1040.4 8.2459803 1.8403113e-38
-155.785 -592.62 12.391 1.8403113e-38
-159.827 -579.67798 17.2404 1.8403113e-38
2936.52 1058.65 13.7521 1.8403113e-38
2936.55 1076.26 19.402 1.8403113e-38
-166.117 -568.52899 21.898001 1.8403113e-38
-169.88499 -555.55402 26.711 1.8403113e-38
2946.6299 1097.92 24.635799 1.8403113e-38
2957.3999 1120.16 29.938 1.8403113e-38
-171.89301 -541.39899 31.6019 1.8403113e-38
-201.578 -531.539 39.8484 1.8403113e-38
-185.927 -535.98102 35.743401 1.8403113e-38
2948.52 1134.62 36.103699 1.8403113e-38
-222.162 -530.302 43.767799 1.8403113e-38
-241.974 -528.22302 47.825699 1.8403113e-38
2997.52 1173.45 40.192001 1.8403113e-38
3052.4299 1215.9 44.4333 1.8403113e-38
-284.228 -524.89697 56.123699 1.8403113e-38
-263.491 -526.98297 51.905602 1.8403113e-38
3055.55 1236.7 50.5807 1.8403113e-38
3073.9399 1264.58 56.392502 1.8403113e-38
-361.13101 -525.88202 68.965797 1.8403113e-38
-333.43701 -524.67401 64.615303 1.8403113e-38
-312.57599 -527.39203 60.1726 1.8403113e-38
3066.5701 1281.1 62.959599 1.8403113e-38
3084.3799 1309.48 69.028999 1.8403113e-38
-427.11899 -533.25 77.889603 1.8403113e-38
-381.241 -522.01099 73.6502 1.8403113e-38
3112.6399 1343.4 75.089401 1.8403113e-38
-473.741 -527.19202 87.812698 1.8403113e-38
-437.04099 -522.54498 83.026199 1.8403113e-38
3197.02 1405.61 80.638802 1.8403113e-38
3198.25 1428.03 87.628601 1.8403113e-38
-545.87201 -533.86603 98.010597 1.8403113e-38
-502.76599 -526.86499 92.884201 1.8403113e-38
3206.3701 1454.17 94.638 1.8403113e-38
-603.56 -530.38397 109 1.8403113e-38
-576.87903 -533.52899 103.424 1.8403113e-38
3203.54 1474.95 101.798 1.8403113e-38
3210.21 1500.92 109 1.8403113e-38
