# .PCD v0.7 - Point Cloud Data file format
VERSION 0.7
FIELDS x y z rgb
SIZE 4 4 4 4
TYPE F F F F
COUNT 1 1 1 1
WIDTH 357
HEIGHT 1
VIEWPOINT 0 0 0 1 0 0 0
POINTS 357
DATA ascii
1626.71 -1147.02 -290.51599 1.8403113e-38
2161.3 -859.30402 -290.26999 1.8403113e-38
851.672 -1533.37 -281.00201 1.8403113e-38
868.37903 -1523.4 -280.681 1.8403113e-38
884.08899 -1517.05 -281.349 1.8403113e-38
915.58698 -1501.05 -281.64099 1.8403113e-38
932.05103 -1488.6 -280.48099 1.8403113e-38
947.13702 -1481.66 -280.85101 1.8403113e-38
977.05402 -1465.4301 -280.797 1.8403113e-38
991.22498 -1458.97 -281.16501 1.8403113e-38
1004.52 -1457.13 -282.866 1.8403113e-38
1033.48 -1438.91 -282.005 1.8403113e-38
1126.6 -1390.64 -282.55499 1.8403113e-38
1139.92 -1380.03 -281.44699 1.8403113e-38
1151.72 -1378.8199 -283.09 1.8403113e-38
1164.64 -1368.95 -282.147 1.8403113e-38
1177.4 -1356.1 -280.224 1.8403113e-38
1188.96 -1357.45 -282.646 1.8403113e-38
1201.09 -1348.21 -281.772 1.8403113e-38
1212.86 -1345.55 -282.944 1.8403113e-38
1224.78 -1335.16 -281.664 1.8403113e-38
1431.35 -1239.8101 -286.64499 1.8403113e-38
1440.1801 -1224.98 -283.409 1.8403113e-38
1451.35 -1227.89 -286.26501 1.8403113e-38
1461.04 -1221.37 -285.84201 1.8403113e-38
1470.4301 -1211.9301 -284.431 1.8403113e-38
1479.15 -1200.61 -282.30099 1.8403113e-38
1489.49 -1198.51 -283.40701 1.8403113e-38
1499.4301 -1195.4399 -284.134 1.8403113e-38
1508.6801 -1187.6 -283.211 1.8403113e-38
1518.7 -1185.3 -284.19901 1.8403113e-38
1527.95 -1178.25 -283.53101 1.8403113e-38
1536.48 -1169.34 -282.14401 1.8403113e-38
1547.1899 -1169.53 -284.04599 1.8403113e-38
1555.98 -1162.33 -283.25 1.8403113e-38
1565.09 -1155.9301 -282.767 1.8403113e-38
1574.85 -1153.1801 -283.565 1.8403113e-38
1584.8 -1150.29 -284.349 1.8403113e-38
1604.42 -1144.3199 -285.811 1.8403113e-38
1592.25 -1139.2 -282.077 1.8403113e-38
1611.9399 -1134.02 -283.80399 1.8403113e-38
1631.29 -1127.6 -285.078 1.8403113e-38
1639.27 -1118.87 -283.651 1.8403113e-38
1647.52 -1111.95 -282.853 1.8403113e-38
1657.12 -1108.46 -283.38501 1.8403113e-38
1666.1801 -1104.08 -283.53799 1.8403113e-38
1675.71 -1100.4301 -284.01001 1.8403113e-38
1683.02 -1091.5 -282.405 1.8403113e-38
1692.45 -1087.72 -282.814 1.8403113e-38
1701.3 -1083.0601 -282.845 1.8403113e-38
1709.59 -1076.52 -282.172 1.8403113e-38
1729.09 -1071.1 -283.79199 1.8403113e-38
1716.86 -1068.27 -280.77899 1.8403113e-38
1736.63 -1063.59 -282.67999 1.8403113e-38
1745.04 -1057.65 -282.224 1.8403113e-38
1755.59 -1056.85 -283.78201 1.8403113e-38
1765.54 -1054.15 -284.63199 1.8403113e-38
1772.8199 -1046.4 -283.39899 1.8403113e-38
1782.29 -1042.71 -283.84601 1.8403113e-38
1789.84 -1035.6899 -282.89499 1.8403113e-38
1800.99 -1035.1801 -284.64999 1.8403113e-38
1807.54 -1026.38 -282.95499 1.8403113e-38
1818.6899 -1025.6801 -284.64999 1.8403113e-38
1824.63 -1015.96 -282.55399 1.8403113e-38
1837.16 -1017.52 -285.21399 1.8403113e-38
1844.37 -1010.13 -284.08499 1.8403113e-38
1853.12 -1005.01 -283.94901 1.8403113e-38
1874.79 -1001.84 -286.66199 1.8403113e-38
1861.65 -999.92603 -283.78601 1.8403113e-38
1882.29 -994.98901 -285.75601 1.8403113e-38
1889.39 -987.18597 -284.474 1.8403113e-38
1900.37 -985.72498 -285.896 1.8403113e-38
1911.55 -984.03198 -287.27802 1.8403113e-38
1917.25 -974.599 -285.233 1.8403113e-38
1925.16 -968.10303 -284.513 1.8403113e-38
1935.03 -964.72699 -285.13 1.8403113e-38
1943.96 -959.61298 -285.02701 1.8403113e-38
1952.6899 -954.54602 -284.90302 1.8403113e-38
1966.67 -956.01703 -287.78299 1.8403113e-38
1970.77 -944.79999 -284.89099 1.8403113e-38
1980.15 -940.10999 -285.00101 1.8403113e-38
1994.88 -934.12598 -285.61798 1.8403113e-38
2008.99 -927.22198 -285.83301 1.8403113e-38
2021.9399 -926.47302 -287.82199 1.8403113e-38
2027.37 -917.16901 -285.772 1.8403113e-38
2039.72 -915.474 -287.354 1.8403113e-38
2045 -906.07202 -285.24799 1.8403113e-38
2058.6201 -905.54199 -287.423 1.8403113e-38
2061.1899 -893.276 -283.93201 1.8403113e-38
2076.77 -894.56097 -287.02701 1.8403113e-38
2081.1201 -884.27399 -284.47601 1.8403113e-38
2093.46 -881.89502 -285.83801 1.8403113e-38
2099.6499 -873.53101 -284.22 1.8403113e-38
2114.02 -872.89398 -286.48999 1.8403113e-38
2122.8401 -867.00098 -286.11801 1.8403113e-38
2135.9099 -864.75299 -287.647 1.8403113e-38
2142.6101 -856.73199 -286.22699 1.8403113e-38
2163.7 -847.31201 -286.83701 1.8403113e-38
2172.52 -840.79199 -286.26501 1.8403113e-38
2184.02 -836.81702 -286.97 1.8403113e-38
2197.8601 -834.37201 -288.56799 1.8403113e-38
2205.73 -827.09302 -287.58899 1.8403113e-38
2215.9099 -821.367 -287.504 1.8403113e-38
2223.6799 -813.93103 -286.45801 1.8403113e-38
2242.02 -814.42902 -289.77301 1.8403113e-38
2245.98 -803.87799 -287.073 1.8403113e-38
2262.1299 -802.28101 -289.33899 1.8403113e-38
2267.48 -792.74902 -287.20401 1.8403113e-38
2283.6599 -790.81201 -289.36801 1.8403113e-38
2282.7 -776.729 -284.686 1.8403113e-38
2301.2 -776.138 -287.68201 1.8403113e-38
2311.8 -770.10602 -287.57101 1.8403113e-38
2328.8301 -768.00403 -289.82901 1.8403113e-38
2329.8601 -755.39801 -285.96399 1.8403113e-38
2343.7 -750.90503 -286.905 1.8403113e-38
2356.6001 -745.91803 -287.52701 1.8403113e-38
2364.78 -737.56 -286.254 1.8403113e-38
2380.9099 -734.27002 -287.97601 1.8403113e-38
2391.47 -727.146 -287.509 1.8403113e-38
2400.21 -719.14001 -286.44501 1.8403113e-38
2411.51 -712.26001 -286.185 1.8403113e-38
2420.99 -704.51703 -285.33301 1.8403113e-38
2442.3 -702.88599 -288.478 1.8403113e-38
2448.3601 -693.026 -286.35999 1.8403113e-38
2462.1001 -686.90601 -286.763 1.8403113e-38
2472.3 -679.07202 -286.005 1.8403113e-38
2487.71 -673.47998 -286.86499 1.8403113e-38
2493.53 -663.255 -284.58801 1.8403113e-38
2509.77 -657.73999 -285.61499 1.8403113e-38
2521.55 -650.18701 -285.22 1.8403113e-38
2541.27 -645.85602 -287.22601 1.8403113e-38
2549.5 -636.37201 -285.60101 1.8403113e-38
2570.99 -632.336 -288.00601 1.8403113e-38
2577.3601 -621.81201 -285.728 1.8403113e-38
2591.76 -614.31799 -285.80399 1.8403113e-38
2603.3501 -605.78101 -285.06 1.8403113e-38
2621.27 -599.33398 -286.078 1.8403113e-38
2636.3799 -591.83301 -286.27301 1.8403113e-38
2653.3799 -584.55603 -286.867 1.8403113e-38
2663.9199 -574.97198 -285.60599 1.8403113e-38
2686.3301 -569.19897 -287.61301 1.8403113e-38
2695.8701 -558.93903 -285.96399 1.8403113e-38
2712.77 -550.763 -286.25201 1.8403113e-38
2726.78 -541.70599 -285.759 1.8403113e-38
2744.54 -533.35999 -286.14001 1.8403113e-38
2759.3999 -524.17102 -285.75101 1.8403113e-38
2787.3201 -518.35901 -288.69199 1.8403113e-38
2797.46 -507.30801 -286.89499 1.8403113e-38
2822.5801 -500.00299 -288.87601 1.8403113e-38
2833.55 -488.82199 -287.17801 1.8403113e-38
2855.8101 -480.13599 -288.224 1.8403113e-38
2869.48 -469.27899 -287.09601 1.8403113e-38
2895.45 -460.897 -288.879 1.8403113e-38
2904.27 -448.46301 -286.41 1.8403113e-38
2933.98 -440.26501 -288.89499 1.8403113e-38
2941.71 -427.23499 -286.04599 1.8403113e-38
2950.3601 -414.01099 -283.29501 1.8403113e-38
2956.9199 -400.60599 -280.125 1.8403113e-38
216.938 -1851.96 -273.91 1.8403113e-38
242.284 -1844.27 -275.80899 1.8403113e-38
301.83099 -1810.86 -275.34299 1.8403113e-38
330.91101 -1793.55 -274.797 1.8403113e-38
353.78 -1787.21 -276.70099 1.8403113e-38
840.04999 -1525.55 -276.49301 1.8403113e-38
902.76703 -1498.38 -278.578 1.8403113e-38
963.62598 -1467.02 -278.996 1.8403113e-38
1022.13 -1432.5 -277.996 1.8403113e-38
1050.12 -1415.87 -277.48001 1.8403113e-38
1092.4399 -1380.99 -273.582 1.8403113e-38
1115.2 -1387.84 -279.69601 1.8403113e-38
1080.63 -1379.78 -271.16 1.8403113e-38
1104.87 -1376.38 -274.24301 1.8403113e-38
2958.6499 -385.93701 -275.71899 1.8403113e-38
2969.78 -373.27701 -273.57501 1.8403113e-38
1068.92 -1379.4399 -269.03601 1.8403113e-38
2965.48 -357.57501 -267.79901 1.8403113e-38
2964.8201 -342.897 -262.97699 1.8403113e-38
329.72198 -1729.35 -254.004 1.8403113e-38
1411.35 -1152.84 -255.312 1.8403113e-38
2967.9399 -328.547 -258.91299 1.8403113e-38
2967.97 -314.065 -254.274 1.8403113e-38
1242.55 -1207.39 -243.75 1.8403113e-38
2965.98 -299.05801 -249.119 1.8403113e-38
2969.6201 -285.13901 -245.282 1.8403113e-38
2974.1599 -271.00101 -241.53 1.8403113e-38
1253.64 -1182.52 -237.683 1.8403113e-38
1397.6 -1111.76 -239.771 1.8403113e-38
1386.87 -1098.87 -233.789 1.8403113e-38
2974.6299 -256.698 -237.024 1.8403113e-38
2976 -242.211 -232.61301 1.8403113e-38
1264.8 -1148.04 -228.54401 1.8403113e-38
1274.71 -1132.55 -225.282 1.8403113e-38
1293.77 -1132.78 -228.638 1.8403113e-38
1284.48 -1121.74 -223.5 1.8403113e-38
1303.34 -1117.0699 -225.245 1.8403113e-38
1312.64 -1116.52 -226.672 1.8403113e-38
1321.97 -1108.27 -225.633 1.8403113e-38
1330.75 -1093.3199 -222.35001 1.8403113e-38
1344.88 -1098.29 -226.37601 1.8403113e-38
1367.59 -1090.72 -227.856 1.8403113e-38
1358.15 -1086.03 -224.72701 1.8403113e-38
1376.66 -1086.79 -228.15601 1.8403113e-38
2978.1599 -228.11501 -228.465 1.8403113e-38
2980.24 -213.70799 -224.202 1.8403113e-38
2982.1499 -199.591 -220.004 1.8403113e-38
-630.263 -2119.1299 -213.755 1.8403113e-38
518.10602 -1518.34 -218.765 1.8403113e-38
727.89899 -1387.88 -213.03999 1.8403113e-38
2983.97 -185.16299 -215.69099 1.8403113e-38
2985.6299 -171.02901 -211.44299 1.8403113e-38
-665.86401 -2122.1599 -208.599 1.8403113e-38
-691.54199 -2115.1299 -201.923 1.8403113e-38
716.05298 -1384.55 -209.931 1.8403113e-38
2985.22 -156.494 -206.71201 1.8403113e-38
2980.73 -142.13699 -201.334 1.8403113e-38
-719.68701 -2109.5901 -195.30099 1.8403113e-38
-750.31799 -2106.8601 -189.155 1.8403113e-38
299.754 -1517.29 -180.84 1.8403113e-38
739.64398 -1302.8199 -187.783 1.8403113e-38
-815.03601 -2102.72 -176.686 1.8403113e-38
740.099 -1274.75 -178.858 1.8403113e-38
735.32501 -1258.13 -172.70799 1.8403113e-38
947.849 -1152.58 -175.44099 1.8403113e-38
-878.64203 -2095.6399 -163.466 1.8403113e-38
-845.53699 -2097.8201 -169.866 1.8403113e-38
368.30701 -1442.62 -168.694 1.8403113e-38
671.01398 -1260.21 -162.304 1.8403113e-38
687.66302 -1252.71 -162.76401 1.8403113e-38
711.513 -1255.64 -167.811 1.8403113e-38
724.60498 -1254.79 -169.791 1.8403113e-38
706.138 -1241.63 -162.39101 1.8403113e-38
954.56799 -1101.28 -160.14799 1.8403113e-38
2806.96 -122.524 -165.134 1.8403113e-38
-901.89398 -2083.28 -155.5 1.8403113e-38
-239.621 -1732.65 -157.05701 1.8403113e-38
943.35498 -1105.26 -159.492 1.8403113e-38
928.47302 -1090.91 -152.32899 1.8403113e-38
937.065 -1094.42 -154.93401 1.8403113e-38
2766.6499 -109.012 -153.86099 1.8403113e-38
2776.4199 -96.582199 -151.556 1.8403113e-38
-973.96503 -2081.25 -142.444 1.8403113e-38
-943.99402 -2088.3301 -149.875 1.8403113e-38
393.56799 -1358.6 -146.10001 1.8403113e-38
857.85797 -1113.92 -147.554 1.8403113e-38
879.65002 -1086.49 -142.509 1.8403113e-38
889.06097 -1088.66 -144.825 1.8403113e-38
900.80103 -1084.35 -145.46201 1.8403113e-38
911.93298 -1081.79 -146.558 1.8403113e-38
920.76099 -1084.53 -148.957 1.8403113e-38
2776.21 -84.2202 -147.556 1.8403113e-38
2777.8799 -71.603203 -143.797 1.8403113e-38
2784.3501 -59.172699 -140.924 1.8403113e-38
-1010.37 -2080.0701 -135.799 1.8403113e-38
2785.79 -46.482101 -137.103 1.8403113e-38
2795.99 -33.7827 -134.786 1.8403113e-38
2794.24 -21.1003 -130.418 1.8403113e-38
-1044.97 -2076.0901 -128.56599 1.8403113e-38
-1072.42 -2066.3101 -120.705 1.8403113e-38
284.45599 -1347.92 -123.891 1.8403113e-38
305.17999 -1343.3199 -125.982 1.8403113e-38
592.91602 -1192.0699 -127.009 1.8403113e-38
590.22198 -1175.88 -121.352 1.8403113e-38
2795.3401 -8.5851297 -126.593 1.8403113e-38
2803.23 4.5841398 -123.728 1.8403113e-38
2810.02 17.5508 -120.739 1.8403113e-38
-1110.1899 -2064.05 -113.478 1.8403113e-38
274.59698 -1338.26 -119.097 1.8403113e-38
273.27399 -1318.77 -112.618 1.8403113e-38
569.461 -1167.2 -114.997 1.8403113e-38
587.026 -1160.41 -115.842 1.8403113e-38
2809.79 30.4018 -116.577 1.8403113e-38
2816.3501 43.526901 -113.497 1.8403113e-38
-1150.04 -2063.6001 -106.474 1.8403113e-38
-244.711 -1580.62 -107.429 1.8403113e-38
502.612 -1164.91 -102.755 1.8403113e-38
2815.8701 56.418999 -109.282 1.8403113e-38
2823.1799 69.793503 -106.251 1.8403113e-38
2824.45 82.938103 -102.253 1.8403113e-38
-1141.24 -2023.01 -94.973503 1.8403113e-38
448.59399 -1179.61 -98.1717 1.8403113e-38
466.46799 -1175.15 -99.815598 1.8403113e-38
493.26801 -1158.71 -99.158302 1.8403113e-38
2832.5 96.615501 -99.253197 1.8403113e-38
2837.46 110.34 -95.705002 1.8403113e-38
2845.26 124.261 -92.583504 1.8403113e-38
-1176.3101 -2018.21 -87.396698 1.8403113e-38
2844.0601 137.36 -88.177002 1.8403113e-38
2854.5601 151.90601 -85.318703 1.8403113e-38
410.332 -1134.5 -77.117401 1.8403113e-38
403.88101 -1124.5 -72.800003 1.8403113e-38
2828.5901 161.244 -77.853798 1.8403113e-38
2834.9199 175.201 -74.467697 1.8403113e-38
2844.02 190.05 -71.272499 1.8403113e-38
307.90799 -1161.52 -68.151802 1.8403113e-38
374.06601 -1123.5699 -67.368698 1.8403113e-38
399.31 -1112.0699 -68.025803 1.8403113e-38
371.59799 -1108.74 -62.188 1.8403113e-38
2841.28 202.65601 -66.758797 1.8403113e-38
2849.1399 217.53999 -63.3372 1.8403113e-38
2846.1599 230.159 -58.777802 1.8403113e-38
2852.76 245.03101 -55.144699 1.8403113e-38
2860.24 259.96201 -51.6437 1.8403113e-38
2866.55 275.086 -47.879601 1.8403113e-38
2863.0701 287.79001 -43.206501 1.8403113e-38
2872 303.77301 -39.618099 1.8403113e-38
2876.96 318.67401 -35.693699 1.8403113e-38
2880.75 333.70099 -31.527201 1.8403113e-38
2892.1599 350.599 -28.0718 1.8403113e-38
2892.75 365.052 -23.5396 1.8403113e-38
2898.0801 380.62799 -19.4606 1.8403113e-38
2908.8999 398.28799 -15.6612 1.8403113e-38
2911.99 413.54501 -11.2993 1.8403113e-38
-475.879 -1376.95 -2.3197899 1.8403113e-38
2909.1299 427.367 -6.3740802 1.8403113e-38
2916.6699 444.254 -2.25682 1.8403113e-38
-443.90601 -1331.4301 6.77425 1.8403113e-38
-37.765999 -1107.48 8.6810598 1.8403113e-38
2916.3701 459.05899 2.5431499 1.8403113e-38
2920.73 475.21399 6.9718699 1.8403113e-38
-472.22299 -1330.08 12.0806 1.8403113e-38
-494.27701 -1323.48 17.993299 1.8403113e-38
-39.767101 -1074.36 19.646999 1.8403113e-38
-5.7557201 -1065.98 16.478901 1.8403113e-38
2933.3301 494.71899 11.0597 1.8403113e-38
2936.3899 510.79999 15.6885 1.8403113e-38
-499.60599 -1305.64 24.6336 1.8403113e-38
2937.3301 526.55701 20.5811 1.8403113e-38
2942.8701 543.83899 25.1689 1.8403113e-38
-504.95901 -1287.47 31.3811 1.8403113e-38
-518.24902 -1275.1 37.634998 1.8403113e-38
2893.8701 555.47803 37.3368 1.8403113e-38
2937.8799 557.56299 30.428801 1.8403113e-38
-517.38397 -1253.04 44.560799 1.8403113e-38
2923.9299 583.07202 41.011299 1.8403113e-38
2957.4399 612.448 44.663399 1.8403113e-38
2965.6201 632.133 49.567402 1.8403113e-38
2967.29 648.909 54.6604 1.8403113e-38
2976.8799 669.69897 59.6777 1.8403113e-38
-219.985 -1043.09 60.697399 1.8403113e-38
-172.937 -996.125 67.660301 1.8403113e-38
2979.98 687.49902 64.851799 1.8403113e-38
-177.886 -982.64301 72.8358 1.8403113e-38
-172.576 -962.69299 78.319504 1.8403113e-38
2987.29 707.78998 70.100601 1.8403113e-38
2989.0901 725.37903 75.432098 1.8403113e-38
-180.644 -951.27698 83.3694 1.8403113e-38
-175.784 -932.00299 88.713799 1.8403113e-38
2998.6499 747.26202 80.803299 1.8403113e-38
2998.24 764.172 86.296799 1.8403113e-38
-173.155 -914.59998 93.842201 1.8403113e-38
-175.70799 -899.95898 98.976997 1.8403113e-38
3009.1101 787.28101 91.8367 1.8403113e-38
3019.8501 810.32001 97.376602 1.8403113e-38
-177.09 -885.10101 103.98 1.8403113e-38
-176.689 -869.06799 109.052 1.8403113e-38
3019.54 828.29303 103.194 1.8403113e-38
3024.47 848.85303 108.938 1.8403113e-38
