# .PCD v0.7 - Point Cloud Data file format
VERSION 0.7
FIELDS x y z rgb
SIZE 4 4 4 4
TYPE F F F F
COUNT 1 1 1 1
WIDTH 356
HEIGHT 1
VIEWPOINT 0 0 0 1 0 0 0
POINTS 356
DATA ascii
-196.269 -803.18597 -291.759 1.8403113e-38
-189.246 -763.59601 -290.62701 1.8403113e-38
-185.267 -714.48999 -290.93701 1.8403113e-38
-180.80099 -689.633 -290.20599 1.8403113e-38
-175.938 -642.39502 -290.129 1.8403113e-38
-189.506 -1024.3101 -281.42401 1.8403113e-38
-197.709 -1015.21 -284.72 1.8403113e-38
-195.981 -1000.07 -284.634 1.8403113e-38
-203.18201 -990.37299 -287.58801 1.8403113e-38
-197.02901 -972.914 -285.98199 1.8403113e-38
-194.849 -957.98102 -285.72501 1.8403113e-38
-189.16299 -941.27698 -284.26099 1.8403113e-38
-203.485 -935.69501 -289.647 1.8403113e-38
-194.98399 -917.763 -287.20801 1.8403113e-38
-186.28 -900.034 -284.68701 1.8403113e-38
-177.87199 -857.27899 -283.16599 1.8403113e-38
-170.17999 -841.02899 -280.95999 1.8403113e-38
-170.099 -828.57898 -281.37399 1.8403113e-38
-174.244 -818.138 -283.24799 1.8403113e-38
-170.45599 -804.185 -282.37399 1.8403113e-38
-175.62399 -782.14801 -285.03201 1.8403113e-38
-177.625 -770.92902 -286.15601 1.8403113e-38
-166.267 -742.61401 -283.052 1.8403113e-38
-172.373 -733.21399 -285.599 1.8403113e-38
-178.408 -723.73297 -288.12299 1.8403113e-38
-162.46899 -694.84198 -283.38 1.8403113e-38
-154.054 -669.32202 -281.242 1.8403113e-38
-158.7 -659.59497 -283.272 1.8403113e-38
-152.399 -646.45801 -281.45801 1.8403113e-38
-163.989 -627.69098 -286.32501 1.8403113e-38
-169.22099 -618.05499 -288.564 1.8403113e-38
-159.752 -604.41699 -285.62 1.8403113e-38
-154.728 -592.16199 -284.23801 1.8403113e-38
-149.59 -580.02002 -282.81 1.8403113e-38
-151.696 -569.75299 -283.939 1.8403113e-38
-146.347 -557.77399 -282.42801 1.8403113e-38
-147.34801 -547.33197 -283.16299 1.8403113e-38
-150.11099 -537.27802 -284.52301 1.8403113e-38
-152.79201 -527.18903 -285.854 1.8403113e-38
-158.174 -517.59698 -288.14499 1.8403113e-38
-141.19299 -503.87299 -282.48401 1.8403113e-38
-141.746 -493.51801 -283.05301 1.8403113e-38
-136.625 -482.258 -281.60001 1.8403113e-38
-140.72701 -472.53299 -283.43301 1.8403113e-38
-135.42 -461.401 -281.90701 1.8403113e-38
-131.883 -450.63 -281.01001 1.8403113e-38
-138.53999 -441.21899 -283.75699 1.8403113e-38
-137.63699 -430.82901 -283.79999 1.8403113e-38
-131.963 -419.966 -282.133 1.8403113e-38
-131.82001 -409.76001 -282.44501 1.8403113e-38
-126.903 -399.15302 -281.04199 1.8403113e-38
-133.159 -389.52499 -283.651 1.8403113e-38
-129.009 -379.073 -282.521 1.8403113e-38
-133.226 -369.20801 -284.39999 1.8403113e-38
-128.905 -358.841 -283.20499 1.8403113e-38
-128.258 -348.71201 -283.332 1.8403113e-38
-121.887 -338.418 -281.39099 1.8403113e-38
-129.536 -328.56 -284.513 1.8403113e-38
-123.901 -308.34 -283.19299 1.8403113e-38
-121.9 -298.30301 -282.82599 1.8403113e-38
-116.997 -288.34201 -281.40601 1.8403113e-38
-119.533 -278.29001 -282.68301 1.8403113e-38
-115.408 -268.40601 -281.54099 1.8403113e-38
-111.205 -258.59399 -280.36801 1.8403113e-38
-114.432 -248.466 -281.89899 1.8403113e-38
-114.759 -238.44501 -282.37399 1.8403113e-38
-109.379 -228.808 -280.76901 1.8403113e-38
-111.417 -218.666 -281.86899 1.8403113e-38
-107.755 -198.98199 -281.245 1.8403113e-38
-105.395 -169.17599 -281.453 1.8403113e-38
-103.723 -149.28101 -281.55701 1.8403113e-38
-100.795 -129.55099 -281.20001 1.8403113e-38
-94.092598 -49.233799 -281.63599 1.8403113e-38
-90.024002 -39.904701 -280.495 1.8403113e-38
-93.166702 -28.7244 -282.03201 1.8403113e-38
-87.1213 -19.9296 -280.15601 1.8403113e-38
-85.690804 0.55361402 -280.36899 1.8403113e-38
-84.842796 10.8113 -280.427 1.8403113e-38
-83.776901 31.643299 -280.784 1.8403113e-38
-81.4282 73.816002 -281.43701 1.8403113e-38
-73.970596 125.901 -280.59299 1.8403113e-38
-67.773598 191.28799 -280.67999 1.8403113e-38
-66.028099 213.786 -280.85101 1.8403113e-38
-63.0173 235.936 -280.54999 1.8403113e-38
-61.251701 259.05701 -280.73499 1.8403113e-38
-55.1161 343.065 -281.508 1.8403113e-38
-52.847198 354.595 -281.09799 1.8403113e-38
-48.880001 365.08099 -280.035 1.8403113e-38
-49.550999 378.74899 -280.76501 1.8403113e-38
-45.768902 402.98999 -280.26001 1.8403113e-38
-53.770699 422.36499 -283.849 1.8403113e-38
-60.615799 455.45599 -287.509 1.8403113e-38
-61.0811 470.16501 -288.202 1.8403113e-38
-59.869701 483.77301 -288.24799 1.8403113e-38
-52.503399 492.689 -285.89801 1.8403113e-38
-54.7701 509.31 -287.31201 1.8403113e-38
-52.392799 522.40399 -286.918 1.8403113e-38
-55.030399 539.80603 -288.49301 1.8403113e-38
-47.955799 549.27197 -286.26901 1.8403113e-38
-50.965 567.43799 -288.00601 1.8403113e-38
-42.9436 576.23499 -285.41501 1.8403113e-38
-42.723701 591.987 -285.897 1.8403113e-38
-42.3209 607.80499 -286.315 1.8403113e-38
-35.394299 617.81097 -284.16299 1.8403113e-38
-38.8657 637.651 -286.12799 1.8403113e-38
-43.4725 658.961 -288.556 1.8403113e-38
-37.484901 670.34601 -286.793 1.8403113e-38
-30.705601 681.01599 -284.71799 1.8403113e-38
-35.330502 703.28497 -287.18799 1.8403113e-38
-24.233 709.81403 -283.401 1.8403113e-38
-31.064301 735.05603 -286.776 1.8403113e-38
-24.367901 746.42499 -284.755 1.8403113e-38
-18.8682 759.172 -283.21799 1.8403113e-38
-10.6452 769.034 -280.591 1.8403113e-38
-15.8079 793.99597 -283.35101 1.8403113e-38
-4.34583 820.229 -280.13501 1.8403113e-38
-5.95362 883.854 -282.98599 1.8403113e-38
2.12484 895.16101 -280.46301 1.8403113e-38
0.142166 919.38501 -282.04501 1.8403113e-38
3.2216001 937.591 -281.57901 1.8403113e-38
7.1630101 978.01599 -281.59299 1.8403113e-38
14.3034 1065.1801 -282.11499 1.8403113e-38
13.6635 1091.77 -283.29501 1.8403113e-38
21.4757 1133.08 -281.939 1.8403113e-38
28.1499 1150.09 -280.12799 1.8403113e-38
31.8717 1200.71 -280.58499 1.8403113e-38
-165.44701 -876.43903 -277.98199 1.8403113e-38
-159.718 -860.93597 -276.45999 1.8403113e-38
-115.476 -318.27499 -279.78699 1.8403113e-38
-104.01 -209.312 -279.51999 1.8403113e-38
-101.133 -189.681 -279.17801 1.8403113e-38
-98.175102 -180.056 -278.45001 1.8403113e-38
-96.685402 -160.304 -278.61401 1.8403113e-38
-95.798203 -140.418 -279.00201 1.8403113e-38
-91.801201 -120.996 -278.24701 1.8403113e-38
-94.769997 -110.384 -279.70099 1.8403113e-38
-89.335899 -101.308 -278.056 1.8403113e-38
-86.5989 -91.753899 -277.40601 1.8403113e-38
-83.7855 -82.233398 -276.72601 1.8403113e-38
-90.076797 -70.705498 -279.41599 1.8403113e-38
-80.679802 -62.657101 -276.29901 1.8403113e-38
-84.637901 -10.2038 -279.604 1.8403113e-38
-82.1073 20.518101 -279.78201 1.8403113e-38
-75.504303 39.5597 -278.07001 1.8403113e-38
-74.317802 49.7924 -278.005 1.8403113e-38
-73.042099 60.0313 -277.90799 1.8403113e-38
-71.990097 81.1847 -278.28101 1.8403113e-38
-66.916901 90.100403 -276.76199 1.8403113e-38
-74.068398 103.804 -279.841 1.8403113e-38
-68.820999 112.708 -278.258 1.8403113e-38
-64.2099 132.91901 -277.30801 1.8403113e-38
-66.534401 145.095 -278.58401 1.8403113e-38
-62.699001 154.64101 -277.53601 1.8403113e-38
-66.517899 167.70799 -279.38501 1.8403113e-38
-60.7854 176.45 -277.62 1.8403113e-38
-61.861099 200.011 -278.85001 1.8403113e-38
-59.945499 222.463 -278.957 1.8403113e-38
-58.4366 245.45599 -279.23001 1.8403113e-38
-58.1343 269.49399 -279.978 1.8403113e-38
-54.923801 279.91699 -279.18701 1.8403113e-38
-54.075802 291.771 -279.302 1.8403113e-38
-53.924702 304.14499 -279.689 1.8403113e-38
-52.0266 315.57101 -279.409 1.8403113e-38
-50.824299 327.51401 -279.39899 1.8403113e-38
-44.5839 388.694 -279.32101 1.8403113e-38
-40.726799 426.74399 -279.28 1.8403113e-38
-5.38098 801.659 -279.84799 1.8403113e-38
3.1540501 831.46399 -277.819 1.8403113e-38
3.9753101 850.85498 -278.21301 1.8403113e-38
9.4547701 951.96399 -279.83401 1.8403113e-38
17.254 987.71997 -278.284 1.8403113e-38
20.070101 1007.61 -277.974 1.8403113e-38
21.4624 1029.95 -278.26599 1.8403113e-38
24.7206 1101.45 -279.63599 1.8403113e-38
30.877001 1173.7 -279.98199 1.8403113e-38
36.778 1221.95 -279.565 1.8403113e-38
38.472401 1249.11 -279.92001 1.8403113e-38
44.967098 1268.75 -278.26801 1.8403113e-38
51.228699 1289.24 -276.73099 1.8403113e-38
53.4589 1317.4301 -276.92801 1.8403113e-38
58.905701 1340.55 -275.78 1.8403113e-38
62.346199 1368.02 -275.513 1.8403113e-38
67.993698 1392.08 -274.32501 1.8403113e-38
66.784401 1430.12 -276.12 1.8403113e-38
74.084099 1452.54 -274.276 1.8403113e-38
77.338501 1483.77 -274.20999 1.8403113e-38
81.465698 1514.1899 -273.79999 1.8403113e-38
85.185501 1546.45 -273.604 1.8403113e-38
88.543404 1580.58 -273.604 1.8403113e-38
90.369904 1619.27 -274.32199 1.8403113e-38
94.356796 1654.47 -274.134 1.8403113e-38
99.245796 1688.85 -273.58899 1.8403113e-38
101.572 1730.5601 -274.23401 1.8403113e-38
109.02 1761.4399 -272.63699 1.8403113e-38
108.82 1812.47 -274.52899 1.8403113e-38
113.356 1853.5699 -274.35199 1.8403113e-38
118.855 1893.83 -273.79599 1.8403113e-38
125.64 1932.3101 -272.711 1.8403113e-38
129.62 1980.12 -272.974 1.8403113e-38
133.66299 2029.9 -273.285 1.8403113e-38
142.00101 2069.5 -271.677 1.8403113e-38
149.03999 2114.76 -270.741 1.8403113e-38
153.08299 2171.3601 -271.29501 1.8403113e-38
164.265 2208.26 -268.561 1.8403113e-38
168.138 2270.71 -269.38501 1.8403113e-38
176.938 2320 -267.95499 1.8403113e-38
182.08299 2384.5601 -268.39401 1.8403113e-38
190.368 2441.5901 -267.427 1.8403113e-38
199.53 2498.6799 -266.14401 1.8403113e-38
207.556 2563.5 -265.548 1.8403113e-38
216.34599 2629.3601 -264.71301 1.8403113e-38
226.866 2692.3799 -263.14999 1.8403113e-38
233.12399 2777.6799 -263.92499 1.8403113e-38
244.68401 2845.6599 -262.16299 1.8403113e-38
253.278 2932.1201 -262.133 1.8403113e-38
265.276 3008.95 -260.52701 1.8403113e-38
275.54401 3100.4299 -260.07001 1.8403113e-38
-214.41701 -1975.7 -256.51801 1.8403113e-38
287.823 3189.05 -258.78299 1.8403113e-38
298.987 3291.4199 -258.38901 1.8403113e-38
312.125 3391.9099 -257.21399 1.8403113e-38
323.09698 3515.02 -257.63 1.8403113e-38
338.685 3621.51 -255.782 1.8403113e-38
388.29599 3996.3 -251.177 1.8403113e-38
417.289 4053.3201 -242.709 1.8403113e-38
430.39401 4254.7402 -245.145 1.8403113e-38
-150.29201 -1972.78 -233.395 1.8403113e-38
463.73801 4298.6299 -234.633 1.8403113e-38
477.24799 4548.71 -238.657 1.8403113e-38
-121.359 -1990.27 -222.29201 1.8403113e-38
-133.97099 -1978.71 -227.272 1.8403113e-38
-101.258 -1842.03 -220.297 1.8403113e-38
408.44601 3377.3101 -221.80499 1.8403113e-38
515.44299 4572.3901 -225.66701 1.8403113e-38
-97.601997 -1984.17 -213.90401 1.8403113e-38
-0.604289 -917.80402 -216.798 1.8403113e-38
431.23001 3435.95 -215.64301 1.8403113e-38
556.69702 4562.9102 -210.386 1.8403113e-38
-69.563904 -2002.3199 -203.101 1.8403113e-38
-84.9161 -1995.42 -208.908 1.8403113e-38
-38.749901 -2015.67 -191.463 1.8403113e-38
-48.620201 -1999.73 -195.60699 1.8403113e-38
-27.1422 -1683.98 -199.088 1.8403113e-38
597.383 4558.02 -195.474 1.8403113e-38
36.528599 -1527.84 -181.593 1.8403113e-38
99.457603 -864.62402 -182.45 1.8403113e-38
637.62 4557.7202 -180.88901 1.8403113e-38
-4.1403899 -1988.62 -179.892 1.8403113e-38
46.514198 -1536.22 -177.677 1.8403113e-38
57.248299 -1458.96 -176.54401 1.8403113e-38
74.442001 -1457.04 -170.38499 1.8403113e-38
72.193199 -1523.04 -168.84599 1.8403113e-38
104.055 -1380.02 -162.405 1.8403113e-38
107.677 -1356.91 -161.91701 1.8403113e-38
678.565 4544.0898 -165.57201 1.8403113e-38
103.547 -1567.74 -155.895 1.8403113e-38
120.954 -1322.6 -158.332 1.8403113e-38
120.888 -1305.13 -158.979 1.8403113e-38
143.243 -1123.86 -157.345 1.8403113e-38
147.718 -1105.4 -156.383 1.8403113e-38
164.42999 -974.75201 -154.989 1.8403113e-38
168.733 -959.38702 -153.978 1.8403113e-38
169.472 -947.20697 -154.145 1.8403113e-38
174.129 -932.06598 -152.998 1.8403113e-38
172.127 -922.43597 -154.06599 1.8403113e-38
179.201 -895.03497 -152.481 1.8403113e-38
187.11 -857.57898 -150.952 1.8403113e-38
171.334 -827.76501 -157.73 1.8403113e-38
186.742 -827.43597 -152.161 1.8403113e-38
179.44701 -973.81403 -149.58299 1.8403113e-38
186.29601 -900.414 -149.71899 1.8403113e-38
189.181 -876.88898 -149.51401 1.8403113e-38
200.175 -858.401 -146.19099 1.8403113e-38
194.502 -842.13202 -148.826 1.8403113e-38
194.951 -831.78998 -149.032 1.8403113e-38
720.24402 4510.1201 -149.263 1.8403113e-38
201.74001 -1078.35 -137.78 1.8403113e-38
213.61 -967.388 -137.437 1.8403113e-38
210.463 -958.59998 -138.89101 1.8403113e-38
758.97998 4532.6201 -136.035 1.8403113e-38
243.246 -998.94501 -125.578 1.8403113e-38
248.907 -981.60602 -124.145 1.8403113e-38
241.614 -965.17499 -127.373 1.8403113e-38
257.63501 -961.76202 -121.691 1.8403113e-38
243.49001 -952.04401 -127.162 1.8403113e-38
798.45599 4542.79 -122.099 1.8403113e-38
249.216 -1570.11 -103.046 1.8403113e-38
309.47198 -979.78699 -102.272 1.8403113e-38
838.77301 4524.6401 -106.848 1.8403113e-38
320.44101 -1053.73 -95.662003 1.8403113e-38
333.078 -966.565 -94.193199 1.8403113e-38
345.14801 -1012.36 -88.187897 1.8403113e-38
345.49399 -987.91699 -88.934502 1.8403113e-38
347.116 -962.97803 -89.236298 1.8403113e-38
361.70901 -958.46002 -84.111702 1.8403113e-38
359.25 -1395.23 -69.426598 1.8403113e-38
887.85101 3963.6499 -69.065201 1.8403113e-38
925.12402 3703.8101 -46.297699 1.8403113e-38
958.02802 3728.3899 -35.255299 1.8403113e-38
990.48999 3646.72 -20.5847 1.8403113e-38
544.84302 -1072.88 -13.697 1.8403113e-38
475.94101 -2103.97 -1.88359 1.8403113e-38
1022.65 3629.71 -8.3289604 1.8403113e-38
491.44 -2105.3 3.7776599 1.8403113e-38
507.41299 -2104.54 9.5362701 1.8403113e-38
1054.62 3616.3899 3.7272301 1.8403113e-38
645.99103 -897.04303 16.6705 1.8403113e-38
651.75 -898.10303 18.7943 1.8403113e-38
1086.67 3611.78 15.4994 1.8403113e-38
681.29303 -900.68298 29.587099 1.8403113e-38
658.849 -896.44897 21.3067 1.8403113e-38
663.69299 -899.151 23.157499 1.8403113e-38
673.3645 -898.19153 26.626499 1.8403113e-38
1118.23 3596.8799 27.4636 1.8403113e-38
581.091 -2124.78 36.9459 1.8403113e-38
574.64502 -2082.3301 33.097198 1.8403113e-38
689.05603 -896.84998 32.262501 1.8403113e-38
697.14099 -892.01202 35.0186 1.8403113e-38
708.729 -892.08801 39.218601 1.8403113e-38
704.73102 -887.98199 37.624001 1.8403113e-38
1166.8199 3934.21 33.031898 1.8403113e-38
597.18597 -2122.1399 42.6819 1.8403113e-38
611.52802 -2128.1899 48.0923 1.8403113e-38
651.95801 -1572.67 42.925999 1.8403113e-38
664.50403 -1366.76 40.127201 1.8403113e-38
728.74597 -914.00897 47.250801 1.8403113e-38
733.73798 -916.06 49.132301 1.8403113e-38
724.742 -902.039 45.3736 1.8403113e-38
715.00745 -897.72351 41.693748 1.8403113e-38
641.46198 -2133.97 59.140999 1.8403113e-38
627.02002 -2128.2 53.703999 1.8403113e-38
701.42798 -1408.04 54.973801 1.8403113e-38
747.81799 -1042.72 58.749298 1.8403113e-38
755.99402 -953.07397 58.513699 1.8403113e-38
752.22302 -946.48798 56.912998 1.8403113e-38
747.211 -926.64801 54.390099 1.8403113e-38
752.30902 -928.526 56.303501 1.8403113e-38
738.74799 -918.06403 51.018501 1.8403113e-38
744.76202 -917.20001 53.165901 1.8403113e-38
1270.41 4451.46 52.1106 1.8403113e-38
657.117 -2132.71 64.766701 1.8403113e-38
731.29999 -1317.6801 62.571499 1.8403113e-38
764.40601 -954.30499 61.604549 1.8403113e-38
1112.12 2368.3 69.062103 1.8403113e-38
686.39301 -2142.6001 75.723701 1.8403113e-38
726.63202 -1787.58 77.638199 1.8403113e-38
1249.54 3636.1299 73.625801 1.8403113e-38
702.02502 -2140.8999 81.3255 1.8403113e-38
716.698 -2146 86.821999 1.8403113e-38
753.96503 -1968.35 93.985397 1.8403113e-38
1180.6899 2398.8601 92.811401 1.8403113e-38
800.75897 -1681.92 100.721 1.8403113e-38
824.16199 -1569.84 105.2 1.8403113e-38
842.776 -1487.3101 109 1.8403113e-38
1205.64 2427.8701 100.813 1.8403113e-38
1250.86 2657.6499 108.999 1.8403113e-38
