# .PCD v0.7 - Point Cloud Data file format
VERSION 0.7
FIELDS x y z rgb
SIZE 4 4 4 4
TYPE F F F F
COUNT 1 1 1 1
WIDTH 321
HEIGHT 1
VIEWPOINT 0 0 0 1 0 0 0
POINTS 321
DATA ascii
-1648.92 -135.019 -300.66699 1.8403113e-38
-1221.4301 742.55298 -300.15201 1.8403113e-38
-1225.03 770.95203 -305.84399 1.8403113e-38
-1219.5699 780.53198 -305.578 1.8403113e-38
-1203.73 781.79901 -300.59299 1.8403113e-38
-1174.48 839.94702 -300.25601 1.8403113e-38
-1169.85 850.35699 -300.39401 1.8403113e-38
-1173.3101 867.11102 -304.189 1.8403113e-38
-1175.5 883.78601 -307.556 1.8403113e-38
-1163.75 887.58099 -304.31201 1.8403113e-38
-1159.34 898.62598 -304.62399 1.8403113e-38
-1147.55 902.19202 -301.33099 1.8403113e-38
-1141.61 911.84698 -300.91901 1.8403113e-38
-1135.25 920.41101 -300.198 1.8403113e-38
-1133.86 934.617 -302 1.8403113e-38
-1124.29 956.04102 -302.26999 1.8403113e-38
-1119.52 966.53601 -302.37799 1.8403113e-38
-1024.34 1173.9 -304.164 1.8403113e-38
-1013.13 1178.85 -301.28201 1.8403113e-38
-1011.35 1196.85 -303.56 1.8403113e-38
-1004.17 1208.0601 -302.98801 1.8403113e-38
-994.76001 1214.86 -300.98901 1.8403113e-38
-990.90503 1231.64 -302.39301 1.8403113e-38
-981.03101 1261.6801 -303.93399 1.8403113e-38
-970.22302 1266.65 -301.185 1.8403113e-38
-966.07098 1284.29 -302.62799 1.8403113e-38
-956.99902 1292.45 -300.95499 1.8403113e-38
-953.83502 1312.61 -303.12201 1.8403113e-38
-943.13599 1318.16 -300.50201 1.8403113e-38
-888.46802 1435.64 -301.271 1.8403113e-38
-879.79797 1448.85 -300.53201 1.8403113e-38
-867.01898 1485.52 -302.17401 1.8403113e-38
-848.896 1511.42 -300.35699 1.8403113e-38
-842.70001 1531.36 -301.49701 1.8403113e-38
-833.54797 1546.17 -300.853 1.8403113e-38
-817.22601 1580.84 -301.01801 1.8403113e-38
-1694.29 -287.11099 -291.353 1.8403113e-38
-1714.54 -279.466 -299.19699 1.8403113e-38
-1670.73 -202.533 -297.07901 1.8403113e-38
-1664.13 -188.589 -297.13199 1.8403113e-38
-1665.02 -175.67 -299.47699 1.8403113e-38
-1651.5699 -160.658 -297.45999 1.8403113e-38
-1651.28 -147.69099 -299.42599 1.8403113e-38
-1638 -120.402 -299.41501 1.8403113e-38
-1619.3199 -105.422 -295.67801 1.8403113e-38
-1613.8199 -92.114304 -295.99301 1.8403113e-38
-1251.66 662.69897 -297.35999 1.8403113e-38
-1248.78 673.36902 -298.11301 1.8403113e-38
-1239.63 679.70099 -296.12201 1.8403113e-38
-1234.1801 688.82703 -295.79001 1.8403113e-38
-1230.52 698.474 -296.12399 1.8403113e-38
-1224.92 707.52197 -295.72699 1.8403113e-38
-1227.38 721.258 -298.715 1.8403113e-38
-1223.9301 731.85901 -299.26901 1.8403113e-38
-1210.05 747.763 -297.254 1.8403113e-38
-1193.67 787.79498 -298.25101 1.8403113e-38
-1192.1 799.56299 -299.608 1.8403113e-38
-1185.495 814.76599 -299.86102 1.8403113e-38
-1169.92 822.79199 -296.03601 1.8403113e-38
-1123.96 939.79401 -299.58099 1.8403113e-38
-980.31 1236.71 -299.73001 1.8403113e-38
-932.784 1325.63 -298.29901 1.8403113e-38
-919.79102 1326.74 -294.22 1.8403113e-38
-893.03302 1356.61 -290.20599 1.8403113e-38
-891.94702 1382.47 -293.961 1.8403113e-38
-886.68903 1401.74 -295.30099 1.8403113e-38
-871.53198 1461.73 -299.871 1.8403113e-38
-856.13397 1492.99 -299.798 1.8403113e-38
-823.79901 1557.9399 -299.53101 1.8403113e-38
-806.45001 1590.7 -299.056 1.8403113e-38
-797.11798 1607.16 -298.616 1.8403113e-38
-782.70099 1606.76 -293.832 1.8403113e-38
-669.45398 1859.65 -296.94 1.8403113e-38
-657.53198 1880.1801 -296.29901 1.8403113e-38
-645.08502 1895.66 -294.68301 1.8403113e-38
-635.17102 1929.48 -296.811 1.8403113e-38
-621.42798 1940.98 -294.13901 1.8403113e-38
-607.26501 1955.46 -291.802 1.8403113e-38
-597.19702 1990.89 -294.13599 1.8403113e-38
-584.258 2016.8 -294.017 1.8403113e-38
-570.85498 2036.67 -292.785 1.8403113e-38
-558.91699 2075.05 -294.97699 1.8403113e-38
-545.151 2097.6899 -294.06601 1.8403113e-38
-531.03601 2127.21 -294.13599 1.8403113e-38
-516.74701 2151.6299 -293.33801 1.8403113e-38
-501.53101 2179.03 -292.70999 1.8403113e-38
-487.12799 2210.1101 -292.93399 1.8403113e-38
-471.353 2241.24 -292.715 1.8403113e-38
-455.81799 2270.1899 -292.229 1.8403113e-38
-439.20001 2303.0801 -292.01401 1.8403113e-38
-422.72501 2331.8201 -291.18701 1.8403113e-38
-405.60599 2374.3201 -292.336 1.8403113e-38
-387.89099 2397.9199 -290.28601 1.8403113e-38
-1667.66 -253.64 -287.95099 1.8403113e-38
-1233.76 640.86499 -288.02701 1.8403113e-38
-904.14502 1323.72 -288.61801 1.8403113e-38
-899.39203 1340.87 -289.78699 1.8403113e-38
-758.50299 1577.84 -281.314 1.8403113e-38
-669.70203 1792.7 -286.38101 1.8403113e-38
-369.24899 2432.3201 -289.647 1.8403113e-38
-351.048 2467.48 -289.27499 1.8403113e-38
-331.47299 2511.46 -289.85599 1.8403113e-38
-312.12201 2550.3101 -289.69299 1.8403113e-38
-291.13199 2592.03 -289.45099 1.8403113e-38
-270.50699 2630.5901 -288.82401 1.8403113e-38
-248.20599 2669.02 -287.63 1.8403113e-38
-226.252 2711.2 -287.14401 1.8403113e-38
-202.495 2754.22 -286.202 1.8403113e-38
-179.089 2798.02 -285.49799 1.8403113e-38
-153.754 2843.6001 -284.44601 1.8403113e-38
-128.468 2894.9099 -284.32101 1.8403113e-38
-100.673 2953.8999 -284.59399 1.8403113e-38
-74.645599 2990.9199 -281.95499 1.8403113e-38
-44.256802 3059.3 -282.871 1.8403113e-38
-14.4748 3121.53 -283.009 1.8403113e-38
17.2036 3179.47 -281.84399 1.8403113e-38
49.627399 3247.0701 -281.96899 1.8403113e-38
157.547 3457.5901 -280.08701 1.8403113e-38
-1068.6899 929.31201 -279.81699 1.8403113e-38
-740.39001 1564.09 -273.19699 1.8403113e-38
83.008301 3301.4399 -279.67999 1.8403113e-38
112.598 3328 -274.21201 1.8403113e-38
195.04401 3527.79 -278.966 1.8403113e-38
237.75301 3615.1699 -278.867 1.8403113e-38
277.87299 3685.5701 -276.918 1.8403113e-38
323.409 3772.0601 -275.75299 1.8403113e-38
364.133 3830.8201 -271.75601 1.8403113e-38
420.59601 3961.3999 -274.01901 1.8403113e-38
471.51801 4059.3101 -272.90601 1.8403113e-38
-1553.3101 -188.979 -260.784 1.8403113e-38
-723.91199 1556.84 -266.64899 1.8403113e-38
-712.59198 1564.09 -264.095 1.8403113e-38
636.99298 4347.0801 -264.45499 1.8403113e-38
-1573.63 -266.50101 -255.118 1.8403113e-38
-1534.37 -208.05499 -251.55099 1.8403113e-38
-1545.8 -198.761 -256.76999 1.8403113e-38
-683.95099 1559.78 -254.032 1.8403113e-38
-698.98499 1565.86 -259.92099 1.8403113e-38
675.77802 4359.9902 -253.806 1.8403113e-38
744.27502 4490.5801 -252.131 1.8403113e-38
-1542.39 -269.32001 -244.44099 1.8403113e-38
-670.44299 1561.27 -249.845 1.8403113e-38
-657.08301 1560.54 -245.354 1.8403113e-38
-645.96198 1571.21 -243.409 1.8403113e-38
-643.65198 1616.7 -249.881 1.8403113e-38
790.62201 4527.7202 -242.856 1.8403113e-38
-1407.13 -52.154999 -234.662 1.8403113e-38
846.979 4593.9502 -234.929 1.8403113e-38
-1468.79 -270.436 -220.16299 1.8403113e-38
-1487.9301 -265.133 -227.27499 1.8403113e-38
-950.45898 830.85303 -225.457 1.8403113e-38
878.04102 4565.3799 -220.217 1.8403113e-38
-1454.0601 -300.181 -210.612 1.8403113e-38
-1466.13 -292.50299 -215.787 1.8403113e-38
-1466.0601 -281.28601 -217.54601 1.8403113e-38
407.45499 3563.6201 -215.108 1.8403113e-38
451.151 3633.9099 -211.97 1.8403113e-38
921.39203 4576.5801 -207.80099 1.8403113e-38
959.95502 4576.2598 -195.12399 1.8403113e-38
-984.12799 490.211 -182.347 1.8403113e-38
-880.87799 742.51398 -188.634 1.8403113e-38
-820.69501 864.46503 -188.308 1.8403113e-38
995.43799 4557.8398 -180.578 1.8403113e-38
-1019.34 376.69199 -175.83501 1.8403113e-38
-1017.49 383.98599 -176.388 1.8403113e-38
-1015.71 390.94101 -176.91 1.8403113e-38
-1005.02 394.67801 -174.006 1.8403113e-38
-832.47699 735.50403 -171.672 1.8403113e-38
-800.83899 821.95599 -175.05099 1.8403113e-38
-1126.6899 93.111397 -165.92101 1.8403113e-38
-1118.085 104.6545 -164.937 1.8403113e-38
-996.40698 338.32599 -162.23 1.8403113e-38
-998.46698 346.58301 -164.216 1.8403113e-38
-995.24103 352.69501 -164.131 1.8403113e-38
-998.03003 361.35101 -166.42 1.8403113e-38
-827.08002 706.55798 -165.304 1.8403113e-38
-827.23999 718.26001 -167.216 1.8403113e-38
-816.36853 734.31055 -166.207 1.8403113e-38
-805.21698 738.68402 -163.25101 1.8403113e-38
1034.8101 4559.6899 -167.98199 1.8403113e-38
-1067.59 115.19 -150.077 1.8403113e-38
-1069.01 122.193 -151.65601 1.8403113e-38
-1062.1801 136.214 -151.646 1.8403113e-38
-1013.17 228.867 -150.32201 1.8403113e-38
-1011.71 235.707 -150.93401 1.8403113e-38
-1011.2 242.388 -151.828 1.8403113e-38
-1005.94 248.46001 -151.07001 1.8403113e-38
-1013.62 256.88699 -154.924 1.8403113e-38
-1007.42 266.16251 -154.367 1.8403113e-38
-1001.13 275.30301 -153.761 1.8403113e-38
-1005.77 283.34201 -156.556 1.8403113e-38
-994.73999 287.73999 -153.645 1.8403113e-38
-995.60999 294.853 -155.06 1.8403113e-38
-998.12701 302.83701 -157.153 1.8403113e-38
-987.112 306.60001 -154.144 1.8403113e-38
-991.30701 315.138 -156.875 1.8403113e-38
-984.07703 323.52649 -155.84 1.8403113e-38
-964.12903 385.23199 -159.11501 1.8403113e-38
-938.03497 381.67001 -150.004 1.8403113e-38
-928.50702 413.61499 -151.961 1.8403113e-38
-925.10999 426.82599 -152.948 1.8403113e-38
-923.13 440.91299 -154.539 1.8403113e-38
-928.97498 451.94 -158.205 1.8403113e-38
-791.42102 733.17999 -157.85899 1.8403113e-38
-780.43701 731.43903 -153.985 1.8403113e-38
-776.203 737.58398 -153.575 1.8403113e-38
-775.65698 749.23999 -155.24899 1.8403113e-38
-770.11603 753.84601 -154.16701 1.8403113e-38
-774.36902 772.46899 -158.519 1.8403113e-38
-1096.65 -2.3275199 -140.918 1.8403113e-38
-1070.08 79.355499 -145.198 1.8403113e-38
-1065.45 72.569504 -142.60201 1.8403113e-38
-1080.35 86.478699 -149.692 1.8403113e-38
-1055.1801 129.02299 -148.21201 1.8403113e-38
-1045.41 142.588 -147.168 1.8403113e-38
-1033.37 148.627 -144.187 1.8403113e-38
-1038.27 156.039 -146.968 1.8403113e-38
-1038.42 162.823 -148.095 1.8403113e-38
-1029.04 169.093 -146.02 1.8403113e-38
-1028.14 175.722 -146.78 1.8403113e-38
-1026.165 185.9375 -147.75601 1.8403113e-38
-1024.0699 196.12199 -148.69 1.8403113e-38
-1023.89 202.847 -149.7 1.8403113e-38
-1015.18 208.673 -147.774 1.8403113e-38
-1015.83 215.487 -149.069 1.8403113e-38
-1014.49 222.34599 -149.72099 1.8403113e-38
-930.27399 385.30301 -148.03999 1.8403113e-38
-923.23102 389.50101 -146.401 1.8403113e-38
-924.83801 397.24899 -148.159 1.8403113e-38
-924.52502 404.54099 -149.215 1.8403113e-38
-912.039 413.05099 -146.479 1.8403113e-38
-906.98901 425.11801 -146.743 1.8403113e-38
1028.63 4404.9902 -145.41901 1.8403113e-38
-1074.34 7.52033 -135.17799 1.8403113e-38
-1074.77 14.8413 -136.48 1.8403113e-38
-1071.3101 22.1959 -136.51801 1.8403113e-38
-1067.8101 29.8381 -136.58501 1.8403113e-38
-1058.53 37.5331 -134.76801 1.8403113e-38
-1053.9399 45.062302 -134.464 1.8403113e-38
-1046.465 55.8783 -133.7345 1.8403113e-38
-1052.1899 65.910599 -137.205 1.8403113e-38
1041.52 4325.4502 -128.558 1.8403113e-38
1105.51 4402.2402 -119.807 1.8403113e-38
-1021.74 -159.19 -91.458801 1.8403113e-38
-949.61603 -140.52499 -70.8097 1.8403113e-38
898.28601 3662.53 -70.107101 1.8403113e-38
-931.52899 -140.233 -64.933502 1.8403113e-38
953.56299 3726.7 -62.204899 1.8403113e-38
-901.61102 -135.414 -55.902699 1.8403113e-38
-888.15802 -136.179 -51.376099 1.8403113e-38
982.73798 3717.1201 -51.129799 1.8403113e-38
-871.03601 -135.533 -45.872398 1.8403113e-38
-860.33502 -136.92799 -42.146801 1.8403113e-38
-835.27551 -135.103 -34.231201 1.8403113e-38
1009.91 3697.3799 -39.0961 1.8403113e-38
-812.11298 -133.45799 -26.9081 1.8403113e-38
-805.07001 -135.623 -24.258101 1.8403113e-38
1045.73 3706.04 -28.7435 1.8403113e-38
-785.58301 -134.7485 -18.016201 1.8403113e-38
-764.45349 -135.0385 -11.051399 1.8403113e-38
1076.15 3695.1101 -17.0443 1.8403113e-38
-737.64398 -141.60251 -1.2296205 1.8403113e-38
-745.17249 -135.53149 -4.6594152 1.8403113e-38
1108.26 3692.8201 -6.1666098 1.8403113e-38
1304.5699 4099.3799 -6.49681 1.8403113e-38
-724.90552 -144.61301 3.4200401 1.8403113e-38
-681.77301 -141.08 16.981899 1.8403113e-38
-694.7915 -137.185 12.1001 1.8403113e-38
-683.57599 -137.644 15.8456 1.8403113e-38
1230.87 3826.5901 12.7233 1.8403113e-38
-672.172 -144.40401 20.653999 1.8403113e-38
-660.92102 -146.37199 24.650801 1.8403113e-38
-670.66803 -138.98801 20.285801 1.8403113e-38
-654.51099 -137.811 25.389 1.8403113e-38
-643.39801 -139.39799 29.280399 1.8403113e-38
1223.4399 3720.76 27.108601 1.8403113e-38
-641.565 -142.478 30.369801 1.8403113e-38
-631.4035 -142.14401 33.644199 1.8403113e-38
-623.16449 -145.054 36.804451 1.8403113e-38
-615.88599 -146.295 39.3848 1.8403113e-38
1246.1801 3694.0701 38.795601 1.8403113e-38
-590.85797 -152.73801 48.604099 1.8403113e-38
-614.77399 -149.72301 40.293701 1.8403113e-38
-603.19299 -147.4295 43.721603 1.8403113e-38
-591.92798 -147.10699 47.358948 1.8403113e-38
-577.17847 -151.93149 52.955299 1.8403113e-38
-565.34235 -152.20799 56.874832 1.8403113e-38
-579.79999 -147.722 51.427799 1.8403113e-38
1290.38 3713.3501 50.2047 1.8403113e-38
-534.84448 -163.5625 68.66555 1.8403113e-38
-552.99066 -153.56133 61.134369 1.8403113e-38
-542.00897 -151.54601 64.409798 1.8403113e-38
-537.74127 -155.71266 66.46946 1.8403113e-38
1313.1899 3687.0901 61.849098 1.8403113e-38
-531.539 -171.105 70.946404 1.8403113e-38
-510.74799 -170.134 77.600098 1.8403113e-38
-505.09698 -172.442 79.817101 1.8403113e-38
-524.02667 -165.903 72.579597 1.8403113e-38
-507.48169 -163.22501 77.571465 1.8403113e-38
1346.64 3680.9399 73.778 1.8403113e-38
-500.909 -181.149 82.572403 1.8403113e-38
-478.97299 -180.411 89.637703 1.8403113e-38
-501.07599 -171.94501 81.054901 1.8403113e-38
-484.35864 -173.46733 86.770729 1.8403113e-38
-478.884 -175.52699 88.8909 1.8403113e-38
-492.659 -165.995 82.865402 1.8403113e-38
-488.32101 -169.52699 84.847 1.8403113e-38
1478.98 3890.9199 83.741501 1.8403113e-38
-451.57401 -186.552 99.585297 1.8403113e-38
-472.12299 -175.50101 91.100502 1.8403113e-38
-468.81601 -175.38901 92.165497 1.8403113e-38
-455.65802 -177.55 96.817383 1.8403113e-38
-458.577 -167.27701 94.229004 1.8403113e-38
1458 3764.9399 96.890503 1.8403113e-38
-452.74701 -248.38901 109.028 1.8403113e-38
-451.67899 -232.172 106.801 1.8403113e-38
-445.017 -225.44701 107.914 1.8403113e-38
-447.23499 -213.6405 105.311 1.8403113e-38
-448.30652 -203.414 103.335 1.8403113e-38
-452.03198 -198.453 101.3265 1.8403113e-38
1433.5699 3640.25 108.71 1.8403113e-38
