# .PCD v0.7 - Point Cloud Data file format
VERSION 0.7
FIELDS x y z rgb
SIZE 4 4 4 4
TYPE F F F F
COUNT 1 1 1 1
WIDTH 359
HEIGHT 1
VIEWPOINT 0 0 0 1 0 0 0
POINTS 359
DATA ascii
2690.3201 -726.612 -284.564 1.8403113e-38
2641.1399 -681.09198 -284.18399 1.8403113e-38
2607.1499 -642.48999 -285.79999 1.8403113e-38
2556.96 -598.62799 -284.73001 1.8403113e-38
2514.6299 -558.71997 -284.59299 1.8403113e-38
2475.5701 -520.90503 -284.729 1.8403113e-38
2433.29 -482.832 -284.121 1.8403113e-38
2399.01 -448.358 -284.578 1.8403113e-38
2365.28 -414.81699 -284.92999 1.8403113e-38
2329.3201 -381.29199 -284.71301 1.8403113e-38
2295.8101 -349.29099 -284.715 1.8403113e-38
2254.4099 -315.63501 -283.16501 1.8403113e-38
2233.47 -288.76199 -284.97601 1.8403113e-38
2209.4099 -261.47601 -286.11099 1.8403113e-38
2178.4199 -232.823 -285.862 1.8403113e-38
2145.23 -204.22701 -285.04599 1.8403113e-38
2131.78 -181.30701 -287.698 1.8403113e-38
2112.3701 -157.237 -289.155 1.8403113e-38
2057.3101 -125.175 -283.754 1.8403113e-38
2042.1801 -103.208 -285.73199 1.8403113e-38
2019.16 -79.8451 -286.095 1.8403113e-38
1989.1801 -55.488602 -284.97101 1.8403113e-38
1965.71 -33.010601 -284.98599 1.8403113e-38
1941.05 -10.7656 -284.64401 1.8403113e-38
1919.08 10.5152 -284.72299 1.8403113e-38
1898.84 31.0718 -285.04599 1.8403113e-38
1883.25 50.4743 -286.23401 1.8403113e-38
1850.0699 72.317398 -283.642 1.8403113e-38
1831.21 91.442497 -283.935 1.8403113e-38
1815.08 109.834 -284.72299 1.8403113e-38
1798.79 127.944 -285.39499 1.8403113e-38
1778.46 146.24001 -285.10101 1.8403113e-38
1765.74 163.31 -286.396 1.8403113e-38
1738.3101 181.67101 -284.33301 1.8403113e-38
1720.4301 198.63499 -284.30499 1.8403113e-38
1706.3 214.95599 -285.04901 1.8403113e-38
1684.26 231.64 -283.89899 1.8403113e-38
1672.77 247.209 -285.10901 1.8403113e-38
1662.12 262.52499 -286.46301 1.8403113e-38
1634.8199 278.51599 -283.811 1.8403113e-38
1625.87 293.24799 -285.43799 1.8403113e-38
1606.1 308.20001 -284.405 1.8403113e-38
1595.9399 322.57001 -285.63199 1.8403113e-38
1577.89 336.90399 -284.86801 1.8403113e-38
1562.64 350.91299 -284.72299 1.8403113e-38
1546.3199 364.668 -284.241 1.8403113e-38
1546.37 378.30701 -287.84399 1.8403113e-38
1515.3101 391.39999 -283.483 1.8403113e-38
1506.4301 404.56601 -284.71701 1.8403113e-38
1486.8199 417.21399 -283.11499 1.8403113e-38
1477.74 430.008 -284.202 1.8403113e-38
1478.22 443.17599 -287.789 1.8403113e-38
1461.23 455.29501 -286.707 1.8403113e-38
1451.86 467.68301 -287.61301 1.8403113e-38
1433.74 479.23901 -286.10001 1.8403113e-38
1422.28 491.09399 -286.33899 1.8403113e-38
1409.77 502.67801 -286.24399 1.8403113e-38
1405.8101 514.98401 -288.487 1.8403113e-38
1393.13 526.25098 -288.26599 1.8403113e-38
1375.61 536.72803 -286.61801 1.8403113e-38
1364.7 547.81201 -286.793 1.8403113e-38
1362.28 559.95099 -289.38101 1.8403113e-38
1344.5601 569.77399 -287.51099 1.8403113e-38
1328.6801 579.617 -286.112 1.8403113e-38
1322.22 590.81598 -287.436 1.8403113e-38
1310.95 601.08698 -287.306 1.8403113e-38
1301.5 611.54303 -287.68301 1.8403113e-38
1291.98 621.86499 -288.00601 1.8403113e-38
1278.64 631.276 -287.129 1.8403113e-38
1252.73 649.69897 -285.46701 1.8403113e-38
1265.24 640.48401 -286.186 1.8403113e-38
1235.9301 669.60999 -286.48401 1.8403113e-38
1252.28 661.56897 -288.478 1.8403113e-38
1225.11 678.80701 -286.185 1.8403113e-38
1204.0699 685.17401 -282.57401 1.8403113e-38
1199.63 695.73102 -284.23401 1.8403113e-38
1189.58 704.68799 -284.06699 1.8403113e-38
1179.48 713.50598 -283.849 1.8403113e-38
1173.89 723.56201 -285.091 1.8403113e-38
1160.04 731.00403 -283.56799 1.8403113e-38
1144.01 749.16901 -284.32001 1.8403113e-38
1156.14 741.45099 -285.336 1.8403113e-38
1140.86 759.79303 -286.32401 1.8403113e-38
1130.4301 767.875 -285.82999 1.8403113e-38
1126.22 778.08301 -287.45901 1.8403113e-38
1094.47 789.565 -282.50101 1.8403113e-38
1105 781.95099 -283.14401 1.8403113e-38
1089.21 799.12201 -283.69299 1.8403113e-38
1078.59 806.49597 -282.965 1.8403113e-38
1065.98 824.526 -284.54001 1.8403113e-38
1085.46 820.99701 -288.51001 1.8403113e-38
1047.04 839.58197 -283.74301 1.8403113e-38
1061.3101 834.20001 -285.91299 1.8403113e-38
1033.64 845.15198 -281.84 1.8403113e-38
1030.52 855.35999 -283.74301 1.8403113e-38
1009.56 868.65198 -281.974 1.8403113e-38
1020.48 862.28003 -283.04099 1.8403113e-38
1003.69 877.43201 -282.81 1.8403113e-38
999.43701 887.02301 -284.26401 1.8403113e-38
985.05701 891.30298 -281.776 1.8403113e-38
967.94299 905.62402 -281.24301 1.8403113e-38
981.51202 901.20099 -283.48999 1.8403113e-38
965.08801 915.87299 -283.224 1.8403113e-38
944.41998 927.77899 -281.16199 1.8403113e-38
961.31299 925.65399 -284.849 1.8403113e-38
934.94702 946.05298 -283.591 1.8403113e-38
947.00897 941.29602 -285.371 1.8403113e-38
914.81 957.62 -281.57401 1.8403113e-38
926.888 953.14801 -283.43301 1.8403113e-38
905.59698 975.98401 -284.09201 1.8403113e-38
916.172 970.66901 -285.35101 1.8403113e-38
889.06702 989.42902 -283.47601 1.8403113e-38
895.01099 981.16699 -282.79501 1.8403113e-38
880.74402 996.01703 -283.117 1.8403113e-38
864.74597 1009.48 -282.63901 1.8403113e-38
870.08899 1000.87 -281.716 1.8403113e-38
857.06299 1016.37 -282.521 1.8403113e-38
854.57599 1027.17 -284.73801 1.8403113e-38
844.53497 1032.21 -283.543 1.8403113e-38
834.96204 1043.96 -284.228 1.8403113e-38
824.526 1055.01 -284.513 1.8403113e-38
806.354 1066.05 -282.853 1.8403113e-38
815.81201 1060.88 -283.86899 1.8403113e-38
787.388 1076.08 -280.724 1.8403113e-38
799.00702 1072.97 -282.82599 1.8403113e-38
786.95502 1089.12 -284.047 1.8403113e-38
768.43597 1099.3101 -282.07599 1.8403113e-38
775.28302 1092.04 -281.88199 1.8403113e-38
762.88898 1107.83 -282.92401 1.8403113e-38
751.86798 1111.08 -281.00699 1.8403113e-38
750.87701 1124.11 -284.18799 1.8403113e-38
733.96997 1135.51 -282.94 1.8403113e-38
743.10199 1130.52 -283.92099 1.8403113e-38
719.50598 1149.3199 -282.94 1.8403113e-38
726.117 1141.77 -282.61301 1.8403113e-38
713.88196 1165.425 -285.76453 1.8403113e-38
698.01202 1170.3 -283.05801 1.8403113e-38
684.81299 1185.66 -283.784 1.8403113e-38
694.22498 1181.1899 -284.974 1.8403113e-38
677.198 1192.1899 -283.58899 1.8403113e-38
660.03802 1202.88 -282.08801 1.8403113e-38
670.72302 1200.12 -284.047 1.8403113e-38
646.21399 1217.6899 -282.51199 1.8403113e-38
654.03699 1211.41 -282.82599 1.8403113e-38
625.224 1239.9301 -283.08899 1.8403113e-38
634.91998 1236.08 -284.513 1.8403113e-38
643.46899 1230.64 -285.23001 1.8403113e-38
618.26501 1247.5 -283.332 1.8403113e-38
610.68799 1254.25 -283.20499 1.8403113e-38
584.46399 1269.46 -280.61499 1.8403113e-38
594.29401 1266.02 -282.18301 1.8403113e-38
602.51501 1260.17 -282.70901 1.8403113e-38
578.73999 1279.1 -281.716 1.8403113e-38
572.89899 1288.73 -282.78101 1.8403113e-38
554.96301 1298.27 -280.784 1.8403113e-38
568.93701 1301.53 -285.15399 1.8403113e-38
541.68201 1315.62 -282.01199 1.8403113e-38
550.79602 1311 -283.08801 1.8403113e-38
537.70697 1329.14 -284.573 1.8403113e-38
519.63501 1338.89 -282.595 1.8403113e-38
502.30899 1349.99 -281.16199 1.8403113e-38
511.66699 1345.72 -282.39099 1.8403113e-38
532.15503 1340.22 -286.09299 1.8403113e-38
485.64301 1362.5 -280.26501 1.8403113e-38
496.81601 1361.73 -282.87201 1.8403113e-38
473.64301 1384.97 -283.16299 1.8403113e-38
483.67999 1381.79 -284.85101 1.8403113e-38
455.12601 1394.48 -281.01099 1.8403113e-38
468.819 1399.1801 -285.69 1.8403113e-38
438.73401 1408.87 -280.67999 1.8403113e-38
451.603 1412.0699 -284.75601 1.8403113e-38
434.48901 1425.5699 -284.008 1.8403113e-38
426.366 1433.54 -284.065 1.8403113e-38
419.91901 1445.85 -285.68399 1.8403113e-38
394.56299 1469.33 -285.492 1.8403113e-38
403.44901 1462.45 -285.91299 1.8403113e-38
415.03 1462.55 -288.85199 1.8403113e-38
377.49799 1485.6 -285.483 1.8403113e-38
389.47198 1486.86 -288.82599 1.8403113e-38
367.73801 1490.5 -284.32101 1.8403113e-38
360.02301 1501.64 -285.31299 1.8403113e-38
351.57001 1510.9301 -285.633 1.8403113e-38
333.73901 1527.53 -285.521 1.8403113e-38
344.12201 1523.8 -287.14899 1.8403113e-38
323.32999 1531.1801 -283.86401 1.8403113e-38
315.21799 1542.98 -284.93201 1.8403113e-38
306.43399 1552.91 -285.336 1.8403113e-38
287.74701 1569.8199 -285.091 1.8403113e-38
297.26901 1561.86 -285.388 1.8403113e-38
268.172 1584.62 -284.06699 1.8403113e-38
279.47198 1583.28 -286.55399 1.8403113e-38
259.17899 1596.11 -284.82901 1.8403113e-38
250.416 1609.41 -286.12799 1.8403113e-38
239.338 1612.37 -284.12201 1.8403113e-38
218.87801 1627.41 -282.93701 1.8403113e-38
229.894 1623.6801 -284.72501 1.8403113e-38
210.334 1645.1801 -285.46701 1.8403113e-38
200.235 1655.36 -285.60901 1.8403113e-38
189.23399 1660.74 -284.26099 1.8403113e-38
168.103 1678.84 -283.71301 1.8403113e-38
179.729 1676.47 -286.01001 1.8403113e-38
157.34 1687.78 -283.35999 1.8403113e-38
147.731 1707.12 -286.035 1.8403113e-38
136.614 1715.91 -285.55499 1.8403113e-38
125.568 1726.54 -285.57401 1.8403113e-38
102.239 1738.92 -282.96899 1.8403113e-38
114.358 1737.08 -285.53201 1.8403113e-38
79.099403 1758.61 -282.33701 1.8403113e-38
91.155602 1754.09 -284.17599 1.8403113e-38
67.446701 1770.73 -282.59799 1.8403113e-38
55.6507 1783.73 -283.05399 1.8403113e-38
43.605099 1795.6801 -283.172 1.8403113e-38
31.400801 1808.51 -283.48001 1.8403113e-38
18.8703 1816.42 -282.41199 1.8403113e-38
6.3411102 1831.95 -283.35101 1.8403113e-38
-6.4647698 1844.49 -283.43399 1.8403113e-38
-19.475 1856.9399 -283.439 1.8403113e-38
-32.617802 1862.51 -281.60199 1.8403113e-38
-45.9557 1873.78 -281.215 1.8403113e-38
-73.289902 1898.9 -280.95499 1.8403113e-38
-59.640202 1890.75 -282.242 1.8403113e-38
-87.818901 1923.4 -283.75299 1.8403113e-38
-101.822 1930.35 -282.06299 1.8403113e-38
-116.302 1943 -281.75201 1.8403113e-38
-131.203 1958.4301 -282.06799 1.8403113e-38
-146.522 1975.6801 -282.75699 1.8403113e-38
-161.703 1987.95 -282.172 1.8403113e-38
-177.662 2005.91 -282.88699 1.8403113e-38
-193.72301 2021.79 -283.03101 1.8403113e-38
-210.168 2038.5 -283.29501 1.8403113e-38
-226.662 2053.1399 -283.00101 1.8403113e-38
-244.052 2072.46 -283.716 1.8403113e-38
-261.64001 2090.6599 -284.08499 1.8403113e-38
2674.79 -746.55902 -275.41101 1.8403113e-38
-264.297 2007.36 -261.48999 1.8403113e-38
-1737.9399 3425.3401 -264.298 1.8403113e-38
-1810.78 3493.8701 -264.02802 1.8403113e-38
2656.3101 -817.97803 -251.966 1.8403113e-38
2519.3999 -732.30402 -240.10201 1.8403113e-38
2474.55 -688.36902 -240.392 1.8403113e-38
-266.43201 1929.84 -240.55 1.8403113e-38
-281.15399 1935.2 -238.25999 1.8403113e-38
-295.97299 1940.4301 -235.911 1.8403113e-38
2526.0701 -785.80499 -227.696 1.8403113e-38
-2086.45 3592.1799 -220.61 1.8403113e-38
-2338.02 3856.3301 -226.89999 1.8403113e-38
2500.2 -824.90601 -210.901 1.8403113e-38
2501.05 -799.81 -217.71899 1.8403113e-38
-291.76999 1842.63 -211.22501 1.8403113e-38
-2134.26 3607.48 -212.619 1.8403113e-38
-2366.1799 3836.2 -214.524 1.8403113e-38
2507.1599 -853.93298 -205.00999 1.8403113e-38
-2387.3401 3805.97 -201.246 1.8403113e-38
2501.49 -903.14099 -190.632 1.8403113e-38
2499.54 -876.11102 -197.257 1.8403113e-38
-293.92001 1786.23 -195.838 1.8403113e-38
2553.01 -982.88898 -182.592 1.8403113e-38
2516.4299 -937.08301 -185.453 1.8403113e-38
-301.936 1763.42 -187.821 1.8403113e-38
-2410.4299 3778.8701 -188.311 1.8403113e-38
2796.1399 -1261.9301 -170.256 1.8403113e-38
2788.8301 -1226.9301 -177.632 1.8403113e-38
2533.73 -999.82202 -173.286 1.8403113e-38
-305.49301 1721.4 -175.866 1.8403113e-38
-2452.3101 3778.4099 -177.662 1.8403113e-38
-2580.47 3896.2 -176.45 1.8403113e-38
2497.71 -1007.45 -162.22501 1.8403113e-38
-319.69901 1677.51 -160.74001 1.8403113e-38
-313.20499 1701.39 -168.66 1.8403113e-38
-2604.6201 3868.3999 -163.063 1.8403113e-38
2499.1399 -1035.35 -155.24001 1.8403113e-38
-327.84601 1662.17 -154.65601 1.8403113e-38
-2642.24 3858.79 -151.075 1.8403113e-38
2597.8201 -1176.28 -142.95 1.8403113e-38
-329.664 1578.08 -132.064 1.8403113e-38
-324.616 1602.01 -139.632 1.8403113e-38
-2670.76 3836.8701 -138.13699 1.8403113e-38
-335.82901 1559.83 -125.71 1.8403113e-38
-2640.23 3739 -120.05 1.8403113e-38
-387.67599 1549.92 -110.069 1.8403113e-38
-376.03299 1547.75 -112.425 1.8403113e-38
-363.056 1540.75 -113.845 1.8403113e-38
-353.448 1544.98 -117.373 1.8403113e-38
-341.953 1542.49 -119.607 1.8403113e-38
-434.436 1556.54 -100.057 1.8403113e-38
-423.233 1556.6801 -102.911 1.8403113e-38
-411.11801 1553.92 -105.229 1.8403113e-38
-400.88 1556.66 -108.525 1.8403113e-38
-534.53302 1664.46 -103.303 1.8403113e-38
-555.71802 1685.34 -103.472 1.8403113e-38
-570.80603 1690.4399 -101.022 1.8403113e-38
-899.69202 2029.86 -107.692 1.8403113e-38
-926.07501 2045.74 -105.239 1.8403113e-38
-951.81403 2059.55 -102.406 1.8403113e-38
-2679.45 3731.9399 -108.331 1.8403113e-38
2184.51 -982.29303 -90.115303 1.8403113e-38
2219.8201 -978.65302 -99.949501 1.8403113e-38
-445.32101 1555.36 -97.009804 1.8403113e-38
-484.40601 1567.8 -90.459602 1.8403113e-38
-472.68399 1567.48 -93.321999 1.8403113e-38
-460.64899 1566.12 -95.989799 1.8403113e-38
-595.76801 1687.46 -93.964699 1.8403113e-38
-582.11902 1686.28 -97.084099 1.8403113e-38
-611.89301 1693.9399 -91.615402 1.8403113e-38
-2741.24 3752.47 -98.203499 1.8403113e-38
2157.73 -990.68903 -81.175003 1.8403113e-38
-648.27502 1685.46 -80.237801 1.8403113e-38
-639.52197 1695.58 -85.103203 1.8403113e-38
-625.27301 1693.9301 -88.249702 1.8403113e-38
-758.76898 1792.4301 -80.621101 1.8403113e-38
2128.4199 -997.10901 -72.1175 1.8403113e-38
-664.91998 1664.14 -70.4412 1.8403113e-38
-659.06403 1679.73 -76.017899 1.8403113e-38
-2659.3501 3595.8501 -77.561996 1.8403113e-38
2106.6799 -1007.99 -63.788399 1.8403113e-38
-688.54999 1683.92 -69.7089 1.8403113e-38
-871.12402 1825.9301 -61.195099 1.8403113e-38
2281.21 -1202.48 -56.464199 1.8403113e-38
2129.3899 -1073.3 -52.305801 1.8403113e-38
2085.72 -1019.13 -55.587399 1.8403113e-38
-878.35901 1810.67 -55.359299 1.8403113e-38
2264.04 -1246.37 -40.596901 1.8403113e-38
2276.8401 -1227.3 -48.8335 1.8403113e-38
-911.008 1784.1 -40.1586 1.8403113e-38
-899.00403 1791.0699 -45.0107 1.8403113e-38
-883.83502 1792.8199 -49.2855 1.8403113e-38
2248.6399 -1263.58 -32.197201 1.8403113e-38
2237.9399 -1284.15 -24.09 1.8403113e-38
2549.1499 -1610.4 -16.4461 1.8403113e-38
2316.3401 -1400.99 -13.0447 1.8403113e-38
2241.46 -1315.37 -16.7586 1.8403113e-38
2588.0901 -1709.33 -0.194655 1.8403113e-38
2582.72 -1670.42 -9.0855598 1.8403113e-38
2676.8999 -1816.35 5.6515498 1.8403113e-38
2655.29 -1835.4 16.098101 1.8403113e-38
2664.96 -1880.51 25.543699 1.8403113e-38
2666.4299 -1919.4399 35.4189 1.8403113e-38
2654.5701 -1947.4 45.758801 1.8403113e-38
-1042.01 1576.27 47.4772 1.8403113e-38
-1051.05 1607.55 41.516998 1.8403113e-38
2648.4199 -1980.5699 56.037899 1.8403113e-38
-1046.88 1542.22 57.664398 1.8403113e-38
-1046.1801 1561.12 52.513401 1.8403113e-38
2641.1299 -2013.11 66.434402 1.8403113e-38
-1052.87 1510.52 67.513496 1.8403113e-38
-1049.3101 1525.61 62.646702 1.8403113e-38
2629.03 -2041.63 76.983299 1.8403113e-38
-1055.33 1475.99 77.220596 1.8403113e-38
-1052.1801 1491.02 72.473 1.8403113e-38
-1063.14 1448.13 86.517197 1.8403113e-38
-1058.28 1460.97 81.917099 1.8403113e-38
1766.91 -1284.86 94.500702 1.8403113e-38
-1062.5 1412.49 95.740303 1.8403113e-38
-1065.74 1433.13 91.119102 1.8403113e-38
1708.16 -1257.01 101.935 1.8403113e-38
1670.96 -1248.3101 109 1.8403113e-38
-1069.23 1368.53 109 1.8403113e-38
-1068.12 1384.09 104.627 1.8403113e-38
-1067.53 1400.39 100.189 1.8403113e-38
