# .PCD v0.7 - Point Cloud Data file format
VERSION 0.7
FIELDS x y z rgb
SIZE 4 4 4 4
TYPE F F F F
COUNT 1 1 1 1
WIDTH 350
HEIGHT 1
VIEWPOINT 0 0 0 1 0 0 0
POINTS 350
DATA ascii
1653.53 2177.76 -290.04901 1.8403113e-38
1667.9 2174.5601 -290.78299 1.8403113e-38
1680.8 2170.01 -290.867 1.8403113e-38
1642.12 2183.2 -290.46201 1.8403113e-38
1525.36 2228.8301 -291.22101 1.8403113e-38
1482.64 2247.8 -292.27701 1.8403113e-38
1461.52 2256.99 -292.73199 1.8403113e-38
1438.48 2263.6001 -292.06799 1.8403113e-38
1394.89 2278.3201 -291.56201 1.8403113e-38
1352.4301 2292.78 -291.11099 1.8403113e-38
1221.33 2340.1001 -290.62799 1.8403113e-38
1019.54 2416.27 -291.026 1.8403113e-38
1029.49 2413.79 -291.444 1.8403113e-38
1039.4301 2411.24 -291.832 1.8403113e-38
932.55402 2446.5601 -290.332 1.8403113e-38
942.44501 2443.9199 -290.68301 1.8403113e-38
954.026 2447.54 -293.38901 1.8403113e-38
903.97601 2459.53 -291.13101 1.8403113e-38
922.862 2450.04 -290.29001 1.8403113e-38
874.92902 2471.8201 -291.642 1.8403113e-38
885.77399 2473.3401 -293.53299 1.8403113e-38
897.25098 2477.51 -296.414 1.8403113e-38
814.875 2489.6599 -290.11301 1.8403113e-38
835.35901 2486.21 -291.53299 1.8403113e-38
855.95099 2483.3501 -293.168 1.8403113e-38
867.33197 2487.8101 -296.133 1.8403113e-38
805.08301 2495 -290.694 1.8403113e-38
826.59698 2498.24 -294.52499 1.8403113e-38
848 2499.23 -297.578 1.8403113e-38
785.45898 2507.3401 -292.41199 1.8403113e-38
795.75098 2504.95 -292.90399 1.8403113e-38
744.09802 2516.96 -290.452 1.8403113e-38
754.64697 2516.8 -291.73401 1.8403113e-38
765.20697 2516.55 -292.987 1.8403113e-38
775.41302 2512.45 -292.883 1.8403113e-38
723.46301 2525.52 -290.75299 1.8403113e-38
702.659 2536.5801 -291.888 1.8403113e-38
713.06702 2530.1399 -291.013 1.8403113e-38
734.34802 2530.24 -293.74399 1.8403113e-38
660.03198 2547.28 -290.134 1.8403113e-38
681.43298 2542.5701 -291.24301 1.8403113e-38
692.12299 2541.98 -292.396 1.8403113e-38
649.22803 2553.29 -290.814 1.8403113e-38
670.789 2553.49 -293.616 1.8403113e-38
616.28198 2568.8899 -291.95901 1.8403113e-38
627.34399 2564.0901 -291.72601 1.8403113e-38
638.29999 2560.1499 -291.771 1.8403113e-38
594.02301 2576.3101 -291.66901 1.8403113e-38
604.94702 2577.3799 -293.42001 1.8403113e-38
559.91199 2589.5901 -291.87399 1.8403113e-38
582.53802 2583.6799 -292.72501 1.8403113e-38
537.17603 2594.1899 -290.55801 1.8403113e-38
548.565 2591.9399 -291.23499 1.8403113e-38
570.92102 2590.9399 -293.73001 1.8403113e-38
513.68903 2603.1201 -290.62701 1.8403113e-38
524.77197 2604.8501 -292.62201 1.8403113e-38
477.90799 2615.29 -290.242 1.8403113e-38
489.33401 2615.4199 -291.73599 1.8403113e-38
500.63 2616.3999 -293.50201 1.8403113e-38
464.819 2625.4199 -292.03699 1.8403113e-38
440.59299 2631.23 -290.94699 1.8403113e-38
451.54001 2635.4299 -293.76801 1.8403113e-38
427.242 2640.0701 -292.271 1.8403113e-38
321.77701 2678.47 -291.99899 1.8403113e-38
265.32101 2699.3401 -291.95901 1.8403113e-38
280.27899 2692.02 -291.358 1.8403113e-38
237.89301 2704.3999 -290.20599 1.8403113e-38
206.468 2719.8701 -291.50201 1.8403113e-38
221.96001 2713.1299 -291.164 1.8403113e-38
177.011 2727.48 -290.35999 1.8403113e-38
191.149 2725.5601 -291.5 1.8403113e-38
95.870903 2758.28 -290.57901 1.8403113e-38
126.852 2751.3 -292.12601 1.8403113e-38
79.675697 2762.8799 -290.09399 1.8403113e-38
-85.814301 2825.24 -290.384 1.8403113e-38
-67.949303 2821.3999 -291.341 1.8403113e-38
-105.611 2832.3201 -290.29099 1.8403113e-38
-168.888 2857.3701 -290.81201 1.8403113e-38
-233.41901 2879.4399 -290.15701 1.8403113e-38
-280.78201 2898.46 -290.642 1.8403113e-38
1809.4399 2101.73 -283.884 1.8403113e-38
1788.75 2116.97 -286.45999 1.8403113e-38
1802.34 2111.49 -286.315 1.8403113e-38
1763.14 2128.51 -287.151 1.8403113e-38
1771.98 2120.1399 -285.41501 1.8403113e-38
1715.36 2137.9399 -284.30701 1.8403113e-38
1747.1801 2131.8601 -286.26901 1.8403113e-38
1706.4301 2145.79 -285.854 1.8403113e-38
1739.83 2141.1201 -288.49301 1.8403113e-38
1686.12 2159.5 -287.953 1.8403113e-38
1692.86 2150.1101 -285.60501 1.8403113e-38
1614.65 2175.02 -284.185 1.8403113e-38
1589.87 2183.1399 -283.81299 1.8403113e-38
1607.6801 2183.8 -286.298 1.8403113e-38
1568.64 2193.8799 -284.78699 1.8403113e-38
1582.11 2191.0901 -285.54401 1.8403113e-38
1533.22 2205.8799 -284.388 1.8403113e-38
1547.34 2204.1799 -285.599 1.8403113e-38
1568.48 2208.76 -289.84299 1.8403113e-38
1525.28 2213.3701 -285.93799 1.8403113e-38
1495.11 2229.3501 -287.56201 1.8403113e-38
1505.86 2224.8 -287.37201 1.8403113e-38
1460.22 2239.54 -286.617 1.8403113e-38
1486.96 2236.53 -288.98001 1.8403113e-38
1435.55 2244.0601 -285.02899 1.8403113e-38
1416.52 2254.5 -286.17801 1.8403113e-38
1371.0699 2265.4299 -284.14499 1.8403113e-38
1394.37 2260.9399 -285.565 1.8403113e-38
1411.22 2264.6599 -288.97198 1.8403113e-38
1348.4399 2270.1799 -282.89499 1.8403113e-38
1362.0699 2270.8501 -284.85101 1.8403113e-38
1310.48 2288.28 -284.255 1.8403113e-38
1292.15 2297.98 -285.23999 1.8403113e-38
1325.66 2291.73 -287.358 1.8403113e-38
1338.17 2291.1899 -288.76099 1.8403113e-38
1249.1 2306.8401 -282.80399 1.8403113e-38
1265.465 2304.1099 -283.94702 1.8403113e-38
1285.55 2306.6299 -287.354 1.8403113e-38
1307.78 2302.47 -288.754 1.8403113e-38
1218.4 2314.8 -281.62701 1.8403113e-38
1232.51 2318.7 -284.74701 1.8403113e-38
1243.79 2317.6201 -285.80801 1.8403113e-38
1200.72 2324.54 -282.70901 1.8403113e-38
1173.91 2338.6101 -284.10699 1.8403113e-38
1182.88 2333.99 -283.67099 1.8403113e-38
1133.9399 2348.71 -282.48599 1.8403113e-38
1141.33 2341.05 -280.81 1.8403113e-38
1152.02 2340.0601 -281.828 1.8403113e-38
1164.89 2343.1499 -284.513 1.8403113e-38
1198.64 2341.6599 -288.285 1.8403113e-38
1088.12 2369.03 -283.60699 1.8403113e-38
1098.48 2367.7 -284.46701 1.8403113e-38
1106.55 2361.1299 -283.24799 1.8403113e-38
1130.4399 2364.8401 -287.543 1.8403113e-38
1081.38 2378.9399 -286.134 1.8403113e-38
1041.5 2387.45 -283.98099 1.8403113e-38
1052.9 2389.1899 -286.01801 1.8403113e-38
1060.59 2381.1899 -284.263 1.8403113e-38
1074.14 2387.96 -288.29099 1.8403113e-38
998.17297 2416.48 -288.39099 1.8403113e-38
1008.1 2414.1899 -288.86899 1.8403113e-38
979.90302 2426.21 -289.39301 1.8403113e-38
989.90002 2424.0801 -289.93201 1.8403113e-38
961.151 2434.76 -289.92999 1.8403113e-38
970.68201 2430.97 -289.84698 1.8403113e-38
912.50098 2450.7 -289.19901 1.8403113e-38
405.841 2629.3201 -285.89099 1.8403113e-38
418.349 2625.3701 -286.12799 1.8403113e-38
393.25101 2633.1599 -285.60501 1.8403113e-38
354.99899 2644.01 -284.45499 1.8403113e-38
367.82901 2640.51 -284.88699 1.8403113e-38
379.31601 2642.49 -287.01999 1.8403113e-38
338.31601 2662.25 -288.56299 1.8403113e-38
309.983 2676.02 -289.668 1.8403113e-38
295.86499 2681.78 -289.84299 1.8403113e-38
253.07201 2697.3401 -289.72501 1.8403113e-38
146.836 2735.4199 -289.242 1.8403113e-38
162.142 2731.0701 -289.69901 1.8403113e-38
114.827 2746.3501 -288.91299 1.8403113e-38
62.980801 2768.2 -289.793 1.8403113e-38
47.331699 2770.7 -288.66199 1.8403113e-38
9.67801 2788.4199 -289.93301 1.8403113e-38
28.003799 2780.98 -289.71899 1.8403113e-38
-24.5207 2796.6001 -288.388 1.8403113e-38
-8.4034204 2794.79 -289.81201 1.8403113e-38
-43.73 2804.3401 -288.59299 1.8403113e-38
-122.343 2833.21 -288.47 1.8403113e-38
-144.308 2843.29 -289.12601 1.8403113e-38
-206.633 2863.6299 -288.16199 1.8403113e-38
-187.94901 2861.02 -289.64099 1.8403113e-38
-255.464 2886.5901 -289.80099 1.8403113e-38
-299.578 2899.3101 -288.54901 1.8403113e-38
-325.86401 2911.46 -289.35901 1.8403113e-38
-350.81601 2920.8401 -289.396 1.8403113e-38
-400.849 2937.9099 -288.875 1.8403113e-38
-377.629 2932.3701 -289.92801 1.8403113e-38
-428.70401 2949.6201 -289.33801 1.8403113e-38
-454.569 2957.8 -288.84698 1.8403113e-38
-482.367 2968.05 -288.82001 1.8403113e-38
-511.578 2979.55 -289.039 1.8403113e-38
-540.47699 2989.8999 -288.90601 1.8403113e-38
-573.79303 3005.3701 -289.95801 1.8403113e-38
-603.25098 3014.98 -289.50101 1.8403113e-38
-632.34998 3023.45 -288.703 1.8403113e-38
-662.29401 3032.3401 -287.93701 1.8403113e-38
-699.31201 3049.24 -289.01001 1.8403113e-38
-736.08502 3064.9099 -289.69101 1.8403113e-38
-769.41199 3075.5801 -289.10699 1.8403113e-38
-839.48401 3098.6299 -288.086 1.8403113e-38
-807.50598 3091.0701 -289.55899 1.8403113e-38
-878.23401 3113.1699 -288.13199 1.8403113e-38
-914.69202 3124.28 -287.297 1.8403113e-38
-956.11603 3140 -287.40799 1.8403113e-38
-997.91602 3155.1699 -287.284 1.8403113e-38
-1040.09 3169.79 -286.92401 1.8403113e-38
-1085.36 3186.6899 -286.94901 1.8403113e-38
-1132.4301 3204.3999 -287.01999 1.8403113e-38
-1177.83 3219.3701 -286.37 1.8403113e-38
-1220.0699 3230.26 -284.729 1.8403113e-38
-1263.34 3241.28 -283.00299 1.8403113e-38
-1327 3270.8301 -285.01401 1.8403113e-38
-1385.51 3294.0701 -285.522 1.8403113e-38
1112.1899 2349.3701 -279.953 1.8403113e-38
-1332.28 3213.2 -264.68201 1.8403113e-38
-1202.8101 3065.5 -230.70799 1.8403113e-38
-1197.55 3032.6799 -220.177 1.8403113e-38
-1226.17 3030.0901 -215.664 1.8403113e-38
-1247.34 3020.6699 -209.767 1.8403113e-38
-1205.58 2957.8301 -193.623 1.8403113e-38
1520.3101 1907.58 -180.98199 1.8403113e-38
-1204.0601 2930.04 -184.33701 1.8403113e-38
-2880.0801 3563.8201 -188.02699 1.8403113e-38
-1228.59 2897.8899 -170.257 1.8403113e-38
-1209.1 2908.05 -176.192 1.8403113e-38
-2868.8501 3516.8799 -173.435 1.8403113e-38
-1283.11 2915.25 -169.26601 1.8403113e-38
-1364.16 2925.29 -162.412 1.8403113e-38
-1341.97 2934.8799 -168.498 1.8403113e-38
-1361.64 2896.9199 -153.056 1.8403113e-38
-3468.46 3697.6699 -159.08 1.8403113e-38
1428.98 1832.14 -143.66299 1.8403113e-38
1435.17 1845.16 -148.88901 1.8403113e-38
-1364.36 2872.8401 -144.493 1.8403113e-38
-3467.1001 3652.3999 -143.806 1.8403113e-38
1423.09 1815.075 -137.09351 1.8403113e-38
-1351.49 2837.71 -134.13901 1.8403113e-38
1405.8 1783.4301 -124.106 1.8403113e-38
1408.49 1793.51 -127.886 1.8403113e-38
-1362.46 2820.21 -126.778 1.8403113e-38
-3461.72 3605.3999 -128.452 1.8403113e-38
1398.0601 1746.15 -110.407 1.8403113e-38
1395.505 1757.035 -113.7955 1.8403113e-38
1400.4301 1772.0601 -119.547 1.8403113e-38
-1367.55 2798.6299 -118.771 1.8403113e-38
-2293.5701 3135.1399 -116.149 1.8403113e-38
1381.75 1722.25 -100.182 1.8403113e-38
1399.09 1738.62 -107.966 1.8403113e-38
-1368.74 2749.9299 -102.005 1.8403113e-38
-1360.08 2768.6001 -109.471 1.8403113e-38
-2311.97 3113.0601 -106.282 1.8403113e-38
-3389.6001 3523.55 -109.675 1.8403113e-38
1479.34 1669.1801 -94.453102 1.8403113e-38
1438.4399 1677.36 -92.058197 1.8403113e-38
1452.36 1674.95 -93.000702 1.8403113e-38
1479.98 1677.41 -97.341499 1.8403113e-38
1392.87 1689.16 -90.303902 1.8403113e-38
1421.47 1685.99 -92.848503 1.8403113e-38
1430.87 1682.09 -92.711502 1.8403113e-38
1392.37 1696.49 -92.7435 1.8403113e-38
1413.86 1690.5 -93.424103 1.8403113e-38
1382.225 1703.3049 -93.779755 1.8403113e-38
1379.03 1713.24 -96.765602 1.8403113e-38
-1383.85 2735.6201 -95.208 1.8403113e-38
-1438.91 2747.29 -92.204697 1.8403113e-38
-2365.6899 3111.1201 -98.810204 1.8403113e-38
-3447.5701 3511.1599 -98.097702 1.8403113e-38
1462.09 1639.8199 -82.249001 1.8403113e-38
1468.5699 1649.6899 -86.439697 1.8403113e-38
1465.75 1656.47 -88.394203 1.8403113e-38
-1529.76 2755.45 -83.469803 1.8403113e-38
-3465.51 3477.5701 -84.362503 1.8403113e-38
1453.1 1614.4301 -72.447502 1.8403113e-38
1455.26 1622.53 -75.483704 1.8403113e-38
1457.33 1630.6899 -78.5289 1.8403113e-38
2948.8701 1029.15 -62.446201 1.8403113e-38
2943.25 1049.2 -68.572701 1.8403113e-38
1444.835 1586.575 -61.895103 1.8403113e-38
1449.45 1598.6899 -66.614197 1.8403113e-38
1447.1 1605.29 -68.569099 1.8403113e-38
-3458.98 3431.78 -69.567101 1.8403113e-38
2946.4199 1010.26 -55.691002 1.8403113e-38
1428.86 1557.9 -50.088299 1.8403113e-38
1429.74 1565.03 -52.631699 1.8403113e-38
1444.77 1575.85 -58.228802 1.8403113e-38
-3463.6201 3391.9299 -55.383099 1.8403113e-38
2951.8201 970.64801 -42.861599 1.8403113e-38
2955.6101 989.40503 -49.7416 1.8403113e-38
1420.02 1535.51 -41.326599 1.8403113e-38
1425.92 1543.54 -44.815601 1.8403113e-38
1430.77 1551.47 -48.136002 1.8403113e-38
-3519.23 3376.71 -43.138199 1.8403113e-38
2962.3401 929.66302 -30.213301 1.8403113e-38
2955.71 950.48102 -36.4744 1.8403113e-38
1415.84 1508.15 -31.4634 1.8403113e-38
1416.26 1514.8101 -33.787201 1.8403113e-38
1414.6899 1521.11 -35.737701 1.8403113e-38
1423.65 1529.55 -39.753601 1.8403113e-38
2956.05 911.29401 -23.148899 1.8403113e-38
1405.42 1487 -22.9272 1.8403113e-38
1402.16 1492.9 -24.5243 1.8403113e-38
1412.4399 1501.03 -28.6029 1.8403113e-38
2963.46 870.30603 -10.1051 1.8403113e-38
2968.1599 889.08801 -17.1087 1.8403113e-38
1398.49 1476.4751 -18.45685 1.8403113e-38
-3247.1299 3207.27 -19.8353 1.8403113e-38
2968.3301 849.354 -3.5743699 1.8403113e-38
1901.78 1250.17 -5.06848 1.8403113e-38
1364.8199 1439 -1.39979 1.8403113e-38
1386.3101 1434.85 -2.7095699 1.8403113e-38
1343.42 1448.5699 -1.95304 1.8403113e-38
1359.05 1444.36 -2.4967401 1.8403113e-38
1347.39 1454.8101 -4.5857801 1.8403113e-38
1354.22 1461.5 -7.7335601 1.8403113e-38
-3249.6399 3169.4199 -6.6041498 1.8403113e-38
2979.3899 806.66199 9.5886002 1.8403113e-38
2972.99 828.29797 3.0181301 1.8403113e-38
1744.83 1275.08 6.336 1.8403113e-38
1639.87 1309.2 8.0037003 1.8403113e-38
1629.1801 1317.95 6.3748698 1.8403113e-38
1641.24 1325.35 2.32023 1.8403113e-38
1377.75 1404.1801 8.8392096 1.8403113e-38
1377.2 1410.12 6.8798699 1.8403113e-38
1382.53 1416.41 4.0610299 1.8403113e-38
1383.99 1425.545 0.75857556 1.8403113e-38
-3248.1101 3130 6.6479301 1.8403113e-38
2984.6001 785.14001 16.2705 1.8403113e-38
1724.78 1259.24 14.282 1.8403113e-38
1669.95 1290.41 10.5981 1.8403113e-38
1636.6 1301.33 11.1028 1.8403113e-38
1491.39 1339.91 16.356001 1.8403113e-38
1374.09 1386.26 15.4168 1.8403113e-38
1380.37 1380.39 16.623301 1.8403113e-38
1376.47 1395.21 12.060699 1.8403113e-38
-3356.9399 3139.3101 17.274099 1.8403113e-38
2978.96 766.302 23.4121 1.8403113e-38
1626.35 1253.9301 28.574499 1.8403113e-38
1619.17 1262.83 26.447701 1.8403113e-38
1369.245 1353.9399 27.0585 1.8403113e-38
1364.98 1368.62 22.588699 1.8403113e-38
1371.09 1362.6899 23.837799 1.8403113e-38
1366.75 1374.45 20.3769 1.8403113e-38
2989.3101 722.59698 37.010799 1.8403113e-38
2984.73 744.37701 30.1609 1.8403113e-38
-3341.1899 3093.3501 30.9554 1.8403113e-38
3014.79 694.586 43.3353 1.8403113e-38
-3308.3101 3040.8 44.7145 1.8403113e-38
3021.79 650.43701 57.509899 1.8403113e-38
3021.76 671.55798 50.308601 1.8403113e-38
-3305.3401 3001.3999 57.780399 1.8403113e-38
3024.48 628.37097 64.697197 1.8403113e-38
3037.72 581.13098 79.134804 1.8403113e-38
3026 606.53003 71.956398 1.8403113e-38
-3299.1699 2961.03 70.769699 1.8403113e-38
3038.77 559.07397 86.527397 1.8403113e-38
-3317.71 2930.6799 83.475403 1.8403113e-38
3047.1299 534.29102 93.9217 1.8403113e-38
-3365.8999 2911.52 96.123398 1.8403113e-38
3049.9299 489.056 109 1.8403113e-38
3050.53 511.02899 101.427 1.8403113e-38
-3368.0601 2874.5801 108.999 1.8403113e-38
