# .PCD v0.7 - Point Cloud Data file format
VERSION 0.7
FIELDS x y z rgb
SIZE 4 4 4 4
TYPE F F F F
COUNT 1 1 1 1
WIDTH 357
HEIGHT 1
VIEWPOINT 0 0 0 1 0 0 0
POINTS 357
DATA ascii
-931.09198 572.21698 -280.01199 1.8403113e-38
-937.745 603.97198 -281.17999 1.8403113e-38
-942.35699 639.28802 -281.47101 1.8403113e-38
-946.85999 673.63 -281.76001 1.8403113e-38
-948.39801 713.25201 -280.771 1.8403113e-38
-953.12299 744.74597 -281.25101 1.8403113e-38
-958.67902 773.51898 -282.13901 1.8403113e-38
-959.06097 811.93298 -280.77802 1.8403113e-38
-964.61102 838.80902 -281.73801 1.8403113e-38
-969.78998 865.64301 -282.565 1.8403113e-38
-977.328 887.224 -284.45099 1.8403113e-38
-975.797 925.21399 -282.414 1.8403113e-38
-980.28497 951.005 -283.03201 1.8403113e-38
-1071.84 1746.47 -285.121 1.8403113e-38
-1071.6801 1762.04 -284.45499 1.8403113e-38
-1073.54 1775.6899 -284.59698 1.8403113e-38
-1082.4301 1884.15 -283.582 1.8403113e-38
-1094.38 1903.11 -287.16501 1.8403113e-38
-1076.75 1901.83 -280.83801 1.8403113e-38
-1092.35 1918 -285.85001 1.8403113e-38
-1094.91 1929.64 -286.32401 1.8403113e-38
-1098.96 1940.24 -287.37399 1.8403113e-38
-1100.5 1952.39 -287.45901 1.8403113e-38
-1102.73 1964.01 -287.81201 1.8403113e-38
-1103.23 1976.62 -287.5 1.8403113e-38
-1097.9 1992.6 -284.948 1.8403113e-38
-1103.02 2002.1801 -286.42801 1.8403113e-38
-1099.85 2016.54 -284.71799 1.8403113e-38
-1102.15 2039.89 -284.64001 1.8403113e-38
-1097.34 2030.3199 -283.272 1.8403113e-38
-1111.54 2059.1499 -287.28601 1.8403113e-38
-1098.55 2054 -282.785 1.8403113e-38
-1109.39 2072.3201 -285.99301 1.8403113e-38
-1105.4 2086.26 -284.008 1.8403113e-38
-1102.97 2099.24 -282.621 1.8403113e-38
-1116.59 2104.3201 -287.35001 1.8403113e-38
-1112.24 2118.0901 -285.23999 1.8403113e-38
-1114.61 2128.5701 -285.69 1.8403113e-38
-1110 2142.1499 -283.48999 1.8403113e-38
-1115.63 2151.0601 -285.17899 1.8403113e-38
-1120.3199 2160.3999 -286.51099 1.8403113e-38
-1116.22 2173.4299 -284.51999 1.8403113e-38
-1110.23 2187.05 -281.823 1.8403113e-38
-1117.27 2195.3201 -284.04599 1.8403113e-38
-1111.04 2208.77 -281.26801 1.8403113e-38
-1113.51 2218.76 -281.76999 1.8403113e-38
-1116.77 2228.45 -282.57401 1.8403113e-38
-1116.4 2239.4199 -282.01199 1.8403113e-38
-1116.83 2250.04 -281.75 1.8403113e-38
-1118.05 2260.3501 -281.789 1.8403113e-38
-1123.29 2274.665 -283.129 1.8403113e-38
-1122.0699 2290.95 -282.05301 1.8403113e-38
-1119.3199 2302.29 -280.61499 1.8403113e-38
-1127.34 2310.49 -283.19601 1.8403113e-38
-1128.04 2320.78 -283.047 1.8403113e-38
-1130.47 2330.5901 -283.543 1.8403113e-38
-1130.08 2341.1001 -282.99301 1.8403113e-38
-1130.51 2351.3701 -282.74899 1.8403113e-38
-1137.27 2360.1299 -284.853 1.8403113e-38
-1137.54 2370.4199 -284.54901 1.8403113e-38
-1134.97 2381.28 -283.19299 1.8403113e-38
-1145.21 2399.77 -286.17899 1.8403113e-38
-1135.98 2391.3301 -283.16699 1.8403113e-38
-1132.2 2412.4399 -280.97699 1.8403113e-38
-1134.8 2422.1101 -281.54099 1.8403113e-38
-1136.05 2462.23 -280.427 1.8403113e-38
-1142.51 2501.54 -281.23001 1.8403113e-38
-1144.39 2511.3701 -281.52701 1.8403113e-38
-1216.99 3213.05 -280.41699 1.8403113e-38
-1227.49 3300.0601 -280.82101 1.8403113e-38
-811.21802 -310.13101 -271.064 1.8403113e-38
-835.98102 -305.73801 -279.854 1.8403113e-38
-866.987 97.391899 -275.34299 1.8403113e-38
-880.32501 127.697 -278.987 1.8403113e-38
-879.13599 200.24899 -275.72501 1.8403113e-38
-1053.78 1806.87 -276.23001 1.8403113e-38
-1045.51 1828.03 -272.41199 1.8403113e-38
-1062.48 1884.89 -276.33499 1.8403113e-38
-1047.99 1881.95 -271.20401 1.8403113e-38
-1126.2 2433.6399 -277.978 1.8403113e-38
-1129.5601 2443.1299 -278.823 1.8403113e-38
-1133.77 2452.52 -279.98199 1.8403113e-38
-1135.46 2472.3301 -279.81799 1.8403113e-38
-1131.04 2482.8301 -277.81 1.8403113e-38
-1137.74 2492.04 -279.87701 1.8403113e-38
-1138.7 2521.8201 -279.06 1.8403113e-38
-1142.29 2531.49 -279.98199 1.8403113e-38
-1134.55 2541.9099 -276.77301 1.8403113e-38
-1135.16 2551.75 -276.61099 1.8403113e-38
-1142.27 2561.3 -278.81 1.8403113e-38
-1136.14 2571.4199 -276.20001 1.8403113e-38
-1134.64 2581.3101 -275.26801 1.8403113e-38
-1145.27 2590.98 -278.73801 1.8403113e-38
-1137.96 2600.95 -275.703 1.8403113e-38
-1145.61 2610.8301 -278.08701 1.8403113e-38
-1146.6 2620.77 -278.05701 1.8403113e-38
-1145.62 2630.6799 -277.31799 1.8403113e-38
-1152.09 2640.8101 -279.263 1.8403113e-38
-1151.89 2650.79 -278.802 1.8403113e-38
-1150.67 2660.72 -277.97299 1.8403113e-38
-1150.3101 2670.6799 -277.45401 1.8403113e-38
-1147.05 2680.4399 -275.89301 1.8403113e-38
-1153.1 2690.8899 -277.67401 1.8403113e-38
-1153.4301 2700.95 -277.401 1.8403113e-38
-1153.6801 2711.02 -277.09698 1.8403113e-38
-1157.59 2721.5 -278.103 1.8403113e-38
-1149.24 2730.6599 -274.724 1.8403113e-38
-1153.91 2741.3 -276.00101 1.8403113e-38
-1154.76 2751.53 -275.90799 1.8403113e-38
-1161.12 2762.5901 -277.77899 1.8403113e-38
-1156.2 2772.0601 -275.62601 1.8403113e-38
-1167.03 2784.03 -279.07999 1.8403113e-38
-1168.45 2794.6001 -279.17999 1.8403113e-38
-1161.41 2803.7 -276.28 1.8403113e-38
-1162.66 2814.27 -276.319 1.8403113e-38
-1163.8199 2824.8799 -276.32401 1.8403113e-38
-1163.04 2835.1299 -275.64099 1.8403113e-38
-1166.78 2846.3999 -276.55701 1.8403113e-38
-1163.0601 2856.0601 -274.83099 1.8403113e-38
-1164.77 2866.99 -275.02499 1.8403113e-38
-1171.9 2879.3401 -277.12299 1.8403113e-38
-1172.49 2890.1699 -276.91599 1.8403113e-38
-1176.65 2902.02 -277.95801 1.8403113e-38
-1175.23 2912.4399 -277.035 1.8403113e-38
-1179.17 2924.4299 -277.996 1.8403113e-38
-1173.01 2933.53 -275.41199 1.8403113e-38
-1176.76 2945.6201 -276.29501 1.8403113e-38
-1183.1 2958.6499 -278.082 1.8403113e-38
-1179.4 2968.5701 -276.353 1.8403113e-38
-1185.5 2981.8 -278.048 1.8403113e-38
-1186.99 2993.5901 -278.12701 1.8403113e-38
-1183.9 3003.8401 -276.608 1.8403113e-38
-1188.75 3017.02 -277.849 1.8403113e-38
-1185.47 3027.28 -276.26001 1.8403113e-38
-1191.85 3041.3101 -278.02399 1.8403113e-38
-1192.79 3053.3701 -277.892 1.8403113e-38
-1189.21 3063.6599 -276.194 1.8403113e-38
-1187.3 3074.6599 -275.073 1.8403113e-38
-1192.29 3088.6699 -276.33401 1.8403113e-38
-1196.27 3102.4299 -277.23599 1.8403113e-38
-1193.15 3113.1399 -275.69101 1.8403113e-38
-1201.2 3129.0601 -277.983 1.8403113e-38
-1198.73 3140.24 -276.64999 1.8403113e-38
-1199.59 3153.0801 -276.45999 1.8403113e-38
-1203.75 3167.6799 -277.396 1.8403113e-38
-1199.23 3178.05 -275.35501 1.8403113e-38
-1212.45 3197.6599 -279.37601 1.8403113e-38
-1207.89 3221.26 -276.80301 1.8403113e-38
-1218.01 3240.03 -279.73499 1.8403113e-38
-1217.0699 3252.8899 -278.89301 1.8403113e-38
-1214.35 3264.8201 -277.44101 1.8403113e-38
-1219.78 3281.6201 -278.75 1.8403113e-38
-1223.52 3311.6399 -278.93301 1.8403113e-38
-1223.52 3325.75 -278.384 1.8403113e-38
-1223.38 3339.9099 -277.78 1.8403113e-38
-1223.09 3354.1201 -277.121 1.8403113e-38
-1227.47 3371.5801 -278.02399 1.8403113e-38
-1229.26 3387.54 -278.048 1.8403113e-38
-1228.49 3401.96 -277.207 1.8403113e-38
-1232.3 3419.74 -277.89401 1.8403113e-38
-1235.92 3437.6499 -278.50201 1.8403113e-38
-1238.54 3455.1101 -278.771 1.8403113e-38
-1234.76 3468.0701 -276.89801 1.8403113e-38
-1234.72 3483.9399 -276.26199 1.8403113e-38
-787.854 -320.07401 -262.99701 1.8403113e-38
-814.20697 -128.82899 -265.07101 1.8403113e-38
-832.92297 133.395 -261.61099 1.8403113e-38
-885.05798 635.21399 -260.89499 1.8403113e-38
-1038.47 1847.8 -269.09299 1.8403113e-38
-1034.2 1865.02 -266.875 1.8403113e-38
-1032 1880.38 -265.48001 1.8403113e-38
-1193.13 3467.99 -261.83499 1.8403113e-38
-1191.47 3482.3999 -260.672 1.8403113e-38
-760.534 -313.37701 -252.85001 1.8403113e-38
-816.72601 111.939 -256.58701 1.8403113e-38
-861.77502 644.93597 -252.09 1.8403113e-38
-1176.8 3486.5701 -255.2 1.8403113e-38
-1173.42 3499.71 -253.463 1.8403113e-38
-1172.89 3515.3201 -252.662 1.8403113e-38
-1169.22 3528.48 -250.82001 1.8403113e-38
-733.38501 -306.39499 -242.752 1.8403113e-38
-795.57599 106.775 -249.13499 1.8403113e-38
-773.336 105.63 -241.132 1.8403113e-38
-840.15601 651.26801 -244.02 1.8403113e-38
-971.75403 1818.79 -246.08099 1.8403113e-38
-1157.3101 3534.6899 -246.27 1.8403113e-38
-1157.8199 3551.6001 -245.793 1.8403113e-38
-708.09497 -306.89801 -233.62 1.8403113e-38
-807.177 475.405 -238.948 1.8403113e-38
-806.33398 534.68903 -236.32899 1.8403113e-38
-809.81 631.37903 -233.814 1.8403113e-38
-819.05798 656.92999 -236.164 1.8403113e-38
-681.63599 -301.31699 -223.828 1.8403113e-38
-797.17499 614.203 -229.912 1.8403113e-38
-656.29797 -300.341 -214.621 1.8403113e-38
-823.31598 1265.62 -213.952 1.8403113e-38
-897.974 1870.53 -217.36301 1.8403113e-38
-879.745 1873.83 -210.638 1.8403113e-38
-1069.54 3489.8799 -216.257 1.8403113e-38
-631.58801 -302.04599 -205.745 1.8403113e-38
-808.70502 1459.84 -201.086 1.8403113e-38
-853.35553 1825.02 -202.993 1.8403113e-38
-859.62598 1839.4 -204.701 1.8403113e-38
-861.138 1851.45 -204.778 1.8403113e-38
-863.75 1875.45 -204.786 1.8403113e-38
-605.82703 -297.64499 -196.252 1.8403113e-38
-799.69202 1452.12 -198.125 1.8403113e-38
-784.47302 1454.46 -192.526 1.8403113e-38
-834.21948 1816.79 -196.39 1.8403113e-38
-848.54498 1876.66 -199.237 1.8403113e-38
-582.065 -303.76901 -187.89101 1.8403113e-38
-748.28998 1424.08 -180.618 1.8403113e-38
-761.79303 1447.11 -184.606 1.8403113e-38
-772.37799 1451.98 -188.24699 1.8403113e-38
-769.76501 1541.11 -183.823 1.8403113e-38
-764.41101 1588.26 -180.045 1.8403113e-38
-989.55298 3433.1201 -189.52699 1.8403113e-38
-370.23599 -1920.99 -174.345 1.8403113e-38
-557.10901 -302.802 -178.823 1.8403113e-38
-748.72998 1446.5699 -179.89999 1.8403113e-38
-761.86798 1572.87 -179.726 1.8403113e-38
-755.711 1619.64 -175.673 1.8403113e-38
-757.72302 1634.86 -175.80701 1.8403113e-38
-755.58099 1655.5601 -174.224 1.8403113e-38
-753.15002 1676.15 -172.541 1.8403113e-38
-776.87903 1856.84 -174.077 1.8403113e-38
-934.17603 3396.7 -170.909 1.8403113e-38
-334.366 -1947.99 -162.418 1.8403113e-38
-531.59601 -297.66 -169.39 1.8403113e-38
-506.94299 -297.19101 -160.45 1.8403113e-38
-745.22803 1703.63 -168.60201 1.8403113e-38
-748.60199 1715.4 -169.36301 1.8403113e-38
-750.06097 1729.47 -169.342 1.8403113e-38
-753.13397 1741.2 -169.99699 1.8403113e-38
-760.82202 1860.9301 -168.10699 1.8403113e-38
-744.245 1865.98 -161.911 1.8403113e-38
-970.28497 3974.74 -161.41901 1.8403113e-38
-971.38397 4001.9299 -160.756 1.8403113e-38
-482.06 -294.513 -151.342 1.8403113e-38
-725.26801 1791.55 -157.948 1.8403113e-38
-721.63898 1810.49 -155.896 1.8403113e-38
-724.18298 1835.36 -155.84599 1.8403113e-38
-713.43402 1834.5 -151.989 1.8403113e-38
-736.90198 1847.6899 -159.967 1.8403113e-38
-717.99298 1856.1801 -152.793 1.8403113e-38
-737.41803 1860.4399 -159.657 1.8403113e-38
-878.03699 3358 -152.104 1.8403113e-38
-959.46802 4009.1899 -156.16 1.8403113e-38
-964.64697 4044.05 -156.674 1.8403113e-38
-297.06601 -1953.74 -149.145 1.8403113e-38
-457.91199 -296.534 -142.68201 1.8403113e-38
-854.30798 3348.54 -143.886 1.8403113e-38
-851.073 3358.3601 -142.332 1.8403113e-38
-259.539 -1955.15 -135.62 1.8403113e-38
-433.39999 -295.36099 -133.76601 1.8403113e-38
-836.633 3357.22 -137.151 1.8403113e-38
-831.90302 3365.55 -135.11501 1.8403113e-38
-836.65198 3383.6001 -136.129 1.8403113e-38
-824.237 3384.21 -131.612 1.8403113e-38
-827.30603 3400.96 -132.069 1.8403113e-38
-828.82703 3416.3999 -132.017 1.8403113e-38
-408.60101 -290.98401 -124.621 1.8403113e-38
-822.23499 3423.26 -129.364 1.8403113e-38
-816.23901 3430.79 -126.9 1.8403113e-38
-808.88 3436.8 -124.003 1.8403113e-38
-805.96997 3447.9099 -122.516 1.8403113e-38
-800.38898 3456.04 -120.179 1.8403113e-38
-384.85901 -295.29001 -116.197 1.8403113e-38
-790.32001 3458.8799 -116.425 1.8403113e-38
-792.10797 3475.97 -116.405 1.8403113e-38
-791.19897 3490.1101 -115.524 1.8403113e-38
-788.065 3566.95 -111.392 1.8403113e-38
-829.396 3738.3799 -119.658 1.8403113e-38
-333.04999 -547.52899 -107.292 1.8403113e-38
-346.55099 -406.564 -106.677 1.8403113e-38
-360.979 -298.384 -107.677 1.8403113e-38
-768.71503 3477.4099 -107.883 1.8403113e-38
-759.19702 3480.6101 -104.314 1.8403113e-38
-778.41803 3521.0901 -109.69 1.8403113e-38
-776.88599 3535.3201 -108.581 1.8403113e-38
-784.87 3579.77 -109.735 1.8403113e-38
-775.78699 3584.6001 -106.26 1.8403113e-38
-771.20801 3595.78 -104.167 1.8403113e-38
-781.05798 3628.02 -106.473 1.8403113e-38
-768.84998 3628.7 -102.029 1.8403113e-38
-771.88397 3753.8601 -98.242599 1.8403113e-38
-109.334 -1937.33 -80.569397 1.8403113e-38
-197.136 -1181.61 -82.852203 1.8403113e-38
-141.004 -1575.72 -77.919197 1.8403113e-38
-71.985497 -1970.98 -68.366898 1.8403113e-38
-34.409599 -1969.3 -54.7038 1.8403113e-38
-157.561 -829.53101 -54.792099 1.8403113e-38
3.16471 -1969.28 -41.105801 1.8403113e-38
40.961399 -1977.89 -27.764601 1.8403113e-38
-573.97302 3773.4199 -25.8606 1.8403113e-38
-564.42902 3777.8601 -22.2335 1.8403113e-38
-563.86401 3804.3301 -20.9963 1.8403113e-38
78.661797 -1979.17 -14.1716 1.8403113e-38
-510.56699 3337.1101 -19.941401 1.8403113e-38
-491.22198 3332.03 -13.1397 1.8403113e-38
-505.599 3342.74 -17.923901 1.8403113e-38
-560.69202 3825.3201 -19.029301 1.8403113e-38
-560.45599 3854.6799 -17.7981 1.8403113e-38
-556.95001 3876.6799 -15.671 1.8403113e-38
-561.06201 3920.1899 -15.4612 1.8403113e-38
-555.37799 3938.55 -12.6875 1.8403113e-38
-557.01801 3978.53 -11.721 1.8403113e-38
116.216 -1976.1 -0.46184 1.8403113e-38
-481.90201 3329.73 -9.8564901 1.8403113e-38
-473.12701 3328.1799 -6.7413502 1.8403113e-38
-465.34799 3328.27 -3.9228799 1.8403113e-38
-456.20499 3325.6499 -0.71679902 1.8403113e-38
-548.68903 3991.27 -8.2097397 1.8403113e-38
-550.883 4036.1299 -7.2532001 1.8403113e-38
-546.23798 4062.1399 -4.5571799 1.8403113e-38
-546.58398 4105.2998 -2.99844 1.8403113e-38
-541.88702 4134.25 -0.16896901 1.8403113e-38
-449.87201 3328.1899 1.67387 1.8403113e-38
-443.526 3330.6599 4.0671902 1.8403113e-38
-437.608 3333.97 6.3376198 1.8403113e-38
-435.14099 3344.3501 7.6353102 1.8403113e-38
-433.38599 3356.53 8.7457504 1.8403113e-38
-431.87799 3369.6299 9.8027601 1.8403113e-38
-468.02301 3504.73 1.99466 1.8403113e-38
-538.73297 4169.9102 2.36408 1.8403113e-38
-533.98199 4252.9102 7.3220601 1.8403113e-38
153.823 -1974.6801 13.2025 1.8403113e-38
-430.18201 3382.76 10.929 1.8403113e-38
-430.729 3401.3601 11.4566 1.8403113e-38
-530.89502 4295.4702 10.1 1.8403113e-38
-529.66199 4347.7402 12.586 1.8403113e-38
192.285 -1987.88 26.6057 1.8403113e-38
-410.97198 3773.97 33.1464 1.8403113e-38
226.593 -1934.87 41.089199 1.8403113e-38
262.50201 -1914.47 54.879902 1.8403113e-38
-338.89001 3651.52 54.452301 1.8403113e-38
-292.98999 3533.46 66.455498 1.8403113e-38
-315.44901 3592.6599 60.638199 1.8403113e-38
277.41199 -1644.62 70.805496 1.8403113e-38
-234.07001 3308.26 78.988998 1.8403113e-38
243.92101 -892.80402 88.024002 1.8403113e-38
-212.271 3289.6499 86.151398 1.8403113e-38
-224.49899 3292.05 81.82 1.8403113e-38
-218.677 3292.3501 83.938499 1.8403113e-38
-207.425 3294.74 88.103798 1.8403113e-38
282.517 -989.62097 98.212799 1.8403113e-38
-200.342 3287.99 90.403503 1.8403113e-38
-196.132 3296.9199 92.275299 1.8403113e-38
-183.399 3290.01 96.613098 1.8403113e-38
-178.239 3293.8701 98.631401 1.8403113e-38
-191.45599 3303.8501 94.237801 1.8403113e-38
303.95599 -912.013 108.999 1.8403113e-38
-175.537 3315.51 100.453 1.8403113e-38
-169.196 3312.3601 102.625 1.8403113e-38
-166.495 3337.9299 104.601 1.8403113e-38
-155.562 3349.28 109 1.8403113e-38
-161.88 3350.5801 106.764 1.8403113e-38
