# .PCD v0.7 - Point Cloud Data file format
VERSION 0.7
FIELDS x y z rgb
SIZE 4 4 4 4
TYPE F F F F
COUNT 1 1 1 1
WIDTH 358
HEIGHT 1
VIEWPOINT 0 0 0 1 0 0 0
POINTS 358
DATA ascii
669.81598 1356.2 -270.10699 1.8403113e-38
678.65002 1352.08 -270.52802 1.8403113e-38
532.79199 1441.99 -270.34799 1.8403113e-38
497.87701 1467.91 -271.664 1.8403113e-38
507.86301 1466.11 -273.02399 1.8403113e-38
516.91101 1460.5699 -273.04501 1.8403113e-38
528.06598 1463.17 -275.991 1.8403113e-38
490.18301 1479.77 -273.85501 1.8403113e-38
461.94901 1494.67 -273.047 1.8403113e-38
471.742 1491.3199 -273.88901 1.8403113e-38
433.32001 1509.85 -272.24799 1.8403113e-38
443.76099 1509.53 -274.151 1.8403113e-38
452.82199 1501.66 -273.45901 1.8403113e-38
424.39301 1519.4399 -273.50201 1.8403113e-38
415.17599 1528.04 -274.39301 1.8403113e-38
384.65601 1536.48 -271.147 1.8403113e-38
394.98199 1534.6899 -272.57501 1.8403113e-38
406.35599 1540.33 -276.50201 1.8403113e-38
365.547 1554.92 -273.18399 1.8403113e-38
345.28601 1566.46 -272.86499 1.8403113e-38
355.86401 1564.99 -274.44 1.8403113e-38
376.99301 1561.78 -277.50201 1.8403113e-38
335.42801 1577.33 -274.33499 1.8403113e-38
325.13599 1584.33 -274.52499 1.8403113e-38
303.94199 1592.38 -272.95001 1.8403113e-38
315.01199 1596.01 -276.194 1.8403113e-38
293.492 1602 -273.918 1.8403113e-38
272.01099 1616.22 -274.19501 1.8403113e-38
282.884 1611.53 -274.832 1.8403113e-38
261.15799 1627.5 -275.60101 1.8403113e-38
250.08 1631.0601 -274.57599 1.8403113e-38
227.70599 1642.6801 -273.87799 1.8403113e-38
238.925 1640.26 -275.28201 1.8403113e-38
204.929 1654.9 -273.285 1.8403113e-38
216.217 1655.53 -275.647 1.8403113e-38
193.119 1667.5601 -274.936 1.8403113e-38
169.793 1676.34 -273.17599 1.8403113e-38
181.564 1670.5601 -273.647 1.8403113e-38
157.668 1685.85 -273.789 1.8403113e-38
145.524 1693.34 -273.776 1.8403113e-38
133.25101 1700.73 -273.707 1.8403113e-38
107.827 1719.98 -274.78299 1.8403113e-38
120.579 1710.89 -274.41699 1.8403113e-38
94.807899 1729.92 -275.35901 1.8403113e-38
82.306602 1734.02 -274.229 1.8403113e-38
69.359703 1740.88 -273.86499 1.8403113e-38
55.758701 1751.4399 -274.521 1.8403113e-38
41.967999 1761.88 -275.103 1.8403113e-38
15.8799 1770.02 -272.61499 1.8403113e-38
27.6894 1774.1 -276.14401 1.8403113e-38
1.3045599 1782 -273.52399 1.8403113e-38
-13.3139 1792.9 -274.08899 1.8403113e-38
-27.5816 1800.8101 -273.80099 1.8403113e-38
-57.1605 1819.1 -273.78101 1.8403113e-38
-43.341301 1815.24 -275.237 1.8403113e-38
-71.892899 1826.62 -273.28 1.8403113e-38
-86.986099 1834.95 -272.95999 1.8403113e-38
-102.238 1843.14 -272.56601 1.8403113e-38
-149.685 1869.66 -271.664 1.8403113e-38
-134.66701 1864.73 -273.01901 1.8403113e-38
-120.221 1861.54 -274.80499 1.8403113e-38
-167.911 1885.6801 -273.12201 1.8403113e-38
-183.767 1892.1801 -272.09 1.8403113e-38
-201.95799 1905.99 -272.86899 1.8403113e-38
-220.411 1919.61 -273.54199 1.8403113e-38
-240.293 1936.76 -275.03101 1.8403113e-38
-256.89801 1942.59 -273.647 1.8403113e-38
-277.94199 1961.1899 -275.36301 1.8403113e-38
-297.12399 1973.12 -275.37201 1.8403113e-38
-319.13699 1992.21 -277.052 1.8403113e-38
-338.186 2001.89 -276.39099 1.8403113e-38
-358.45599 2014.12 -276.284 1.8403113e-38
-377.22601 2021.58 -274.98901 1.8403113e-38
-400.07999 2038.85 -275.94601 1.8403113e-38
-424.36301 2058.6001 -277.39301 1.8403113e-38
-446.04501 2070.8401 -277.01901 1.8403113e-38
-467.97601 2082.8501 -276.52499 1.8403113e-38
-493.26099 2101.8101 -277.539 1.8403113e-38
-516.14203 2114.22 -276.98599 1.8403113e-38
-540.89502 2129.95 -277.10199 1.8403113e-38
-567.612 2148.97 -277.85699 1.8403113e-38
-593.02502 2164.1299 -277.67001 1.8403113e-38
2020.3 487.13199 -260.45001 1.8403113e-38
1955.14 527.87402 -260.548 1.8403113e-38
1913.87 553.54102 -260.56799 1.8403113e-38
1874.23 578.11401 -260.56201 1.8403113e-38
1861.08 590.75702 -261.948 1.8403113e-38
1816.17 612.89801 -260.17899 1.8403113e-38
1810.49 625.92902 -263.12 1.8403113e-38
1787.41 636.17902 -261.85999 1.8403113e-38
1766.1899 646.383 -260.94601 1.8403113e-38
1755.47 658.09399 -262.51001 1.8403113e-38
1738.9301 668.60101 -262.586 1.8403113e-38
1725.2 679.40802 -263.293 1.8403113e-38
1684.24 697.61499 -261.06601 1.8403113e-38
1715.2 690.78003 -264.892 1.8403113e-38
1676.03 708.94897 -262.995 1.8403113e-38
1663.01 719.09698 -263.63501 1.8403113e-38
1651.8101 729.50598 -264.70599 1.8403113e-38
1633.97 738.13098 -263.95001 1.8403113e-38
1625.46 748.89398 -265.647 1.8403113e-38
1600.0699 755.07202 -262.685 1.8403113e-38
1591.46 765.474 -264.25 1.8403113e-38
1577.2 774.17798 -264.20599 1.8403113e-38
1561.05 782.13098 -263.56799 1.8403113e-38
1534.21 799.05603 -263.651 1.8403113e-38
1554.11 792.65399 -265.48999 1.8403113e-38
1509.95 816.13599 -264.27899 1.8403113e-38
1537.23 812.57501 -268.41101 1.8403113e-38
1511.87 829.27002 -268.70901 1.8403113e-38
1500.9399 837.99597 -269.31201 1.8403113e-38
1464.55 849.63702 -265.92899 1.8403113e-38
1486.36 845.26501 -268.76099 1.8403113e-38
1445.47 854.71002 -263.836 1.8403113e-38
1444.27 866.53198 -267.26401 1.8403113e-38
1412.29 878.138 -264.716 1.8403113e-38
1427.83 872.27002 -265.884 1.8403113e-38
1408.21 888.65698 -267.186 1.8403113e-38
1388.22 892.26703 -264.46899 1.8403113e-38
1369.28 908.14203 -265.74399 1.8403113e-38
1382.28 901.823 -266.28201 1.8403113e-38
1365.8101 918.745 -268.35599 1.8403113e-38
1337.96 929.83002 -266.44101 1.8403113e-38
1351.02 923.96997 -267.13501 1.8403113e-38
1331.72 938.93701 -268.06 1.8403113e-38
1313.51 941.89301 -265.48001 1.8403113e-38
1294.9 956.46399 -266.41599 1.8403113e-38
1306.34 950.34003 -266.71701 1.8403113e-38
1273.63 969.20502 -266.27499 1.8403113e-38
1286.79 964.27301 -267.27399 1.8403113e-38
1248.16 979.02301 -264.42401 1.8403113e-38
1265.4399 976.79401 -267.052 1.8403113e-38
1243.1899 988.30298 -266.34201 1.8403113e-38
1230.02 992.61499 -265.147 1.8403113e-38
1211.73 1005.8 -265.715 1.8403113e-38
1223.3101 1000.76 -266.38 1.8403113e-38
1191.72 1017.52 -265.50201 1.8403113e-38
1204.13 1013.26 -266.56601 1.8403113e-38
1173.1899 1029.85 -265.759 1.8403113e-38
1181.6801 1023.21 -265.33401 1.8403113e-38
1168.55 1039.11 -267.733 1.8403113e-38
1156.86 1043.41 -266.82001 1.8403113e-38
1135.03 1052.6899 -265.50201 1.8403113e-38
1149.01 1050.34 -267.45801 1.8403113e-38
1116.1899 1063.76 -265.30899 1.8403113e-38
1130.91 1062.27 -267.673 1.8403113e-38
1096.52 1073.8199 -264.646 1.8403113e-38
1114.1899 1074.97 -268.392 1.8403113e-38
1093.64 1084.35 -267.349 1.8403113e-38
1072.34 1092.64 -265.828 1.8403113e-38
1086.26 1091.27 -268.07599 1.8403113e-38
1056.72 1105.42 -266.785 1.8403113e-38
1069.92 1103.6899 -268.78201 1.8403113e-38
1035.35 1112.83 -264.974 1.8403113e-38
1047.09 1110.13 -266.39301 1.8403113e-38
1024.29 1129.45 -267.99399 1.8403113e-38
1033.3199 1124.36 -268.15201 1.8403113e-38
1000.76 1134.08 -264.91101 1.8403113e-38
1013.19 1132.49 -266.80399 1.8403113e-38
994.388 1141.51 -265.98401 1.8403113e-38
978.80603 1153.51 -266.707 1.8403113e-38
989.26398 1150.23 -267.69901 1.8403113e-38
953.20502 1168.91 -266.55899 1.8403113e-38
962.40997 1164.55 -266.97501 1.8403113e-38
972.89502 1161.46 -268.03201 1.8403113e-38
945.87299 1175.29 -267.12201 1.8403113e-38
919.29498 1189.02 -266.26999 1.8403113e-38
926.12402 1182.15 -265.457 1.8403113e-38
939.10901 1182.3 -267.995 1.8403113e-38
909.39203 1192.22 -265.35999 1.8403113e-38
876.77747 1205.1949 -263.11401 1.8403113e-38
893.12701 1202.71 -265.483 1.8403113e-38
905.44501 1202.6 -267.81201 1.8403113e-38
869.03302 1218.65 -265.79001 1.8403113e-38
853.51501 1229.9399 -266.306 1.8403113e-38
860.17603 1222.8199 -265.38 1.8403113e-38
836.73401 1239.4399 -266.02301 1.8403113e-38
845.14099 1234.73 -266.17899 1.8403113e-38
828.82898 1244.86 -266.181 1.8403113e-38
813.92102 1257.05 -267.09299 1.8403113e-38
824.55298 1255.66 -268.702 1.8403113e-38
787.65802 1269.34 -265.854 1.8403113e-38
796.77002 1265.85 -266.52399 1.8403113e-38
806.38 1263.0699 -267.50699 1.8403113e-38
774.69153 1275.615 -265.30548 1.8403113e-38
754.82501 1288.97 -265.62601 1.8403113e-38
764.98499 1287.41 -267.09299 1.8403113e-38
732.00299 1307.13 -266.862 1.8403113e-38
740.42401 1302.51 -267.048 1.8403113e-38
752.46997 1304.38 -269.939 1.8403113e-38
726.58899 1317.52 -269.035 1.8403113e-38
709.875 1327.3101 -268.85699 1.8403113e-38
718.46698 1322.86 -269.13101 1.8403113e-38
692.98798 1336.83 -268.56299 1.8403113e-38
702.07001 1333.37 -269.23499 1.8403113e-38
683.88702 1340.21 -267.862 1.8403113e-38
641.69702 1364.64 -267.319 1.8403113e-38
652.052 1364.22 -269.17801 1.8403113e-38
661.32202 1361.11 -269.996 1.8403113e-38
626.53497 1379.21 -268.91699 1.8403113e-38
633.815 1371.0699 -267.797 1.8403113e-38
617.15198 1382.01 -267.98401 1.8403113e-38
595.97205 1395.335 -268.04053 1.8403113e-38
610.026 1390.9301 -269.375 1.8403113e-38
584.90198 1408.51 -269.991 1.8403113e-38
556.95203 1418.3199 -267.66199 1.8403113e-38
566.57703 1416.03 -268.79999 1.8403113e-38
575.60999 1411.86 -269.24301 1.8403113e-38
538.71503 1426.28 -266.62601 1.8403113e-38
549.98798 1429.58 -269.80801 1.8403113e-38
478.49899 1474.02 -269.836 1.8403113e-38
3097.04 -211.089 -251.108 1.8403113e-38
3035.8401 -173.853 -250.882 1.8403113e-38
2995.6799 -141.842 -253.076 1.8403113e-38
2932.77 -106.352 -251.98199 1.8403113e-38
2882.1899 -74.191498 -252.224 1.8403113e-38
2834.22 -43.3941 -252.54401 1.8403113e-38
2785.95 -13.4186 -252.55299 1.8403113e-38
2742.28 14.9883 -252.959 1.8403113e-38
2701.28 42.227699 -253.51601 1.8403113e-38
2660.02 68.767097 -253.808 1.8403113e-38
2621.46 94.232101 -254.285 1.8403113e-38
2579.73 119.388 -254.056 1.8403113e-38
2547.5801 142.76199 -255.117 1.8403113e-38
2510.3101 166.08701 -255.181 1.8403113e-38
2482.6699 187.875 -256.61499 1.8403113e-38
2429.28 211.336 -253.62601 1.8403113e-38
2416.01 230.86301 -257.11899 1.8403113e-38
2387.8101 251.15401 -257.98499 1.8403113e-38
2360.4299 270.91501 -258.84299 1.8403113e-38
2326 290.56201 -258.31299 1.8403113e-38
2298.3 309.349 -258.80801 1.8403113e-38
2259.6399 328.03 -257.16699 1.8403113e-38
2230.6599 345.82599 -257.11099 1.8403113e-38
2204.5 363.095 -257.43201 1.8403113e-38
2188.03 379.85901 -259.457 1.8403113e-38
2152.77 396.336 -257.78699 1.8403113e-38
2137.03 412.418 -259.73999 1.8403113e-38
2109.3899 428.034 -259.26599 1.8403113e-38
2081.6399 443.19699 -258.63101 1.8403113e-38
2058.6799 458.078 -258.82999 1.8403113e-38
2039.54 472.758 -259.69699 1.8403113e-38
1994.11 500.78299 -259.647 1.8403113e-38
1972.72 514.34698 -259.73801 1.8403113e-38
1930.65 540.53302 -259.76501 1.8403113e-38
1889.23 565.47803 -259.53201 1.8403113e-38
1828.51 600.68201 -258.76801 1.8403113e-38
3121.96 -241.44701 -246.50101 1.8403113e-38
3132.23 -294.26401 -232.136 1.8403113e-38
3126.25 -267.577 -239.243 1.8403113e-38
3126.3799 -318.21399 -223.605 1.8403113e-38
3124.1599 -343.08099 -215.489 1.8403113e-38
-3449.6499 3740.1599 -216.97701 1.8403113e-38
3132.28 -370.73999 -208.493 1.8403113e-38
-465.71899 1862.6899 -208.866 1.8403113e-38
-2925.0601 3361.5601 -200.54201 1.8403113e-38
-3150.4199 3520.4399 -206.438 1.8403113e-38
3138.1399 -423.85101 -193.19099 1.8403113e-38
3125.75 -394.62701 -199.851 1.8403113e-38
-3449.45 3685.02 -199.96201 1.8403113e-38
3133.05 -448.30099 -184.651 1.8403113e-38
-435.89401 1771.03 -186.242 1.8403113e-38
3130.5901 -473.56299 -176.366 1.8403113e-38
-464.44601 1741.29 -171.564 1.8403113e-38
-450.858 1743.12 -174.737 1.8403113e-38
-436.39401 1743.0601 -177.495 1.8403113e-38
3131.6899 -500.00101 -168.40199 1.8403113e-38
-493.53201 1740.6899 -165.799 1.8403113e-38
-480.36801 1743.66 -169.244 1.8403113e-38
-519.664 1760.8101 -167.006 1.8403113e-38
3141.6699 -555.84601 -153.043 1.8403113e-38
3127.8 -524.98499 -159.92799 1.8403113e-38
3138.21 -581.25098 -144.522 1.8403113e-38
3138.28 -607.95001 -136.278 1.8403113e-38
-468.02301 1619.42 -133.186 1.8403113e-38
-465.634 1639.39 -139.82001 1.8403113e-38
3138.0901 -634.698 -127.969 1.8403113e-38
-471.884 1579.6 -120.13 1.8403113e-38
-465.07599 1591.01 -124.965 1.8403113e-38
3137.8501 -688.68298 -111.228 1.8403113e-38
3139.51 -662.177 -119.743 1.8403113e-38
-469.733 1553.87 -112.585 1.8403113e-38
3138.74 -716.28601 -102.86 1.8403113e-38
-474.52802 1539.95 -107.361 1.8403113e-38
-472.19 1494.71 -93.817001 1.8403113e-38
-470.07501 1511.88 -99.532898 1.8403113e-38
-3121.22 3152.99 -98.393898 1.8403113e-38
3045.55 -707.08197 -87.826202 1.8403113e-38
-492.147 1465.4301 -80.930901 1.8403113e-38
-481.745 1469.49 -84.183502 1.8403113e-38
-476.23599 1480.87 -88.760101 1.8403113e-38
-3130.24 3114.3201 -84.704903 1.8403113e-38
-504.81799 1445.72 -72.402298 1.8403113e-38
-500.81699 1458.84 -77.227402 1.8403113e-38
-3201.46 3125.3201 -74.4422 1.8403113e-38
3018.0801 -776.14099 -61.195999 1.8403113e-38
2808.24 -638.224 -63.5872 1.8403113e-38
-550.92603 1435.03 -60.250599 1.8403113e-38
-526.401 1438.62 -66.065804 1.8403113e-38
-510.96399 1435.8101 -68.157997 1.8403113e-38
-541.33502 1440.46 -63.768902 1.8403113e-38
-3232.0701 3103.3899 -61.784801 1.8403113e-38
3139.1101 -883.69702 -51.1549 1.8403113e-38
3134.4099 -853.32898 -59.644299 1.8403113e-38
2795.5 -657.57599 -55.1576 1.8403113e-38
-593.72699 1436.01 -52.341099 1.8403113e-38
-579.81702 1436.37 -55.120098 1.8403113e-38
-564.73199 1435 -57.591301 1.8403113e-38
-613.34198 1442.42 -50.5578 1.8403113e-38
3138.03 -911.745 -42.2733 1.8403113e-38
-658.85699 1443.55 -42.1749 1.8403113e-38
-643.41302 1443.1 -44.998402 1.8403113e-38
-628.66602 1443.23 -47.867901 1.8403113e-38
-3237.1299 3061.6699 -47.911201 1.8403113e-38
-702.20502 1440.12 -32.795898 1.8403113e-38
-688.60199 1442.42 -36.117901 1.8403113e-38
-673.052 1442.3199 -39.071899 1.8403113e-38
-3236.9199 3016.4299 -33.9594 1.8403113e-38
2915.3301 -837.74103 -22.4282 1.8403113e-38
-747.22198 1436.61 -23.074499 1.8403113e-38
-716.49799 1438.39 -29.5203 1.8403113e-38
-738.30103 1444.5 -27.225401 1.8403113e-38
-781 1454.42 -22.1003 1.8403113e-38
-801.01001 1439.96 -13.7896 1.8403113e-38
-828.33398 1449.72 -11.5632 1.8403113e-38
-789.987 1446.1801 -17.8256 1.8403113e-38
-3230.53 2967.1899 -19.9545 1.8403113e-38
-842.98602 1446.61 -7.79177 1.8403113e-38
-896.659 1480.46 -7.96241 1.8403113e-38
-3222.73 2917.6201 -6.12112 1.8403113e-38
2510.5 -673.66199 4.5033998 1.8403113e-38
-1042.9399 1522.38 7.1438899 1.8403113e-38
-3214.3101 2868.3301 7.5068302 1.8403113e-38
2450.6001 -667.66199 14.141 1.8403113e-38
-1040.4301 1483.33 18.738899 1.8403113e-38
-1025.17 1488.47 14.2209 1.8403113e-38
-3291.98 2880.28 18.714899 1.8403113e-38
2410.6599 -670.43103 22.661301 1.8403113e-38
-1070.26 1490.16 22.3505 1.8403113e-38
2373.74 -696.039 37.666599 1.8403113e-38
2394.03 -684.25299 30.128099 1.8403113e-38
-3312.46 2851.3301 31.5998 1.8403113e-38
-5038.1201 3916.75 33.203201 1.8403113e-38
2365.78 -714.03101 44.757599 1.8403113e-38
-3362.46 2842.3999 43.953701 1.8403113e-38
2434.5701 -796.11798 56.946098 1.8403113e-38
2355.01 -730.54303 51.931 1.8403113e-38
-5009.2798 3835.6101 52.764801 1.8403113e-38
2593.45 -932.84497 68.748802 1.8403113e-38
2612.8799 -918.31702 60.526501 1.8403113e-38
2584.3101 -953.11603 76.7714 1.8403113e-38
-5041.6499 3795.1899 71.477203 1.8403113e-38
2567.22 -968.758 84.889 1.8403113e-38
2554.3 -986.763 92.936699 1.8403113e-38
-5039.8398 3733.0701 90.341797 1.8403113e-38
2528.8301 -1022.9 108.999 1.8403113e-38
2536.95 -1002.03 100.989 1.8403113e-38
-5046.6802 3676.99 108.999 1.8403113e-38
