# .PCD v0.7 - Point Cloud Data file format
VERSION 0.7
FIELDS x y z rgb
SIZE 4 4 4 4
TYPE F F F F
COUNT 1 1 1 1
WIDTH 334
HEIGHT 1
VIEWPOINT 0 0 0 1 0 0 0
POINTS 334
DATA ascii
-538.13702 1236.49 -282.48099 1.8403113e-38
-623.95398 1240.53 -280.01999 1.8403113e-38
-513.30499 1243.72 -280.14001 1.8403113e-38
-648.57849 1243.6851 -278.58649 1.8403113e-38
-628.33099 1241.21 -279.72 1.8403113e-38
-604.82098 1241.39 -279.92999 1.8403113e-38
-598.62201 1245.16 -278.629 1.8403113e-38
-581.10901 1242.88 -279.66199 1.8403113e-38
-575.71503 1245 -278.952 1.8403113e-38
-555.599 1244.15 -279.49402 1.8403113e-38
-529.66302 1247.72 -278.495 1.8403113e-38
-404.215 1249.1899 -279.41101 1.8403113e-38
-362.453 1249.79 -279.67401 1.8403113e-38
-505.99701 1252.4 -277.064 1.8403113e-38
-487.70499 1255.02 -276.323 1.8403113e-38
-463.52301 1256.8149 -275.9505 1.8403113e-38
-445.25201 1253.66 -277.30801 1.8403113e-38
-439.54099 1259.08 -275.40399 1.8403113e-38
-419.72 1254.48 -277.30801 1.8403113e-38
-357.01999 1256.5 -277.297 1.8403113e-38
-481.19199 1262.04 -273.845 1.8403113e-38
-421.04001 1265.41 -273.314 1.8403113e-38
-396.327 1264.89 -273.79099 1.8403113e-38
-380.73999 1260.8199 -275.45099 1.8403113e-38
-375.01001 1268.37 -272.77301 1.8403113e-38
-336.78052 1266.535 -273.879 1.8403113e-38
-316.422 1267.8049 -273.65448 1.8403113e-38
-294.621 1266.38 -274.42599 1.8403113e-38
-254.552 1268.8 -274.009 1.8403113e-38
-219.04401 1268.08 -274.68201 1.8403113e-38
-195.46201 1267.87 -275.03 1.8403113e-38
-61.750099 1268.27 -276.431 1.8403113e-38
120.286 1265.78 -279.44299 1.8403113e-38
-297.573 1273.38 -271.845 1.8403113e-38
-275.96802 1271.83 -272.659 1.8403113e-38
-258.242 1271.02 -273.159 1.8403113e-38
-238.157 1275.01 -271.94 1.8403113e-38
-214.459 1278.17 -271.06201 1.8403113e-38
-198.922 1276.48 -271.85901 1.8403113e-38
-177.5665 1273.895 -273.04602 1.8403113e-38
-159.927 1277.36 -271.98901 1.8403113e-38
-140.468 1277.34 -272.22198 1.8403113e-38
-101.444 1275.4399 -273.36401 1.8403113e-38
-97.615997 1276.54 -273.008 1.8403113e-38
-78.0877 1276.6 -273.20999 1.8403113e-38
-58.314201 1274.1801 -274.32101 1.8403113e-38
-42.2216 1270.8 -275.73801 1.8403113e-38
-39.1819 1279.5699 -272.582 1.8403113e-38
-22.542601 1271.77 -275.60901 1.8403113e-38
-18.881201 1274.0601 -274.82001 1.8403113e-38
-2.4895 1270.28 -276.384 1.8403113e-38
0.62704498 1276.35 -274.211 1.8403113e-38
40.6493 1275.41 -275.01599 1.8403113e-38
122.57 1273.05 -276.823 1.8403113e-38
138.709 1274.9 -276.33499 1.8403113e-38
143.08099 1274.03 -276.70401 1.8403113e-38
-233.806 1280.34 -270.048 1.8403113e-38
-156.02299 1281.09 -270.67801 1.8403113e-38
-121.074 1280.45 -271.31201 1.8403113e-38
-117.271 1282.4301 -270.63699 1.8403113e-38
-82.347 1282.9399 -270.854 1.8403113e-38
17.509649 1282.875 -272.03351 1.8403113e-38
35.174801 1284.0699 -271.80301 1.8403113e-38
57.033897 1284.355 -271.95349 1.8403113e-38
77.134247 1284.2051 -272.23853 1.8403113e-38
96.657547 1287.155 -271.392 1.8403113e-38
161.248 1283.51 -273.46701 1.8403113e-38
176.459 1288.59 -271.79501 1.8403113e-38
181.13 1286.95 -272.444 1.8403113e-38
202.17799 1287.15 -272.61499 1.8403113e-38
244.547 1288.6801 -272.54901 1.8403113e-38
267.24899 1286.49 -273.60599 1.8403113e-38
328.73401 1289.61 -273.18399 1.8403113e-38
333.35001 1289.45 -273.29599 1.8403113e-38
355.38501 1286.875 -274.48651 1.8403113e-38
377.6105 1289.365 -273.83701 1.8403113e-38
423.32001 1289.25 -274.40799 1.8403113e-38
154.77699 1291.5601 -270.46201 1.8403113e-38
196.27299 1292.29 -270.677 1.8403113e-38
216.675 1294.54 -270.09399 1.8403113e-38
221.10899 1293.96 -270.35699 1.8403113e-38
238.41499 1293.61 -270.686 1.8403113e-38
260.30301 1293.0699 -271.133 1.8403113e-38
284.05551 1294.09 -271.03851 1.8403113e-38
307.71851 1290.9299 -272.46149 1.8403113e-38
397.77499 1291.8 -273.18399 1.8403113e-38
400.254 1296.11 -271.646 1.8403113e-38
425.302 1294.45 -272.539 1.8403113e-38
443.45499 1297.14 -271.76999 1.8403113e-38
452.00699 1290.83 -274.16599 1.8403113e-38
468.35199 1297.1899 -272.04001 1.8403113e-38
473.129 1297.58 -271.95599 1.8403113e-38
498.099 1294.3501 -273.41852 1.8403113e-38
525.06598 1297 -272.76501 1.8403113e-38
579.448 1296.26 -273.664 1.8403113e-38
605.27502 1299.09 -272.935 1.8403113e-38
516.599 1302.03 -270.83899 1.8403113e-38
549.46198 1300.3 -271.84799 1.8403113e-38
629.48102 1304.74 -271.159 1.8403113e-38
659.64203 1303.33 -272.01901 1.8403113e-38
688.87701 1304.1 -272.078 1.8403113e-38
708.987 1309.3199 -270.41101 1.8403113e-38
716.466 1307.72 -271.08099 1.8403113e-38
747.34998 1308.3199 -271.22101 1.8403113e-38
817.09802 1303.91 -273.62799 1.8403113e-38
738.526 1311.21 -270.06601 1.8403113e-38
776.53003 1311.76 -270.30499 1.8403113e-38
803.43201 1311.34 -270.76801 1.8403113e-38
845.42297 1310.23 -271.65701 1.8403113e-38
912.73401 1314.71 -270.80701 1.8403113e-38
1110.61 1319.08 -271.505 1.8403113e-38
1253.91 1318.53 -273.362 1.8403113e-38
1097.79 1322.3199 -270.17801 1.8403113e-38
1297.38 1324.42 -271.72299 1.8403113e-38
1356.5 1321.1 -273.61499 1.8403113e-38
1407.95 1324.73 -272.89099 1.8403113e-38
1471.38 1322.5 -274.43301 1.8403113e-38
1534.51 1322.5699 -275.14001 1.8403113e-38
1441.88 1333.34 -270.151 1.8403113e-38
1583.65 1332.72 -272.01401 1.8403113e-38
1634.4301 1335.52 -271.582 1.8403113e-38
1648.42 1335.64 -271.703 1.8403113e-38
1727.51 1333.01 -273.57401 1.8403113e-38
1795.83 1338.49 -272.371 1.8403113e-38
1871.59 1342.46 -271.80399 1.8403113e-38
1952.27 1346.53 -271.255 1.8403113e-38
2259.0801 1347.61 -274.41199 1.8403113e-38
2039.71 1350.14 -270.952 1.8403113e-38
2140.3701 1350.91 -271.83801 1.8403113e-38
2354.5801 1357.21 -272.022 1.8403113e-38
2475.55 1360.42 -272.255 1.8403113e-38
2610.26 1362.73 -272.97198 1.8403113e-38
-657.63098 1269.6 -269.05301 1.8403113e-38
-657.32001 1279.8101 -265.34299 1.8403113e-38
-136.662 1284.89 -269.51801 1.8403113e-38
539.80701 1306.76 -269.388 1.8403113e-38
566.87701 1306.4399 -269.814 1.8403113e-38
590.79498 1311.36 -268.30099 1.8403113e-38
618.20801 1312.16 -268.327 1.8403113e-38
647.58899 1311.29 -268.98499 1.8403113e-38
677.84003 1310.33 -269.68399 1.8403113e-38
767.61102 1314.47 -269.21399 1.8403113e-38
834.27197 1314.63 -269.92801 1.8403113e-38
865.27899 1318.63 -268.83301 1.8403113e-38
871.74701 1319.22 -268.694 1.8403113e-38
898.52899 1321.3199 -268.237 1.8403113e-38
934.11499 1322.83 -268.10101 1.8403113e-38
943.51599 1321.11 -268.83701 1.8403113e-38
970.685 1324.55 -267.897 1.8403113e-38
980.90002 1322.4 -268.79901 1.8403113e-38
1019.3 1323.98 -268.66699 1.8403113e-38
1052.79 1323.85 -269.10199 1.8403113e-38
1063.23 1322.1801 -269.83099 1.8403113e-38
1136.28 1327.36 -268.79099 1.8403113e-38
1146.91 1326.1899 -269.341 1.8403113e-38
1194.27 1326.01 -269.953 1.8403113e-38
1228.84 1329.4399 -269.10501 1.8403113e-38
1279.25 1329.8 -269.55899 1.8403113e-38
1002.38 1331.63 -265.69 1.8403113e-38
1174.97 1333.36 -267.056 1.8403113e-38
1327.62 1333.15 -268.89899 1.8403113e-38
1381.23 1334.59 -268.99399 1.8403113e-38
1493.8 1339.35 -268.565 1.8403113e-38
1558.71 1339.38 -269.302 1.8403113e-38
1689.97 1344.99 -268.78299 1.8403113e-38
1768.49 1344.29 -269.94299 1.8403113e-38
1836.09 1351.54 -268.09 1.8403113e-38
1912.91 1356.5 -267.17099 1.8403113e-38
2001.86 1358.4301 -267.49899 1.8403113e-38
2093.1599 1362.21 -267.17999 1.8403113e-38
2304.8701 1367.1 -267.85199 1.8403113e-38
2179.48 1370.95 -264.99899 1.8403113e-38
2416.23 1372.6 -267.13699 1.8403113e-38
2546.8301 1374.88 -267.819 1.8403113e-38
2689.3899 1377.38 -268.55701 1.8403113e-38
2710.8 1380.71 -267.59399 1.8403113e-38
-661.13898 1309.53 -254.489 1.8403113e-38
-664.87299 1311.2 -253.83701 1.8403113e-38
2718.1101 1420.48 -253.209 1.8403113e-38
2719.5701 1430.42 -249.61301 1.8403113e-38
2732.77 1468.21 -236.01801 1.8403113e-38
2733.0901 1478.4301 -232.30099 1.8403113e-38
-1706 1355.025 -225.85249 1.8403113e-38
-640.94501 1391.34 -224.961 1.8403113e-38
-1705.48 1388.03 -213.851 1.8403113e-38
-1589.1 1389.88 -214.52499 1.8403113e-38
-1707.21 1394.12 -211.618 1.8403113e-38
-1590.86 1395.64 -212.409 1.8403113e-38
2748.4399 1515.59 -218.96201 1.8403113e-38
2750.49 1525.29 -215.45599 1.8403113e-38
-613.28101 1450.95 -203.59599 1.8403113e-38
3014.98 1552.96 -208.451 1.8403113e-38
2768.04 1561.96 -202.32001 1.8403113e-38
3019.78 1562.8 -204.927 1.8403113e-38
-1693.4451 1433.97 -197.2785 1.8403113e-38
2763.1799 1573.45 -198.08299 1.8403113e-38
-601.32599 1505.45 -183.9055 1.8403113e-38
3022.26 1606.49 -189.05901 1.8403113e-38
3016.1799 1618.78 -184.521 1.8403113e-38
-2884.9099 1467.65 -171.246 1.8403113e-38
-2800.1699 1484.5699 -166.071 1.8403113e-38
-2920.1499 1496.88 -160.20599 1.8403113e-38
-593.42499 1549.47 -167.98599 1.8403113e-38
-594.83099 1553.4 -166.539 1.8403113e-38
3032.4099 1659.21 -169.99899 1.8403113e-38
3030.99 1670.37 -165.922 1.8403113e-38
-2914.55 1508.4399 -156.063 1.8403113e-38
-596.01752 1579.3301 -157.0925 1.8403113e-38
-2915.73 1547.85 -141.713 1.8403113e-38
-1658.5449 1584.7949 -142.814 1.8403113e-38
3028.8501 1714.48 -149.851 1.8403113e-38
3031.1299 1724.83 -146.114 1.8403113e-38
-2910.8601 1559 -137.715 1.8403113e-38
-1688.5601 1598.78 -137.379 1.8403113e-38
-1736.03 1608.72 -133.216 1.8403113e-38
-1695.7 1601.71 -136.23 1.8403113e-38
-1746.78 1610.26 -132.53 1.8403113e-38
-569.98901 1647.26 -132.681 1.8403113e-38
3039.9299 1766.67 -130.995 1.8403113e-38
-2913.1699 1597.6801 -123.618 1.8403113e-38
-1806.22 1616.77 -129.47301 1.8403113e-38
-1787.23 1618.4301 -129.091 1.8403113e-38
-1857.6 1628.39 -124.654 1.8403113e-38
-1846.79 1626.21 -125.57 1.8403113e-38
-1917.37 1638.25 -120.375 1.8403113e-38
-1905.61 1636.11 -121.291 1.8403113e-38
-855.37201 1649.54 -128.55 1.8403113e-38
-831.69598 1648.9301 -129.047 1.8403113e-38
-847.271 1652.62 -127.526 1.8403113e-38
-856.03198 1667.5 -122.01 1.8403113e-38
-814.03998 1661.73 -124.592 1.8403113e-38
-564.80298 1660.78 -127.823 1.8403113e-38
-568.86401 1675.16 -122.545 1.8403113e-38
3042.01 1777.05 -127.243 1.8403113e-38
-4457.8999 1578.91 -112.578 1.8403113e-38
-4338.1499 1585.52 -111.559 1.8403113e-38
-2886.8501 1614.1899 -117.914 1.8403113e-38
-1986.6 1646.4301 -116.597 1.8403113e-38
-1975.73 1643.5699 -117.766 1.8403113e-38
-2071.05 1651.4301 -113.801 1.8403113e-38
-2046.09 1653.12 -113.476 1.8403113e-38
-848.409 1679.02 -117.906 1.8403113e-38
-565.98499 1684.54 -119.165 1.8403113e-38
-851.44299 1696.255 -111.60201 1.8403113e-38
-571.146 1696.46 -114.77 1.8403113e-38
-583.341 1707.28 -110.692 1.8403113e-38
-568.58197 1704.97 -111.702 1.8403113e-38
3041.1599 1820.4301 -111.452 1.8403113e-38
-2890.23 1651.9301 -104.145 1.8403113e-38
-2895.5701 1660.17 -101.088 1.8403113e-38
-2148.29 1661.51 -109.243 1.8403113e-38
-2127.9399 1661 -109.664 1.8403113e-38
-578.30103 1709.79 -109.838 1.8403113e-38
-854.10101 1717.63 -103.795 1.8403113e-38
-847.43701 1719.15 -103.319 1.8403113e-38
-642.927 1714.9 -107.23 1.8403113e-38
-607.71198 1719.67 -105.903 1.8403113e-38
-594.71802 1714.53 -107.924 1.8403113e-38
-705.45502 1729.14 -101.326 1.8403113e-38
-673.15399 1726.71 -102.586 1.8403113e-38
-656.50854 1722.485 -104.314 1.8403113e-38
-635.97699 1727.6899 -102.657 1.8403113e-38
-621.24799 1724.3 -104.064 1.8403113e-38
-619.03699 1722.76 -104.649 1.8403113e-38
-602.573 1722 -105.113 1.8403113e-38
-586.22601 1721.61 -105.447 1.8403113e-38
-708.30798 1730.26 -100.886 1.8403113e-38
-684.58197 1730.8199 -100.959 1.8403113e-38
-666.48999 1730.08 -101.435 1.8403113e-38
3042.0601 1830.96 -107.629 1.8403113e-38
-4479.2002 1633.91 -92.3218 1.8403113e-38
-1235.48 1719.34 -98.761703 1.8403113e-38
-1241.15 1720.98 -98.098198 1.8403113e-38
-866.72998 1728.0699 -99.849503 1.8403113e-38
-1032.64 1732.84 -96.196899 1.8403113e-38
-855.53497 1733.23 -98.104599 1.8403113e-38
-721.88251 1734.8149 -99.072853 1.8403113e-38
-684.14899 1735.4301 -99.287201 1.8403113e-38
-1240.4 1740.54 -90.993896 1.8403113e-38
-868.19299 1745.495 -93.49395 1.8403113e-38
-885.37646 1752.335 -90.808594 1.8403113e-38
3048.3 1873.0699 -92.382896 1.8403113e-38
-4490.54 1646.64 -87.561996 1.8403113e-38
-3365.45 1702.28 -80.333603 1.8403113e-38
-1238.17 1746.41 -88.883003 1.8403113e-38
-1266.29 1755.45 -85.270897 1.8403113e-38
-1251.01 1758.5601 -84.314796 1.8403113e-38
-992.974 1755.15 -88.540901 1.8403113e-38
-940.94299 1753.86 -89.612099 1.8403113e-38
-904.08948 1758.385 -88.39035 1.8403113e-38
-954.60303 1764.73 -85.497299 1.8403113e-38
-945.29999 1767.15 -84.724403 1.8403113e-38
-922.95697 1762.75 -86.584198 1.8403113e-38
3051.96 1883.2 -88.739098 1.8403113e-38
-3359.8301 1714.25 -76.042297 1.8403113e-38
-2746.49 1732.47 -76.508301 1.8403113e-38
3049.49 1926.41 -72.994003 1.8403113e-38
-4521.7402 1700.6899 -67.536201 1.8403113e-38
-4543.75 1712.1899 -63.1012 1.8403113e-38
3049.99 1936.9399 -69.169296 1.8403113e-38
-2512.0701 1794.01 -56.833199 1.8403113e-38
3056.6299 1978.88 -53.985901 1.8403113e-38
3057.9299 1989.3199 -50.2061 1.8403113e-38
-4696.9702 1751.8101 -46.914001 1.8403113e-38
-4695.0298 1767.12 -41.368 1.8403113e-38
-2500.0801 1829.27 -44.145699 1.8403113e-38
-2501.8701 1836.9301 -41.335999 1.8403113e-38
3061.8 2031.5601 -34.883598 1.8403113e-38
3063.8999 2041.92 -31.1392 1.8403113e-38
-4689.7202 1828.37 -19.145399 1.8403113e-38
-4644.7402 1848.12 -12.481 1.8403113e-38
3066.98 2084.21 -15.7879 1.8403113e-38
3058.9199 2095.3201 -11.6543 1.8403113e-38
3062.21 2137.47 3.6407599 1.8403113e-38
3063.9199 2147.8601 7.4011898 1.8403113e-38
-4610.3301 1911.09 10.0264 1.8403113e-38
-4598.8301 1926.78 15.6037 1.8403113e-38
3065.4299 2190.1101 22.753099 1.8403113e-38
3065.95 2200.5701 26.5508 1.8403113e-38
-4595.1001 1986.04 37.117199 1.8403113e-38
-4630.1699 1998.0601 41.894798 1.8403113e-38
3076.6599 2242.5601 41.703701 1.8403113e-38
3077.99 2253.03 45.496899 1.8403113e-38
-4443.7002 2068.4199 65.336197 1.8403113e-38
3078.9299 2295.3999 60.901501 1.8403113e-38
3081.0601 2305.8899 64.691498 1.8403113e-38
-4407.6201 2084.51 70.769699 1.8403113e-38
2883.22 2346.8799 81.889603 1.8403113e-38
2781.1699 2355.6699 86.269402 1.8403113e-38
-4509.46 2136.28 90.781799 1.8403113e-38
-4576.0098 2147.8501 95.762199 1.8403113e-38
2701.6201 2392.26 100.502 1.8403113e-38
2693.3899 2401.3201 103.89 1.8403113e-38
-4569.98 2206.3301 116.966 1.8403113e-38
