# .PCD v0.7 - Point Cloud Data file format
VERSION 0.7
FIELDS x y z rgb
SIZE 4 4 4 4
TYPE F F F F
COUNT 1 1 1 1
WIDTH 346
HEIGHT 1
VIEWPOINT 0 0 0 1 0 0 0
POINTS 346
DATA ascii
2093.71 -1423.96 -290.41699 1.8403113e-38
2165.9299 -1384.6899 -290.11401 1.8403113e-38
1854.22 -1537.35 -286.013 1.8403113e-38
1863.26 -1532.2 -285.89899 1.8403113e-38
1873.16 -1529.65 -286.76801 1.8403113e-38
1882.1 -1524.36 -286.59201 1.8403113e-38
1891.63 -1520.76 -287.06201 1.8403113e-38
1900.47 -1515.33 -286.823 1.8403113e-38
1907.22 -1504.5601 -284.513 1.8403113e-38
1916.5699 -1500.77 -284.89001 1.8403113e-38
1925.1899 -1495.15 -284.55499 1.8403113e-38
1934.84 -1492.08 -285.211 1.8403113e-38
1945.2 -1490.65 -286.51999 1.8403113e-38
1952.1801 -1481.37 -284.73001 1.8403113e-38
1962.51 -1479.78 -285.979 1.8403113e-38
1971.66 -1475.53 -286.17499 1.8403113e-38
1979.58 -1468.66 -285.315 1.8403113e-38
1990.28 -1467.65 -286.81799 1.8403113e-38
1997.67 -1459.8101 -285.556 1.8403113e-38
2006.24 -1454.4301 -285.289 1.8403113e-38
2026.73 -1450.12 -287.401 1.8403113e-38
2014.75 -1448.99 -284.992 1.8403113e-38
2035.65 -1445.35 -287.38599 1.8403113e-38
2044.0699 -1439.67 -286.99899 1.8403113e-38
2054.28 -1437.21 -287.94901 1.8403113e-38
2062.6201 -1431.39 -287.50201 1.8403113e-38
2076.2151 -1424.5601 -287.62451 1.8403113e-38
2096.8999 -1409.88 -286.436 1.8403113e-38
2108.03 -1408.49 -287.884 1.8403113e-38
2116.0801 -1402.26 -287.25601 1.8403113e-38
2124.0801 -1395.97 -286.59799 1.8403113e-38
2146.3301 -1392.47 -289.271 1.8403113e-38
2132.01 -1389.62 -285.91 1.8403113e-38
2154.23 -1385.95 -288.51999 1.8403113e-38
2173.75 -1378.02 -289.30099 1.8403113e-38
2182.6399 -1372.79 -289.13599 1.8403113e-38
2354.49 -1276.2549 -287.41949 1.8403113e-38
2374.0601 -1272.72 -289.621 1.8403113e-38
2461.23 -1219.46 -287.37201 1.8403113e-38
2472.78 -1214.58 -287.771 1.8403113e-38
2481.27 -1207.29 -286.875 1.8403113e-38
2494.3101 -1203.28 -287.81201 1.8403113e-38
2506.5901 -1198.55 -288.38901 1.8403113e-38
2514.98 -1190.95 -287.37399 1.8403113e-38
2525.6699 -1184.88 -287.246 1.8403113e-38
2533.1799 -1176.55 -285.85001 1.8403113e-38
2548.55 -1173.4301 -287.46899 1.8403113e-38
2561.5701 -1168.54 -288.11899 1.8403113e-38
2570.5701 -1160.9301 -287.20499 1.8403113e-38
2584.3601 -1156.25 -288.05701 1.8403113e-38
2591.6599 -1147.41 -286.45999 1.8403113e-38
2610.3501 -1145.39 -288.99701 1.8403113e-38
2619.21 -1137.29 -287.905 1.8403113e-38
2631.3401 -1131 -287.953 1.8403113e-38
2635.95 -1120.34 -285.31201 1.8403113e-38
2653.01 -1116.6 -287.01999 1.8403113e-38
2665.8999 -1110.34 -287.20801 1.8403113e-38
2869.75 -1001.93 -287.13101 1.8403113e-38
2880.3899 -992.26398 -285.83801 1.8403113e-38
2890.05 -982.14001 -284.23199 1.8403113e-38
2899.6499 -971.90002 -282.577 1.8403113e-38
1805.22 -1513.73 -270.05899 1.8403113e-38
1816.2 -1516.22 -272.73199 1.8403113e-38
1827.26 -1518.59 -275.383 1.8403113e-38
1835.3101 -1510.97 -274.306 1.8403113e-38
2305.79 -1251.22 -271.06201 1.8403113e-38
2428.0801 -1207.1801 -277.76599 1.8403113e-38
2649.1599 -1088.24 -277.24399 1.8403113e-38
2798.8701 -988.00702 -270.56201 1.8403113e-38
2900.02 -958.43402 -278.311 1.8403113e-38
2897.5 -944.10101 -273.272 1.8403113e-38
2908.6399 -934.289 -272.01901 1.8403113e-38
1774.59 -1512.9399 -264.578 1.8403113e-38
1795.0601 -1513.86 -268.36801 1.8403113e-38
1763.41 -1508.21 -261.14999 1.8403113e-38
1781.8199 -1502.05 -262.311 1.8403113e-38
2143.9099 -1305.52 -260.901 1.8403113e-38
2155.05 -1304.27 -262.39999 1.8403113e-38
2163.28 -1299.21 -262.17999 1.8403113e-38
2173.27 -1296.28 -262.94 1.8403113e-38
2179.05 -1288.17 -261.31699 1.8403113e-38
2190.21 -1286.5 -262.686 1.8403113e-38
2204.54 -1273.58 -260.97501 1.8403113e-38
2211.9299 -1267.39 -260.246 1.8403113e-38
2382.6799 -1184.28 -262.659 1.8403113e-38
2618.48 -1059.4301 -262.74701 1.8403113e-38
2904.01 -919.44702 -266.457 1.8403113e-38
2901.0601 -905.289 -261.40201 1.8403113e-38
2914.71 -896.11401 -260.78101 1.8403113e-38
1752.14 -1502.4399 -257.37399 1.8403113e-38
1731.96 -1499.8 -253.08099 1.8403113e-38
1741.2 -1497.48 -253.914 1.8403113e-38
2193.4099 -1275.42 -259.67001 1.8403113e-38
2217.3601 -1259.04 -258.48999 1.8403113e-38
2227.8301 -1256.21 -259.36499 1.8403113e-38
2235.0701 -1249.83 -258.54999 1.8403113e-38
2245.53 -1246.79 -259.358 1.8403113e-38
2253.595 -1234.29 -256.71399 1.8403113e-38
2266.8601 -1227.05 -256.64801 1.8403113e-38
2716.78 -968.26599 -250.21001 1.8403113e-38
2911.51 -882.005 -255.69901 1.8403113e-38
2910.03 -868.505 -251.10699 1.8403113e-38
1691.74 -1490.6 -243.25999 1.8403113e-38
1711.63 -1494.92 -248.045 1.8403113e-38
1721.01 -1493.71 -249.254 1.8403113e-38
1700.88 -1488.63 -244.187 1.8403113e-38
2914.99 -856.80499 -248.19 1.8403113e-38
2920.78 -845.29901 -245.48 1.8403113e-38
2917.04 -831.42102 -240.38 1.8403113e-38
1662.03 -1481.08 -235.131 1.8403113e-38
1672.39 -1487.77 -239.05 1.8403113e-38
1681.1899 -1484.1 -239.371 1.8403113e-38
1642.95 -1476.77 -230.49001 1.8403113e-38
1651.8199 -1474.28 -231.202 1.8403113e-38
2256.1899 -1152.5601 -230.879 1.8403113e-38
2300.3999 -1130.03 -231.179 1.8403113e-38
2548.8799 -1011.7 -235.528 1.8403113e-38
2921.6699 -819.65503 -237.38699 1.8403113e-38
2919.5601 -806.34198 -232.746 1.8403113e-38
1615.05 -1472.48 -224.353 1.8403113e-38
1623.99 -1471.17 -225.457 1.8403113e-38
1605.4 -1466.17 -220.677 1.8403113e-38
1632.9301 -1469.78 -226.535 1.8403113e-38
2251.8601 -1136.6 -225.009 1.8403113e-38
2273.8401 -1119.91 -223.395 1.8403113e-38
2538.5801 -995.06201 -228.422 1.8403113e-38
2534.95 -982.00098 -223.604 1.8403113e-38
2921.1101 -793.92999 -229.021 1.8403113e-38
2923.5 -781.72601 -225.505 1.8403113e-38
2924.8301 -769.32501 -221.744 1.8403113e-38
1587.61 -1468.41 -218.36099 1.8403113e-38
1596.4301 -1466.38 -219.215 1.8403113e-38
1569.1801 -1458.97 -212.181 1.8403113e-38
1577.92 -1457.1 -213.07201 1.8403113e-38
2254.03 -1114.91 -218.409 1.8403113e-38
2232.97 -1108.38 -212.715 1.8403113e-38
2532.03 -969.46301 -219.075 1.8403113e-38
2534.1899 -959.44501 -216.222 1.8403113e-38
2530.1201 -946.664 -211.41901 1.8403113e-38
2927.95 -757.30103 -218.411 1.8403113e-38
2932.8899 -745.60498 -215.493 1.8403113e-38
2936.77 -733.69 -212.32401 1.8403113e-38
1525.01 -1452.9399 -202.709 1.8403113e-38
1533.76 -1453.35 -204.33299 1.8403113e-38
1542.5 -1452.73 -205.625 1.8403113e-38
1555.63 -1452.13 -207.67151 1.8403113e-38
2532.05 -936.71899 -208.55 1.8403113e-38
2536.53 -927.92798 -206.48801 1.8403113e-38
2538.26 -917.98297 -203.58701 1.8403113e-38
2547.9199 -911.341 -203.099 1.8403113e-38
2936.6799 -721.10797 -208.26401 1.8403113e-38
2941.3101 -709.30701 -205.259 1.8403113e-38
1507.61 -1446.1899 -197.571 1.8403113e-38
1516.28 -1444.85 -198.616 1.8403113e-38
1481.9 -1439.3199 -190.972 1.8403113e-38
1494.7949 -1438.54 -192.9245 1.8403113e-38
2935.1899 -695.89801 -199.90401 1.8403113e-38
2937.6499 -683.82202 -196.442 1.8403113e-38
2949.72 -672.98297 -195.015 1.8403113e-38
2948.0901 -660.32703 -190.66901 1.8403113e-38
1447.7 -1437.38 -184.51601 1.8403113e-38
1464.9301 -1435.63 -186.89301 1.8403113e-38
1473.5601 -1433.7 -187.744 1.8403113e-38
1439.91 -1427.67 -180.064 1.8403113e-38
1456.74 -1429.87 -183.644 1.8403113e-38
2954.1299 -648.59497 -187.92799 1.8403113e-38
2949.3501 -635.67902 -182.96001 1.8403113e-38
1397.67 -1425.67 -172.213 1.8403113e-38
1405.88 -1428.11 -174.39999 1.8403113e-38
1414.34 -1428.58 -175.995 1.8403113e-38
1422.99 -1427.08 -176.989 1.8403113e-38
1431.45 -1427.41 -178.537 1.8403113e-38
2953.23 -623.69702 -179.769 1.8403113e-38
2955.05 -611.50403 -176.159 1.8403113e-38
2954.8 -599.151 -172.145 1.8403113e-38
1372.42 -1423.61 -167.244 1.8403113e-38
1356.62 -1416.2 -162.166 1.8403113e-38
1365.11 -1416.14 -163.597 1.8403113e-38
1381.79 -1417.72 -166.948 1.8403113e-38
1390.4 -1416.5 -168.026 1.8403113e-38
2956.3999 -586.95599 -168.49699 1.8403113e-38
2957.8899 -574.75403 -164.828 1.8403113e-38
2959.26 -562.54602 -161.138 1.8403113e-38
1323.62 -1410.97 -154.856 1.8403113e-38
1331.89 -1412.15 -156.645 1.8403113e-38
1340.17 -1413.25 -158.41299 1.8403113e-38
1349.84 -1406.72 -157.96201 1.8403113e-38
2964.46 -550.50098 -158.15199 1.8403113e-38
2963.6599 -538.18103 -154.054 1.8403113e-38
2964.71 -525.94202 -150.298 1.8403113e-38
-221.13901 -2192.8 -142.668 1.8403113e-38
1325.21 -1364.54 -140.19901 1.8403113e-38
2967.6101 -513.73401 -146.869 1.8403113e-38
2968.4399 -501.474 -143.069 1.8403113e-38
-248.603 -2191.28 -137.493 1.8403113e-38
-261.70901 -2175.72 -130.254 1.8403113e-38
2967.1899 -489.20999 -138.91299 1.8403113e-38
2975.6899 -476.905 -136.40601 1.8403113e-38
2978.1599 -464.56201 -132.85899 1.8403113e-38
-330.71799 -2184.01 -121.148 1.8403113e-38
-303.763 -2187.22 -126.778 1.8403113e-38
2978.55 -452.23599 -128.963 1.8403113e-38
2976.8501 -439.978 -124.733 1.8403113e-38
2978.99 -427.59399 -121.116 1.8403113e-38
-357.729 -2180.48 -115.402 1.8403113e-38
1032.75 -1427.4 -110.513 1.8403113e-38
1047.66 -1417.91 -110.006 1.8403113e-38
2985.96 -414.935 -118.234 1.8403113e-38
2985.8999 -402.56799 -114.248 1.8403113e-38
2985.73 -390.207 -110.246 1.8403113e-38
-416.40302 -2176.3401 -104.061 1.8403113e-38
-383.30099 -2175.28 -109.37 1.8403113e-38
1041.35 -1391.62 -100.478 1.8403113e-38
1089.63 -1372.02 -102.411 1.8403113e-38
1117.2 -1372.4301 -107.246 1.8403113e-38
1110.62 -1366.76 -104.303 1.8403113e-38
1128.1899 -1368.22 -107.768 1.8403113e-38
1148.33 -1342.41 -102.907 1.8403113e-38
1346.85 -1233.5601 -101.779 1.8403113e-38
2985.45 -377.853 -106.226 1.8403113e-38
2993.9399 -364.76801 -103.467 1.8403113e-38
-421.66199 -2152.9299 -95.638 1.8403113e-38
1032.02 -1390.58 -98.549698 1.8403113e-38
1023.945 -1378.105 -93.161652 1.8403113e-38
1085.73 -1360.89 -98.167603 1.8403113e-38
1109.13 -1350.45 -98.802696 1.8403113e-38
1341.96 -1224.9301 -98.170197 1.8403113e-38
1337.6801 -1214.39 -94.052002 1.8403113e-38
2993.4299 -352.35699 -99.390099 1.8403113e-38
2991.8201 -340.056 -95.161301 1.8403113e-38
2991.0901 -327.67599 -91.056099 1.8403113e-38
-452.535 -2151.4199 -89.884499 1.8403113e-38
1012.72 -1371.5601 -89.140503 1.8403113e-38
1001.27 -1356.96 -82.493301 1.8403113e-38
1010.4 -1358.33 -84.492897 1.8403113e-38
1305.5249 -1195.9299 -82.630997 1.8403113e-38
1316.3101 -1193.41 -83.661201 1.8403113e-38
1326.025 -1194.4651 -85.657402 1.8403113e-38
1335.02 -1198.21 -88.396301 1.8403113e-38
3001.0801 -314.03799 -88.375397 1.8403113e-38
2999.1299 -301.716 -84.081497 1.8403113e-38
2999.04 -289.16101 -80.029099 1.8403113e-38
995.18298 -1350.45 -79.361504 1.8403113e-38
964.94049 -1342.21 -71.553604 1.8403113e-38
988.151 -1345.5699 -76.592903 1.8403113e-38
982.742 -1338.13 -73.279198 1.8403113e-38
1211.05 -1213.9399 -72.303398 1.8403113e-38
1221.1899 -1207.15 -71.850304 1.8403113e-38
1233 -1195.73 -70.194397 1.8403113e-38
1245.0601 -1191.9651 -71.04055 1.8403113e-38
1255.64 -1191.6801 -72.7528 1.8403113e-38
1262.22 -1192.62 -74.179703 1.8403113e-38
1273.5349 -1189.79 -75.199402 1.8403113e-38
1285.05 -1185.89 -75.911102 1.8403113e-38
1293.95 -1189.665 -78.642044 1.8403113e-38
3005.71 -275.62299 -76.814796 1.8403113e-38
3005.3799 -263.009 -72.7033 1.8403113e-38
950.76801 -1340.26 -68.508499 1.8403113e-38
952.164 -1322.77 -63.124001 1.8403113e-38
3003.96 -250.552 -68.455399 1.8403113e-38
3010.26 -236.79401 -65.107399 1.8403113e-38
3009.5801 -224.136 -60.9216 1.8403113e-38
948.79999 -1312.67 -59.301899 1.8403113e-38
943.88098 -1304.99 -55.993099 1.8403113e-38
929.12097 -1296.74 -50.822498 1.8403113e-38
940.20801 -1295.67 -52.371601 1.8403113e-38
3016.6101 -210.032 -57.5854 1.8403113e-38
3013.73 -197.69501 -53.1287 1.8403113e-38
3011.72 -185.19901 -48.768101 1.8403113e-38
3018.3601 -170.877 -45.295601 1.8403113e-38
3016.1101 -158.355 -40.885601 1.8403113e-38
3021.5 -144.084 -37.218399 1.8403113e-38
1006.63 -1177.71 -25.7778 1.8403113e-38
1007.77 -1164.21 -21.633101 1.8403113e-38
1007.91 -1152.35 -17.8423 1.8403113e-38
989.495 -1141.6899 -11.2748 1.8403113e-38
995.19202 -1145.8199 -13.5733 1.8403113e-38
1000.93 -1149.89 -15.8625 1.8403113e-38
2867.8601 -167.409 -18.5044 1.8403113e-38
2868.4199 -155.44501 -14.753 1.8403113e-38
2872.72 -142.474 -11.3174 1.8403113e-38
977.58801 -1134.05 -6.78687 1.8403113e-38
983.83899 -1137.51 -8.9671497 1.8403113e-38
965.81799 -1126.1899 -2.2527001 1.8403113e-38
972.64697 -1129.01 -4.3250198 1.8403113e-38
2876.8999 -129.41701 -7.8321099 1.8403113e-38
2874.21 -118.11 -3.7385199 1.8403113e-38
2884.8601 -103.05 -0.71347898 1.8403113e-38
961.62097 -1120.3199 0.35161999 1.8403113e-38
950.09698 -1112.17 4.9387898 1.8403113e-38
960.79401 -1110.72 3.5799 1.8403113e-38
934.64398 -1108.15 8.8669395 1.8403113e-38
945.40002 -1106.92 7.4281902 1.8403113e-38
2882.8999 -91.410004 3.3636999 1.8403113e-38
2887.52 -77.782799 6.9569702 1.8403113e-38
-936.33197 -2088.29 12.9507 1.8403113e-38
589.61298 -1257.9301 19.5756 1.8403113e-38
893.67401 -1119.54 12.196 1.8403113e-38
913.659 -1109.5 12.0133 1.8403113e-38
924.51801 -1108.53 10.4724 1.8403113e-38
915.01599 -1087.85 18.740601 1.8403113e-38
2892.95 -63.765999 10.5365 1.8403113e-38
2898.24 -49.639099 14.1763 1.8403113e-38
2904.3301 -35.093899 17.813601 1.8403113e-38
-987.48499 -2092.52 20.317699 1.8403113e-38
-1005.86 -2075.25 29.0056 1.8403113e-38
595.45898 -1240.33 24.2367 1.8403113e-38
593.76801 -1229.12 28.129 1.8403113e-38
2906.48 -21.6957 21.7542 1.8403113e-38
2914.1599 -6.2871099 25.3979 1.8403113e-38
2916.03 7.2737498 29.439699 1.8403113e-38
-1065.76 -2083.52 36.5662 1.8403113e-38
414.54901 -1300.85 35.646198 1.8403113e-38
534.04102 -1225.24 39.566799 1.8403113e-38
593.77802 -1216.7 32.122898 1.8403113e-38
584.20349 -1205.745 37.277401 1.8403113e-38
2918.6899 21.2313 33.472401 1.8403113e-38
2922.1499 35.607498 37.504601 1.8403113e-38
474.20999 -1230.6899 48.0242 1.8403113e-38
498.28699 -1226.22 45.3526 1.8403113e-38
2925.46 50.067699 41.5895 1.8403113e-38
2930.47 65.3386 45.643501 1.8403113e-38
2934.3899 80.349297 49.800301 1.8403113e-38
484.36499 -1210.74 52.705502 1.8403113e-38
2938.1499 95.454597 54.014999 1.8403113e-38
2925.1699 103.686 58.8773 1.8403113e-38
444.854 -1199.72 62.988499 1.8403113e-38
2924.0701 116.866 63.302502 1.8403113e-38
2925.5801 131.267 67.6745 1.8403113e-38
-1150.24 -2017.1801 72.307198 1.8403113e-38
298.991 -1226.49 79.266899 1.8403113e-38
2927.8501 146.136 72.067398 1.8403113e-38
2937.23 164.414 76.343697 1.8403113e-38
-1303.8 -2044.35 89.773003 1.8403113e-38
-1255.15 -2047.28 80.528702 1.8403113e-38
334.39001 -1178.75 88.575996 1.8403113e-38
410.59601 -1146.4399 85.962502 1.8403113e-38
2940.0601 179.91 80.843102 1.8403113e-38
2946.3201 197.217 85.3386 1.8403113e-38
2955.0801 215.983 89.877701 1.8403113e-38
-1263.74 -1992.63 99.564903 1.8403113e-38
2954.6699 230.463 94.603203 1.8403113e-38
2963.9099 249.97301 99.300003 1.8403113e-38
-1393.48 -2032.14 108.999 1.8403113e-38
2973.79 270.13599 104.096 1.8403113e-38
2981.6699 289.56699 109 1.8403113e-38
