# .PCD v0.7 - Point Cloud Data file format
VERSION 0.7
FIELDS x y z rgb
SIZE 4 4 4 4
TYPE F F F F
COUNT 1 1 1 1
WIDTH 327
HEIGHT 1
VIEWPOINT 0 0 0 1 0 0 0
POINTS 327
DATA ascii
-439.724 -422.13 134 9.2197031e-39
1828.4451 715.60895 139.29449 9.2197031e-39
1835.4401 716.70514 138.73033 9.2197031e-39
1840.75 719.716 138.827 9.2197031e-39
2093.8601 833.67798 136.291 9.2197031e-39
3141.45 1339.4661 134 9.2197031e-39
3148.1599 1355.1741 136.98399 9.2197031e-39
3148.45 1367.8369 139.994 9.2197031e-39
1813.2775 718.41772 141.76375 9.2197031e-39
1826.37 718.86469 140.32201 9.2197031e-39
1813.15 721.87598 142.61 9.2197031e-39
1821.55 725.38 142.459 9.2197031e-39
1830 728.73798 142.267 9.2197031e-39
1805.86 739.95599 147.819 9.2197031e-39
1816.9633 737.11334 145.823 9.2197031e-39
1824.6934 735.06464 144.416 9.2197031e-39
1832.0076 732.52576 142.94049 9.2197031e-39
1809.25 746.56549 149.00751 9.2197031e-39
1815.6559 744.19983 147.681 9.2197031e-39
1814.9199 751.664 149.5625 9.2197031e-39
1825.22 757.25201 149.68851 9.2197031e-39
1834.37 755.29034 148.13432 9.2197031e-39
2072.1499 848.88599 142.51601 9.2197031e-39
2077.9268 856.37372 143.63268 9.2197031e-39
2083.252 854.5506 142.56441 9.2197031e-39
2067.49 863.82703 146.659 9.2197031e-39
2085.21 864.95398 144.834 9.2197031e-39
2083.4465 876.1297 147.72966 9.2197031e-39
2086.6499 885.44397 149.59 9.2197031e-39
2142.8501 893.23096 144.815 9.2197031e-39
2177.77 916.62299 146.31 9.2197031e-39
2204.52 931.70099 146.7715 9.2197031e-39
2252.1599 960.45001 148.049 9.2197031e-39
2362.24 1022.628 149.979 9.2197031e-39
2377.04 1027.465 149.39301 9.2197031e-39
2405.4299 1040.657 149.20599 9.2197031e-39
2432.3799 1052.33 148.826 9.2197031e-39
2446.77 1055.731 147.94099 9.2197031e-39
2469.8201 1064.063 147.21899 9.2197031e-39
2510.26 1082.186 146.793 9.2197031e-39
2551.04 1099.6479 146.16901 9.2197031e-39
3150.3701 1381.4709 143.045 9.2197031e-39
3147.73 1392.821 146.086 9.2197031e-39
3152 1407.998 149.23 9.2197031e-39
-1488.78 -866.38 151.25999 9.2197031e-39
-1122.72 -662.20996 157.056 9.2197031e-39
1808.8199 759.44 152.153 9.2197031e-39
2203.9399 979.63904 158.366 9.2197031e-39
2317.3301 1001.538 150.22099 9.2197031e-39
2349.22 1018.676 150.57001 9.2197031e-39
-1042.49 -594.58997 163.826 9.2197031e-39
2239.8799 1017.041 163.108 9.2197031e-39
2270.1399 1050.239 167.511 9.2197031e-39
-1049.17 -567.12 171.222 9.2197031e-39
-1039.0699 -532.5 178.349 9.2197031e-39
-1042.4 -503.95996 185.605 9.2197031e-39
-1052.85 -478.48999 192.966 9.2197031e-39
-1035.24 -441.76001 199.713 9.2197031e-39
-1030.24 -410.51001 206.636 9.2197031e-39
-1042.66 -386.19 213.952 9.2197031e-39
-1059.5601 -363.47998 221.412 9.2197031e-39
3266.3799 2132.3398 309.85901 9.2197031e-39
3271.3899 2161.27 316.22101 9.2197031e-39
3267.25 2180.8301 321.41501 9.2197031e-39
3269.51 2207.8101 327.63501 9.2197031e-39
3265.45 2228.22 333.021 9.2197031e-39
3272.23 2261.4102 340.20099 9.2197031e-39
3264.9399 2278.95 345.27899 9.2197031e-39
3270.23 2311.6899 352.52499 9.2197031e-39
3269.3301 2337.71 358.88901 9.2197031e-39
3266.8201 2362.29 365.09399 9.2197031e-39
3270.79 2395.47 372.604 9.2197031e-39
3267.51 2420.23 378.94299 9.2197031e-39
3268.1399 2450.54 386.15799 9.2197031e-39
3269.52 2482.5698 393.694 9.2197031e-39
3271.02 2515.52 401.44 9.2197031e-39
3267.3601 2542.2 408.289 9.2197031e-39
3273.1399 2582.6499 417.32901 9.2197031e-39
3265.1599 2604.6499 423.56299 9.2197031e-39
3270.4199 2646.22 432.936 9.2197031e-39
3270.03 2680.6201 441.25299 9.2197031e-39
3268.5801 2714.3101 449.52499 9.2197031e-39
3273.1201 2758.05 459.505 9.2197031e-39
3271.6399 2793.6699 468.242 9.2197031e-39
-922.66101 738.026 470.06 9.2197031e-39
-928.03101 762.72699 476.634 9.2197031e-39
3271.2 2831.8999 477.487 9.2197031e-39
-940.12799 787.58997 484.043 9.2197031e-39
3250.9299 2839.1001 481.61499 9.2197031e-39
3203.7 2841.8501 487.86401 9.2197031e-39
3232.1599 2848.6399 486.13 9.2197031e-39
-945.04797 812.55298 490.62701 9.2197031e-39
-917.00403 836.76599 493.13199 9.2197031e-39
-916.52899 861.47198 499.01599 9.2197031e-39
3178.9299 2840.73 490.52301 9.2197031e-39
-916.82397 886.229 505.00299 9.2197031e-39
-912.93597 910.80701 510.452 9.2197031e-39
-918.72601 935.935 517.17902 9.2197031e-39
-925.27301 961.25403 524.04102 9.2197031e-39
-923.68201 986.09802 529.82599 9.2197031e-39
3264.1299 3031.6899 526.35999 9.2197031e-39
-917.92102 1010.601 535.03601 9.2197031e-39
-908.00299 1034.662 539.64801 9.2197031e-39
3122.5901 3003.1899 536.24799 9.2197031e-39
3268.79 3086.1399 538.90002 9.2197031e-39
-902.80402 1059.092 544.90698 9.2197031e-39
3085.6299 3026.8301 546.30298 9.2197031e-39
3107.73 3022.1399 542.56 9.2197031e-39
-898.375 1083.577 550.27002 9.2197031e-39
-912.39502 1110.276 558.34802 9.2197031e-39
3273.52 3142.54 551.901 9.2197031e-39
-911.43298 1135.345 564.26099 9.2197031e-39
-904.367 1159.6221 569.263 9.2197031e-39
3274.0701 3193.0801 563.98602 9.2197031e-39
-908.828 1185.547 576.02301 9.2197031e-39
3134.73 3178.8 577.034 9.2197031e-39
3266.46 3229.79 573.71399 9.2197031e-39
-913.04199 1211.5901 582.784 9.2197031e-39
-904.33502 1235.6599 587.54102 9.2197031e-39
-897.36798 1259.9661 592.56097 9.2197031e-39
-912.534 1288.281 601.16302 9.2197031e-39
3161.4399 3289.78 600.55902 9.2197031e-39
3138.24 3356.21 619.27399 9.2197031e-39
3168.48 3362.8401 617.29199 9.2197031e-39
-1004.97 1331.771 622.552 9.2197031e-39
-964.92999 1376.901 628.66699 9.2197031e-39
3084.1799 3355.5701 625.51501 9.2197031e-39
3110.1799 3353.77 622.00702 9.2197031e-39
3060.1399 3361.6699 629.82501 9.2197031e-39
-1034.87 1364.4761 633.95099 9.2197031e-39
3029.3401 3351.1599 630.94 9.2197031e-39
3054.03 3863.95 751.31201 9.2197031e-39
3246.95 3960.8701 751.79999 9.2197031e-39
3042.74 3919.8 766.07703 9.2197031e-39
3133.6699 4000.51 774.72699 9.2197031e-39
3248.71 4047.9299 772.52301 9.2197031e-39
3038.8601 4000.8501 786.02301 9.2197031e-39
1405.85 3245.3 797.5 9.2197031e-39
1426.72 3257.23 797.90002 9.2197031e-39
3243.77 4121.4199 790.776 9.2197031e-39
1381.8199 3247.3401 800.83301 9.2197031e-39
3226.02 4163.6699 803.03497 9.2197031e-39
1433.39 3338.1799 816.57397 9.2197031e-39
3015.8899 4127.71 819.23999 9.2197031e-39
3047.1101 4124.1001 814.68103 9.2197031e-39
1452.36 3364.1599 820.57501 9.2197031e-39
2981.8401 4121.6396 821.80798 9.2197031e-39
2989.53 4257.4297 853.54901 9.2197031e-39
1446.26 3525.1201 860 9.2197031e-39
1456.33 3612.1101 879.72302 9.2197031e-39
168.153 3058.3201 898.927 9.2197031e-39
192.66499 3069.5701 898.73199 9.2197031e-39
221.308 3075.1699 896.69202 9.2197031e-39
241.26601 3092.1201 898.40601 9.2197031e-39
3012.22 4454.8799 898.33899 9.2197031e-39
29.417101 3018.3501 905.72498 9.2197031e-39
66.922302 3015.3999 900.58002 9.2197031e-39
83.220596 3037.3201 903.922 9.2197031e-39
113.188 3042.6201 901.65399 9.2197031e-39
139.46899 3052.1299 900.83099 9.2197031e-39
1217.45 3599.02 904.82898 9.2197031e-39
1465.14 3715.3999 903.51599 9.2197031e-39
2944.46 4461.8799 908.034 9.2197031e-39
2979.76 4463.73 904.30499 9.2197031e-39
-106.917 3008.3201 919.43903 9.2197031e-39
-53.959 3031.51 918.75 9.2197031e-39
1230.29 3655.6899 916.93402 9.2197031e-39
1255.37 3666.3301 916.52698 9.2197031e-39
2874.3701 4458.1602 915.42902 9.2197031e-39
2909.49 4460.6499 911.875 9.2197031e-39
-88.915604 3029.3799 922.37201 9.2197031e-39
-31.8876 3047.79 920.05402 9.2197031e-39
207.366 3183.2 924.31403 9.2197031e-39
2695.73 4417.96 926.89203 9.2197031e-39
2771.6899 4458.3501 927.61902 9.2197031e-39
2806.5901 4461.77 924.315 9.2197031e-39
2841.6001 4464.8799 920.922 9.2197031e-39
-181.783 3047.8301 937.79303 9.2197031e-39
2736.8999 4454.6201 930.836 9.2197031e-39
2672.04 4469.27 942.03198 9.2197031e-39
1460.67 3912.53 951.44098 9.2197031e-39
1115.8 3869.75 981.94397 9.2197031e-39
1463.03 4088.01 993.354 9.2197031e-39
-677.01703 3242.3 1043.12 9.2197031e-39
1461.77 4310.77 1047.0601 9.2197031e-39
1743.99 4426.79 1041.58 9.2197031e-39
-732.48999 3249.24 1051.35 9.2197031e-39
-678.01599 3288.1699 1054.27 9.2197031e-39
1709.24 4452.8999 1051.97 9.2197031e-39
1674.9 4467.0801 1059.4399 9.2197031e-39
1773.8 4485.6797 1052.21 9.2197031e-39
-681.87299 3337.6499 1066.62 9.2197031e-39
-648.526 3351.27 1065.95 9.2197031e-39
1480.48 4413.7998 1069.62 9.2197031e-39
1607.8 4469.3896 1067.9301 9.2197031e-39
1641.64 4465.48 1062.99 9.2197031e-39
-656.12097 3405.8 1079.96 9.2197031e-39
1508.63 4455.2598 1076.26 9.2197031e-39
1540.46 4470.52 1076.16 9.2197031e-39
1573.4399 4476.8501 1073.79 9.2197031e-39
1802.62 4590.9399 1074.11 9.2197031e-39
1834.28 4666.9102 1088.63 9.2197031e-39
2753.25 5105.2998 1085.35 9.2197031e-39
-671.72998 3469.7 1097.17 9.2197031e-39
-653.55603 3499.8 1102.26 9.2197031e-39
2741.3201 5265.8799 1125.37 9.2197031e-39
295.61099 4161.4697 1149.09 9.2197031e-39
330.98901 4166.8701 1146.2 9.2197031e-39
790.37299 4404.27 1148.95 9.2197031e-39
824.62 4410.4502 1146.39 9.2197031e-39
860.55603 4410.7803 1142.21 9.2197031e-39
888.22101 4438.6104 1145.63 9.2197031e-39
186.972 4147.48 1158.5699 9.2197031e-39
223.839 4151.3501 1155.14 9.2197031e-39
259.32001 4157.4502 1152.41 9.2197031e-39
716.88098 4405.6104 1157.96 9.2197031e-39
750.32703 4415.2002 1156.3101 9.2197031e-39
913.38 4476.48 1151.76 9.2197031e-39
106.953 4149.6104 1168.55 9.2197031e-39
145.907 4150.8799 1164.25 9.2197031e-39
642.58398 4406.4399 1166.95 9.2197031e-39
678.34497 4410.2998 1163.65 9.2197031e-39
69.754799 4144.5601 1171.73 9.2197031e-39
25.7633 4150.8701 1178.45 9.2197031e-39
568.84802 4403.1299 1174.88 9.2197031e-39
606.43903 4403.1499 1170.4399 9.2197031e-39
-13.6262 4148.3398 1182.5 9.2197031e-39
-57.5956 4152.8501 1188.79 9.2197031e-39
454.62201 4402.6499 1188.27 9.2197031e-39
490.405 4409.1602 1185.6 9.2197031e-39
530.07202 4405.4399 1180.02 9.2197031e-39
-99.804802 4153.5801 1193.96 9.2197031e-39
377.604 4401.04 1196.99 9.2197031e-39
416.55301 4401.1499 1192.41 9.2197031e-39
261.60901 4394.8799 1209.23 9.2197031e-39
298.90399 4400.54 1206.1801 9.2197031e-39
338.521 4400.5498 1201.5 9.2197031e-39
1854.11 5264.2598 1229.91 9.2197031e-39
-290.72501 4392.5801 1274 9.2197031e-39
-385.61401 4397.1104 1286.3101 9.2197031e-39
-339.086 4396.7402 1280.72 9.2197031e-39
-480.354 4397.8799 1297.7 9.2197031e-39
-433.41 4398.5703 1292.3199 9.2197031e-39
-578.138 4399.6699 1309.7 9.2197031e-39
-532.961 4404.6299 1305.55 9.2197031e-39
-633.54498 4408.3799 1318.35 9.2197031e-39
-3294.1101 3254.3201 1355.54 9.2197031e-39
-3279.24 3304.0601 1365.74 9.2197031e-39
-3270.8899 3357.23 1377.54 9.2197031e-39
-3268.98 3414.02 1390.96 9.2197031e-39
-5483.6201 2391.6499 1407.08 9.2197031e-39
-3267.3201 3471.4399 1404.5699 9.2197031e-39
-5496.8301 2462.46 1425.66 9.2197031e-39
-3273.6699 3533.6399 1420.28 9.2197031e-39
-5484.3901 2527.73 1439.89 9.2197031e-39
-3262.1201 3586.8899 1431.71 9.2197031e-39
-3266.26 3649.1399 1447.17 9.2197031e-39
-5473.27 2593.4302 1454.37 9.2197031e-39
-3181.8601 3722.53 1454.83 9.2197031e-39
-3271.3999 3712.6699 1463.05 9.2197031e-39
-5483.5098 2664.71 1472.72 9.2197031e-39
-3191.0701 3788.8701 1471.87 9.2197031e-39
-5471.1401 2730.55 1487.08 9.2197031e-39
-3186.0801 3847.6001 1485.41 9.2197031e-39
-3181.28 3907.02 1499.12 9.2197031e-39
-5476.2202 2801.29 1504.6899 9.2197031e-39
-2108.0701 4449.3203 1502.58 9.2197031e-39
-3191.53 3976.4099 1517.02 9.2197031e-39
-2183.1201 4450.21 1511.67 9.2197031e-39
-5479.6401 2872.03 1522.11 9.2197031e-39
-2335.77 4450.2197 1529.73 9.2197031e-39
-2260.73 4452 1521.28 9.2197031e-39
-5467.2598 2938.6001 1536.65 9.2197031e-39
-3210.8101 4052.52 1537.6 9.2197031e-39
-2425.25 4459.3203 1542.5 9.2197031e-39
-5463.6802 3007.99 1552.91 9.2197031e-39
-4883.9399 3298.8899 1554.28 9.2197031e-39
-3212.74 4118.6396 1553.73 9.2197031e-39
-2499.54 4454.1602 1550.05 9.2197031e-39
-5437.8301 3070.79 1564.95 9.2197031e-39
-5016.9399 3278.8999 1565.21 9.2197031e-39
-4876.8398 3364.5901 1569.24 9.2197031e-39
-3212.27 4184 1569.39 9.2197031e-39
-2663.3701 4452.3799 1568.99 9.2197031e-39
-2588.4399 4459.6499 1561.88 9.2197031e-39
-5409.5801 3132.75 1576.51 9.2197031e-39
-4877.3198 3433.6001 1585.89 9.2197031e-39
-3203.75 4244.75 1582.98 9.2197031e-39
-2766.8799 4466.2803 1584.58 9.2197031e-39
-5413.4502 3205.24 1594.39 9.2197031e-39
-5250.2798 3291.9199 1595.9399 9.2197031e-39
-3201.77 4310.5898 1598.58 9.2197031e-39
-2845.5801 4459.1396 1592.17 9.2197031e-39
-4868.8999 3499.5701 1600.76 9.2197031e-39
-2936.99 4460.2998 1603.26 9.2197031e-39
3052.8701 7432.25 1609.39 9.2197031e-39
-5450.9902 3289.73 1619.15 9.2197031e-39
-4867.9902 3568.99 1617.34 9.2197031e-39
-3206.98 4382.2803 1616.4301 9.2197031e-39
-3029.5901 4460.7598 1614.3199 9.2197031e-39
2993.77 7440.6401 1618.4 9.2197031e-39
-3121.8401 4459.3398 1624.89 9.2197031e-39
2933.5901 7441.7598 1625.79 9.2197031e-39
-4866.3599 3638.6299 1633.89 9.2197031e-39
-3204.1699 4449.27 1632.21 9.2197031e-39
2874.22 7448.1602 1634.35 9.2197031e-39
2814.79 7454.0498 1642.79 9.2197031e-39
-4872.1001 3711.97 1652.2 9.2197031e-39
2695.21 7459.4502 1658.23 9.2197031e-39
2755.1799 7458.46 1650.9 9.2197031e-39
-4869.8901 3782.51 1668.9 9.2197031e-39
2641.1499 7519.1099 1678.97 9.2197031e-39
-4864.25 3852.05 1684.95 9.2197031e-39
2581.04 7522.9902 1687.01 9.2197031e-39
2396.3401 7467.3799 1695.49 9.2197031e-39
2456.78 7475.7598 1690.35 9.2197031e-39
2519.45 7508.8701 1690.9 9.2197031e-39
-4859.6802 3922.5801 1701.37 9.2197031e-39
2340.75 7544.0498 1720.5 9.2197031e-39
2287.98 7710.6802 1766.8 9.2197031e-39
2226.05 7710.5098 1774.09 9.2197031e-39
2102.24 7711.5098 1788.97 9.2197031e-39
2164.1699 7711.7598 1781.7 9.2197031e-39
2040.3101 7710.73 1796.11 9.2197031e-39
1978.38 7719.1499 1805.45 9.2197031e-39
1916.42 7707.5801 1810 9.2197031e-39
1854.3199 7714.9302 1819.11 9.2197031e-39
