# .PCD v0.7 - Point Cloud Data file format
VERSION 0.7
FIELDS x y z rgb
SIZE 4 4 4 4
TYPE F F F F
COUNT 1 1 1 1
WIDTH 331
HEIGHT 1
VIEWPOINT 0 0 0 1 0 0 0
POINTS 331
DATA ascii
1806 738.12097 139.69099 9.2197031e-39
1815.0649 737.80499 138.543 9.2197031e-39
1817.675 742.65845 139.4015 9.2197031e-39
2078.3799 857.70398 136.228 9.2197031e-39
3146.5 1373.853 134 9.2197031e-39
3150.46 1388.3569 137.02 9.2197031e-39
-1483.35 -867.73999 142.62199 9.2197031e-39
-1066.5601 -635.81006 149.092 9.2197031e-39
1806.54 739.69897 140.006 9.2197031e-39
1805.684 746.31219 141.6976 9.2197031e-39
1816.28 745.44897 140.237 9.2197031e-39
1806.65 750.65002 142.627 9.2197031e-39
1816.65 756.28754 142.7995 9.2197031e-39
1822.475 757.61304 142.429 9.2197031e-39
1796.1851 767.63196 147.94699 9.2197031e-39
1806.4041 765.35614 146.1918 9.2197031e-39
1815.2968 761.55695 144.22667 9.2197031e-39
1823.86 760.84998 143.043 9.2197031e-39
1798.7999 774.27264 149.23466 9.2197031e-39
1802.7933 774.20264 148.74599 9.2197031e-39
1811.8 779.54297 148.965 9.2197031e-39
1813.0599 782.85498 149.612 9.2197031e-39
2066.144 877.35382 142.39999 9.2197031e-39
2074.9099 878.92297 141.74001 9.2197031e-39
2054.1001 888.40503 146.48199 9.2197031e-39
2065.3799 884.04004 144.09801 9.2197031e-39
2072.365 885.91602 143.72299 9.2197031e-39
2059.8899 892.52197 146.787 9.2197031e-39
2066.47 897.24902 147.145 9.2197031e-39
2072.8435 895.97363 146.08434 9.2197031e-39
2080.5352 905.02197 147.35001 9.2197031e-39
2077.4199 914.31104 149.953 9.2197031e-39
2124.46 914.44202 144.42 9.2197031e-39
2170.5901 946.17499 146.593 9.2197031e-39
2183.28 952.56299 146.629 9.2197031e-39
2205.05 965.11096 147.07201 9.2197031e-39
2237.7 984.73499 147.92799 9.2197031e-39
2297.9099 1022.456 149.87601 9.2197031e-39
2375.1001 1059.989 149.771 9.2197031e-39
2388.3701 1063.437 149.03101 9.2197031e-39
2406.8201 1069.8569 148.39301 9.2197031e-39
2436.48 1082.776 147.991 9.2197031e-39
2469.8101 1097.276 147.535 9.2197031e-39
2493.0901 1105.1379 146.67101 9.2197031e-39
2532.1201 1121.642 146.024 9.2197031e-39
3145.3501 1398.401 140.039 9.2197031e-39
3154.3201 1415.822 143.16701 9.2197031e-39
3153.3701 1428.249 146.267 9.2197031e-39
3155.8101 1442.616 149.433 9.2197031e-39
-1051.17 -597.70996 156.433 9.2197031e-39
1780.9301 785.172 153.96899 9.2197031e-39
1803.79 781.66296 150.422 9.2197031e-39
2333.8999 1042.446 150.425 9.2197031e-39
2359.4199 1054.686 150.351 9.2197031e-39
3150.21 1452.6909 152.517 9.2197031e-39
-1038.99 -561.59998 163.673 9.2197031e-39
2235.1599 1049.8569 163.886 9.2197031e-39
-1043.79 -533.45996 171.008 9.2197031e-39
-1050.15 -506.10999 178.33501 9.2197031e-39
-1032.28 -468.66003 185.226 9.2197031e-39
-1042.66 -443.37 192.532 9.2197031e-39
-1042.6 -413.90002 199.61099 9.2197031e-39
-1034.79 -381.59998 206.455 9.2197031e-39
-1044.39 -356.27301 213.67999 9.2197031e-39
-1045.33 -327.72601 220.65401 9.2197031e-39
3266.71 2171.3501 311.52802 9.2197031e-39
3272.29 2201.1001 318.02399 9.2197031e-39
3276.76 2230.3101 324.517 9.2197031e-39
3272.1599 2250.0801 329.814 9.2197031e-39
3276.53 2280.29 336.561 9.2197031e-39
3273.29 2302.4199 342.26501 9.2197031e-39
3273.6201 2329.1299 348.64801 9.2197031e-39
3276.78 2359.76 355.638 9.2197031e-39
3275.6899 2385.9399 362.061 9.2197031e-39
3279.25 2418.3799 369.44 9.2197031e-39
3275.51 2442.4399 375.66699 9.2197031e-39
3276.96 2473.5898 382.98499 9.2197031e-39
3277.96 2504.8701 390.388 9.2197031e-39
3277.29 2534.6899 397.638 9.2197031e-39
3274.4199 2562.23 404.599 9.2197031e-39
3277.01 2597.8599 412.858 9.2197031e-39
3276.1699 2629.6099 420.59201 9.2197031e-39
3275.4299 2662.28 428.534 9.2197031e-39
3279.29 2702.3999 437.724 9.2197031e-39
3066.28 2620.7 443.27399 9.2197031e-39
3276.4099 2733.6899 445.58701 9.2197031e-39
3278.5601 2773.3 454.85699 9.2197031e-39
-921.74799 764.133 468.55899 9.2197031e-39
3114.3601 2737.71 465.72101 9.2197031e-39
3178.05 2766.55 465.12201 9.2197031e-39
3211.71 2782.48 464.97101 9.2197031e-39
3276.8501 2808.1001 463.427 9.2197031e-39
3254.29 2811.3301 466.871 9.2197031e-39
-927.12097 788.724 475.10699 9.2197031e-39
-921.35101 813.32098 480.33801 9.2197031e-39
-908.41803 837.711 484.673 9.2197031e-39
-909.164 862.25299 490.66199 9.2197031e-39
-913.65601 886.95898 497.133 9.2197031e-39
-909.99597 911.41901 502.58099 9.2197031e-39
-915.03302 936.29602 509.15799 9.2197031e-39
-911.92499 960.80298 514.68298 9.2197031e-39
3264.04 3033.3899 519.10999 9.2197031e-39
-917.49799 985.89301 521.375 9.2197031e-39
-920.86401 1010.95 527.797 9.2197031e-39
3121.51 3003.1699 528.69897 9.2197031e-39
-909.19598 1034.817 532.15601 9.2197031e-39
-902.25702 1058.98 537.14502 9.2197031e-39
3079.73 3016.3999 536.82397 9.2197031e-39
3103.3501 3015.1499 533.72699 9.2197031e-39
3179.29 3065.02 536.737 9.2197031e-39
3276.6599 3100.6299 533.78302 9.2197031e-39
-898.06299 1083.361 542.51099 9.2197031e-39
-887.75299 1107.04 546.98499 9.2197031e-39
3279 3151.8201 545.81403 9.2197031e-39
-896.89001 1132.952 554.29498 9.2197031e-39
3274.8301 3192.8 556.16101 9.2197031e-39
-898.909 1158.166 560.59698 9.2197031e-39
-907.55103 1184.402 567.927 9.2197031e-39
-909.091 1209.819 574.21997 9.2197031e-39
-902.58197 1234.0859 579.28497 9.2197031e-39
-899.76099 1258.928 584.92401 9.2197031e-39
3173.22 3254.6101 583.03802 9.2197031e-39
-897.69 1283.936 590.69202 9.2197031e-39
3164.3501 3290.98 592.83301 9.2197031e-39
-976.02002 1323.686 609.513 9.2197031e-39
3166.28 3351.45 607.14398 9.2197031e-39
-926.87903 1366.405 613.97198 9.2197031e-39
3087.45 3355.4199 617.422 9.2197031e-39
3113.27 3353.45 613.896 9.2197031e-39
3140.3601 3353.9299 610.80402 9.2197031e-39
-1016.97 1357.771 622.552 9.2197031e-39
3060.1101 3353.52 620.19897 9.2197031e-39
3038.98 3365.8799 625.66901 9.2197031e-39
3265.3601 3982.05 747.04401 9.2197031e-39
3078.3799 3906.26 750.93597 9.2197031e-39
3249.9399 4024.3501 759.03699 9.2197031e-39
3057.6201 3934.47 760.17297 9.2197031e-39
3047.8401 3996.03 776.13098 9.2197031e-39
1380.04 3230.02 789.20898 9.2197031e-39
1424.97 3235.9399 785.31598 9.2197031e-39
3254.22 4118.8501 781.25299 9.2197031e-39
1399.83 3244.8799 790.43903 9.2197031e-39
1463.3101 3274.3 790.005 9.2197031e-39
3194.9099 4138.02 792.87598 9.2197031e-39
3243.3 4177.77 796.70898 9.2197031e-39
1432 3313 803.013 9.2197031e-39
3059.24 4124.77 805.73602 9.2197031e-39
2993.3899 4119.9697 812.37 9.2197031e-39
3027.9099 4127.6602 810.138 9.2197031e-39
1449.7 3469.3 838.5 9.2197031e-39
2992.24 4221.8604 837.00299 9.2197031e-39
1458.7 3558.04 858.77301 9.2197031e-39
177.634 3056.9099 889.797 9.2197031e-39
203.66499 3065.6699 888.823 9.2197031e-39
232.035 3071.0701 886.76703 9.2197031e-39
249.41499 3090.9199 889.48499 9.2197031e-39
1468.26 3652.6001 880.37799 9.2197031e-39
3027.6201 4454.8101 888.828 9.2197031e-39
49.5863 3006.9099 892.91803 9.2197031e-39
76.1399 3016.25 892.02301 9.2197031e-39
98.380898 3030.53 892.82599 9.2197031e-39
125.606 3038.6001 891.54602 9.2197031e-39
147.992 3052.4199 892.224 9.2197031e-39
2957.4199 4451.8999 896.43201 9.2197031e-39
2992.48 4453.52 892.67401 9.2197031e-39
-35.687801 3023.53 907 9.2197031e-39
-13.2904 3038.8101 908.026 9.2197031e-39
2853.27 4447.0498 907.58502 9.2197031e-39
2887.5801 4447.7197 903.68701 9.2197031e-39
2922.7 4450.9199 900.30103 9.2197031e-39
-131.39999 3007.5 914.46503 9.2197031e-39
-102.488 3016.53 913.21899 9.2197031e-39
-74.8899 3026.6899 912.396 9.2197031e-39
1223.3101 3662 911.60797 9.2197031e-39
1247.52 3675.4199 911.96997 9.2197031e-39
2710.1399 4409.7402 915.53998 9.2197031e-39
2786.1499 4450.54 916.35999 9.2197031e-39
2820.6001 4452.7598 912.82001 9.2197031e-39
1188.38 3689.54 922.35999 9.2197031e-39
1465.15 3836.2 924.888 9.2197031e-39
2752 4448.9697 920.02197 9.2197031e-39
2685.26 4451.6299 928.55603 9.2197031e-39
181.151 3228.75 930.69598 9.2197031e-39
1468.47 3999.0601 963.65302 9.2197031e-39
-331.85999 3177.29 978.99799 9.2197031e-39
2700.74 4709.5 988.72601 9.2197031e-39
1468.38 4206.2998 1013.49 9.2197031e-39
-670.62097 3251.04 1036.8 9.2197031e-39
1733.71 4424.6899 1034.62 9.2197031e-39
1765.79 4435.0703 1033.3199 9.2197031e-39
-670.37598 3295.4199 1047.4399 9.2197031e-39
1697.98 4468.25 1049.3199 9.2197031e-39
-764.47101 3293.6399 1058.14 9.2197031e-39
-667.453 3337.97 1057.3199 9.2197031e-39
-639.85498 3356.8101 1058.59 9.2197031e-39
1476.04 4383.1201 1055.1 9.2197031e-39
1599.46 4457.73 1058.4399 9.2197031e-39
1632.28 4461.52 1055.47 9.2197031e-39
1665.2 4464.0601 1052.1899 9.2197031e-39
1019.17 4204.4697 1066.1801 9.2197031e-39
1501.65 4440.8604 1065.95 9.2197031e-39
1531.79 4467.6299 1068.8199 9.2197031e-39
1565.74 4462.3501 1063.54 9.2197031e-39
1825.8 4590 1063.47 9.2197031e-39
-652.41699 3415.97 1074.3 9.2197031e-39
-658.70203 3470.02 1088.04 9.2197031e-39
1789.49 4643.1396 1080.54 9.2197031e-39
2747.8601 5167.8501 1093.36 9.2197031e-39
303.22299 4147.6001 1137.1801 9.2197031e-39
337.82199 4153.7002 1134.5601 9.2197031e-39
821.00201 4409.7002 1138.96 9.2197031e-39
892.565 4408.9502 1130.3199 9.2197031e-39
856.13599 4411.7998 1135.3101 9.2197031e-39
228.634 4144.7197 1145.3101 9.2197031e-39
267.29099 4143.7598 1140.51 9.2197031e-39
750.24402 4405.4399 1146.3101 9.2197031e-39
785.80603 4407.27 1142.54 9.2197031e-39
911.151 4468.0703 1142.33 9.2197031e-39
189.812 4145.2598 1150.03 9.2197031e-39
146.715 4153.0601 1157.01 9.2197031e-39
642.80298 4398.8398 1157.4301 9.2197031e-39
678.58197 4401.6797 1153.88 9.2197031e-39
713.354 4406.9297 1151.03 9.2197031e-39
1850 4977.4902 1153.78 9.2197031e-39
32.976799 4143.3398 1168.12 9.2197031e-39
109.835 4148.52 1160.27 9.2197031e-39
64.845802 4157.9199 1167.86 9.2197031e-39
607.974 4392.9502 1160.13 9.2197031e-39
565.85699 4405.6899 1168.17 9.2197031e-39
-50.273399 4146.5098 1178.73 9.2197031e-39
-6.1098399 4140.98 1172.1801 9.2197031e-39
456.341 4395.6499 1178.71 9.2197031e-39
495.81601 4392.1797 1173.21 9.2197031e-39
527.29303 4408.0801 1173.3101 9.2197031e-39
-94.202003 4150.7002 1184.9301 9.2197031e-39
378.75601 4396.9502 1188.2 9.2197031e-39
418.569 4394.27 1182.85 9.2197031e-39
264.392 4389.4102 1199.91 9.2197031e-39
302.60999 4392.2998 1196.09 9.2197031e-39
340.733 4394.8101 1192.1801 9.2197031e-39
1880.4399 5404.8701 1252.9301 9.2197031e-39
-284.35101 4389.0498 1264.73 9.2197031e-39
-377.13101 4391.4697 1276.28 9.2197031e-39
-331.409 4391.7402 1270.9399 9.2197031e-39
-471.841 4393.4102 1287.95 9.2197031e-39
-424.10901 4392.3101 1282.04 9.2197031e-39
-568.52002 4394.7803 1299.71 9.2197031e-39
-519.79498 4393.98 1293.76 9.2197031e-39
-629.26202 4411.5601 1310.9301 9.2197031e-39
-3306.3 3223.96 1342.01 9.2197031e-39
-3285.77 3270.6799 1350.8101 9.2197031e-39
-3274.51 3321.96 1361.8101 9.2197031e-39
-3266.24 3374.99 1373.58 9.2197031e-39
-3265.27 3432.0701 1387.1899 9.2197031e-39
-5491.3701 2349.26 1390.13 9.2197031e-39
-5489.8398 2416.3901 1406.09 9.2197031e-39
-3264.5601 3489.8101 1400.99 9.2197031e-39
-3262.3401 3547.3 1414.55 9.2197031e-39
-5479.02 2481.6699 1420.51 9.2197031e-39
-3259.5 3605 1428.09 9.2197031e-39
-5473.3701 2548.28 1435.85 9.2197031e-39
-3263.73 3667.1201 1443.52 9.2197031e-39
-5475.7002 2617.0801 1452.67 9.2197031e-39
-3259.5801 3725.25 1457.01 9.2197031e-39
-3177.78 3739.28 1450.71 9.2197031e-39
-5431.5601 2674.3799 1461.23 9.2197031e-39
-3180.3401 3801.53 1465.98 9.2197031e-39
-5471.7202 2753.52 1485.01 9.2197031e-39
-3183.8501 3865.0801 1481.67 9.2197031e-39
-3185.79 3928.4399 1497.14 9.2197031e-39
-2092 4449.9399 1493.16 9.2197031e-39
-5477.77 2824.4299 1502.77 9.2197031e-39
-2236.1599 4446.0898 1509.28 9.2197031e-39
-2160.29 4445.27 1500.11 9.2197031e-39
-5474.6001 2893.2 1518.9301 9.2197031e-39
-3194.4299 3996.74 1514.58 9.2197031e-39
-2313.1201 4446.52 1518.49 9.2197031e-39
-2394.8999 4449.6699 1528.92 9.2197031e-39
-5462.2598 2959.6201 1533.4399 9.2197031e-39
-4894.0698 3256.3 1537.5699 9.2197031e-39
-3202.24 4065.45 1532.02 9.2197031e-39
-2477.8401 4452.3101 1539.36 9.2197031e-39
-5449.3101 3026.03 1547.87 9.2197031e-39
-4870.1602 3315.3501 1548.9399 9.2197031e-39
-3202.6599 4130.3301 1547.6801 9.2197031e-39
-2558.9399 4451.9697 1548.87 9.2197031e-39
-5424.4902 3088.8899 1560.05 9.2197031e-39
-4871.4102 3383.96 1565.59 9.2197031e-39
-3209.6299 4200.3398 1565.33 9.2197031e-39
-2648 4456.5801 1560.52 9.2197031e-39
-5404.73 3153.3401 1573.21 9.2197031e-39
-3194.74 4256.6001 1577.1 9.2197031e-39
-2736 4458.7402 1571.4399 9.2197031e-39
-5189.0498 3292.26 1581.11 9.2197031e-39
-4871.96 3452.8301 1582.21 9.2197031e-39
-2821.3401 4457.2998 1581.1899 9.2197031e-39
-5419.8501 3229.3899 1593.29 9.2197031e-39
-4863.6001 3518.6499 1597.05 9.2197031e-39
-3199.3201 4326.6699 1594.49 9.2197031e-39
-2913.26 4459.3701 1592.5601 9.2197031e-39
3095.4099 7423.3599 1594.55 9.2197031e-39
-5394.1699 3292.28 1605.37 9.2197031e-39
-3195.8501 4392.0898 1609.8101 9.2197031e-39
-3004.8401 4459.5601 1603.4399 9.2197031e-39
3035.3799 7424.5 1601.9301 9.2197031e-39
-4862.7598 3587.9099 1613.6 9.2197031e-39
-3096.8401 4458.46 1614.05 9.2197031e-39
2976.4299 7431.8901 1610.6801 9.2197031e-39
2917.6699 7440.7002 1619.74 9.2197031e-39
-4860.29 3657.02 1629.92 9.2197031e-39
-3191.6001 4457.7598 1625.09 9.2197031e-39
2858.55 7447.0698 1628.27 9.2197031e-39
2798.1299 7443.2598 1634.5 9.2197031e-39
-4867.0098 3730.6001 1648.41 9.2197031e-39
2739.1899 7450.5498 1643.22 9.2197031e-39
2681.52 7469.9399 1654.7 9.2197031e-39
-4863.96 3800.5901 1664.88 9.2197031e-39
2501.8101 7465.9102 1674.99 9.2197031e-39
2626.54 7518.9199 1672.98 9.2197031e-39
-4860.1899 3870.79 1681.3101 9.2197031e-39
2442.23 7466.7798 1682.24 9.2197031e-39
2566.6599 7522.7798 1680.99 9.2197031e-39
2383.22 7475.8799 1691.41 9.2197031e-39
2335.76 7697.4199 1750.29 9.2197031e-39
2274.6799 7708.48 1760.17 9.2197031e-39
2213.0701 7710.25 1767.89 9.2197031e-39
2151.3999 7710.5298 1775.25 9.2197031e-39
2028.02 7709.5 1789.59 9.2197031e-39
2089.72 7710.2798 1782.48 9.2197031e-39
1966.3199 7708.2002 1796.58 9.2197031e-39
1904.5601 7715.1099 1805.54 9.2197031e-39
