# .PCD v0.7 - Point Cloud Data file format
VERSION 0.7
FIELDS x y z rgb
SIZE 4 4 4 4
TYPE F F F F
COUNT 1 1 1 1
WIDTH 324
HEIGHT 1
VIEWPOINT 0 0 0 1 0 0 0
POINTS 324
DATA ascii
1018.7 1111.918 135.57201 9.2197031e-39
1024.635 1114.6335 135.52249 9.2197031e-39
1028.24 1129.239 138.60699 9.2197031e-39
1767.9301 1486.2681 136.884 9.2197031e-39
1774.47 1487.9761 136.521 9.2197031e-39
1769.62 1493.019 138.30701 9.2197031e-39
1771.7001 1492.5267 137.94275 9.2197031e-39
1775.0166 1501.1295 139.618 9.2197031e-39
3219.1299 2189.1899 134.09801 9.2197031e-39
3220.74 2206.1401 137.98199 9.2197031e-39
993.974 1136.3655 144.37601 9.2197031e-39
1006.16 1132.033 141.89101 9.2197031e-39
1027.75 1135.1531 140.08701 9.2197031e-39
999.35498 1148.1899 146.58099 9.2197031e-39
991.88599 1154.8091 149.05649 9.2197031e-39
1352.27 1332.203 149.04601 9.2197031e-39
1404.63 1349.0601 146.89999 9.2197031e-39
1423.46 1356.099 146.364 9.2197031e-39
1450.1 1364.8569 145.31599 9.2197031e-39
1475.92 1372.8401 144.179 9.2197031e-39
1506.0914 1386.2196 143.82457 9.2197031e-39
1514.24 1384.495 142.446 9.2197031e-39
1485.6075 1396.223 148.65324 9.2197031e-39
1496.1426 1393.5704 146.76875 9.2197031e-39
1504 1390.942 145.207 9.2197031e-39
1485.04 1400.2891 149.698 9.2197031e-39
1508.6 1411.689 149.64999 9.2197031e-39
1758.0901 1504.46 142.422 9.2197031e-39
1764.005 1506.2904 142.162 9.2197031e-39
1771.85 1502.173 140.244 9.2197031e-39
1759.5 1517.209 145.32001 9.2197031e-39
1763.642 1514.996 144.29739 9.2197031e-39
1779.21 1512.395 141.83 9.2197031e-39
1781.6699 1511.5985 141.347 9.2197031e-39
1754.6875 1523.4353 147.38651 9.2197031e-39
1761.7167 1525.3934 147.02501 9.2197031e-39
1770.79 1531.363 147.386 9.2197031e-39
3223.6101 2224.74 142.112 9.2197031e-39
3225.73 2242.3198 146.08701 9.2197031e-39
1000.35 1167.65 151.142 9.2197031e-39
1001.19 1174.0281 152.575 9.2197031e-39
1021.73 1187.802 153.455 9.2197031e-39
1032.1899 1197.2881 154.498 9.2197031e-39
1052.12 1210.0869 155.216 9.2197031e-39
1104.53 1233.0649 154.536 9.2197031e-39
1136.29 1248.575 154.505 9.2197031e-39
1175.96 1265.728 153.93401 9.2197031e-39
1211.04 1280.932 153.436 9.2197031e-39
1246.38 1295.349 152.71899 9.2197031e-39
1297.25 1313.7471 151.121 9.2197031e-39
1497.67 1408.969 150.28999 9.2197031e-39
1502.63 1410.3931 150.045 9.2197031e-39
3226.4199 2260.1602 150.295 9.2197031e-39
3228.1499 2277.9102 154.355 9.2197031e-39
3220.5901 2291.52 158.52299 9.2197031e-39
1324.23 1389.3049 166.091 9.2197031e-39
1219.74 1388.54 178.274 9.2197031e-39
1278.45 1388.842 171.399 9.2197031e-39
1189.84 1390.548 182.29601 9.2197031e-39
1210.62 1395.4299 181.011 9.2197031e-39
2844.3301 2701.5 301.61301 9.2197031e-39
2838.8601 2718.24 306.284 9.2197031e-39
2879.1599 2717.0701 301.23401 9.2197031e-39
2828.4199 2728.5801 310.004 9.2197031e-39
2824.5601 2747.5 315.01099 9.2197031e-39
2807.3201 2750.21 317.703 9.2197031e-39
2799.8799 2765.3 322.20999 9.2197031e-39
2801.1399 2789.78 327.94601 9.2197031e-39
2793.8701 2805.6399 332.61899 9.2197031e-39
2782.6201 2815.6101 336.34698 9.2197031e-39
2778.1001 2835.27 341.608 9.2197031e-39
2778.22 2859.96 347.53101 9.2197031e-39
2768.8701 2874.1899 352.05701 9.2197031e-39
2767.1799 2897.4199 357.841 9.2197031e-39
2770.4199 2929.1299 365.07999 9.2197031e-39
-646.87799 1472.557 419.40302 9.2197031e-39
-1024.23 1390.8401 444.422 9.2197031e-39
-971.07599 1413.114 443.48599 9.2197031e-39
-955.44501 1435.905 447.11499 9.2197031e-39
-932.71899 1457.23 449.55099 9.2197031e-39
3103.1101 3411.8999 441.75699 9.2197031e-39
-854.96399 1498.7671 450.33301 9.2197031e-39
-735.20599 1556.569 450.05399 9.2197031e-39
3055.98 3456.3999 458.03299 9.2197031e-39
3079.95 3452.5801 454.27802 9.2197031e-39
3104.22 3450.71 450.95499 9.2197031e-39
2980.6599 3456.9399 467.078 9.2197031e-39
3004.6499 3456.1201 464.04001 9.2197031e-39
3029.6001 3454.48 460.694 9.2197031e-39
-991.21698 1526.5591 473.14099 9.2197031e-39
3224.2 3876.6699 539.15302 9.2197031e-39
-1506.47 1574.946 545.75702 9.2197031e-39
3227.8799 3928.5601 551.19 9.2197031e-39
3229.6699 3981.3 563.65601 9.2197031e-39
3230.72 4031.9099 575.698 9.2197031e-39
3226.3201 4077.3799 587.14801 9.2197031e-39
3131.1699 4069.9099 596.61401 9.2197031e-39
3168.5701 4083.8201 595.53198 9.2197031e-39
3200.49 4084.71 591.96802 9.2197031e-39
3043.1101 4073.1001 607.80499 9.2197031e-39
3075.4199 4077.0801 604.93799 9.2197031e-39
3105.3201 4078.6899 601.78601 9.2197031e-39
3013.9399 4071.74 610.93103 9.2197031e-39
1370.16 3341.3201 629.90198 9.2197031e-39
3015.7 4134.1001 625.71399 9.2197031e-39
1334.16 3344.96 635.03699 9.2197031e-39
1351.04 3347.9399 633.755 9.2197031e-39
1382.23 3379.54 637.66101 9.2197031e-39
1388.75 3474.6001 659.74103 9.2197031e-39
1401.9399 3518.5701 668.74902 9.2197031e-39
3118.03 4399.71 677.453 9.2197031e-39
-2102.1499 1864.91 685.96802 9.2197031e-39
-2074.3999 1894.91 689.89502 9.2197031e-39
3012.0701 4378.1499 684.81097 9.2197031e-39
3050.96 4392.6699 683.69702 9.2197031e-39
3083.3401 4395.7598 680.60797 9.2197031e-39
96.188301 3030.45 705.95801 9.2197031e-39
1407.0601 3654.21 700.75 9.2197031e-39
-2172.0801 1940.2 712.34198 9.2197031e-39
18.2633 3023.4299 713.49402 9.2197031e-39
38.847801 3031.1299 712.90802 9.2197031e-39
53.403099 3046.23 714.815 9.2197031e-39
80.194099 3077.51 719.16302 9.2197031e-39
101.659 3083.78 718.12903 9.2197031e-39
3036.79 4500.1797 711.21899 9.2197031e-39
108.242 3107.6799 723.09698 9.2197031e-39
129.83099 3113.6101 721.966 9.2197031e-39
150.892 3121.3999 721.34802 9.2197031e-39
163.62 3137.1399 723.62402 9.2197031e-39
171.04401 3160.8301 728.43903 9.2197031e-39
1197.92 3670.28 729.36603 9.2197031e-39
1417.46 3750.28 722.61499 9.2197031e-39
3018.01 4532.23 721.146 9.2197031e-39
2995.8401 4553.6899 728.92902 9.2197031e-39
182.30901 3178.6799 731.39801 9.2197031e-39
200.07001 3190.3601 732.10303 9.2197031e-39
212.284 3207.3 734.729 9.2197031e-39
226.688 3223.26 736.862 9.2197031e-39
2932.8301 4556.5601 737.07703 9.2197031e-39
2964 4556.4399 733.35901 9.2197031e-39
227.461 3255.3701 744.48999 9.2197031e-39
1242.91 3772.26 748.55603 9.2197031e-39
2835.6699 4552.4199 747.58301 9.2197031e-39
2867.22 4550.8999 743.48297 9.2197031e-39
2901.1001 4558.71 741.349 9.2197031e-39
-196.024 3109.1599 759.466 9.2197031e-39
-142.882 3120.45 755.888 9.2197031e-39
-117.124 3125.5601 754.07001 9.2197031e-39
2743.78 4553.4102 758.69598 9.2197031e-39
2773.78 4553.2002 755.09497 9.2197031e-39
2805.2 4552.27 751.15198 9.2197031e-39
-247.168 3124.4299 769.18799 9.2197031e-39
-177.953 3122.2 760.461 9.2197031e-39
1152.5699 3784.1699 762.112 9.2197031e-39
1194.42 3797.1799 760.28601 9.2197031e-39
2641.27 4521.3896 763.13098 9.2197031e-39
2674.6101 4529.1602 761.05402 9.2197031e-39
2712.48 4553.7598 762.48401 9.2197031e-39
-307.56 3116.5 774.43201 9.2197031e-39
-294.35199 3136.54 777.68402 9.2197031e-39
1205.53 3861.6699 774.474 9.2197031e-39
2626.3899 4567.2803 775.92297 9.2197031e-39
1416.05 4010.79 785.40503 9.2197031e-39
-1200.8 2853.45 816.91998 9.2197031e-39
-468.78 3224.8101 819.54999 9.2197031e-39
-1186.84 2878.6799 821.33099 9.2197031e-39
2661.1899 4785.4399 824.24902 9.2197031e-39
1415.73 4301.48 855.32001 9.2197031e-39
-750.013 3321.6201 876.10901 9.2197031e-39
-713.15002 3326.0601 872.81299 9.2197031e-39
1676.28 4519.3203 876.849 9.2197031e-39
1704.64 4519.6899 873.58197 9.2197031e-39
-1269.0601 3087.4299 881.24701 9.2197031e-39
-1248.73 3110.8401 884.466 9.2197031e-39
-1235.71 3136.8 889.16699 9.2197031e-39
-716.73102 3365.05 882.60999 9.2197031e-39
1649.3199 4558.6001 889.48199 9.2197031e-39
2674.3899 5059.29 888.51801 9.2197031e-39
2708.49 5054.7998 883.401 9.2197031e-39
-1219.98 3162.8999 893.57898 9.2197031e-39
-723.659 3405.76 893.21503 9.2197031e-39
1430.1801 4474.48 895.20001 9.2197031e-39
1564.53 4555.3203 898.729 9.2197031e-39
1593.25 4556.6699 895.65601 9.2197031e-39
1620.6 4557.73 892.67401 9.2197031e-39
-1242.91 3211.3501 907.93903 9.2197031e-39
1453.33 4534.0498 906.77899 9.2197031e-39
1480.72 4558.6797 909.45801 9.2197031e-39
1508.49 4551.9502 904.552 9.2197031e-39
1537.2 4553.79 901.59802 9.2197031e-39
1735.4301 4656.96 902.93597 9.2197031e-39
1766.1 4686.02 906.29102 9.2197031e-39
2668.45 5160.52 913.55499 9.2197031e-39
248.138 4009.9199 923.42798 9.2197031e-39
213.651 4018.73 929.62799 9.2197031e-39
272.703 4021.8401 923.38599 9.2197031e-39
149.43401 4022.77 938.20099 9.2197031e-39
179.62399 4023.1299 934.71301 9.2197031e-39
597.00897 4215.7402 931.61401 9.2197031e-39
83.091904 4027.8899 947.28302 9.2197031e-39
114.549 4027.26 943.409 9.2197031e-39
9.9258003 4041.3601 959.18103 9.2197031e-39
41.271599 4042.3201 955.70203 9.2197031e-39
2674.3701 5320.0498 951.20502 9.2197031e-39
-21.1506 4036.8799 961.78302 9.2197031e-39
964.62598 4549.2598 968.27899 9.2197031e-39
200.18201 4219.27 979.42999 9.2197031e-39
230.567 4223.8799 976.94098 9.2197031e-39
259.228 4228.4297 974.64398 9.2197031e-39
288.267 4235.0601 972.79999 9.2197031e-39
510.81 4362.6602 977.133 9.2197031e-39
828.01099 4498.27 972.19098 9.2197031e-39
797.18597 4504.6104 977.36298 9.2197031e-39
873.82098 4552.7197 979.85699 9.2197031e-39
904.27197 4553.5303 976.448 9.2197031e-39
932.20398 4558.4502 974.32397 9.2197031e-39
706.49597 4502.4902 987.586 9.2197031e-39
736.61603 4505.7803 984.81299 9.2197031e-39
766.13098 4505.6001 981.276 9.2197031e-39
843.50098 4556.6797 984.39801 9.2197031e-39
388.58099 4358.3301 990.56 9.2197031e-39
643.07397 4509.3101 996.73199 9.2197031e-39
676.26801 4503.9697 991.52002 9.2197031e-39
528.05298 4481.98 1003.78 9.2197031e-39
553.17603 4501.5098 1005.5 9.2197031e-39
581.58002 4507.5801 1003.59 9.2197031e-39
613.20398 4508.3604 1000.04 9.2197031e-39
-4824.9502 1912.91 1019.77 9.2197031e-39
327.10999 4428.48 1014.7 9.2197031e-39
437.73099 4471.9102 1012.05 9.2197031e-39
361.65601 4500.1699 1027.84 9.2197031e-39
391.38501 4505.21 1025.54 9.2197031e-39
261.35199 4500.6797 1039.84 9.2197031e-39
194.758 4498.6602 1047.24 9.2197031e-39
232.21899 4492.6899 1041.37 9.2197031e-39
-4997.5 1982.23 1056.86 9.2197031e-39
-5067.3101 2047.78 1080.88 9.2197031e-39
-300.20401 4417.2402 1086.25 9.2197031e-39
1832.66 5523.98 1099.85 9.2197031e-39
-5176.2002 2115.8301 1110.13 9.2197031e-39
-387.737 4489.6299 1114.01 9.2197031e-39
-429.47 4493.4902 1119.88 9.2197031e-39
-506.69 4486.9502 1127.4399 9.2197031e-39
-468.98099 4490.3701 1123.8 9.2197031e-39
-588.92798 4484.96 1136.7 9.2197031e-39
-545.32098 4481.3799 1130.6801 9.2197031e-39
-633.57397 4486.2598 1142.29 9.2197031e-39
-684.64697 4498.0601 1151.1801 9.2197031e-39
-5437.3501 2205.8398 1162.6801 9.2197031e-39
-3380.23 3321.6899 1187.4301 9.2197031e-39
-3313.8401 3347.5601 1185.8 9.2197031e-39
-3312.0701 3395.8501 1197.2 9.2197031e-39
-3310.6899 3447.1101 1209.36 9.2197031e-39
-1883.2 4122.4697 1202.75 9.2197031e-39
-2014 4120.5898 1217.78 9.2197031e-39
-1956.0601 4126.48 1212.34 9.2197031e-39
-3313.3601 3497.95 1221.89 9.2197031e-39
-2093.03 4126.6201 1228.58 9.2197031e-39
-5525.1699 2466.9102 1235.83 9.2197031e-39
-3301 3545.3 1231.8101 9.2197031e-39
-2160.96 4125.7803 1236.42 9.2197031e-39
-3304.4399 3597.23 1244.7 9.2197031e-39
-5521.8799 2528.1099 1250.15 9.2197031e-39
-5362.2002 2627.5698 1255.16 9.2197031e-39
-3307.1699 3651.9199 1258.17 9.2197031e-39
-5521.3599 2593.04 1265.7 9.2197031e-39
-3303.26 3701.46 1269.62 9.2197031e-39
-5367.5698 2692.5601 1271.42 9.2197031e-39
-3305.72 3756.99 1283.26 9.2197031e-39
-3191.5601 3808.1201 1282.04 9.2197031e-39
-2100.75 4341.5601 1281.17 9.2197031e-39
-3300.74 3806.8301 1294.65 9.2197031e-39
-2411.5701 4248.9102 1295.6801 9.2197031e-39
-5463.1602 2772.03 1301.84 9.2197031e-39
-5529.0498 2850.6399 1328.53 9.2197031e-39
-3205.9299 3975.8401 1324.0601 9.2197031e-39
-3196.6201 4027.2 1335.3 9.2197031e-39
-5521.3701 2912.1599 1342.41 9.2197031e-39
-5517.21 2977.75 1357.6899 9.2197031e-39
-3206.8 4086.9399 1350.87 9.2197031e-39
-3214.1899 4148.6602 1366.58 9.2197031e-39
-5500.71 3037.5601 1370.11 9.2197031e-39
-4926.8999 3335.47 1373.8101 9.2197031e-39
-5492.4702 3102.52 1384.75 9.2197031e-39
-4911.2402 3391.49 1385.4301 9.2197031e-39
-5468.2002 3160.49 1395.8199 9.2197031e-39
-5455.9399 3224.6101 1409.78 9.2197031e-39
-4908.2002 3454.5801 1400.23 9.2197031e-39
-5221.4302 3355.27 1413.4301 9.2197031e-39
-4913.96 3517.73 1416.09 9.2197031e-39
-5470.6499 3292.72 1427.89 9.2197031e-39
-2901.1899 4532.6797 1421.85 9.2197031e-39
3140.5 7523.6001 1425.75 9.2197031e-39
-4909.6602 3581.1699 1430.83 9.2197031e-39
-2992.8501 4533.8301 1432.97 9.2197031e-39
3087.4399 7533.4502 1434.4 9.2197031e-39
-5450.5098 3355.1699 1440.52 9.2197031e-39
-4914.1602 3644.79 1446.66 9.2197031e-39
-3083.51 4535.6396 1444.14 9.2197031e-39
3029.6699 7534.7798 1441.55 9.2197031e-39
-3224.6599 4506.1201 1453.75 9.2197031e-39
-3176 4534.1001 1454.72 9.2197031e-39
2918.3899 7542.1201 1456.49 9.2197031e-39
2976.71 7544.6699 1450.2 9.2197031e-39
-4908.5898 3708.54 1461.33 9.2197031e-39
2863.25 7540.52 1462.63 9.2197031e-39
-4911.8198 3772.6001 1477.11 9.2197031e-39
2807.54 7549.4302 1471.37 9.2197031e-39
2754.23 7556.5 1479.37 9.2197031e-39
2697.03 7556.75 1486.2 9.2197031e-39
-4905.8901 3836.99 1491.89 9.2197031e-39
2643.3401 7560.96 1493.5699 9.2197031e-39
2597 7630.7002 1515.8199 9.2197031e-39
2423.6499 7578.6499 1523.83 9.2197031e-39
2541.3101 7624.3799 1520.89 9.2197031e-39
2485.28 7634.3198 1529.92 9.2197031e-39
2367.04 7579.8198 1530.8101 9.2197031e-39
2313.45 7583.2002 1537.96 9.2197031e-39
2274.9199 7765.8301 1586.4301 9.2197031e-39
2223.3101 7808.1899 1602.72 9.2197031e-39
2108.78 7804.3101 1615.34 9.2197031e-39
2165.02 7811.4199 1610.39 9.2197031e-39
1994.98 7808.1802 1629.74 9.2197031e-39
2051.1101 7816.2598 1625.04 9.2197031e-39
