# .PCD v0.7 - Point Cloud Data file format
VERSION 0.7
FIELDS x y z rgb
SIZE 4 4 4 4
TYPE F F F F
COUNT 1 1 1 1
WIDTH 328
HEIGHT 1
VIEWPOINT 0 0 0 1 0 0 0
POINTS 328
DATA ascii
3248.6799 2018.25 134.22501 9.2197031e-39
3253.3501 2033.98 138.621 9.2197031e-39
1424.1 2577.1802 136.17999 9.2197031e-39
1432.42 2577.72 136.965 9.2197031e-39
1444.83 2573.6699 136.888 9.2197031e-39
1426.4501 2581.8433 137.55968 9.2197031e-39
1438.2849 2581.71 138.44299 9.2197031e-39
1441.27 2584.4099 139.3665 9.2197031e-39
1159.0734 2667.6001 138.83366 9.2197031e-39
1147.37 2670 138.541 9.2197031e-39
1159.5 2670.1001 139.509 9.2197031e-39
-3251.8999 3979.51 133.479 9.2197031e-39
3307.4099 2037.46 143.703 9.2197031e-39
3324.4399 2050.22 148.29601 9.2197031e-39
1445.7673 2587.7151 140.563 9.2197031e-39
1434.4719 2596.1018 141.8378 9.2197031e-39
1444.66 2591.1499 141.358 9.2197031e-39
1425.35 2600.3398 142.217 9.2197031e-39
1435.9366 2604.01 143.9805 9.2197031e-39
1447.92 2608.9399 146.17401 9.2197031e-39
1436.2 2615.1699 146.864 9.2197031e-39
1446.8834 2614.0632 147.40733 9.2197031e-39
1451.3101 2612.3198 147.304 9.2197031e-39
1153.995 2674.7549 140.27499 9.2197031e-39
1178.83 2678.1101 143.061 9.2197031e-39
1180.76 2675.5801 142.561 9.2197031e-39
1166.9026 2683.0024 143.39101 9.2197031e-39
1172.65 2685.6199 144.508 9.2197031e-39
1159.64 2699.49 147.058 9.2197031e-39
1168.71 2691.6201 145.742 9.2197031e-39
1057.58 2739.9199 149.517 9.2197031e-39
-1312.85 3419.6599 140.157 9.2197031e-39
-1237.6801 3418.54 145.696 9.2197031e-39
3329.26 2068.24 153.291 9.2197031e-39
3324.78 2086.8599 157.72 9.2197031e-39
1171.78 2715.6299 152.138 9.2197031e-39
1105.84 2738.99 153.02 9.2197031e-39
1035.53 2749.6399 150.30099 9.2197031e-39
1075.73 2764.4351 157.21201 9.2197031e-39
956.07599 2789.6499 154.407 9.2197031e-39
908.71698 2811.3101 156.291 9.2197031e-39
873.20697 2825.4199 157.16 9.2197031e-39
839.38898 2838.3899 157.866 9.2197031e-39
823.91199 2841.0901 157.35899 9.2197031e-39
-1145.88 3412.95 151.37801 9.2197031e-39
-1147.84 3435.3401 156.967 9.2197031e-39
1054.5801 2785.905 161.0795 9.2197031e-39
-1188.53 3473.6299 163.63499 9.2197031e-39
-1184.28 3494.46 169.30901 9.2197031e-39
970.64502 2855.47 172.41701 9.2197031e-39
935.901 2886.8601 177.778 9.2197031e-39
916.70001 2907.3401 181.54201 9.2197031e-39
884.44897 2938.52 187.039 9.2197031e-39
-1379.33 3615.3401 185.196 9.2197031e-39
869.10199 2957.27 190.659 9.2197031e-39
863.651 2967.6299 192.896 9.2197031e-39
827.70001 3004.97 199.686 9.2197031e-39
816.02899 3021.6699 203.06599 9.2197031e-39
767.04602 3072.6001 212.33099 9.2197031e-39
-3246.4099 4277.6699 210.38 9.2197031e-39
-3251.76 4367.1396 232.91499 9.2197031e-39
-3245.6699 4406.75 243.54601 9.2197031e-39
-3251.5701 4455.73 255.653 9.2197031e-39
-3251.1299 4498.1499 266.56699 9.2197031e-39
353.63101 3467.98 281.70499 9.2197031e-39
332.52399 3501.77 288.73801 9.2197031e-39
340.80499 3510.0901 291.513 9.2197031e-39
373.80899 3540.4199 301.85001 9.2197031e-39
383.03201 3546.2 304.048 9.2197031e-39
204.088 3656.79 318.54501 9.2197031e-39
3326.1101 2735.75 324.26001 9.2197031e-39
3326.6201 2752.3301 328.55301 9.2197031e-39
3043.6499 2822.9099 324.72601 9.2197031e-39
3002.8201 2833.5 324.27899 9.2197031e-39
2965.1399 2842.4099 323.64499 9.2197031e-39
2954.71 2856.1799 326.367 9.2197031e-39
2933.6399 2866.72 327.43701 9.2197031e-39
3324.8301 2770.46 333.065 9.2197031e-39
3325.04 2787.0701 337.341 9.2197031e-39
2928.8899 2881.04 330.74399 9.2197031e-39
2919.4099 2893.1101 333.103 9.2197031e-39
2911.5 2906.74 335.987 9.2197031e-39
2904.74 2919.1101 338.63599 9.2197031e-39
162.332 3734.98 335.36301 9.2197031e-39
3324.8999 2805.3799 342.02802 9.2197031e-39
3322.8301 2821.8201 346.08401 9.2197031e-39
2896.6101 2932.53 341.44901 9.2197031e-39
2881.8799 2943.0901 343.01599 9.2197031e-39
2862.8899 2953.8999 344.31601 9.2197031e-39
2865.4399 2967.95 348.11801 9.2197031e-39
3317.4199 2839.5901 350.22299 9.2197031e-39
2863.6499 2982.47 351.702 9.2197031e-39
2858.23 2994.74 354.42899 9.2197031e-39
2862.8899 3010.9399 358.94699 9.2197031e-39
2860.1101 3023.9299 362.064 9.2197031e-39
2869.23 3041.6101 367.30499 9.2197031e-39
2860.47 3053.0601 369.56299 9.2197031e-39
1403.96 3478.6399 365.84299 9.2197031e-39
1444.5601 3478.8401 369.04001 9.2197031e-39
1436.97 3484.1499 369.81201 9.2197031e-39
2865.4399 3069.8601 374.258 9.2197031e-39
2871.6201 3085.77 378.81699 9.2197031e-39
1429.92 3488.3101 370.33301 9.2197031e-39
1414.6 3494.6699 370.77802 9.2197031e-39
1421.75 3490.6299 370.29501 9.2197031e-39
1455.38 3495.48 374.14401 9.2197031e-39
1400.51 3512.3 374.20901 9.2197031e-39
2878.1201 3103.4299 383.849 9.2197031e-39
2885.8301 3120.22 388.75299 9.2197031e-39
1398.27 3569.1399 388.61301 9.2197031e-39
505.431 3808.3301 380.76901 9.2197031e-39
550.55499 3807.46 384.04401 9.2197031e-39
489.871 3810.3601 380.08301 9.2197031e-39
519.81403 3810.0701 382.32999 9.2197031e-39
531.55499 3813.55 384.13199 9.2197031e-39
560.703 3813.1899 386.29999 9.2197031e-39
576.96899 3810.95 386.98599 9.2197031e-39
586.65503 3817.3201 389.37 9.2197031e-39
605.24701 3810.5 389.061 9.2197031e-39
2896.6201 3139.75 394.599 9.2197031e-39
615.427 3815.79 391.20599 9.2197031e-39
631.422 3812.8999 391.70499 9.2197031e-39
644.87598 3811.9199 392.496 9.2197031e-39
659.315 3811.3 393.45801 9.2197031e-39
668.61102 3817.8999 395.871 9.2197031e-39
685.64502 3811.76 395.616 9.2197031e-39
698.44598 3811.1201 396.444 9.2197031e-39
711.81598 3811.7 397.62799 9.2197031e-39
723.27301 3813.47 398.96899 9.2197031e-39
737.40698 3812.01 399.69 9.2197031e-39
-231.48399 4103.6201 399.397 9.2197031e-39
2944.1699 3170.55 406.186 9.2197031e-39
1397.66 3643.23 407.57101 9.2197031e-39
790.396 3805.71 402.181 9.2197031e-39
749.62598 3811.76 400.57401 9.2197031e-39
761.276 3815.4099 402.41199 9.2197031e-39
772.67499 3816.73 403.63599 9.2197031e-39
796.49298 3819.48 406.186 9.2197031e-39
810.71802 3816.3201 406.479 9.2197031e-39
820.974 3819.96 408.20599 9.2197031e-39
835.76703 3814.71 408.00601 9.2197031e-39
845.67499 3819.0601 409.88901 9.2197031e-39
381.21201 3946.97 406.70099 9.2197031e-39
858.98401 3817.22 410.45001 9.2197031e-39
867.01001 3826.9199 413.561 9.2197031e-39
1383.51 3697.29 420.34 9.2197031e-39
-227.063 4205.0303 425.75201 9.2197031e-39
3110.1001 3245.3 438.21701 9.2197031e-39
1396.65 3736.77 431.48401 9.2197031e-39
-229.86099 4234.3301 433.04999 9.2197031e-39
3106.1699 3260.73 441.87 9.2197031e-39
3108.8999 3280.3799 447.12399 9.2197031e-39
3089.8899 3290.25 448.181 9.2197031e-39
853.23401 3942.1001 442.035 9.2197031e-39
-234.19 4268.6499 441.51901 9.2197031e-39
-230.82401 4292.3896 447.867 9.2197031e-39
852.44098 3987.5701 453.638 9.2197031e-39
-232.91499 4325.5498 456.20999 9.2197031e-39
3147.45 3331.3701 463.19101 9.2197031e-39
1224.77 3925.3101 466.52301 9.2197031e-39
1237.05 3928.51 468.29501 9.2197031e-39
1248.28 3929.6499 469.45801 9.2197031e-39
1200.4399 3935.0901 467.146 9.2197031e-39
1212.98 3934.6299 468 9.2197031e-39
853.81702 4024.4199 463.19501 9.2197031e-39
803.55798 4052.6201 466.534 9.2197031e-39
-235.36301 4356.8896 464.06 9.2197031e-39
3164.74 3355.9399 470.83099 9.2197031e-39
3165.52 3376.0701 476.05499 9.2197031e-39
1271.78 3946.1799 475.51901 9.2197031e-39
1308.4 3946.46 478.42899 9.2197031e-39
1284.34 3953.8 478.44699 9.2197031e-39
1295.84 3955.52 479.78 9.2197031e-39
851.763 4079.4299 477.14499 9.2197031e-39
-235.847 4389.6104 472.41599 9.2197031e-39
-234.214 4417.46 479.686 9.2197031e-39
3187.7 3403.47 484.80301 9.2197031e-39
1320.09 3957.6699 482.20999 9.2197031e-39
1332.71 3954.2 482.29901 9.2197031e-39
853.98401 4118.29 487.28601 9.2197031e-39
-236.30099 4453.4902 488.76401 9.2197031e-39
1395.54 3989.5801 496.24399 9.2197031e-39
1258.36 4036.3 497.595 9.2197031e-39
-229.47 4476.1797 495.11401 9.2197031e-39
3223.9199 3458.3799 501.69299 9.2197031e-39
3254.96 3452.72 502.647 9.2197031e-39
3190.73 3483.52 505.56799 9.2197031e-39
852.16498 4179.1499 502.755 9.2197031e-39
-237.384 4520.9502 505.98499 9.2197031e-39
3256.8101 3494.28 513.45099 9.2197031e-39
3188.3101 3503.47 510.5 9.2197031e-39
852.57501 4230.3896 515.92999 9.2197031e-39
-207.539 4551.3999 516.10797 9.2197031e-39
-188.742 4559.9502 519.758 9.2197031e-39
-244.439 4562.4399 516.07898 9.2197031e-39
3214.8799 3535.54 520.784 9.2197031e-39
3201.3201 3550.6101 523.59802 9.2197031e-39
3197.3 3568.3501 527.83801 9.2197031e-39
3056.0801 3597.1399 524.27802 9.2197031e-39
3095.78 3597.73 527.50403 9.2197031e-39
-44.574299 4539.3701 525.65302 9.2197031e-39
-154.05901 4550.4902 520.02002 9.2197031e-39
-131.82201 4553.7998 522.59003 9.2197031e-39
-105.063 4553.9902 524.71301 9.2197031e-39
-82.364799 4555.9902 526.98602 9.2197031e-39
3194.8401 3589.04 532.95398 9.2197031e-39
3136.48 3600.1599 531.28198 9.2197031e-39
3179.1399 3600.8799 534.77301 9.2197031e-39
3067.76 3623.1799 531.86298 9.2197031e-39
1394.41 4147.96 536.77802 9.2197031e-39
850.14099 4301.8604 534.073 9.2197031e-39
850.56299 4360.8501 549.23602 9.2197031e-39
1158.38 4338.8999 567.46198 9.2197031e-39
1358.67 4311.4502 575.94397 9.2197031e-39
847.60901 4444.8896 570.56299 9.2197031e-39
3285.9099 3772.01 586.94202 9.2197031e-39
849.37201 4507.8799 586.85602 9.2197031e-39
3290.77 3797.27 593.79797 9.2197031e-39
3285.01 3818.78 598.86902 9.2197031e-39
859.80798 4544.6499 597.09698 9.2197031e-39
3287.6399 3843.27 605.354 9.2197031e-39
1395.1899 4410.8896 604.28003 9.2197031e-39
3290.5 3870.6101 612.58899 9.2197031e-39
3286.75 3891.6699 617.70001 9.2197031e-39
3288.1599 3918.73 624.75 9.2197031e-39
3283.9099 3939.8999 629.85199 9.2197031e-39
1383.1899 4480.5898 621.229 9.2197031e-39
3286.3201 3968.28 637.31702 9.2197031e-39
844.80798 4695.3301 634.58197 9.2197031e-39
863.82001 4701.6899 637.68799 9.2197031e-39
3288.8 3994.5901 644.25702 9.2197031e-39
902.04498 4704.0703 641.26099 9.2197031e-39
919.89899 4706.79 643.34302 9.2197031e-39
939.612 4709.6299 645.59802 9.2197031e-39
978.71198 4704.9297 647.42297 9.2197031e-39
996.44897 4708 649.58398 9.2197031e-39
1017.19 4702.4399 649.76703 9.2197031e-39
879.974 4713.3203 641.922 9.2197031e-39
957.36603 4713.0098 647.84003 9.2197031e-39
3288.8899 4022.1499 651.33398 9.2197031e-39
3284.3701 4044.1699 656.63 9.2197031e-39
1054.75 4706.0498 653.60199 9.2197031e-39
1072.64 4707.54 655.37097 9.2197031e-39
1092.28 4709.98 657.52002 9.2197031e-39
1110.96 4702.4697 657.03998 9.2197031e-39
1033.99 4712.9102 653.755 9.2197031e-39
3285.3999 4073.0801 664.12701 9.2197031e-39
3279.55 4094.6299 669.20001 9.2197031e-39
3286.1201 4128.5 678.39697 9.2197031e-39
3060.54 4193.0303 677.466 9.2197031e-39
3287.4199 4156.1602 685.59302 9.2197031e-39
3096.26 4197.7598 681.44702 9.2197031e-39
3132.8799 4199.8301 684.81598 9.2197031e-39
3286.21 4185.02 692.90198 9.2197031e-39
3281.5 4208.6602 698.599 9.2197031e-39
3185.3899 4217.4697 693.41199 9.2197031e-39
3236.04 4229.6104 700.45099 9.2197031e-39
3284.8799 4242.04 707.42401 9.2197031e-39
1716.95 4687.5601 700.18298 9.2197031e-39
1736.59 4683.3101 700.61401 9.2197031e-39
1755.85 4685.9102 702.77197 9.2197031e-39
1703.39 4713.0703 705.67499 9.2197031e-39
3073.78 4384.7998 727.68201 9.2197031e-39
3053.9299 4398.1299 729.56201 9.2197031e-39
3229.6201 4377.04 737.76703 9.2197031e-39
3123.27 4403.4297 736.29602 9.2197031e-39
3053.2 4427.9502 737.15399 9.2197031e-39
3047.75 4456.5601 744.06897 9.2197031e-39
1810.3 4829.9199 743.93201 9.2197031e-39
3246.29 4422.71 750.77399 9.2197031e-39
3045.5701 4485.8799 751.42102 9.2197031e-39
3040 4515.3501 758.54797 9.2197031e-39
3258.52 4468.4399 763.45203 9.2197031e-39
3238.74 4481.1797 765.18597 9.2197031e-39
2667.3401 4662.1001 767.30603 9.2197031e-39
2695.99 4666.5801 770.67798 9.2197031e-39
2671.1101 4710.23 779.94501 9.2197031e-39
3087.1899 4600.4102 784.02197 9.2197031e-39
2747.1499 4698.9399 782.94202 9.2197031e-39
2801.46 4695.9697 786.39099 9.2197031e-39
2829.8401 4697.4199 788.96198 9.2197031e-39
2775.8601 4701.79 785.89899 9.2197031e-39
2652.8799 4721.6299 781.45801 9.2197031e-39
3076.05 4660.5601 798.58698 9.2197031e-39
2859.6299 4696.4502 791.021 9.2197031e-39
2889.45 4698.79 793.93201 9.2197031e-39
2914.1299 4690.23 793.64801 9.2197031e-39
2949.6201 4698.75 798.586 9.2197031e-39
2979.3 4695.6104 800.08002 9.2197031e-39
3009.6899 4696.5601 802.67902 9.2197031e-39
3040.8201 4694.2002 804.48602 9.2197031e-39
3071.48 4694.4399 806.92297 9.2197031e-39
2675.1001 4801.1499 803.57599 9.2197031e-39
3140.1899 4698.1201 813.19299 9.2197031e-39
2709.3 5201.1299 908.81897 9.2197031e-39
2772.9299 5205.2002 914.79303 9.2197031e-39
2803.0901 5206.1099 917.36499 9.2197031e-39
2834.6899 5203.73 919.203 9.2197031e-39
2743.8999 5211.1299 914.06598 9.2197031e-39
2692.3301 5228.5898 914.54797 9.2197031e-39
2893.3201 5195.1899 921.55701 9.2197031e-39
2865.6001 5204.8301 921.88098 9.2197031e-39
2696.1799 5290.7598 930.79303 9.2197031e-39
2701.9199 5364.73 950.20898 9.2197031e-39
2691.1001 5402.3901 959.03101 9.2197031e-39
2739.52 5708.7202 1041.36 9.2197031e-39
2761.3899 5827.1602 1073.4301 9.2197031e-39
2626.54 7698.25 1542.91 9.2197031e-39
2677.21 7694.5698 1545.89 9.2197031e-39
2723.2 7690.77 1548.48 9.2197031e-39
2585.1699 7719.0298 1545.03 9.2197031e-39
2918.8701 7676.1201 1559.89 9.2197031e-39
2822.3 7688.9502 1555.6899 9.2197031e-39
2872.6599 7681.5898 1557.71 9.2197031e-39
2775.8799 7692.6699 1553.05 9.2197031e-39
2546.5701 7771.6001 1555.52 9.2197031e-39
3070.72 7666.0698 1569.08 9.2197031e-39
2972.6101 7677.9502 1564.52 9.2197031e-39
3019.26 7672.5298 1566.75 9.2197031e-39
3171.01 7657.8501 1574.74 9.2197031e-39
3220.95 7658.8398 1578.87 9.2197031e-39
3120.0801 7667.0801 1573.16 9.2197031e-39
3298.8401 7716.9902 1599.8199 9.2197031e-39
3442.8799 7682.0698 1602.02 9.2197031e-39
3397.26 7695.6099 1601.96 9.2197031e-39
3345.6299 7706.9702 1600.87 9.2197031e-39
4922.54 10756.3 2505.22 9.2197031e-39
4893.8999 10882.3 2535.3201 9.2197031e-39
