# .PCD v0.7 - Point Cloud Data file format
VERSION 0.7
FIELDS x y z rgb
SIZE 4 4 4 4
TYPE F F F F
COUNT 1 1 1 1
WIDTH 299
HEIGHT 1
VIEWPOINT 0 0 0 1 0 0 0
POINTS 299
DATA ascii
255.61066 244.02699 134.96733 9.2197031e-39
264.5455 245.2025 137.3615 9.2197031e-39
271.70001 244.993 139.27899 9.2197031e-39
266.87701 786.98999 137.98599 9.2197031e-39
268.716 810.94202 138.479 9.2197031e-39
271.96698 812.50696 139.35001 9.2197031e-39
252.00101 2837 134 9.2197031e-39
270.34299 2845.9199 138.91499 9.2197031e-39
276.59 253.77802 140.589 9.2197031e-39
279.62601 260.99899 141.40199 9.2197031e-39
285.84299 269.53 143.06799 9.2197031e-39
285.349 275.021 142.936 9.2197031e-39
291.58951 295.741 144.608 9.2197031e-39
294.22699 326.272 145.3145 9.2197031e-39
294.61499 356.08499 145.41901 9.2197031e-39
293.83301 380.21799 145.209 9.2197031e-39
288.26501 432.95502 143.717 9.2197031e-39
287.073 453.017 143.39799 9.2197031e-39
311.02399 470.13202 149.815 9.2197031e-39
283.70099 483.871 142.494 9.2197031e-39
302.20401 494.53601 147.452 9.2197031e-39
280.51599 510.71301 141.64101 9.2197031e-39
277.431 537.59351 140.81451 9.2197031e-39
285.7572 535.9118 143.0452 9.2197031e-39
279.29401 545.84937 141.31334 9.2197031e-39
284.16599 541.23596 142.619 9.2197031e-39
282.4115 798.69299 142.1485 9.2197031e-39
309.38599 794.55701 149.377 9.2197031e-39
285.93649 805.76422 143.09325 9.2197031e-39
308.59302 803.18097 149.164 9.2197031e-39
311.4415 803.4975 149.92749 9.2197031e-39
275.117 813.01099 140.194 9.2197031e-39
283.151 815.46802 142.347 9.2197031e-39
296.68002 816.51129 145.972 9.2197031e-39
304.53467 816.86261 148.07668 9.2197031e-39
310.87701 813.599 149.776 9.2197031e-39
277.73267 823.69904 140.895 9.2197031e-39
283.36349 826.15845 142.4035 9.2197031e-39
297.66867 824.59442 146.23665 9.2197031e-39
306.841 825.98901 148.69501 9.2197031e-39
282.41101 831.96802 142.149 9.2197031e-39
311.198 833.91797 149.862 9.2197031e-39
305.25101 2775.28 148.269 9.2197031e-39
288.19501 2816.6699 143.698 9.2197031e-39
345.78699 379.81299 159.13 9.2197031e-39
333.78601 409.41101 155.914 9.2197031e-39
322.87201 437.293 152.99001 9.2197031e-39
312.30103 826.50647 150.15799 9.2197031e-39
312.92401 834.31 150.32401 9.2197031e-39
323.09601 2777.72 153.05 9.2197031e-39
342.20801 2808.96 158.17101 9.2197031e-39
377.42599 303.31299 167.608 9.2197031e-39
358.922 348.52399 162.64999 9.2197031e-39
360.133 2806.0701 162.974 9.2197031e-39
381.20099 2856.9099 168.619 9.2197031e-39
406.67749 247.32149 175.4455 9.2197031e-39
417.00452 241.823 178.21249 9.2197031e-39
422.776 243.168 179.759 9.2197031e-39
395.379 262.173 172.418 9.2197031e-39
417.48599 3120.02 178.342 9.2197031e-39
434.06168 236.55334 182.78333 9.2197031e-39
446.30798 233.64049 186.06451 9.2197031e-39
455.328 233.623 188.48151 9.2197031e-39
465.54663 236.08699 191.21967 9.2197031e-39
477.39349 235.72501 194.39401 9.2197031e-39
483.33499 237.93799 195.98599 9.2197031e-39
491.6485 235.9025 198.2135 9.2197031e-39
504.88135 234.283 201.75934 9.2197031e-39
515.13098 238.26399 204.50549 9.2197031e-39
527.9245 234.2995 207.93399 9.2197031e-39
529.37701 4318.7197 208.323 9.2197031e-39
561.72198 4335 216.99001 9.2197031e-39
598.229 138.58698 226.772 9.2197031e-39
592.32599 4329.0801 225.19 9.2197031e-39
623.35797 4327.8501 233.505 9.2197031e-39
746.58398 -75.01001 266.52301 9.2197031e-39
1426 -1033.9399 448.57199 9.2197031e-39
1401.62 -1029.74 442.039 9.2197031e-39
1482.33 -1083.14 463.66599 9.2197031e-39
1529.15 3105.2 476.21201 9.2197031e-39
1516.74 3132.54 472.88599 9.2197031e-39
1519.58 3190.8799 473.646 9.2197031e-39
1529.85 3266.3899 476.39899 9.2197031e-39
1531.62 3327.0601 476.87399 9.2197031e-39
1551.04 3096.1899 482.07599 9.2197031e-39
1605.21 3146.1599 496.591 9.2197031e-39
1684.9399 -1334.8199 517.95502 9.2197031e-39
1689.71 -1269.75 519.23199 9.2197031e-39
1693.65 -1310.62 520.28802 9.2197031e-39
1777.52 -1212.17 542.76001 9.2197031e-39
1856.55 -1020.4 563.93903 9.2197031e-39
1857.76 -992.41003 564.263 9.2197031e-39
1864.83 -970.82996 566.15503 9.2197031e-39
1872.34 -949.93994 568.16901 9.2197031e-39
1882.5 -1078 570.89203 9.2197031e-39
1892.24 -941.43994 573.50098 9.2197031e-39
1904.35 -925.18994 576.745 9.2197031e-39
1932.6899 -924.39001 584.33801 9.2197031e-39
1953.24 -915.83997 589.84601 9.2197031e-39
1994.03 -925.58997 600.776 9.2197031e-39
2156.8601 -1044.28 644.40601 9.2197031e-39
2280.98 -720.32996 677.664 9.2197031e-39
2304.78 -710.10999 684.03998 9.2197031e-39
2309 -686.68005 685.17102 9.2197031e-39
2290.05 -648.43994 680.09302 9.2197031e-39
2292.03 -624.22998 680.62299 9.2197031e-39
2324.3799 -619.14001 689.29303 9.2197031e-39
2332.45 -782.78003 691.45502 9.2197031e-39
2336.8401 -601.38 692.63 9.2197031e-39
2445.3501 -641 721.70502 9.2197031e-39
2463.8799 -625.56995 726.67102 9.2197031e-39
2674.9399 -720.43005 783.224 9.2197031e-39
2797.03 -1580.3401 815.93799 9.2197031e-39
2801.8401 -1545.05 817.22803 9.2197031e-39
2806.25 -1509.8401 818.40997 9.2197031e-39
2811.77 -1475.98 819.888 9.2197031e-39
2816.1499 -1441.5701 821.06299 9.2197031e-39
2819.3899 -1406.6299 821.93103 9.2197031e-39
2829.8999 -1377.87 824.74701 9.2197031e-39
2833.1799 -1343.67 825.625 9.2197031e-39
2836.8601 -1310.16 826.60999 9.2197031e-39
2837.8201 -1274.98 826.86798 9.2197031e-39
2843.1101 -1243.42 828.28497 9.2197031e-39
2847.8999 -1177.05 829.57001 9.2197031e-39
2852.02 -1214.77 830.672 9.2197031e-39
2898.78 -817.78003 843.203 9.2197031e-39
2901.8401 -788.65002 844.02301 9.2197031e-39
2906.3301 -760.5 845.224 9.2197031e-39
2911.3999 -732.82996 846.58301 9.2197031e-39
2915.3401 -704.73999 847.64001 9.2197031e-39
2919.01 -676.68005 848.62402 9.2197031e-39
2921.55 -648.21997 849.302 9.2197031e-39
2907.8601 4189.2598 845.63397 9.2197031e-39
2924.6799 -620.25 850.14099 9.2197031e-39
2926.6599 -591.91003 850.67297 9.2197031e-39
2937.2 -567.69995 853.49597 9.2197031e-39
2931.5801 -536.21997 851.99103 9.2197031e-39
2941.6499 -511.95996 854.68799 9.2197031e-39
2943.48 -484.17004 855.17902 9.2197031e-39
2943.25 -455.68994 855.11798 9.2197031e-39
2953.54 -431.69995 857.87402 9.2197031e-39
2954.6001 -404.03003 858.15997 9.2197031e-39
2954.51 -376.06995 858.13397 9.2197031e-39
2926.6001 4151.04 850.65601 9.2197031e-39
2936.8899 4292.4502 853.41498 9.2197031e-39
2963.22 -351.60999 860.46899 9.2197031e-39
2962.6201 -323.74298 860.30902 9.2197031e-39
2970.8999 -299.216 862.526 9.2197031e-39
2970.72 -271.76001 862.47803 9.2197031e-39
2978.55 -247.16199 864.578 9.2197031e-39
2978.8101 -220.08899 864.64697 9.2197031e-39
2986.21 -195.41998 866.62903 9.2197031e-39
2982.29 -167.27698 865.578 9.2197031e-39
2991.1001 -143.13 867.93903 9.2197031e-39
2997.8501 -118.35303 869.74701 9.2197031e-39
2995.99 -91.187012 869.25 9.2197031e-39
2966.1699 4139.96 861.26001 9.2197031e-39
2995.4399 4651.8398 869.10303 9.2197031e-39
3002.3 -66.367004 870.94098 9.2197031e-39
3008.3999 -41.492004 872.57599 9.2197031e-39
3005.8401 -14.461975 871.89001 9.2197031e-39
3012.45 10.218994 873.65997 9.2197031e-39
3010.3601 36.914001 873.09998 9.2197031e-39
3015.5901 61.859009 874.50201 9.2197031e-39
3020.6101 86.848999 875.84802 9.2197031e-39
3025.4199 111.88397 877.13599 9.2197031e-39
3031.9199 136.59698 878.87799 9.2197031e-39
3030.96 188.556 878.62097 9.2197031e-39
3034.9199 213.681 879.67999 9.2197031e-39
3017.4399 4143.0801 874.99597 9.2197031e-39
3036.3101 161.73199 880.05402 9.2197031e-39
3038.6599 238.84 880.68201 9.2197031e-39
3042.1799 264.03201 881.62799 9.2197031e-39
3045.5 289.255 882.51599 9.2197031e-39
3048.6001 314.50699 883.34698 9.2197031e-39
3051.49 339.78601 884.12201 9.2197031e-39
3054.1699 365.091 884.83899 9.2197031e-39
3057.6001 390.32199 885.75702 9.2197031e-39
3058.8799 415.767 886.10199 9.2197031e-39
3060.9199 441.13501 886.64801 9.2197031e-39
3062.74 466.52002 887.13599 9.2197031e-39
3063.3701 4138.6499 887.30402 9.2197031e-39
3073.99 491.311 890.15002 9.2197031e-39
3073.46 516.91699 890.008 9.2197031e-39
3074.6399 542.41302 890.32501 9.2197031e-39
3085.27 567.57001 893.17102 9.2197031e-39
3084.0901 593.22302 892.85602 9.2197031e-39
3084.6299 618.81207 893 9.2197031e-39
3093.6499 644.32648 895.41602 9.2197031e-39
3093.75 670 895.44501 9.2197031e-39
3093.6499 695.67352 895.41602 9.2197031e-39
3103.9399 721.53693 898.17603 9.2197031e-39
3101.47 747.24811 897.513 9.2197031e-39
3109.3999 773.302 899.63702 9.2197031e-39
3108.4199 799.11304 899.375 9.2197031e-39
3103.1599 4126.04 897.96698 9.2197031e-39
3080 4699.71 891.76001 9.2197031e-39
3117.8301 825.48999 901.89697 9.2197031e-39
3116.4099 851.375 901.51703 9.2197031e-39
3122.48 877.80402 903.14398 9.2197031e-39
3130.25 904.51404 905.22498 9.2197031e-39
3128.1699 930.508 904.66602 9.2197031e-39
3135.48 957.44104 906.625 9.2197031e-39
3139.6699 984.21204 907.74799 9.2197031e-39
3138.8301 1010.515 907.52301 9.2197031e-39
3146.3899 1037.923 909.54999 9.2197031e-39
3140.6001 3006.4299 907.99799 9.2197031e-39
3151.8 1065.233 910.99902 9.2197031e-39
3148.3601 1091.416 910.07703 9.2197031e-39
3154.25 1119.045 911.65503 9.2197031e-39
3158.9399 1146.656 912.91199 9.2197031e-39
3164.3401 1174.55 914.35901 9.2197031e-39
3159.02 1200.6689 912.93402 9.2197031e-39
3172.49 1230.374 916.54102 9.2197031e-39
3176.1799 1258.4551 917.53302 9.2197031e-39
3180.5801 1286.844 918.71002 9.2197031e-39
3183.77 1315.15 919.565 9.2197031e-39
3184.8201 1343.127 919.84698 9.2197031e-39
3183.1799 2998.51 919.40601 9.2197031e-39
3154.3701 4126.5703 911.68701 9.2197031e-39
3151.2 4726.2598 910.83899 9.2197031e-39
3189.3899 1372.072 921.07098 9.2197031e-39
3201.2 1403.0181 924.237 9.2197031e-39
3203.3501 1431.812 924.81097 9.2197031e-39
3205.23 1460.7 925.31598 9.2197031e-39
3207.78 1489.938 926 9.2197031e-39
3209.1399 1519.016 926.362 9.2197031e-39
3208.3701 1547.629 926.15601 9.2197031e-39
3217.53 1579.417 928.61102 9.2197031e-39
3217.1399 1608.5129 928.50598 9.2197031e-39
3191.79 3223.79 921.71399 9.2197031e-39
3198.5901 3321.79 923.53699 9.2197031e-39
3200.03 4119.6899 923.92297 9.2197031e-39
3195.75 4714.29 922.77502 9.2197031e-39
3224.78 1640.377 930.55298 9.2197031e-39
3228.4299 1671.21 931.53101 9.2197031e-39
3229.95 1701.5601 931.93903 9.2197031e-39
3233.01 1732.65 932.76001 9.2197031e-39
3237.6001 1764.55 933.98901 9.2197031e-39
3239.1499 1795.59 934.40503 9.2197031e-39
3241.3101 1827.08 934.98401 9.2197031e-39
3249.48 1861.21 937.17297 9.2197031e-39
3242.02 1889.35 935.17401 9.2197031e-39
3246.8601 1922.6801 936.46899 9.2197031e-39
3244.21 1953.14 935.76099 9.2197031e-39
3243.95 1984.8101 935.69098 9.2197031e-39
3238.0701 2014.1801 934.11499 9.2197031e-39
3255.75 2054.53 938.85199 9.2197031e-39
3248.48 2149.6699 936.90503 9.2197031e-39
3252.3899 2185.01 937.95203 9.2197031e-39
3257.6599 2221.4302 939.36401 9.2197031e-39
3232.78 2995.4099 932.69702 9.2197031e-39
3237.8 3218.1299 934.04303 9.2197031e-39
3235.52 3308.0601 933.43201 9.2197031e-39
3241.9299 4107.79 935.14801 9.2197031e-39
3261.54 2089.9102 940.40399 9.2197031e-39
3262.5901 2123.3799 940.685 9.2197031e-39
3263.3999 2258.51 940.90198 9.2197031e-39
3269.6001 2296.28 942.56403 9.2197031e-39
3268.5701 2330.52 942.28802 9.2197031e-39
3285.02 2374.8901 946.69501 9.2197031e-39
3286.5901 2411.4399 947.11499 9.2197031e-39
3294.49 2452.0801 949.23199 9.2197031e-39
3293.5701 2488 948.987 9.2197031e-39
3296.79 2639.71 949.84802 9.2197031e-39
3265.3999 2657.47 941.43903 9.2197031e-39
3271.22 2699.8701 942.99701 9.2197031e-39
3286.3701 2952.3701 947.05701 9.2197031e-39
3274.01 2985.05 943.74402 9.2197031e-39
3265.99 3958.1201 941.59601 9.2197031e-39
3288.4099 4100.5498 947.60303 9.2197031e-39
3303.9299 2531.1401 951.763 9.2197031e-39
3312.97 2574.1001 954.18402 9.2197031e-39
3314.9199 2613.1699 954.70697 9.2197031e-39
3302.3501 2922.55 951.33899 9.2197031e-39
3302.7 3227.5601 951.43402 9.2197031e-39
3331.1699 3971.05 959.06 9.2197031e-39
3330.3899 4087.6101 958.85101 9.2197031e-39
3370.79 2807.1001 969.67603 9.2197031e-39
3349.71 2915.55 964.02698 9.2197031e-39
3374.28 2850.29 970.61102 9.2197031e-39
3375.6799 2892.5801 970.987 9.2197031e-39
3402.76 3264.6399 978.245 9.2197031e-39
3377.1499 3962.3601 971.38202 9.2197031e-39
3425.28 3955.22 984.27698 9.2197031e-39
3451.76 3600.77 991.37201 9.2197031e-39
3453.49 3654.3201 991.836 9.2197031e-39
3466.6699 3719.6101 995.36798 9.2197031e-39
3471.22 3777.8701 996.58698 9.2197031e-39
3477.1299 3838.5 998.16998 9.2197031e-39
3470.76 3944.6499 996.46399 9.2197031e-39
3485.04 3902.24 1000.29 9.2197031e-39
3490.0701 6361.0601 1001.64 9.2197031e-39
3523.49 6306.73 1010.59 9.2197031e-39
3564.3101 6265.8799 1021.53 9.2197031e-39
3565.1299 6610.9302 1021.75 9.2197031e-39
3614.9399 6241.6699 1035.1 9.2197031e-39
3704.8501 6281.0801 1059.1899 9.2197031e-39
6021.0098 9866.8604 1679.8 9.2197031e-39
