# .PCD v0.7 - Point Cloud Data file format
VERSION 0.7
FIELDS x y z rgb
SIZE 4 4 4 4
TYPE F F F F
COUNT 1 1 1 1
WIDTH 306
HEIGHT 1
VIEWPOINT 0 0 0 1 0 0 0
POINTS 306
DATA ascii
255.59633 243.69366 134.96367 9.2197031e-39
266.26001 247.258 137.821 9.2197031e-39
266.15802 250.272 137.79401 9.2197031e-39
273.13101 252.573 139.662 9.2197031e-39
268.36301 807.96399 138.384 9.2197031e-39
272.595 815.77338 139.51833 9.2197031e-39
272.97101 824.48199 139.619 9.2197031e-39
252.00101 2858 134 9.2197031e-39
270.444 2857.9199 138.942 9.2197031e-39
276.354 257.76999 140.526 9.2197031e-39
279.35599 264.98901 141.33 9.2197031e-39
282.23901 272.23001 142.10201 9.2197031e-39
286.14148 285.1235 143.14801 9.2197031e-39
289.86301 297.05399 144.145 9.2197031e-39
292.896 298.40399 144.95799 9.2197031e-39
292.966 324.59399 144.97701 9.2197031e-39
294.36301 336.875 145.351 9.2197031e-39
294.74899 355.095 145.455 9.2197031e-39
293.547 382.19601 145.132 9.2197031e-39
288.11401 433.94299 143.677 9.2197031e-39
286.754 454.98999 143.312 9.2197031e-39
310.741 471.08899 149.74001 9.2197031e-39
282.86301 488.79498 142.27 9.2197031e-39
302.75299 492.61798 147.599 9.2197031e-39
282.15948 505.4375 142.08151 9.2197031e-39
281.65701 519.09198 141.946 9.2197031e-39
292.31866 514.164 144.80333 9.2197031e-39
284.37677 524.83063 142.6752 9.2197031e-39
293.00201 521.966 144.98599 9.2197031e-39
301.39401 779.66302 147.235 9.2197031e-39
304.76749 791.26147 148.13901 9.2197031e-39
310.21799 796.362 149.599 9.2197031e-39
308.80051 806.90399 149.22 9.2197031e-39
275.811 813.39551 140.38049 9.2197031e-39
285.33624 816.70349 142.93251 9.2197031e-39
308.186 810.42999 149.05499 9.2197031e-39
285.2565 825.2215 142.911 9.2197031e-39
294.11652 824.45575 145.28499 9.2197031e-39
308.76999 823.10699 149.211 9.2197031e-39
283.96967 832.64966 142.56633 9.2197031e-39
305.1774 832.69446 148.24881 9.2197031e-39
306.75049 841.89398 148.6705 9.2197031e-39
305.681 2792.27 148.384 9.2197031e-39
288.27899 2821.6699 143.72099 9.2197031e-39
343.02802 388.34799 158.39101 9.2197031e-39
329.30801 423.67599 154.715 9.2197031e-39
320.258 445.87701 152.28999 9.2197031e-39
312.06601 823.91199 150.095 9.2197031e-39
313.952 832.823 150.60001 9.2197031e-39
311.79599 840.08398 150.022 9.2197031e-39
323.23099 2781.71 153.086 9.2197031e-39
342.25 2809.96 158.18201 9.2197031e-39
376.13699 307.08301 167.26199 9.2197031e-39
360.80801 342.85101 163.155 9.2197031e-39
361.043 2824.04 163.218 9.2197031e-39
382.026 2870.8899 168.84 9.2197031e-39
420.98001 237.005 179.278 9.2197031e-39
404.224 248.49799 174.78799 9.2197031e-39
411.98901 244.07651 176.869 9.2197031e-39
391.41501 273.45001 171.356 9.2197031e-39
417.35101 3118.02 178.306 9.2197031e-39
424.99301 237.62399 180.353 9.2197031e-39
444.8945 236.82001 185.686 9.2197031e-39
450.77301 238.564 187.261 9.2197031e-39
460.60101 236.85199 189.895 9.2197031e-39
426.74399 243.806 180.823 9.2197031e-39
433.28351 243.46899 182.57449 9.2197031e-39
454.40201 240.37701 188.233 9.2197031e-39
463.806 239.64401 190.75301 9.2197031e-39
486.80249 235.936 196.91501 9.2197031e-39
492.51599 238.71899 198.446 9.2197031e-39
468.54651 243.8795 192.0235 9.2197031e-39
477.38 240.259 194.39 9.2197031e-39
495.65201 241.76999 199.286 9.2197031e-39
505.30402 237.8475 201.8725 9.2197031e-39
524.68097 235.30168 207.06468 9.2197031e-39
511.00299 240.888 203.39999 9.2197031e-39
530.13501 4328.6899 208.526 9.2197031e-39
560.96399 4326.0303 216.787 9.2197031e-39
587.96698 154.33899 224.022 9.2197031e-39
592.23297 4328.0801 225.16499 9.2197031e-39
623.15601 4325.8604 233.451 9.2197031e-39
653.95697 4322.3701 241.70399 9.2197031e-39
741.65997 -67.593018 265.20401 9.2197031e-39
1402.17 -1030.5601 442.18701 9.2197031e-39
1423.75 -1030.6899 447.97 9.2197031e-39
1481.1899 -1081.52 463.362 9.2197031e-39
1523.62 3094.6599 474.73001 9.2197031e-39
1515.83 3130.77 472.64301 9.2197031e-39
1517.79 3187.3401 473.168 9.2197031e-39
1528.54 3263.72 476.047 9.2197031e-39
1528.61 3320.8 476.065 9.2197031e-39
1549.63 3093.5701 481.70001 9.2197031e-39
1605.6899 3147.03 496.71899 9.2197031e-39
1683.79 -1333.21 517.64697 9.2197031e-39
1699.46 -1318.6 521.84497 9.2197031e-39
1696.76 -1279.27 521.12299 9.2197031e-39
1838.0699 -683.56995 558.98499 9.2197031e-39
1839.91 -524.38 559.47803 9.2197031e-39
1835.76 -499.54004 558.367 9.2197031e-39
1822.61 -468.55005 554.84399 9.2197031e-39
1829.76 -452.62 556.76001 9.2197031e-39
1835.96 -436.07996 558.42102 9.2197031e-39
1839.59 -417.87 559.39203 9.2197031e-39
1845.86 -739.30005 561.07202 9.2197031e-39
1845.84 -714.56006 561.06702 9.2197031e-39
1849.42 -669.18994 562.026 9.2197031e-39
1859.89 -654.08997 564.83197 9.2197031e-39
1877.08 -644.43994 569.43799 9.2197031e-39
1853.5601 -406.75 563.13501 9.2197031e-39
1914.03 -991.62 579.34003 9.2197031e-39
1881.2 -624.22998 570.54199 9.2197031e-39
1904.39 -619.08997 576.75598 9.2197031e-39
1901.21 -593.40002 575.90503 9.2197031e-39
1883.75 -406.20996 571.22601 9.2197031e-39
1927.98 -414.20996 583.078 9.2197031e-39
2052.55 -1294.3101 616.45502 9.2197031e-39
2071.3 -484.19995 621.48102 9.2197031e-39
2112.6499 -1324.73 632.56 9.2197031e-39
2133.46 -1312.12 638.13501 9.2197031e-39
2130.6201 -1020.66 637.37402 9.2197031e-39
2167.1699 -1312.73 647.16803 9.2197031e-39
2181.74 -1293.25 651.07202 9.2197031e-39
2269.1899 -1311.77 674.505 9.2197031e-39
2321.1399 -1327.5699 688.42499 9.2197031e-39
2317.76 -615.02002 687.51898 9.2197031e-39
2332.6699 -598.84998 691.51501 9.2197031e-39
2409.3799 -619.5 712.06702 9.2197031e-39
2472.29 -630.48999 728.92401 9.2197031e-39
2525.2 -1486.48 743.10199 9.2197031e-39
2607.1799 -1525.4199 765.06799 9.2197031e-39
2624.25 -691.33997 769.64203 9.2197031e-39
2778.96 -1644.53 811.09698 9.2197031e-39
2895.3899 -815.87 842.29303 9.2197031e-39
2900.1399 -787.70996 843.56598 9.2197031e-39
2906.3301 -760.5 845.224 9.2197031e-39
2909.6799 -731.92004 846.12201 9.2197031e-39
2913.6101 -703.83997 847.17603 9.2197031e-39
2917.28 -675.80005 848.159 9.2197031e-39
2919.8 -647.35999 848.83502 9.2197031e-39
2922.9299 -619.41003 849.672 9.2197031e-39
2920.5801 4143.21 849.04498 9.2197031e-39
2908.45 4190.04 845.79401 9.2197031e-39
2924.8999 -591.07996 850.20203 9.2197031e-39
2927.49 -563.22998 850.89502 9.2197031e-39
2929.8101 -535.42004 851.51703 9.2197031e-39
2931.8701 -507.66003 852.06799 9.2197031e-39
2940.8 -483.02002 854.461 9.2197031e-39
2942.3601 -455.31995 854.87799 9.2197031e-39
2943.6499 -427.67004 855.22498 9.2197031e-39
2952.8 -403.31006 857.677 9.2197031e-39
2961.4099 -350.92999 859.98297 9.2197031e-39
2960.8 -323.07501 859.82098 9.2197031e-39
2948.6499 4308.3203 856.56598 9.2197031e-39
2961.74 -378.87 860.073 9.2197031e-39
2969.0701 -298.565 862.03601 9.2197031e-39
2967.97 -270.80798 861.742 9.2197031e-39
2975.8 -246.23499 863.83899 9.2197031e-39
2975.1299 -218.88599 863.659 9.2197031e-39
2982.51 -194.25 865.63898 9.2197031e-39
2982.29 -167.27698 865.578 9.2197031e-39
2987.3799 -142.02698 866.94299 9.2197031e-39
2994.1201 -117.284 868.75 9.2197031e-39
2994.1201 -90.669006 868.75 9.2197031e-39
2998.5601 -65.366028 869.93903 9.2197031e-39
2964.96 4138.3999 860.93402 9.2197031e-39
3006.53 -41.007996 872.07397 9.2197031e-39
3003.97 -13.994995 871.38702 9.2197031e-39
3010.5701 10.669006 873.15601 9.2197031e-39
3016.02 35.616028 874.617 9.2197031e-39
3013.7 62.273987 873.99597 9.2197031e-39
3018.72 87.247986 875.34003 9.2197031e-39
3023.53 112.26599 876.62799 9.2197031e-39
3030.02 136.961 878.36902 9.2197031e-39
3034.4099 162.07901 879.54401 9.2197031e-39
3029.0601 188.88599 878.10999 9.2197031e-39
3033.01 213.99399 879.16901 9.2197031e-39
3011.29 4135.3701 873.34998 9.2197031e-39
3006.1001 4667.3101 871.95801 9.2197031e-39
3036.75 239.13599 880.16998 9.2197031e-39
3041.23 264.17099 881.37097 9.2197031e-39
3043.5901 289.51599 882.00299 9.2197031e-39
3046.6899 314.75101 882.83398 9.2197031e-39
3050.53 339.89999 883.86499 9.2197031e-39
3052.25 365.29999 884.32397 9.2197031e-39
3054.71 390.60999 884.98401 9.2197031e-39
3056.96 415.94098 885.586 9.2197031e-39
3057.0701 441.44901 885.61499 9.2197031e-39
3060.8201 466.66 886.61902 9.2197031e-39
3062.4199 492.04401 887.04999 9.2197031e-39
3061.8899 517.54498 886.90601 9.2197031e-39
3072.71 542.50098 889.80798 9.2197031e-39
3057.1599 4130.9902 885.64001 9.2197031e-39
3073.6799 567.98901 890.06702 9.2197031e-39
3082.1599 593.27539 892.33801 9.2197031e-39
3082.7 618.84698 892.48297 9.2197031e-39
3090.75 644.35272 894.64001 9.2197031e-39
3091.8201 670 894.92798 9.2197031e-39
3091.71 695.65601 894.89899 9.2197031e-39
3100.0801 721.4671 897.14099 9.2197031e-39
3099.54 747.1958 896.99597 9.2197031e-39
3098.78 772.91901 896.79199 9.2197031e-39
3106.49 799.026 898.85797 9.2197031e-39
3108.8101 4132.8896 899.47998 9.2197031e-39
3114.9399 825.33301 901.12201 9.2197031e-39
3113.52 851.19202 900.742 9.2197031e-39
3120.5601 877.66498 902.62701 9.2197031e-39
3128.3301 904.35699 904.70898 9.2197031e-39
3126.24 930.33398 904.15002 9.2197031e-39
3133.55 957.25 906.10901 9.2197031e-39
3131.02 983.27197 905.43103 9.2197031e-39
3146.51 1011.421 909.58002 9.2197031e-39
3143.52 1037.558 908.78003 9.2197031e-39
3146.45 1091.1379 909.56403 9.2197031e-39
3142.1201 3007.6699 908.40601 9.2197031e-39
3148.9299 1064.842 910.229 9.2197031e-39
3152.3401 1118.749 911.14301 9.2197031e-39
3156.0801 1146.186 912.14502 9.2197031e-39
3162.4299 1174.22 913.84802 9.2197031e-39
3165.6799 1201.884 914.71899 9.2197031e-39
3170.5901 1230.01 916.03198 9.2197031e-39
3174.29 1258.073 917.02399 9.2197031e-39
3178.6899 1286.4451 918.203 9.2197031e-39
3181.8799 1314.734 919.05902 9.2197031e-39
3184.71 2999.73 919.81702 9.2197031e-39
3148.6599 4119.7803 910.15802 9.2197031e-39
3154.0801 4730.2803 911.60901 9.2197031e-39
3185.76 1343.343 920.09998 9.2197031e-39
3187.51 1371.6221 920.56598 9.2197031e-39
3190.8701 1400.45 921.46802 9.2197031e-39
3193.04 1429.151 922.04901 9.2197031e-39
3203.3601 1460.199 924.815 9.2197031e-39
3205.9199 1489.421 925.5 9.2197031e-39
3207.28 1518.4819 925.86401 9.2197031e-39
3208.3701 1547.629 926.15601 9.2197031e-39
3215.6799 1578.849 928.11401 9.2197031e-39
3215.29 1607.928 928.01099 9.2197031e-39
3191.05 3223.1499 921.51599 9.2197031e-39
3195.6799 3319.1699 922.755 9.2197031e-39
3198.75 4118.1899 923.58002 9.2197031e-39
3194 4711.8896 922.30701 9.2197031e-39
3222.9299 1639.776 930.05902 9.2197031e-39
3225.6699 1670.29 930.79199 9.2197031e-39
3227.2 1700.61 931.203 9.2197031e-39
3233.01 1732.65 932.76001 9.2197031e-39
3236.6899 1764.22 933.745 9.2197031e-39
3240.0601 1795.9301 934.64801 9.2197031e-39
3239.5 1826.38 934.49902 9.2197031e-39
3238.6599 1856.91 934.27301 9.2197031e-39
3240.23 1888.62 934.69202 9.2197031e-39
3236.1101 1918.1899 933.58899 9.2197031e-39
3234.3999 1948.9301 933.13098 9.2197031e-39
3235.0601 1980.9 933.30902 9.2197031e-39
3244.27 2016.97 935.77698 9.2197031e-39
3241.26 3002.03 934.96997 9.2197031e-39
3240.78 3220.6699 934.84198 9.2197031e-39
3226.71 3300.26 931.07001 9.2197031e-39
3238.6899 4104.0703 934.28198 9.2197031e-39
3264.5701 2058.6001 941.216 9.2197031e-39
3268.5701 2093.23 942.28802 9.2197031e-39
3264.3401 2124.23 941.15399 9.2197031e-39
3264.1699 2157.4199 941.10901 9.2197031e-39
3273.23 2195.53 943.53497 9.2197031e-39
3276.6799 2231.25 944.45898 9.2197031e-39
3284.0601 2269.4102 946.43701 9.2197031e-39
3291.8799 2308.28 948.53302 9.2197031e-39
3282.22 2338.03 945.94397 9.2197031e-39
3288.4199 2376.8 947.60498 9.2197031e-39
3266.22 2658.01 941.65698 9.2197031e-39
3272.8401 2700.96 943.43103 9.2197031e-39
3287.9399 2953.55 947.47601 9.2197031e-39
3276.3401 2986.8301 944.36798 9.2197031e-39
3270.6399 3963.2 942.84302 9.2197031e-39
3287.76 4099.8101 947.42798 9.2197031e-39
3301.79 2420.1602 951.18903 9.2197031e-39
3311.3 2461.9302 953.73798 9.2197031e-39
3306.1201 2495.5 952.349 9.2197031e-39
3314.75 2537.74 954.66199 9.2197031e-39
3326.22 2582.3398 957.73297 9.2197031e-39
3326.45 2620.49 957.79602 9.2197031e-39
3304.98 2645.01 952.04303 9.2197031e-39
3299.2 2920.22 950.49597 9.2197031e-39
3301.2 3226.3 951.03101 9.2197031e-39
3324.46 3963.8601 957.26202 9.2197031e-39
3334.3401 4092 959.90997 9.2197031e-39
3364.3401 2802.6799 967.95001 9.2197031e-39
3367.0701 2845.26 968.67999 9.2197031e-39
3341.79 2909.8201 961.90698 9.2197031e-39
3374.8799 2892.01 970.77399 9.2197031e-39
3395.96 3259.04 976.422 9.2197031e-39
3377.1499 3962.3601 971.38202 9.2197031e-39
3425.28 3955.22 984.27698 9.2197031e-39
3426.03 6361.52 984.47998 9.2197031e-39
3451.03 3600.1101 991.17798 9.2197031e-39
3459.95 3660.3401 993.56799 9.2197031e-39
3458.8401 3712.1799 993.26898 9.2197031e-39
3471.22 3777.8701 996.58698 9.2197031e-39
3477.8301 3839.1799 998.35797 9.2197031e-39
3469.3799 3943.25 996.09497 9.2197031e-39
3484.3401 3901.55 1000.1 9.2197031e-39
3936.1899 7145.1401 1121.1801 9.2197031e-39
3997.1001 7122.75 1137.5 9.2197031e-39
4069.51 7119.3701 1156.9 9.2197031e-39
5909.6201 10043.47 1649.95 9.2197031e-39
6001.9102 10013.93 1674.6801 9.2197031e-39
6024.6899 9872.7305 1680.79 9.2197031e-39
