# .PCD v0.7 - Point Cloud Data file format
VERSION 0.7
FIELDS x y z rgb
SIZE 4 4 4 4
TYPE F F F F
COUNT 1 1 1 1
WIDTH 311
HEIGHT 1
VIEWPOINT 0 0 0 1 0 0 0
POINTS 311
DATA ascii
203.534 238.67801 137.851 9.2197031e-39
189.172 243.61499 133.985 9.2197031e-39
196.33899 244.25934 135.90266 9.2197031e-39
207.05499 243.77499 138.776 9.2197031e-39
210.41499 247.89801 139.661 9.2197031e-39
212.92749 797.78101 138.332 9.2197031e-39
218.356 806.52002 139.754 9.2197031e-39
217.5665 813.242 139.51801 9.2197031e-39
242.468 2823.05 138.87199 9.2197031e-39
224.686 2831.3701 134.078 9.2197031e-39
213.409 261.04501 140.41499 9.2197031e-39
223.11 268.67001 142.98599 9.2197031e-39
217.95551 270.819 141.5975 9.2197031e-39
226.04201 274.927 143.74899 9.2197031e-39
227.718 293.14499 144.132 9.2197031e-39
230.244 300.42801 144.782 9.2197031e-39
231.48351 331.74249 145 9.2197031e-39
234.367 343.177 145.731 9.2197031e-39
233.12601 374.271 145.286 9.2197031e-39
227.98599 429.05499 143.709 9.2197031e-39
225.784 458.03101 143.013 9.2197031e-39
251.521 464.95599 149.884 9.2197031e-39
224.73801 476.08099 142.66701 9.2197031e-39
244.09801 485.633 147.82001 9.2197031e-39
223.278 495.08899 142.207 9.2197031e-39
224.38326 514.39172 142.43274 9.2197031e-39
235.20799 513.16797 145.338 9.2197031e-39
225.94101 522.6535 142.82025 9.2197031e-39
231.10699 521.3515 144.209 9.2197031e-39
244.60899 772.84802 146.911 9.2197031e-39
251.13 789.57898 148.597 9.2197031e-39
254.534 795.64404 149.4865 9.2197031e-39
233.32849 809.185 143.756 9.2197031e-39
253.33269 803.55902 149.13634 9.2197031e-39
223.58699 814.66534 141.12633 9.2197031e-39
234.34431 817.17731 143.99901 9.2197031e-39
252.903 812.80798 148.987 9.2197031e-39
225.73651 825.92847 141.661 9.2197031e-39
231.2085 822.14899 143.14099 9.2197031e-39
242.161 825.79199 146.06201 9.2197031e-39
252.9675 826.737 148.95375 9.2197031e-39
231.82401 834.32703 143.26199 9.2197031e-39
247.2285 832.52747 147.395 9.2197031e-39
251.672 838.90601 148.562 9.2197031e-39
254.05701 841.229 149.19299 9.2197031e-39
260.13599 2796.5601 143.702 9.2197031e-39
277.64801 2791.9199 148.411 9.2197031e-39
282.46301 382.76001 158.47301 9.2197031e-39
268.612 420.16901 154.62601 9.2197031e-39
260.18301 441.54498 152.28999 9.2197031e-39
258.27301 822.41498 150.39101 9.2197031e-39
258.867 831.89099 150.51601 9.2197031e-39
295.32101 2780.1101 153.189 9.2197031e-39
313.35101 2788.1399 157.991 9.2197031e-39
314.48001 301.05801 167.349 9.2197031e-39
297.47699 343.66101 162.638 9.2197031e-39
332.86099 2807.9399 163.146 9.2197031e-39
353.23001 2842.5601 168.47701 9.2197031e-39
357.56348 238.10701 179.121 9.2197031e-39
348.57901 245.76199 176.686 9.2197031e-39
338.854 250.573 174.063 9.2197031e-39
342.30099 251.871 174.98199 9.2197031e-39
328.61899 269.09201 171.25301 9.2197031e-39
378.98901 2928.73 175.064 9.2197031e-39
375.17798 236.45999 183.8465 9.2197031e-39
387.86801 232.479 187.261 9.2197031e-39
393.30798 235.12349 188.7085 9.2197031e-39
364.40002 242.04201 180.93851 9.2197031e-39
378.99701 242.57599 184.847 9.2197031e-39
405.59052 233.0215 192.00699 9.2197031e-39
427.19601 236.396 197.784 9.2197031e-39
430.87299 238.547 198.761 9.2197031e-39
401.957 240.62 191.006 9.2197031e-39
413.35199 240.539 194.05899 9.2197031e-39
420.371 240.48099 195.94 9.2197031e-39
432.474 244.12 199.17 9.2197031e-39
449.91299 3508.5801 191.95599 9.2197031e-39
457.89801 234.36401 206.017 9.2197031e-39
462.58749 239.25401 207.25549 9.2197031e-39
471.479 237.53 209.644 9.2197031e-39
439.043 241.16299 200.94 9.2197031e-39
446.64551 240.66449 202.979 9.2197031e-39
509.54199 229.883 219.87 9.2197031e-39
476.116 238.354 210.883 9.2197031e-39
481.423 238.48999 212.30499 9.2197031e-39
496.491 232.375 216.364 9.2197031e-39
500.655 234.26901 217.47301 9.2197031e-39
485.52301 240.23901 213.397 9.2197031e-39
555.94 4336.9297 217.347 9.2197031e-39
514.42102 234.9635 221.15851 9.2197031e-39
526.14905 234.931 224.30051 9.2197031e-39
533.70203 236.729 226.31799 9.2197031e-39
585.41803 4324.6699 225.289 9.2197031e-39
558.34698 213.71701 233.005 9.2197031e-39
616.60699 4319.98 233.66299 9.2197031e-39
1452.48 -559.26001 475.379 9.2197031e-39
1454.8199 -540.55005 475.93799 9.2197031e-39
1460.83 -524.90002 477.492 9.2197031e-39
1467.08 -510.26001 479.112 9.2197031e-39
1516.9301 3106.01 479.29999 9.2197031e-39
1507.36 3137.8201 476.621 9.2197031e-39
1510.89 3197.3101 477.35001 9.2197031e-39
1512.84 3254.03 477.66699 9.2197031e-39
1517.23 3319.3401 478.60599 9.2197031e-39
1470.5 -599.12 480.353 9.2197031e-39
1477.12 -498.53003 481.759 9.2197031e-39
1488.21 -488.38 484.69299 9.2197031e-39
1540.63 3099.01 485.677 9.2197031e-39
1512.79 -489.38 491.28299 9.2197031e-39
1529.02 -483.37 495.60999 9.2197031e-39
1538.02 -411.16003 497.758 9.2197031e-39
1517.24 -375.18005 492.06 9.2197031e-39
1518.89 -357.98999 492.43799 9.2197031e-39
1519.83 -339.88 492.62601 9.2197031e-39
1516.4 -319.28601 491.63 9.2197031e-39
1529.53 -310.57501 495.116 9.2197031e-39
1536.8 -298.09497 497.01999 9.2197031e-39
1546.3 -477.40002 500.21701 9.2197031e-39
1570.8 -477.84998 506.784 9.2197031e-39
1580.5601 -465.17004 509.35199 9.2197031e-39
1560.98 -296.992 503.49301 9.2197031e-39
1597.79 3152.6299 500.797 9.2197031e-39
1594.65 -822.85999 514.43103 9.2197031e-39
1588.1899 -298.14001 510.789 9.2197031e-39
1598.83 -286.953 513.599 9.2197031e-39
1717.11 -348.02002 545.51001 9.2197031e-39
1964.62 -1283.58 615.23102 9.2197031e-39
1999.28 -1286.75 624.52899 9.2197031e-39
2046.91 -1269.45 637.22699 9.2197031e-39
2318.4199 -695.10999 707.88098 9.2197031e-39
2315.99 -666.73999 707.125 9.2197031e-39
2302.9299 -632.98999 703.50403 9.2197031e-39
2315.6599 -614.58997 706.84802 9.2197031e-39
2329.0801 -728.35999 710.85602 9.2197031e-39
2344.6699 -606.59998 714.59003 9.2197031e-39
2358.8701 -588.77002 718.33099 9.2197031e-39
2469.0901 -626.23999 747.99799 9.2197031e-39
2519.21 -627.08997 761.42902 9.2197031e-39
2910.98 4164.6299 848.948 9.2197031e-39
2897.71 4211.3701 845.22198 9.2197031e-39
2951.51 4155.0898 859.84003 9.2197031e-39
2923.8899 4309.5601 851.87903 9.2197031e-39
2897.24 -806.64001 863.36603 9.2197031e-39
2909.77 -781.77002 866.633 9.2197031e-39
2913.95 -753.52002 867.65002 9.2197031e-39
2918.23 -724.52002 868.69098 9.2197031e-39
2921 -695.89001 869.32898 9.2197031e-39
2924.72 -666.96997 870.22101 9.2197031e-39
2927.8101 -638.87 870.94702 9.2197031e-39
2930.99 -610.03003 871.69202 9.2197031e-39
2933.54 -582.02002 872.27502 9.2197031e-39
2937.9399 -554.06995 873.35101 9.2197031e-39
2937.3 -524.97998 873.07501 9.2197031e-39
2939.3799 -496.34998 873.52698 9.2197031e-39
2950.74 -472.64001 876.48401 9.2197031e-39
2952.3101 -444.03003 876.80103 9.2197031e-39
2950.6101 -415.20996 876.23999 9.2197031e-39
2961.6001 -390.56006 879.09497 9.2197031e-39
2962.1101 -362.87 879.13098 9.2197031e-39
3002.28 4155.8203 873.43903 9.2197031e-39
3028.4299 4734.46 878.33899 9.2197031e-39
2969.02 -336.77002 880.88702 9.2197031e-39
2969.95 -309.48798 881.03601 9.2197031e-39
2969.97 -281.15601 880.93799 9.2197031e-39
2977.75 -256.44 882.93298 9.2197031e-39
2974.5 -227.29901 881.95599 9.2197031e-39
2975.3601 -200.52698 882.09003 9.2197031e-39
2982.7 -174.96899 883.96301 9.2197031e-39
2989.6001 -150.14502 885.72198 9.2197031e-39
2996.51 -124.45898 887.479 9.2197031e-39
2993.6499 -96.96698 886.61298 9.2197031e-39
3001.04 -71.492981 888.5 9.2197031e-39
3003.7 -18.375977 889.02002 9.2197031e-39
3000.8301 8.6160278 888.151 9.2197031e-39
3048.5901 4152.1299 885.86102 9.2197031e-39
3052.6699 4923.8101 884.14301 9.2197031e-39
3054.23 5007.6899 884.258 9.2197031e-39
3074.04 5119.3799 889.15802 9.2197031e-39
3007.0801 -46.51001 890.02802 9.2197031e-39
3008.26 33.971985 890.04999 9.2197031e-39
3015.3201 58.606995 891.85199 9.2197031e-39
3020.4399 84.518982 893.12903 9.2197031e-39
3025.1799 109.66699 894.30902 9.2197031e-39
3030.8201 135.48901 895.724 9.2197031e-39
3025.6201 162.422 894.23401 9.2197031e-39
3029.8501 188.42401 895.27301 9.2197031e-39
3032.78 213.80301 895.966 9.2197031e-39
3037.53 239.72501 897.14203 9.2197031e-39
3040.99 265.01801 897.97699 9.2197031e-39
3043.3799 291.28201 898.52301 9.2197031e-39
3047.3701 316.50699 899.5 9.2197031e-39
3049.3201 342.80899 899.92603 9.2197031e-39
3093.45 4144.0098 897.90997 9.2197031e-39
3097.51 4759.1499 896.75702 9.2197031e-39
3052.8799 368.10199 900.789 9.2197031e-39
3054.3899 394.436 901.09698 9.2197031e-39
3056.5601 419.87201 901.58698 9.2197031e-39
3058.5901 446.14502 902.034 9.2197031e-39
3060.3301 471.616 902.409 9.2197031e-39
3069.6299 497.46802 904.80499 9.2197031e-39
3070.95 523.03503 905.06598 9.2197031e-39
3072.0901 549.435 905.27502 9.2197031e-39
3079.74 574.8064 907.23102 9.2197031e-39
3080.4299 601.28479 907.32202 9.2197031e-39
3082.8201 626.91669 907.86902 9.2197031e-39
3081.1399 653.42969 907.32202 9.2197031e-39
3090.8301 679.13403 909.823 9.2197031e-39
3090.6299 705.70923 909.67297 9.2197031e-39
3138.1101 4136.9399 909.901 9.2197031e-39
3099.8799 731.66998 912.05701 9.2197031e-39
3101.1599 758.38678 912.30402 9.2197031e-39
3109 784.57397 914.30902 9.2197031e-39
3107.8999 811.31104 913.91699 9.2197031e-39
3114.3301 837.65698 915.54401 9.2197031e-39
3121.45 865.02802 917.35199 9.2197031e-39
3119.72 891.03998 916.79401 9.2197031e-39
3127.3401 918.698 918.73297 9.2197031e-39
3130.6399 998.84998 919.32501 9.2197031e-39
3141.47 3026.55 914.84497 9.2197031e-39
3175.96 4719.6797 917.92102 9.2197031e-39
3152.0901 4759.6201 911.38 9.2197031e-39
3133.8201 945.58099 920.37201 9.2197031e-39
3133.26 972.73804 920.12402 9.2197031e-39
3145.9299 1028.007 923.31598 9.2197031e-39
3144.76 1054.481 922.90698 9.2197031e-39
3148.05 1082.4771 923.68597 9.2197031e-39
3152.1599 1109.8621 924.68903 9.2197031e-39
3156.8701 1138.348 925.84601 9.2197031e-39
3161.45 1166.1069 926.97198 9.2197031e-39
3165.6499 1194.8311 927.99298 9.2197031e-39
3166.8899 1222.287 928.22498 9.2197031e-39
3170.5801 1251.213 929.10797 9.2197031e-39
3172.28 1279.0081 929.46198 9.2197031e-39
3174.51 1307.931 929.95398 9.2197031e-39
3190.78 3022.4299 928.07098 9.2197031e-39
3186.5701 3240.1899 926.15002 9.2197031e-39
3188.1899 3334.28 926.23999 9.2197031e-39
3192.8 4138.9102 924.547 9.2197031e-39
3183.27 1337.574 932.19202 9.2197031e-39
3184.97 1366.7319 932.54199 9.2197031e-39
3182.8301 1394.2009 931.87 9.2197031e-39
3181.2 1422.775 931.33002 9.2197031e-39
3186.0801 1452.244 932.52899 9.2197031e-39
3183.9299 1480.9299 931.849 9.2197031e-39
3185.48 1509.835 932.159 9.2197031e-39
3188.3999 1540.224 932.82898 9.2197031e-39
3184.77 1567.9189 931.758 9.2197031e-39
3181.5901 1596.755 930.79999 9.2197031e-39
3198.7 1631.27 935.25897 9.2197031e-39
3190.3501 1658.79 932.92102 9.2197031e-39
3190.29 1688.2 932.79797 9.2197031e-39
3205.24 1723.99 936.67297 9.2197031e-39
3212.8 1756.64 938.58002 9.2197031e-39
3216.1101 1789.01 939.34802 9.2197031e-39
3232.6499 3013.0801 939.32397 9.2197031e-39
3231.23 4123.2598 934.89899 9.2197031e-39
3223.9299 1822.4 941.323 9.2197031e-39
3225.6899 1854.75 941.67603 9.2197031e-39
3228.3601 1886.71 942.27301 9.2197031e-39
3233.0701 1920.79 943.41302 9.2197031e-39
3230.6299 1951.15 942.64801 9.2197031e-39
3243.6001 1989.39 945.98297 9.2197031e-39
3238.75 2019.2 944.57599 9.2197031e-39
3241.23 2053.51 945.11401 9.2197031e-39
3248.1399 2089.1602 946.836 9.2197031e-39
3250.78 2124.22 947.41699 9.2197031e-39
3256.96 2160.28 948.94 9.2197031e-39
3260.6101 2196.5698 949.78699 9.2197031e-39
3249.9399 2660.1299 945.23999 9.2197031e-39
3249.8501 2699.4302 945.07202 9.2197031e-39
3239.9099 3239.22 940.44501 9.2197031e-39
3255.77 3972.26 942.02502 9.2197031e-39
3267.8999 4103.3604 944.797 9.2197031e-39
3269.5 2234.8101 952.02899 9.2197031e-39
3281 2276 954.961 9.2197031e-39
3273.5801 2306.5698 952.85999 9.2197031e-39
3275.6899 2343.5898 953.29102 9.2197031e-39
3274.46 2378.01 952.836 9.2197031e-39
3282.5901 2419.1699 954.86401 9.2197031e-39
3268.8 2447.03 951.06897 9.2197031e-39
3269.3999 2484.5898 951.09399 9.2197031e-39
3270.1001 2521.4102 951.146 9.2197031e-39
3270.73 2559.77 951.17603 9.2197031e-39
3267.3301 2594.8101 950.138 9.2197031e-39
3295.1101 2651.3301 957.37402 9.2197031e-39
3292.75 2930.72 955.72498 9.2197031e-39
3273.27 2959.04 950.40198 9.2197031e-39
3282.23 3007.5901 952.625 9.2197031e-39
3305.54 3202.4299 958.16302 9.2197031e-39
3318.6201 3401.04 960.94501 9.2197031e-39
3323.54 3987.9299 960.125 9.2197031e-39
3331.3899 4114.54 961.76599 9.2197031e-39
3350.9199 2806.53 971.76202 9.2197031e-39
3352.5901 2849.28 972.05402 9.2197031e-39
3367.1499 2900.3201 975.76898 9.2197031e-39
3359.04 2937.3101 973.46301 9.2197031e-39
3379.48 3310.3401 977.58002 9.2197031e-39
3371.5701 3979.71 973.02399 9.2197031e-39
3419.51 3972.49 985.89502 9.2197031e-39
3438.5701 3607.97 992.328 9.2197031e-39
3438.53 3660.8999 992.12402 9.2197031e-39
3447.23 3721.2 994.237 9.2197031e-39
3459.3101 3787.5601 997.23199 9.2197031e-39
3465.73 3847.96 998.72998 9.2197031e-39
3465.6201 3904.79 998.495 9.2197031e-39
3449.75 3944.8799 994.09497 9.2197031e-39
3933.2 7158.6802 1111.92 9.2197031e-39
3991.9099 7133.7998 1127.74 9.2197031e-39
4064.9299 7128.5098 1147.33 9.2197031e-39
5930.3501 10062.34 1636.4301 9.2197031e-39
5976.5 9954.75 1649.1899 9.2197031e-39
