# .PCD v0.7 - Point Cloud Data file format
VERSION 0.7
FIELDS x y z rgb
SIZE 4 4 4 4
TYPE F F F F
COUNT 1 1 1 1
WIDTH 298
HEIGHT 1
VIEWPOINT 0 0 0 1 0 0 0
POINTS 298
DATA ascii
58.633102 218.3295 134.5285 9.2197031e-39
67.598495 224.9015 136.2415 9.2197031e-39
72.522903 223.40399 137.62 9.2197031e-39
77.521004 231.32001 138.211 9.2197031e-39
82.492104 235.11301 139.14799 9.2197031e-39
86.738899 241.20999 139.70399 9.2197031e-39
243.01151 711.87488 139.058 9.2197031e-39
248.58951 723.04138 139.517 9.2197031e-39
248.87199 731.28522 138.883 9.2197031e-39
1328.38 4006.1699 132.39799 9.2197031e-39
92.796997 249.957 140.493 9.2197031e-39
95.841904 252.28 141.067 9.2197031e-39
101.22501 254.5825 142.23599 9.2197031e-39
107.403 260.86899 143.26601 9.2197031e-39
115.009 269.48901 144.459 9.2197031e-39
111.775 270.15302 143.58099 9.2197031e-39
121.528 290.617 144.304 9.2197031e-39
129.05701 313.60901 144.246 9.2197031e-39
132.741 323.104 144.367 9.2197031e-39
141.765 359.07501 143.577 9.2197031e-39
148.25999 388.39001 142.714 9.2197031e-39
174.181 382.172 149.828 9.2197031e-39
153.692 409.79901 142.259 9.2197031e-39
173.149 405.13199 147.599 9.2197031e-39
156.537 420.495 142.065 9.2197031e-39
172.4785 431.10049 145.20399 9.2197031e-39
164.91856 441.78983 142.36929 9.2197031e-39
170.6335 442.17651 143.787 9.2197031e-39
273.05466 687.78754 148.74901 9.2197031e-39
276.996 698.43518 148.83749 9.2197031e-39
278.617 703.0105 148.85699 9.2197031e-39
248.93401 716.66058 140.151 9.2197031e-39
254.3775 712.88428 141.85699 9.2197031e-39
266.1684 719.24982 144.30501 9.2197031e-39
285.03851 713.9303 149.552 9.2197031e-39
256.11749 725.23743 141.24049 9.2197031e-39
261.75299 721.89893 142.957 9.2197031e-39
275.24399 724.85889 146.129 9.2197031e-39
286.58499 727.47949 148.78368 9.2197031e-39
266.53702 734.96393 143.05266 9.2197031e-39
286.08499 733.78143 148.11667 9.2197031e-39
290.784 734.37042 149.259 9.2197031e-39
1482.0699 4338.3203 142.963 9.2197031e-39
180.991 297.48401 158.812 9.2197031e-39
178.485 333.319 155.106 9.2197031e-39
176.95399 344.27399 153.77901 9.2197031e-39
174.761 354.25 152.368 9.2197031e-39
283.23099 702.82281 150.04401 9.2197031e-39
291.18301 725.05182 150.159 9.2197031e-39
293.80099 733.23108 150.123 9.2197031e-39
1445.4301 4043.45 158.91901 9.2197031e-39
1507.75 4330.3501 150.164 9.2197031e-39
199.416 224.60001 169.73399 9.2197031e-39
194.15799 232.735 167.702 9.2197031e-39
189.09599 242.94 165.543 9.2197031e-39
186.604 251.80801 164.14999 9.2197031e-39
183.089 271.62601 161.56 9.2197031e-39
1426.0699 3920.48 164.53999 9.2197031e-39
205.3835 219.10851 171.7195 9.2197031e-39
212.298 219.77701 173.418 9.2197031e-39
228.46899 212.87 178.11501 9.2197031e-39
205.61501 225.10599 171.26401 9.2197031e-39
216.70151 220.28799 174.492 9.2197031e-39
222.978 221.10651 176.015 9.2197031e-39
234.03133 222.83032 178.674 9.2197031e-39
1352.5601 3569.4099 175.951 9.2197031e-39
1463.9 3918.8701 174.282 9.2197031e-39
244.65698 215.71899 181.98067 9.2197031e-39
254.39667 217.79266 184.276 9.2197031e-39
260.311 219.177 185.659 9.2197031e-39
273.75153 213.48799 189.5585 9.2197031e-39
265.35101 220.4505 186.8295 9.2197031e-39
276.638 223.57199 189.42799 9.2197031e-39
1380.27 3551.77 184.49899 9.2197031e-39
284.83231 216.76765 192.09065 9.2197031e-39
292.871 219.3665 193.909 9.2197031e-39
307.01401 214.95099 197.87801 9.2197031e-39
314.67651 217.899 199.571 9.2197031e-39
297.91599 221.10199 195.041 9.2197031e-39
303.57449 223.162 196.3015 9.2197031e-39
1430.34 3531.8201 198.92101 9.2197031e-39
1402.55 3549.04 190.39 9.2197031e-39
319.746 219.948 200.68201 9.2197031e-39
329.29599 214.362 203.586 9.2197031e-39
335.27432 217.02368 204.87532 9.2197031e-39
322.28201 221.00601 201.23599 9.2197031e-39
343.95435 223.99634 206.48167 9.2197031e-39
352.93951 224.998 208.677 9.2197031e-39
1459.72 3545.21 205.231 9.2197031e-39
361.82199 217.98599 211.533 9.2197031e-39
384.85852 217.95551 217.384 9.2197031e-39
391.14301 218.87399 218.901 9.2197031e-39
363.87601 223.539 211.57899 9.2197031e-39
374.7955 221.186 214.55251 9.2197031e-39
394.85101 222.907 219.49701 9.2197031e-39
363.73099 230.172 210.974 9.2197031e-39
1564.92 3701.8899 218.517 9.2197031e-39
406.19202 218.539 222.7505 9.2197031e-39
420.931 219.612 226.401 9.2197031e-39
412.27148 223.1685 223.89749 9.2197031e-39
424.36499 225.62799 226.757 9.2197031e-39
1553.4399 3540.8601 229.39799 9.2197031e-39
1569.83 3656.79 223.629 9.2197031e-39
436.55499 218.77399 230.439 9.2197031e-39
436.87601 223.88 230.08299 9.2197031e-39
445.31049 222.92601 232.30649 9.2197031e-39
454.52148 223.94099 234.558 9.2197031e-39
464.953 223.60901 237.2345 9.2197031e-39
474.88702 224.3145 239.6965 9.2197031e-39
478.04401 230.918 239.93201 9.2197031e-39
489.59698 226.20801 243.26901 9.2197031e-39
499.422 223.953 245.95599 9.2197031e-39
507.716 222.366 248.198 9.2197031e-39
543.08899 202.40399 258.88901 9.2197031e-39
539.69501 214.13501 257.022 9.2197031e-39
516.401 221.914 250.442 9.2197031e-39
1389.89 -590.13 541.77301 9.2197031e-39
1506.22 -340.66998 549.93701 9.2197031e-39
1448.83 -587.20996 556.48798 9.2197031e-39
1444.46 -558.26001 552.90002 9.2197031e-39
1443.04 -540.54004 551.021 9.2197031e-39
1459.12 -530.52002 554.24298 9.2197031e-39
1461.77 -516.68005 553.73102 9.2197031e-39
1476.1801 -505.14001 556.40198 9.2197031e-39
1479.34 -491.90002 556.06799 9.2197031e-39
1519.29 -408.39001 559.05902 9.2197031e-39
1505.39 -376.06006 552.758 9.2197031e-39
1508.2 -363.53003 552.39899 9.2197031e-39
1513.52 -331.52002 551.00702 9.2197031e-39
1519.89 -314.797 551.19098 9.2197031e-39
1528.64 -306.60797 552.711 9.2197031e-39
1533.09 -288.73401 552.31097 9.2197031e-39
1538.4301 -278.32397 552.77502 9.2197031e-39
1459.6801 -614.46997 561.57898 9.2197031e-39
1498.0601 -483.80005 560.12701 9.2197031e-39
1513.1 -480.19995 563.63702 9.2197031e-39
1538.4399 -461.09998 568.43597 9.2197031e-39
1516.5601 -459.62 562.75403 9.2197031e-39
1534.66 -435.12 565.25098 9.2197031e-39
1587.6899 -288.63397 566.164 9.2197031e-39
1621.88 -295.57599 575.43903 9.2197031e-39
3220.9099 3697.1001 639.35999 9.2197031e-39
3234.51 3775.52 636.09497 9.2197031e-39
3185.25 3557.3899 642.27301 9.2197031e-39
3208.72 3642.4299 640.948 9.2197031e-39
3155.76 3295.8501 657.19299 9.2197031e-39
3193.5 3426.04 655.62097 9.2197031e-39
3202.51 3473.98 653.802 9.2197031e-39
3220.6101 3551.3601 651.76801 9.2197031e-39
3169.1299 3252.48 664.30298 9.2197031e-39
3197.4399 3371.97 661.255 9.2197031e-39
3161.8999 3067.73 678.29401 9.2197031e-39
3193.8301 3147.1499 679.599 9.2197031e-39
3204.54 3192.3401 678.44598 9.2197031e-39
3186.03 3230.6299 670.46698 9.2197031e-39
3156.0801 3028.3601 680.19202 9.2197031e-39
3209.3799 3020.3701 694.40802 9.2197031e-39
3247.1599 3016.04 704.37 9.2197031e-39
3274.99 2952.55 716.875 9.2197031e-39
3285.8401 2995.04 715.98901 9.2197031e-39
3223.97 2673.3198 727.84399 9.2197031e-39
3202.8401 2689.8101 721.065 9.2197031e-39
3294.2 2916.76 724.81799 9.2197031e-39
3309.54 2894.6201 730.60797 9.2197031e-39
3314.01 2687.6802 749.47302 9.2197031e-39
3366.3899 2852.72 748.63 9.2197031e-39
3377.79 2894.3601 747.95898 9.2197031e-39
3342.6101 2675.1499 757.80701 9.2197031e-39
3320.0601 2507.51 766.44202 9.2197031e-39
3331.6499 2544.8701 766.185 9.2197031e-39
3333.9399 2591.9102 762.73602 9.2197031e-39
3336.4199 2624.4399 760.57898 9.2197031e-39
3293.2 2274.8599 779.55603 9.2197031e-39
3298.47 2306.01 778.224 9.2197031e-39
3303.8301 2351.5898 775.67902 9.2197031e-39
3314.3999 2386.52 775.37 9.2197031e-39
3319.5801 2433.1401 772.69202 9.2197031e-39
3324.3101 2465.54 771.11798 9.2197031e-39
2311.3899 -687.90002 784.10602 9.2197031e-39
2323.7 -674.30005 786.065 9.2197031e-39
2325.1599 -644.18994 783.85699 9.2197031e-39
2332.1499 -627.57996 784.20898 9.2197031e-39
2349.1101 -606.48999 786.70697 9.2197031e-39
3282.9199 2131.9102 789.19098 9.2197031e-39
3279.79 2157.54 786.20203 9.2197031e-39
3289.6699 2203.53 784.77002 9.2197031e-39
3295.5701 2234.3701 783.62402 9.2197031e-39
2383.03 -604.5 795.14801 9.2197031e-39
3262.26 1950.76 799.466 9.2197031e-39
3264.1299 1990.37 796.54602 9.2197031e-39
3266.53 2017.7 794.81403 9.2197031e-39
3266.71 2057.1899 791.47803 9.2197031e-39
3273.8799 2087.3 790.71698 9.2197031e-39
3231.54 1749.46 808.909 9.2197031e-39
3236.6599 1788.34 806.88098 9.2197031e-39
3247.96 1817.8 807.22601 9.2197031e-39
3250.48 1856.37 804.56097 9.2197031e-39
3250.3501 1881.6899 802.35797 9.2197031e-39
3254.8201 1921.7 800.06598 9.2197031e-39
3200.73 1535.057 819.45697 9.2197031e-39
3210.48 1561.729 819.646 9.2197031e-39
3209.4399 1596.766 816.38202 9.2197031e-39
3211.28 1621.248 814.75098 9.2197031e-39
3224.3601 1661.63 814.61298 9.2197031e-39
3217.4299 1683.37 810.98901 9.2197031e-39
3232.5 1725.24 811.22998 9.2197031e-39
2478.4299 -624.34998 821.07001 9.2197031e-39
3180.9399 1356.8679 829.69598 9.2197031e-39
3185.51 1380.834 828.80298 9.2197031e-39
3188.3101 1415.72 826.52698 9.2197031e-39
3188.6899 1438.8359 824.64203 9.2197031e-39
3189.9199 1473.6489 821.97302 9.2197031e-39
3200.1599 1499.9709 822.31799 9.2197031e-39
3150 1149.993 839.56403 9.2197031e-39
3161.98 1185.152 839.59497 9.2197031e-39
3158.29 1206.525 836.82501 9.2197031e-39
3161.0701 1240.192 834.64899 9.2197031e-39
3174.1201 1265.416 835.79999 9.2197031e-39
3177.23 1299.615 833.65997 9.2197031e-39
3181.28 1323.1641 832.67102 9.2197031e-39
3132.02 1016.95 846.39697 9.2197031e-39
3138.1201 1039.454 846.01801 9.2197031e-39
3142.6799 1072.489 844.34497 9.2197031e-39
3149.3401 1095.3779 844.07599 9.2197031e-39
3153.3101 1128.673 842.23199 9.2197031e-39
3106.9199 801.84198 858.453 9.2197031e-39
3113.5701 823.50299 858.28699 9.2197031e-39
3111.6799 854.92297 855.11401 9.2197031e-39
3118.9299 876.84198 855.07703 9.2197031e-39
3126.1499 909.35498 854.12598 9.2197031e-39
3133.02 931.52399 853.96997 9.2197031e-39
3128.1001 962.87903 850.03497 9.2197031e-39
3135.55 985.33801 850.00299 9.2197031e-39
3084.1001 612.72662 868.85999 9.2197031e-39
3094.03 644.07001 868.69702 9.2197031e-39
3094.02 665.04651 866.896 9.2197031e-39
3091.79 696.229 863.65997 9.2197031e-39
3101.1101 717.60602 864.19501 9.2197031e-39
3100.29 748.92139 861.30298 9.2197031e-39
3108.28 770.46399 861.48602 9.2197031e-39
3068.01 436.11798 879.90503 9.2197031e-39
3069.4099 456.94299 878.47601 9.2197031e-39
3071.23 487.98901 876.27899 9.2197031e-39
3072.28 508.828 874.76001 9.2197031e-39
3083.26 539.72498 874.901 9.2197031e-39
3082.98 560.651 873.039 9.2197031e-39
3083.76 591.81519 870.565 9.2197031e-39
3037.7 230.34399 889.84003 9.2197031e-39
3043.45 281.88199 886.88397 9.2197031e-39
3055.53 301.59201 888.26099 9.2197031e-39
3058.9299 332.53201 886.474 9.2197031e-39
3052.3501 354.021 882.96301 9.2197031e-39
3054.25 384.98099 880.79303 9.2197031e-39
3066.6201 405.03601 882.21698 9.2197031e-39
3013.02 45.000977 899.45203 9.2197031e-39
3020.9199 75.210022 898.87 9.2197031e-39
3024.78 95.757996 898.08899 9.2197031e-39
3030.26 126.42401 896.854 9.2197031e-39
3033.77 147.03003 895.979 9.2197031e-39
3029.1699 179.15701 892.05798 9.2197031e-39
3032.3101 199.746 891.09302 9.2197031e-39
3049.1499 249.96201 891.065 9.2197031e-39
2987.1101 -131.04602 907.95502 9.2197031e-39
2992.3701 -110.70697 907.547 9.2197031e-39
3001.8301 -80.778992 907.38501 9.2197031e-39
3006.74 -60.343018 906.88202 9.2197031e-39
3004.3701 -27.763 903.48901 9.2197031e-39
3010.8201 -7.71698 903.40802 9.2197031e-39
3008.8201 24.531982 900.13898 9.2197031e-39
2962.0601 -343.22998 919.77301 9.2197031e-39
2960.5 -320.32703 917.41498 9.2197031e-39
2970.21 -290.237 917.30103 9.2197031e-39
2967.3101 -267.15302 914.58899 9.2197031e-39
2978.3301 -237.55298 914.84998 9.2197031e-39
2975.96 -214.854 912.30402 9.2197031e-39
2984.5901 -184.62701 911.90601 9.2197031e-39
2990.21 -164.29602 911.59198 9.2197031e-39
2931.72 -536.68005 928.64203 9.2197031e-39
2933.74 -502.92004 926.263 9.2197031e-39
2941.53 -482.90002 926.52502 9.2197031e-39
2943.8401 -449.56995 924.25598 9.2197031e-39
2950.3501 -429.15002 924.16199 9.2197031e-39
2953.8799 -396.55005 922.26501 9.2197031e-39
2960.03 -376.08997 922.07397 9.2197031e-39
2914.73 -706.70996 938.896 9.2197031e-39
2911.6799 -669.31995 934.91803 9.2197031e-39
2914.4399 -646.65002 933.67499 9.2197031e-39
2927.45 -616.95996 934.43597 9.2197031e-39
2928.03 -593.53003 932.57501 9.2197031e-39
2929.8 -559.23999 930.09003 9.2197031e-39
2891.0701 -817.42004 942.37201 9.2197031e-39
2905.8101 -787.93994 943.59003 9.2197031e-39
2915.54 -768.06995 944.35797 9.2197031e-39
2913.25 -730.34998 940.54602 9.2197031e-39
2728.45 -2042.8999 1006.07 9.2197031e-39
2741.95 -2001 1005.91 9.2197031e-39
2748.22 -1970.4299 1004.88 9.2197031e-39
2757.23 -1889.3501 1000.23 9.2197031e-39
