# .PCD v0.7 - Point Cloud Data file format
VERSION 0.7
FIELDS x y z rgb
SIZE 4 4 4 4
TYPE F F F F
COUNT 1 1 1 1
WIDTH 287
HEIGHT 1
VIEWPOINT 0 0 0 1 0 0 0
POINTS 287
DATA ascii
-65.054451 187.52101 135.1055 9.2197031e-39
-55.704453 187.0105 137.28101 9.2197031e-39
-60.7957 195.45999 134.903 9.2197031e-39
-45.219799 195.30701 138.42599 9.2197031e-39
-33.6968 204.819 139.62601 9.2197031e-39
237.91901 633.46399 138.07401 9.2197031e-39
245.6545 637.9917 139.15149 9.2197031e-39
249.36 643.39709 139.19501 9.2197031e-39
257.04999 649.93567 139.968 9.2197031e-39
3059.6499 5020.3101 131.62399 9.2197031e-39
-26.8083 206.69501 140.89999 9.2197031e-39
-20.2735 213.38199 141.392 9.2197031e-39
-12.7951 219.59299 142.16499 9.2197031e-39
-6.9456401 225.56299 142.608 9.2197031e-39
3.5485694 235.93201 143.452 9.2197031e-39
11.5599 242.02399 144.36301 9.2197031e-39
24.837601 264.48099 144.067 9.2197031e-39
33.958149 274.57648 144.64301 9.2197031e-39
57.979198 318.564 143.618 9.2197031e-39
95.239899 332.85001 149.90401 9.2197031e-39
71.551697 345.349 142.757 9.2197031e-39
78.191902 355.55801 142.759 9.2197031e-39
102.852 364.88501 146.938 9.2197031e-39
89.880997 379.91101 141.83 9.2197031e-39
105.93066 385.13565 144.67299 9.2197031e-39
97.118698 393.14899 141.52299 9.2197031e-39
104.541 395.11481 142.90381 9.2197031e-39
102.54601 400.69501 141.64099 9.2197031e-39
269.082 607.87701 148.812 9.2197031e-39
272.07901 608.6925 149.366 9.2197031e-39
274.82849 615.50812 148.98875 9.2197031e-39
262.89624 635.73682 143.35451 9.2197031e-39
272.18799 638.06952 145.1015 9.2197031e-39
288.543 630.77588 149.841 9.2197031e-39
291.15552 637.39832 149.4615 9.2197031e-39
255.6665 643.75464 140.55951 9.2197031e-39
265.742 645.26318 142.60333 9.2197031e-39
275.134 645.13892 144.73151 9.2197031e-39
280.69501 641.1308 146.56599 9.2197031e-39
292.40619 644.9837 148.63481 9.2197031e-39
265.69299 651.45569 141.688 9.2197031e-39
270.54001 650.88373 142.86099 9.2197031e-39
3042.96 4897.3599 145.82201 9.2197031e-39
81.3535 251.04099 158.728 9.2197031e-39
83.413696 270.01801 156.42 9.2197031e-39
88.804604 296.405 153.77901 9.2197031e-39
89.155899 306.61401 152.368 9.2197031e-39
285.42401 615.41949 151.382 9.2197031e-39
293.97449 635.15588 150.422 9.2197031e-39
3036.1899 4823.7202 155.05099 9.2197031e-39
77.358101 187.71899 167.07401 9.2197031e-39
83.266701 186.60001 168.565 9.2197031e-39
75.873497 197.16699 165.362 9.2197031e-39
81.618896 196.01501 166.821 9.2197031e-39
75.672997 206.37399 163.972 9.2197031e-39
76.7192 224.50699 161.56 9.2197031e-39
3015.3501 4701.2002 168.256 9.2197031e-39
83.9048 177.39499 170.05299 9.2197031e-39
93.647301 175.85501 172.467 9.2197031e-39
89.196999 185.586 170.04601 9.2197031e-39
94.562897 184.776 171.36951 9.2197031e-39
105.30975 183.39224 173.98676 9.2197031e-39
115.90633 182.35999 176.51833 9.2197031e-39
124.73734 181.76131 178.58966 9.2197031e-39
3016.6001 4643.1104 177.019 9.2197031e-39
135.39426 181.35275 181.04375 9.2197031e-39
144.4575 181.248 183.09549 9.2197031e-39
153.5285 181.40099 185.11099 9.2197031e-39
162.60001 181.78951 187.0925 9.2197031e-39
175.89799 182.79599 189.933 9.2197031e-39
149.418 190.20499 182.90199 9.2197031e-39
157.679 190.452 184.722 9.2197031e-39
168.28149 191.0705 187.01401 9.2197031e-39
172.987 191.45001 188.01601 9.2197031e-39
186.32899 175.009 193.414 9.2197031e-39
213.39301 179.427 198.85001 9.2197031e-39
179.509 183.16 190.692 9.2197031e-39
184.94299 183.793 191.82001 9.2197031e-39
195.765 185.29051 194.03325 9.2197031e-39
206.35101 187.08501 196.14966 9.2197031e-39
217.46799 184.80699 198.98 9.2197031e-39
223.823 190.793 199.534 9.2197031e-39
3068.8701 4629.3896 190.76401 9.2197031e-39
226.1805 182.2825 201.306 9.2197031e-39
236.479 184.91949 203.235 9.2197031e-39
246.7 187.8855 205.09851 9.2197031e-39
253.26401 189.94199 206.27299 9.2197031e-39
264.23401 184.362 209.55299 9.2197031e-39
229.737 192.26501 200.64799 9.2197031e-39
239.14301 194.83301 202.386 9.2197031e-39
245.24899 195.62701 203.642 9.2197031e-39
257.42899 191.3335 207.00601 9.2197031e-39
267.47699 194.90601 208.742 9.2197031e-39
3107.5901 4624.8799 200.12399 9.2197031e-39
267.853 185.66101 210.17599 9.2197031e-39
275.07751 188.38399 211.40201 9.2197031e-39
294.42551 186.9185 215.96249 9.2197031e-39
303.98599 186.444 218.18051 9.2197031e-39
310.58701 184.73499 219.91299 9.2197031e-39
279.858 190.27701 212.19901 9.2197031e-39
284.02649 191.9975 212.88499 9.2197031e-39
291.70901 195.31 214.127 9.2197031e-39
2946.6599 4267.52 216.13699 9.2197031e-39
3164.6299 4616.4399 214.173 9.2197031e-39
320.37701 179.80801 222.832 9.2197031e-39
313.02399 185.93301 220.286 9.2197031e-39
325.91101 182.69249 223.65399 9.2197031e-39
335.85748 187.56601 225.17749 9.2197031e-39
354.961 189.254 229.22301 9.2197031e-39
322.64499 190.866 221.72701 9.2197031e-39
331.42499 194.54901 223.162 9.2197031e-39
344.22867 192.97734 226.26801 9.2197031e-39
353.40302 197.45401 227.67599 9.2197031e-39
2927.03 4164.27 226.802 9.2197031e-39
375.02899 189.556 233.688 9.2197031e-39
389.51501 189.03101 237.02 9.2197031e-39
364.23999 194.04167 230.60901 9.2197031e-39
378.62601 192.02802 234.13499 9.2197031e-39
383.98849 195.834 234.7845 9.2197031e-39
396.72302 194.33749 237.8645 9.2197031e-39
402.64551 198.869 238.53349 9.2197031e-39
2935.54 4124.71 234.489 9.2197031e-39
413.82501 196.59599 241.3775 9.2197031e-39
428.142 197.12949 244.51601 9.2197031e-39
443.26599 197.45801 247.866 9.2197031e-39
418.54099 200.44901 241.87399 9.2197031e-39
432.28 200.67801 244.92799 9.2197031e-39
447.98099 201.72601 248.302 9.2197031e-39
452.26999 201.73801 249.26401 9.2197031e-39
2993.1799 4123.6797 247.59 9.2197031e-39
461.66101 198.612 251.83099 9.2197031e-39
472.211 199.38901 254.088 9.2197031e-39
486.23901 196.99899 257.58899 9.2197031e-39
496.99799 198.38599 259.80301 9.2197031e-39
462.04999 203.00299 251.27699 9.2197031e-39
474.578 201.73199 254.278 9.2197031e-39
486.57001 201.491 257.00699 9.2197031e-39
3026.6899 4115.8999 256.255 9.2197031e-39
507.44 196.79999 262.38101 9.2197031e-39
511.608 201.33301 262.65601 9.2197031e-39
3082.76 4111.2002 269.53799 9.2197031e-39
1497.26 -371.37 567.72699 9.2197031e-39
1510.22 -365.85999 569.83502 9.2197031e-39
1502.83 -340.12 564.41498 9.2197031e-39
1518.09 -336.03003 567.24597 9.2197031e-39
1524.14 -319.19702 566.14801 9.2197031e-39
1529.47 -308.742 565.82098 9.2197031e-39
1541.84 -295.82397 566.71399 9.2197031e-39
1553.67 -289.177 568.40198 9.2197031e-39
3330.46 2461.5601 566.02802 9.2197031e-39
1517.95 -421.54004 579.69897 9.2197031e-39
1509.7 -401.18994 574.87598 9.2197031e-39
1597.73 -294.198 579.03497 9.2197031e-39
3316.79 2351 579.099 9.2197031e-39
3315.99 2379.55 574.75098 9.2197031e-39
3328.52 2430.6899 570.099 9.2197031e-39
1455.76 -565.43994 586.73499 9.2197031e-39
1456.17 -549.73999 584.53601 9.2197031e-39
1463.1899 -531.87 583.50299 9.2197031e-39
1467.04 -519.28003 582.52899 9.2197031e-39
1483.5601 -509.13 584.76099 9.2197031e-39
1494.09 -501.78003 586.05298 9.2197031e-39
1505.12 -487.18005 586.40002 9.2197031e-39
1512.4399 -477.32996 586.60498 9.2197031e-39
1530.25 -467.66003 589.19598 9.2197031e-39
1522.52 -446.93994 584.43402 9.2197031e-39
3313.73 2277.97 589.073 9.2197031e-39
3318.73 2309.24 585.63202 9.2197031e-39
1457.85 -591.53003 591.013 9.2197031e-39
3303.8799 2202.75 597.84198 9.2197031e-39
3301.6899 2229.4399 593.45203 9.2197031e-39
1489.03 -635.40002 604.42401 9.2197031e-39
1676.96 -324.97699 601.33002 9.2197031e-39
3292.4299 2128.3198 606.133 9.2197031e-39
3297.8601 2158.4399 602.95697 9.2197031e-39
3276.8701 2013.98 619.33099 9.2197031e-39
3287.3999 2058.6401 615.17798 9.2197031e-39
3290.79 2087.1499 611.77698 9.2197031e-39
3266.8201 1944.15 627.26703 9.2197031e-39
3278.26 1988.3 623.39301 9.2197031e-39
3257.48 1850.5601 638.83197 9.2197031e-39
3257.1499 1875.84 635.06799 9.2197031e-39
3266.77 1918.27 631.03497 9.2197031e-39
3252.3201 1785.76 647.13501 9.2197031e-39
3251.5801 1810.5 643.35699 9.2197031e-39
3234.74 1680.76 658.51398 9.2197031e-39
3246.8201 1721.83 655.23102 9.2197031e-39
3247.48 1746.78 651.73901 9.2197031e-39
3225.5601 1593.261 669.22498 9.2197031e-39
3226.28 1617.469 665.85303 9.2197031e-39
3232.6499 1655.698 661.70203 9.2197031e-39
3215.3999 1530.738 676.07098 9.2197031e-39
3217.53 1555.072 672.99597 9.2197031e-39
3204.96 1434.536 687.76898 9.2197031e-39
3204.99 1469.1221 682.72699 9.2197031e-39
3216.04 1495.911 681.29901 9.2197031e-39
3190.1799 1350.293 696.74701 9.2197031e-39
3192.72 1373.782 693.888 9.2197031e-39
3201.9199 1410.5659 690.58698 9.2197031e-39
3182.03 1258.3521 708.34003 9.2197031e-39
3184.9399 1292.552 703.99902 9.2197031e-39
3188.8601 1316.131 701.43701 9.2197031e-39
3170.3501 1178.0029 717.44501 9.2197031e-39
3175.1201 1201.203 715.13 9.2197031e-39
3178.6399 1235.1841 710.96002 9.2197031e-39
3160.1399 1088.493 728.21802 9.2197031e-39
3163.9099 1121.833 724.19897 9.2197031e-39
3167.1699 1144.458 721.62799 9.2197031e-39
3138.24 976.98401 739.57703 9.2197031e-39
3143.2 1009.828 735.89697 9.2197031e-39
3150.1699 1032.58 734.14099 9.2197031e-39
3153.5801 1065.511 730.099 9.2197031e-39
3127.28 900.85101 748.22998 9.2197031e-39
3135.04 923.17499 746.71399 9.2197031e-39
3140.5701 955.85199 743.18701 9.2197031e-39
3117.0601 815.30603 758.42297 9.2197031e-39
3124.71 847.62903 755.422 9.2197031e-39
3131.8701 869.66602 753.815 9.2197031e-39
3112.8999 741.3587 768.28302 9.2197031e-39
3112.04 762.34711 765.026 9.2197031e-39
3118.29 794.29297 761.76599 9.2197031e-39
3096.46 636.04108 779.966 9.2197031e-39
3096.3301 656.9386 776.88501 9.2197031e-39
3103.6699 688.48242 773.92902 9.2197031e-39
3104.1499 709.47668 770.97198 9.2197031e-39
3085.8 552.75098 789.72998 9.2197031e-39
3086.3999 583.81061 785.33099 9.2197031e-39
3096.3899 604.88892 784.49799 9.2197031e-39
2325.5801 -659.58997 795.91498 9.2197031e-39
2325.75 -639.27002 792.98602 9.2197031e-39
2358.95 -626.59998 798.59497 9.2197031e-39
3073.3799 480.17999 797.53601 9.2197031e-39
3084.0801 500.84601 796.92102 9.2197031e-39
3084.24 531.90802 792.42297 9.2197031e-39
2381.99 -618.17004 802.54303 9.2197031e-39
3068.22 397.53201 808.44202 9.2197031e-39
3070.4199 428.466 804.41998 9.2197031e-39
3072.6899 449.20099 801.90302 9.2197031e-39
3050.8101 294.914 819.51202 9.2197031e-39
3054.0601 325.703 815.74701 9.2197031e-39
3056.0701 346.375 813.17902 9.2197031e-39
3066.5701 376.78299 811.09998 9.2197031e-39
2484.25 -639.28003 828.599 9.2197031e-39
3049.7 222.08401 829.89398 9.2197031e-39
3043.71 243.62201 825.40399 9.2197031e-39
3048.45 274.26901 821.99597 9.2197031e-39
3026.3501 120.50201 839.47699 9.2197031e-39
3028.8 141.159 837.013 9.2197031e-39
3033.6299 171.77399 833.62799 9.2197031e-39
3037.6599 192.22501 831.54797 9.2197031e-39
3024.8899 68.234985 846.78198 9.2197031e-39
3029.6299 88.616028 844.87097 9.2197031e-39
3014.45 -35.729004 859.61298 9.2197031e-39
3009.4099 -13.426025 855.22498 9.2197031e-39
3015.8301 17.04303 852.21802 9.2197031e-39
3019.96 37.518982 850.15698 9.2197031e-39
2995.1699 -116.96399 867.14001 9.2197031e-39
3002.6499 -86.606995 864.38898 9.2197031e-39
3007.49 -66.197998 862.49799 9.2197031e-39
2994.28 -192.33502 877.94501 9.2197031e-39
2991.3899 -169.86298 874.01398 9.2197031e-39
2999.4099 -139.52502 871.388 9.2197031e-39
2973.74 -295.99597 888.46399 9.2197031e-39
2980.03 -275.74103 886.91998 9.2197031e-39
2979.8 -242.91803 882.07501 9.2197031e-39
2985.72 -222.63397 880.44397 9.2197031e-39
2965.8 -348.85999 894.39801 9.2197031e-39
2971.53 -328.37 892.69299 9.2197031e-39
2955.26 -457.56995 907.901 9.2197031e-39
2954.4299 -434.56006 904.35498 9.2197031e-39
2966.0901 -404.81995 902.63202 9.2197031e-39
2972.21 -384.30005 901.01001 9.2197031e-39
2941.5901 -543.95996 917.44202 9.2197031e-39
2945.3 -510.95996 913.45697 9.2197031e-39
2953.0701 -490.84998 912.26599 9.2197031e-39
2928.6899 -620.32996 925.69299 9.2197031e-39
2937.21 -600.31995 924.685 9.2197031e-39
2941.5601 -567.18994 920.82501 9.2197031e-39
2921.6399 -712.12 937.50897 9.2197031e-39
2929.9199 -679.98999 934.677 9.2197031e-39
2932.6299 -657.29004 931.97198 9.2197031e-39
2887.04 -817.15002 945.06799 9.2197031e-39
2911.28 -792.28003 946.883 9.2197031e-39
2918.3601 -771.10999 945.38397 9.2197031e-39
2919.3799 -735.27002 940.38098 9.2197031e-39
2751.5801 -1824.4199 1061.6899 9.2197031e-39
2761.8999 -1799.5701 1060.38 9.2197031e-39
