# .PCD v0.7 - Point Cloud Data file format
VERSION 0.7
FIELDS x y z rgb
SIZE 4 4 4 4
TYPE F F F F
COUNT 1 1 1 1
WIDTH 271
HEIGHT 1
VIEWPOINT 0 0 0 1 0 0 0
POINTS 271
DATA ascii
-211.302 180.33801 134 9.2197031e-39
-201.59599 184.84799 135.00999 9.2197031e-39
-198.871 182.245 136.019 9.2197031e-39
-188.6255 184.996 137.46201 9.2197031e-39
-179.172 187.207 138.855 9.2197031e-39
-170.491 191.53201 139.703 9.2197031e-39
218.2995 593.62646 138.5715 9.2197031e-39
224.83749 594.10803 139.73151 9.2197031e-39
232.80901 602.63422 139.655 9.2197031e-39
3247.1599 3703.54 134.00101 9.2197031e-39
-167.159 189.952 140.636 9.2197031e-39
-152.106 202.07199 141.24001 9.2197031e-39
-143.72099 206.776 141.96001 9.2197031e-39
-135.43201 211.60001 142.64 9.2197031e-39
-115.3345 228.78448 143.257 9.2197031e-39
-106.222 233.065 144.196 9.2197031e-39
-95.9468 241.55899 144.567 9.2197031e-39
-79.180099 258.95999 144.506 9.2197031e-39
-65.712402 272.61801 144.51801 9.2197031e-39
-53.0811 285.677 144.48199 9.2197031e-39
-34.843498 307.03699 143.96001 9.2197031e-39
-11.787 336.02399 142.92799 9.2197031e-39
16.5662 333.05301 148.907 9.2197031e-39
2.7825201 353.89499 142.36 9.2197031e-39
24.126301 350.465 147.08501 9.2197031e-39
14.7861 368.69501 141.877 9.2197031e-39
24.281349 378.0105 141.944 9.2197031e-39
33.289902 374.12424 144.39575 9.2197031e-39
28.92005 382.75598 141.94049 9.2197031e-39
32.874432 382.10266 142.81902 9.2197031e-39
234.851 556.83301 148.64301 9.2197031e-39
243.51134 563.38763 149.06866 9.2197031e-39
251.01401 566.08698 149.99699 9.2197031e-39
257.70401 573.41248 149.901 9.2197031e-39
262.009 578.50562 149.76801 9.2197031e-39
236.16699 585.13898 143.58141 9.2197031e-39
243.923 587.68359 144.5865 9.2197031e-39
256.06448 585.09033 147.395 9.2197031e-39
264.7034 586.33936 148.81259 9.2197031e-39
227.12399 593.51758 140.27901 9.2197031e-39
235.864 596.71277 141.351 9.2197031e-39
246.299 597.26251 143.243 9.2197031e-39
265.87952 591.16211 148.13251 9.2197031e-39
246.70268 601.48846 142.52699 9.2197031e-39
3233.72 3636.6299 143.99001 9.2197031e-39
-23.4205 236.164 159.448 9.2197031e-39
-13.2575 262.20901 156.502 9.2197031e-39
-7.1893501 279.19199 154.47501 9.2197031e-39
1.9264801 301.36301 152.056 9.2197031e-39
243.54601 557.62598 150.157 9.2197031e-39
273.43799 582.1781 151.26401 9.2197031e-39
3254.27 3604.54 153.94299 9.2197031e-39
-42.549099 175.995 167.084 9.2197031e-39
-36.844799 173.6125 168.62201 9.2197031e-39
-29.957001 174.061 169.855 9.2197031e-39
-41.578701 185.349 165.51401 9.2197031e-39
-33.258099 181.80801 167.769 9.2197031e-39
-32.7132 210.83899 162.424 9.2197031e-39
3191.8799 3492.3101 163.07899 9.2197031e-39
-23.68745 169.04999 171.994 9.2197031e-39
-16.451666 166.34067 173.88634 9.2197031e-39
-4.1411247 164.15434 176.65033 9.2197031e-39
5.04498 162.561 178.70599 9.2197031e-39
14.623199 168.28149 179.464 9.2197031e-39
-28.2195 170.198 170.912 9.2197031e-39
-7.4075899 173.46701 174.278 9.2197031e-39
5.0283999 172.854 176.771 9.2197031e-39
10.525 170.341 178.29401 9.2197031e-39
3140.8501 3393.76 171.82001 9.2197031e-39
19.0142 167.22601 180.502 9.2197031e-39
21.705299 165.59698 181.32201 9.2197031e-39
33.548698 163.172 184.04201 9.2197031e-39
47.09 169.92001 185.36501 9.2197031e-39
52.935398 169.09601 186.63699 9.2197031e-39
64.764435 168.41766 189.02632 9.2197031e-39
28.232349 173.308 181.1225 9.2197031e-39
35.349953 171.4055 182.841 9.2197031e-39
43.003349 172.06499 184.18051 9.2197031e-39
55.146038 170.491 186.79767 9.2197031e-39
71.451401 175.08499 189.05299 9.2197031e-39
3144.8 3301.45 189.903 9.2197031e-39
3141.6599 3346.1599 180.909 9.2197031e-39
76.535301 167.49266 191.45067 9.2197031e-39
85.347633 166.41434 193.33833 9.2197031e-39
94.2295 166.215 195.07401 9.2197031e-39
100.136 165.23401 196.38699 9.2197031e-39
94.567749 174.095 193.6595 9.2197031e-39
106.15833 174.19701 195.85667 9.2197031e-39
114.85467 174.54199 197.45433 9.2197031e-39
122.0985 174.9985 198.7545 9.2197031e-39
125.973 184.16501 197.77499 9.2197031e-39
3159.26 3267.6101 199.02 9.2197031e-39
152.09799 169.68401 205.48849 9.2197031e-39
167.98599 165.66499 209.28049 9.2197031e-39
129.336 175.61499 200.02299 9.2197031e-39
135.11867 176.23132 201.01233 9.2197031e-39
143.778 177.33368 202.46135 9.2197031e-39
157.9955 170.69449 206.42651 9.2197031e-39
162.409 171.517 207.116 9.2197031e-39
173.9395 174.96899 208.6725 9.2197031e-39
175.636 166.33301 210.618 9.2197031e-39
181.60201 167.758 211.491 9.2197031e-39
185.63049 170.80049 211.69101 9.2197031e-39
194.82701 171.83176 213.25549 9.2197031e-39
205.408 173.87032 214.89632 9.2197031e-39
214.26466 176.50764 216.09502 9.2197031e-39
224.90935 174.18465 218.56599 9.2197031e-39
231.75 173.71201 219.963 9.2197031e-39
231.58299 183.07501 218.174 9.2197031e-39
3271.2 3320.78 210.442 9.2197031e-39
237.61301 176.112 220.634 9.2197031e-39
243.43268 178.62032 221.27568 9.2197031e-39
255.621 174.575 224.36551 9.2197031e-39
262.94098 178.10201 225.1035 9.2197031e-39
277.01401 175.535 228.276 9.2197031e-39
252.09399 182.54999 222.194 9.2197031e-39
267.298 180.29599 225.52499 9.2197031e-39
274.96231 184.35799 226.22766 9.2197031e-39
287.2175 181.1855 229.16699 9.2197031e-39
292.97449 184.54901 229.636 9.2197031e-39
3412.8101 3397.26 223.16701 9.2197031e-39
301.686 179.629 232.22501 9.2197031e-39
331.45999 178.311 238.166 9.2197031e-39
306.03299 182.33549 232.54849 9.2197031e-39
314.8895 187.502 233.27249 9.2197031e-39
323.698 183.52701 235.703 9.2197031e-39
335.83551 181.40901 238.42151 9.2197031e-39
343.04599 186.68701 238.80901 9.2197031e-39
306.237 191.651 230.839 9.2197031e-39
3449.8 3380.24 233.43401 9.2197031e-39
345.81799 176.70499 241.213 9.2197031e-39
354.77267 183.08 241.72865 9.2197031e-39
362.35999 188.26451 242.2065 9.2197031e-39
374.58899 187.94234 244.60535 9.2197031e-39
385.75201 186.48599 247.013 9.2197031e-39
394.367 182.492 249.41 9.2197031e-39
402.23401 188.343 249.8165 9.2197031e-39
392.10699 190.84799 247.41 9.2197031e-39
409.32901 195.065 249.911 9.2197031e-39
3439.3899 3322.76 242.23199 9.2197031e-39
413.15302 185.34601 252.467 9.2197031e-39
427.88 187.577 254.864 9.2197031e-39
443.42099 189.69699 257.43799 9.2197031e-39
454.08099 188.36549 259.72601 9.2197031e-39
418.89499 190.90701 252.521 9.2197031e-39
432.168 191.93401 254.866 9.2197031e-39
3197.29 3029.9299 250.90401 9.2197031e-39
3434.3899 3270.76 251.036 9.2197031e-39
467.01001 188.22299 262.22501 9.2197031e-39
491.78699 187.28601 267.13901 9.2197031e-39
471.311 193.086 262.13501 9.2197031e-39
480.76999 190.733 264.38501 9.2197031e-39
494.67401 190.73999 267.04199 9.2197031e-39
532.18201 166.383 278.78699 9.2197031e-39
3243.4099 1666.327 515.67603 9.2197031e-39
3239.72 1604.519 526.57202 9.2197031e-39
3237.51 1633.8579 520.64203 9.2197031e-39
3225.4199 1539.996 535.94897 9.2197031e-39
3233.2 1572.325 531.36902 9.2197031e-39
3216.48 1478.306 545.81897 9.2197031e-39
3225.8201 1510.605 541.54303 9.2197031e-39
1539.84 -302.48798 559.47601 9.2197031e-39
3206.3501 1417.1699 555.35797 9.2197031e-39
3216.3101 1449.1069 551.26703 9.2197031e-39
1511.6801 -372.10999 567.16199 9.2197031e-39
1512.3 -355 564.06799 9.2197031e-39
1513.5601 -338.46002 561.20203 9.2197031e-39
1526.3 -328.84198 561.83502 9.2197031e-39
1532.29 -315.20502 560.41998 9.2197031e-39
1552.36 -292.52197 560 9.2197031e-39
1577.59 -289.32501 564.22498 9.2197031e-39
3190.8899 1327.068 569.31403 9.2197031e-39
3204.6101 1359.245 565.89697 9.2197031e-39
3203.71 1387.6321 560.39697 9.2197031e-39
1513.9301 -409.17004 574.547 9.2197031e-39
1510.88 -389.29004 570.23199 9.2197031e-39
1631.13 -300.72302 576.60199 9.2197031e-39
3187.5 1269.771 579.41998 9.2197031e-39
3190.29 1298.63 574.53601 9.2197031e-39
1460.6801 -539.92004 588.90802 9.2197031e-39
1469.4 -527.17004 588.18103 9.2197031e-39
1481.11 -516.66003 588.44702 9.2197031e-39
1487.28 -502.04004 586.88202 9.2197031e-39
1495.66 -489.08997 586.05402 9.2197031e-39
1509.45 -479.96997 586.98102 9.2197031e-39
1518.4301 -467.40002 586.33698 9.2197031e-39
1535.3101 -460.17004 588.20801 9.2197031e-39
1528.8199 -437.20996 582.65698 9.2197031e-39
3182.0901 1212.552 589.12598 9.2197031e-39
3184.45 1241.0029 584.23602 9.2197031e-39
1460.2 -559.18994 592.43103 9.2197031e-39
3173.7 1155.276 598.27197 9.2197031e-39
3178.51 1183.967 593.80701 9.2197031e-39
3166.2 1098.818 607.43597 9.2197031e-39
3170.5601 1127.0969 602.96198 9.2197031e-39
3158.6499 1042.922 616.48401 9.2197031e-39
3161.5801 1070.644 611.84003 9.2197031e-39
3147.1699 986.94202 624.79602 9.2197031e-39
3152.55 1014.79 620.59802 9.2197031e-39
3137.3601 905.133 638.27698 9.2197031e-39
3143.48 932.69397 634.27301 9.2197031e-39
3150.3301 960.52197 630.35901 9.2197031e-39
3133.21 851.38696 647.57098 9.2197031e-39
3131 877.69501 642.21002 9.2197031e-39
3118.3 796.89697 654.948 9.2197031e-39
3126.3701 824.125 651.38 9.2197031e-39
3113.3 717.56299 668.883 9.2197031e-39
3112.25 743.74219 663.76898 9.2197031e-39
3119.8101 770.67902 660.15802 9.2197031e-39
3105.8701 664.69128 677.38599 9.2197031e-39
3105.28 690.82361 672.36798 9.2197031e-39
3096.53 612.0451 685.48199 9.2197031e-39
3096.3999 638.11377 680.56403 9.2197031e-39
3086.72 533.71802 698.30798 9.2197031e-39
3087.27 559.72699 693.53101 9.2197031e-39
3096.4299 585.96838 690.35901 9.2197031e-39
3078.0601 481.75201 706.40802 9.2197031e-39
3087.8999 507.707 703.41699 9.2197031e-39
3075.3799 429.85602 715.63599 9.2197031e-39
3074.8701 455.83502 710.66199 9.2197031e-39
3060.8601 352.51999 727.375 9.2197031e-39
3062 378.40799 722.73401 9.2197031e-39
3073.7 403.91599 720.18402 9.2197031e-39
3055.9299 300.867 736.12903 9.2197031e-39
3058.51 326.68701 731.77502 9.2197031e-39
3045.8899 223.60199 748.71198 9.2197031e-39
3050.1101 249.276 744.70001 9.2197031e-39
3053.1399 275.06201 740.43799 9.2197031e-39
3028.02 147.29999 759.617 9.2197031e-39
3031.9299 172.92801 755.55298 9.2197031e-39
3043.3999 197.763 753.08502 9.2197031e-39
2292.0901 -626.18005 764.08002 9.2197031e-39
3028.25 94.898987 769.49701 9.2197031e-39
3031.6499 120.67499 765.30798 9.2197031e-39
2347.48 -629.52002 775.29797 9.2197031e-39
3018.8601 43.697998 777.31097 9.2197031e-39
3014.97 70.586975 771.52002 9.2197031e-39
2397.05 -628.95996 784.66998 9.2197031e-39
3002.1499 -32.655029 788.448 9.2197031e-39
3007.6201 -7.190979 784.71399 9.2197031e-39
3012.8701 18.312012 780.93103 9.2197031e-39
3000.1101 -85.413025 797.96002 9.2197031e-39
3006.04 -59.950012 794.31403 9.2197031e-39
2489.54 -648.33997 805.99298 9.2197031e-39
2995.2 -137.90399 806.875 9.2197031e-39
2993 -110.62799 801.33502 9.2197031e-39
2984.1799 -216.29303 819.47998 9.2197031e-39
2991.24 -190.92401 816.07001 9.2197031e-39
2988.6001 -163.29303 810.37701 9.2197031e-39
2977.8501 -269.151 828.19098 9.2197031e-39
2983.49 -243.328 824.42297 9.2197031e-39
2971.49 -322.34302 836.95898 9.2197031e-39
2970.1001 -294.42401 831.45398 9.2197031e-39
2963.22 -375.31995 845.323 9.2197031e-39
2963.28 -347.57001 840.12598 9.2197031e-39
2954.0601 -456.56006 858.82001 9.2197031e-39
2953.98 -428.32996 853.50702 9.2197031e-39
2962.8899 -403.16003 850.48499 9.2197031e-39
2943.3301 -509.66003 866.737 9.2197031e-39
2951.1101 -483.91003 863.39099 9.2197031e-39
2928.5801 -590.51001 879.09003 9.2197031e-39
2938.8899 -565.5 876.36902 9.2197031e-39
2941.7 -537.71997 871.69202 9.2197031e-39
2926.1599 -648.01001 889.41998 9.2197031e-39
2927.96 -619.40002 884.39502 9.2197031e-39
2919.9099 -704.67004 898.862 9.2197031e-39
2921.3799 -675.56006 893.67902 9.2197031e-39
2910.78 -760.72998 907.64001 9.2197031e-39
2914.6001 -732.29004 903.03101 9.2197031e-39
2904.9399 -818.98999 917.45801 9.2197031e-39
2907.5701 -789.63 912.448 9.2197031e-39
