# .PCD v0.7 - Point Cloud Data file format
VERSION 0.7
FIELDS x y z rgb
SIZE 4 4 4 4
TYPE F F F F
COUNT 1 1 1 1
WIDTH 267
HEIGHT 1
VIEWPOINT 0 0 0 1 0 0 0
POINTS 267
DATA ascii
-306.38501 188.504 135.14101 9.2197031e-39
-294.04099 188.48001 137.36099 9.2197031e-39
-309.10901 191.49701 134.056 9.2197031e-39
-296.76999 191.371 136.29601 9.2197031e-39
-283.80801 192.26401 138.444 9.2197031e-39
-274.66 195.784 139.38499 9.2197031e-39
173.04401 603.1449 138.668 9.2197031e-39
189.31351 616.54028 138.9225 9.2197031e-39
194.431 616.09412 139.92999 9.2197031e-39
3167.25 3329.24 133.536 9.2197031e-39
-264.60699 199.862 140.37801 9.2197031e-39
-248.608 210.76801 141.07899 9.2197031e-39
-233.243 220.944 141.811 9.2197031e-39
-224.53799 225.08401 142.549 9.2197031e-39
-208.83701 236.41299 143.11301 9.2197031e-39
-200.366 240.854 143.74899 9.2197031e-39
-181.91451 253.851 144.474 9.2197031e-39
-162.53 268.77301 144.983 9.2197031e-39
-153.894 274.54401 145.38499 9.2197031e-39
-135.481 291.71201 145.27299 9.2197031e-39
-117.577 309.33401 144.979 9.2197031e-39
-82.106102 348.758 143.5 9.2197031e-39
-40.967602 355.53201 149.534 9.2197031e-39
-66.870003 364.729 143.056 9.2197031e-39
-33.0228 371.68399 147.746 9.2197031e-39
-49.3027 383.97101 142.38 9.2197031e-39
-41.380901 391.74701 142.254 9.2197031e-39
-24.192301 407.6304 142.17799 9.2197031e-39
-17.238375 402.95898 144.35526 9.2197031e-39
-15.3675 412.44 142.8045 9.2197031e-39
186.604 569.79199 147.73801 9.2197031e-39
197.85664 574.80194 148.76067 9.2197031e-39
205.67599 578.75549 149.377 9.2197031e-39
206.201 580.35181 149.15401 9.2197031e-39
215.618 586.63641 149.593 9.2197031e-39
197.298 599.17688 143.8105 9.2197031e-39
205.81 599.95178 145.18401 9.2197031e-39
222.94325 596.75977 148.89349 9.2197031e-39
231.177 599.0509 149.91499 9.2197031e-39
189.58701 606.9184 140.886 9.2197031e-39
196.04526 604.67163 142.49226 9.2197031e-39
204.603 604.53485 144.05499 9.2197031e-39
215.64301 602.46722 146.44751 9.2197031e-39
224.49651 603.43982 147.843 9.2197031e-39
193.58635 612.47485 140.498 9.2197031e-39
206.93701 612.85602 142.81799 9.2197031e-39
3164.9399 3277.8101 143.356 9.2197031e-39
-83.056999 267.17099 159.564 9.2197031e-39
-75.439499 285.71201 157.241 9.2197031e-39
-63.766399 310.00699 154.502 9.2197031e-39
-55.9809 327.36301 152.44501 9.2197031e-39
206.77 575.19122 150.283 9.2197031e-39
227.38849 595.02765 150.03549 9.2197031e-39
3149.1599 3219.99 152.02901 9.2197031e-39
-113.871 193.39001 168.715 9.2197031e-39
-112.331 202.66501 167.146 9.2197031e-39
-102.205 227.711 163.979 9.2197031e-39
3182.6699 3201.04 161.812 9.2197031e-39
-103.05533 178.31966 173.65498 9.2197031e-39
-96.874397 175.595 175.306 9.2197031e-39
-81.1045 178.827 177.493 9.2197031e-39
-75.115234 176.58167 179.01466 9.2197031e-39
-113.5575 183.23601 170.79199 9.2197031e-39
-108.995 181.04401 172.047 9.2197031e-39
-90.296402 182.52499 175.108 9.2197031e-39
-85.712601 180.6485 176.304 9.2197031e-39
3193.22 3166.9099 170.49899 9.2197031e-39
-67.425751 173.853 180.9375 9.2197031e-39
-53.734333 178.8 182.40999 9.2197031e-39
-46.082298 176.53549 184.23349 9.2197031e-39
-35.385948 173.696 186.71851 9.2197031e-39
-23.38315 175.45149 188.52249 9.2197031e-39
-17.784401 178.814 188.858 9.2197031e-39
-59.700699 180.67999 180.965 9.2197031e-39
-35.816101 182.99651 184.7905 9.2197031e-39
-26.758801 180.76401 186.86 9.2197031e-39
3254.0801 3170.3301 180.739 9.2197031e-39
-13.42175 168.9245 191.60899 9.2197031e-39
-11.6698 177.625 190.192 9.2197031e-39
-3.917115 176.28101 191.851 9.2197031e-39
3.7681019 175.12434 193.46033 9.2197031e-39
10.0573 174.29199 194.755 9.2197031e-39
15.895599 182.548 194.1595 9.2197031e-39
24.998774 181.692 195.96349 9.2197031e-39
35.626064 180.97301 198.01332 9.2197031e-39
43.580551 185.07001 198.62601 9.2197031e-39
54.311901 188.35001 199.899 9.2197031e-39
3193.3401 3032.3301 197.297 9.2197031e-39
3330.8701 3190.0901 190.58701 9.2197031e-39
56.931599 179.53299 202.123 9.2197031e-39
63.0672 179.64301 203.202 9.2197031e-39
47.9347 180.54599 200.30701 9.2197031e-39
50.840599 180.51099 200.836 9.2197031e-39
65.227394 188.55432 201.81667 9.2197031e-39
75.195595 189.01466 203.51399 9.2197031e-39
84.402367 183.81331 206.20134 9.2197031e-39
93.764626 182.464 208.15001 9.2197031e-39
104.3765 184.15901 209.717 9.2197031e-39
3171.54 2974.3201 204.931 9.2197031e-39
100.596 174.76001 210.909 9.2197031e-39
119.273 177.70499 213.674 9.2197031e-39
123.9975 178.61 214.34201 9.2197031e-39
130.26401 170.935 216.994 9.2197031e-39
109.01 184.85699 210.409 9.2197031e-39
113.4855 185.59799 211.065 9.2197031e-39
134.77632 180.91699 215.81734 9.2197031e-39
144.03766 183.16566 217.03166 9.2197031e-39
154.7525 185.84201 218.422 9.2197031e-39
163.91501 188.3455 219.56799 9.2197031e-39
3222.1799 2969.25 215.024 9.2197031e-39
189.099 179.10699 225.92599 9.2197031e-39
168.505 189.31601 220.19901 9.2197031e-39
184.17134 186.26433 223.61732 9.2197031e-39
192.59599 188.79401 224.62601 9.2197031e-39
204.71565 184.71834 227.61133 9.2197031e-39
213.82133 188.75465 228.44234 9.2197031e-39
173.09201 190.8685 220.713 9.2197031e-39
195.123 190.85901 224.668 9.2197031e-39
220.10001 191.332 229.056 9.2197031e-39
3271.73 2966.75 224.416 9.2197031e-39
228.2515 185.61101 231.6575 9.2197031e-39
234.358 188.698 232.1385 9.2197031e-39
268.67401 188.035 238.429 9.2197031e-39
271.573 189.823 238.593 9.2197031e-39
238.83099 191.03799 232.476 9.2197031e-39
244.94067 194.368 232.90967 9.2197031e-39
256.634 190.99149 235.67999 9.2197031e-39
261.086 193.617 235.95599 9.2197031e-39
274.75601 191.823 238.76601 9.2197031e-39
3231.4299 2852.9199 239.834 9.2197031e-39
3248.1201 2904.6699 232.533 9.2197031e-39
285.89865 187.52699 241.62102 9.2197031e-39
315.74152 187.14999 247.05099 9.2197031e-39
295.07034 193.73299 242.032 9.2197031e-39
306 190.80099 244.577 9.2197031e-39
324.88025 194.11424 247.30551 9.2197031e-39
337.922 193.366 249.795 9.2197031e-39
340.79401 195.72601 249.841 9.2197031e-39
346.77301 200.763 249.911 9.2197031e-39
3271.9299 2839.26 249.82001 9.2197031e-39
345.18301 196.87601 250.399 9.2197031e-39
358.12 193.974 253.298 9.2197031e-39
360.992 196.5 253.311 9.2197031e-39
372.84698 195.48599 255.64 9.2197031e-39
384.49167 195.35866 257.75534 9.2197031e-39
362.19601 201.466 252.539 9.2197031e-39
442.62701 187.40799 269.76999 9.2197031e-39
397.64301 193.716 260.44199 9.2197031e-39
402.19501 195.504 260.90302 9.2197031e-39
412.52551 194.2805 263.00049 9.2197031e-39
420.871 195.27301 264.30099 9.2197031e-39
434.897 194.73151 266.92499 9.2197031e-39
448.798 194.224 269.521 9.2197031e-39
465.92749 188.83701 273.66699 9.2197031e-39
478.82001 187.54099 276.23801 9.2197031e-39
491.80301 189.556 278.16699 9.2197031e-39
481.026 191.67801 275.811 9.2197031e-39
502.35101 187.22 280.52499 9.2197031e-39
579.185 134.71002 304.76099 9.2197031e-39
3218.1201 1453.4871 515.90698 9.2197031e-39
3225.71 1486.541 510.69199 9.2197031e-39
3207.99 1392.479 526.22998 9.2197031e-39
3217.1599 1425.4709 521.31 9.2197031e-39
3195.75 1331.787 536.10901 9.2197031e-39
3208.4199 1365.173 531.73901 9.2197031e-39
3192 1274.009 546.93402 9.2197031e-39
3191.79 1303.7119 540.98602 9.2197031e-39
3184.29 1215.8989 557.11298 9.2197031e-39
3178.8401 1244.1221 550.51801 9.2197031e-39
1525.3101 -343.84998 569.77002 9.2197031e-39
1532.91 -329.72601 568.323 9.2197031e-39
1534.5601 -313.935 565.47601 9.2197031e-39
1548.63 -303.54901 565.935 9.2197031e-39
1556.8 -291.48199 565 9.2197031e-39
1570.73 -280.79602 565.37402 9.2197031e-39
3176.48 1158.411 567.15002 9.2197031e-39
3180.28 1188.428 561.85901 9.2197031e-39
1514.02 -390.10999 576.94897 9.2197031e-39
1516.3 -374.25 574.20099 9.2197031e-39
1522.53 -359.17004 572.31897 9.2197031e-39
3168.5901 1101.515 577.05603 9.2197031e-39
3172.9399 1131.33 571.90302 9.2197031e-39
1528.3 -436.54004 588.74902 9.2197031e-39
1521.29 -414.12 583.03003 9.2197031e-39
1635.33 -298.41101 580.47101 9.2197031e-39
3157.72 1044.692 586.41199 9.2197031e-39
3163.5801 1074.448 581.54303 9.2197031e-39
1466.63 -529.31995 596.14502 9.2197031e-39
1480.64 -519.03003 596.61102 9.2197031e-39
1492.86 -509.27002 596.862 9.2197031e-39
1494.14 -489.68994 593.19598 9.2197031e-39
1506.96 -480.31995 593.63202 9.2197031e-39
1510.26 -462.42004 590.66302 9.2197031e-39
1534.9399 -460.97998 594.80402 9.2197031e-39
3147.78 988.646 595.78003 9.2197031e-39
3153.2 1018.008 590.90997 9.2197031e-39
3137.8101 933.16504 605.03101 9.2197031e-39
3150.6101 963.26599 601.33899 9.2197031e-39
3133.73 878.88599 615.09802 9.2197031e-39
3140.1899 907.85303 610.49402 9.2197031e-39
3119.3401 798.591 628.49402 9.2197031e-39
3127.7 824.71204 624.79602 9.2197031e-39
3134.6699 853.48999 620.32098 9.2197031e-39
3113.8701 745.02209 638.172 9.2197031e-39
3121.7 770.867 634.435 9.2197031e-39
3115.3401 692.08008 648.97101 9.2197031e-39
3114.76 717.25531 643.85699 9.2197031e-39
3097.1699 638.41852 656.388 9.2197031e-39
3106.8799 663.89471 653.06 9.2197031e-39
3096.79 585.71912 666.80499 9.2197031e-39
3097.0901 610.77502 661.87299 9.2197031e-39
3086.6201 532.99402 675.47198 9.2197031e-39
3087.3601 557.98199 670.63202 9.2197031e-39
3075.98 453.03601 689.47302 9.2197031e-39
3075.55 480.57501 683.91498 9.2197031e-39
3087.54 505.40198 681.12701 9.2197031e-39
2040.8 -488.75 691.10797 9.2197031e-39
3072.3701 400.62201 699.25403 9.2197031e-39
3074.3799 428.11499 694.14398 9.2197031e-39
3065.8701 348.366 708.48602 9.2197031e-39
3070.3301 375.71701 703.84302 9.2197031e-39
3062.3899 295.92801 718.29498 9.2197031e-39
3065.3601 323.367 713.36798 9.2197031e-39
3046.26 244.61401 725.612 9.2197031e-39
3049.7 271.92499 720.79498 9.2197031e-39
3036.22 167.82401 739.091 9.2197031e-39
3039.99 192.513 734.85303 9.2197031e-39
3050.73 219.07401 731.49597 9.2197031e-39
3027.6399 115.974 747.867 9.2197031e-39
3041.55 139.33301 745.71503 9.2197031e-39
3026.8601 62.877014 758.29199 9.2197031e-39
3022.77 88.822021 752.39697 9.2197031e-39
3016.4399 11.142029 766.71698 9.2197031e-39
3021.5 35.718018 762.73602 9.2197031e-39
2359.8101 -628.66003 776.19299 9.2197031e-39
3005.1201 -40.434021 774.94897 9.2197031e-39
3010.6101 -15.935974 771.06 9.2197031e-39
2396.3301 -619.75 780.974 9.2197031e-39
2995.6799 -120.84698 789.25598 9.2197031e-39
3001.51 -93.664978 784.89301 9.2197031e-39
3007.45 -69.179016 781.086 9.2197031e-39
2989.6699 -173.95001 798.74298 9.2197031e-39
2996.9399 -147.00702 794.68597 9.2197031e-39
2483.4099 -637.22998 800.08002 9.2197031e-39
2982.6799 -227.10498 808.06598 9.2197031e-39
2992.3401 -200.67902 804.53998 9.2197031e-39
2977.55 -281.08002 817.88599 9.2197031e-39
2977.3301 -251.93201 812.04498 9.2197031e-39
2967.6799 -334.06 826.65698 9.2197031e-39
2969.8601 -305.37201 821.33899 9.2197031e-39
2959.6399 -387.89001 835.92401 9.2197031e-39
2970.74 -361.70996 832.70697 9.2197031e-39
2958.9099 -444.56006 847.07001 9.2197031e-39
2959.3999 -414.78003 841.23199 9.2197031e-39
2949.73 -498.93994 856.24402 9.2197031e-39
2958.1399 -471.60999 852.31403 9.2197031e-39
2934.1299 -579.16003 869.40601 9.2197031e-39
2944.0901 -555.06995 866.401 9.2197031e-39
2946.6299 -525.40002 860.95203 9.2197031e-39
2940.0801 -612.46997 877.10101 9.2197031e-39
2925.96 -666.37 885.29401 9.2197031e-39
2929.6399 -636.53003 880.01703 9.2197031e-39
2917.96 -723.31995 895.19 9.2197031e-39
2922.22 -693.39001 890 9.2197031e-39
2909.72 -780.82996 905.15399 9.2197031e-39
2914.5701 -750.81995 900.05298 9.2197031e-39
2907.54 -809.23999 910.41699 9.2197031e-39
