# .PCD v0.7 - Point Cloud Data file format
VERSION 0.7
FIELDS x y z rgb
SIZE 4 4 4 4
TYPE F F F F
COUNT 1 1 1 1
WIDTH 261
HEIGHT 1
VIEWPOINT 0 0 0 1 0 0 0
POINTS 261
DATA ascii
-416.177 195.5975 134.6805 9.2197031e-39
-398.57599 195.18201 137.808 9.2197031e-39
-387.09201 198.866 139.03799 9.2197031e-39
-397.79501 201.84698 136.578 9.2197031e-39
137.8165 641.67047 139.101 9.2197031e-39
141.521 646.11511 138.83099 9.2197031e-39
153.35001 655.43988 138.966 9.2197031e-39
3147.3 3209.3 133.54601 9.2197031e-39
-381.16299 198.31699 140.175 9.2197031e-39
-364.71799 207.07599 141.224 9.2197031e-39
-340.05701 224.67001 141.88499 9.2197031e-39
-322.617 235.40399 142.701 9.2197031e-39
-306.37601 245.98801 143.341 9.2197031e-39
-287.242 259.38101 143.90601 9.2197031e-39
-271.42099 270.47501 144.369 9.2197031e-39
-250.69701 286.60501 144.649 9.2197031e-39
-244.968 288.07001 145.339 9.2197031e-39
-221.991 307.65601 145.3 9.2197031e-39
-213.787 312.35199 145.756 9.2197031e-39
-192.741 331.069 145.562 9.2197031e-39
-178.866 342.823 145.55299 9.2197031e-39
-141.367 381.73199 144.06799 9.2197031e-39
-91.928001 396.02899 149.686 9.2197031e-39
-119.673 403.94501 143.27 9.2197031e-39
-82.362396 413.57901 147.746 9.2197031e-39
-100.807 423.33701 142.56 9.2197031e-39
-90.697197 433.13599 142.30099 9.2197031e-39
-68.998901 435.815 145.50301 9.2197031e-39
-78.125 446.099 141.82001 9.2197031e-39
-64.758499 446.58398 144.03101 9.2197031e-39
-67.249519 452.87338 142.31259 9.2197031e-39
-60.597 460.34399 141.933 9.2197031e-39
154.66449 607.32806 149.04425 9.2197031e-39
163.04634 613.68311 149.192 9.2197031e-39
170.355 619.31201 149.30299 9.2197031e-39
177.034 627.57318 148.76601 9.2197031e-39
180.54601 626.56232 149.5795 9.2197031e-39
155.3166 634.69922 143.55301 9.2197031e-39
163.15851 636.52625 144.534 9.2197031e-39
176.548 635.76727 147.00351 9.2197031e-39
182.71721 635.08246 148.2106 9.2197031e-39
148.315 644.5675 140.32201 9.2197031e-39
154.157 647.0885 140.81566 9.2197031e-39
162.84274 646.18799 142.50125 9.2197031e-39
3219.01 3221.78 143.38499 9.2197031e-39
-128.097 328.19501 157.323 9.2197031e-39
-115.642 352.099 154.582 9.2197031e-39
-106.759 370.03299 152.44501 9.2197031e-39
185.936 626.12817 150.60001 9.2197031e-39
3260.29 3212.49 152.422 9.2197031e-39
-181.28799 223.19901 169.62801 9.2197031e-39
-165.95399 255.71301 165.621 9.2197031e-39
-139.94501 303.95599 160.239 9.2197031e-39
3288.1799 3187.47 162.368 9.2197031e-39
-173.5975 197.7955 176.15799 9.2197031e-39
-167.17401 194.685 177.9055 9.2197031e-39
-151.664 198.547 179.795 9.2197031e-39
-184.717 203.52934 173.06267 9.2197031e-39
-178.3 200.159 174.862 9.2197031e-39
-158.03101 201.39001 178.11301 9.2197031e-39
3146.74 2988.6499 178.62801 9.2197031e-39
3340.4199 3185.9299 171.71201 9.2197031e-39
-125.687 188.31 186.381 9.2197031e-39
-158.98599 190.91699 180.092 9.2197031e-39
-145.13367 195.78267 181.49034 9.2197031e-39
-138.77299 193.20001 183.118 9.2197031e-39
-127.2035 198.3495 184.06351 9.2197031e-39
-115.88633 194.38599 186.83134 9.2197031e-39
-106.16134 191.28633 189.14667 9.2197031e-39
-131.923 200.11899 182.886 9.2197031e-39
3195.3899 2985.8799 187.604 9.2197031e-39
-97.920853 188.87201 191.06549 9.2197031e-39
-83.074699 185.02399 194.41901 9.2197031e-39
-90.321297 196.022 190.91499 9.2197031e-39
-85.534546 194.78801 191.99551 9.2197031e-39
-77.306 192.80899 193.82201 9.2197031e-39
-64.916946 194.72549 195.5715 9.2197031e-39
-55.854664 197.56999 196.55566 9.2197031e-39
-46.073566 196.00533 198.56633 9.2197031e-39
-39.670601 195.11401 199.855 9.2197031e-39
-72.001404 200.73099 193.117 9.2197031e-39
-68.638397 200.009 193.84599 9.2197031e-39
3246.1699 2979.78 197.629 9.2197031e-39
-34.693802 194.50999 200.83951 9.2197031e-39
-24.870251 193.536 202.737 9.2197031e-39
-2.96067 199.07199 205.39 9.2197031e-39
-23.7855 202.29601 201.131 9.2197031e-39
-14.1646 201.56799 202.9425 9.2197031e-39
-7.7365904 201.22249 204.1245 9.2197031e-39
3.6202843 202.854 205.75299 9.2197031e-39
14.871475 204.33923 207.394 9.2197031e-39
24.44525 208.52 208.1925 9.2197031e-39
29.228001 210.21799 208.672 9.2197031e-39
3250.78 2943.1001 205.936 9.2197031e-39
32.5709 198.65701 211.617 9.2197031e-39
49.4048 194.20801 215.437 9.2197031e-39
52.536701 194.55701 215.907 9.2197031e-39
64.126099 196.0775 217.599 9.2197031e-39
77.229553 198.2265 219.42349 9.2197031e-39
37.3993 201.93851 211.77899 9.2197031e-39
43.8437 202.48799 212.7805 9.2197031e-39
56.710152 203.92151 214.711 9.2197031e-39
68.012901 205.54901 216.33099 9.2197031e-39
3212.3301 2871.6201 213.92799 9.2197031e-39
73.430702 188.65399 220.72701 9.2197031e-39
83.756851 199.47 220.2975 9.2197031e-39
88.720596 200.491 220.946 9.2197031e-39
95.105003 201.91734 221.75768 9.2197031e-39
104.85433 204.29967 222.95467 9.2197031e-39
114.608 206.27832 224.23567 9.2197031e-39
125.16233 206.05901 226.10432 9.2197031e-39
136.14699 204.54933 228.31233 9.2197031e-39
144.2225 207.39749 229.125 9.2197031e-39
152.134 210.38101 229.882 9.2197031e-39
3237.0701 2850.48 222.53101 9.2197031e-39
155.28 202.25801 232.0885 9.2197031e-39
165.13966 205.54601 233.11967 9.2197031e-39
174.086 206.94101 234.38 9.2197031e-39
186.21667 201.49365 237.59233 9.2197031e-39
195.892 206.54401 238.23 9.2197031e-39
3115.55 2686.6802 235.065 9.2197031e-39
3217.5901 2794.3899 230.647 9.2197031e-39
196.614 196.09698 240.494 9.2197031e-39
205.82001 198.5755 241.578 9.2197031e-39
213.56067 203.78865 241.84833 9.2197031e-39
223.56601 204.938 243.343 9.2197031e-39
234.8925 200.354 246.23901 9.2197031e-39
243.44 204.81767 246.802 9.2197031e-39
253.7675 206.43849 248.25549 9.2197031e-39
260.14499 207.18201 249.20599 9.2197031e-39
269.13898 204.5435 251.30051 9.2197031e-39
284.90234 206.49268 253.62567 9.2197031e-39
298.45599 208.638 255.52901 9.2197031e-39
306.97351 207.96001 257.14001 9.2197031e-39
317.39401 205.18701 259.509 9.2197031e-39
271.61499 211.57901 250.28799 9.2197031e-39
292.45099 210.116 254.189 9.2197031e-39
321.73401 206.25699 260.04001 9.2197031e-39
331.38849 204.91451 261.98349 9.2197031e-39
345.01535 205.90068 264.13699 9.2197031e-39
359.29901 203.17001 267.16501 9.2197031e-39
366.73199 202.15799 268.65701 9.2197031e-39
376.694 204.97 269.80301 9.2197031e-39
418.92001 264.69199 264.87299 9.2197031e-39
387.991 199.79401 272.815 9.2197031e-39
415.97 199.31299 277.75 9.2197031e-39
374.556 200.242 270.40201 9.2197031e-39
396.51401 201.47099 273.94501 9.2197031e-39
404.36401 203.96201 274.79199 9.2197031e-39
427.30899 195.84601 280.41901 9.2197031e-39
435.16901 198.67499 281.19849 9.2197031e-39
452.82147 196.6545 284.66351 9.2197031e-39
465.20401 196.15399 286.90601 9.2197031e-39
477.95499 199.26901 288.47198 9.2197031e-39
467.26099 201.556 286.15601 9.2197031e-39
488.29999 198.147 290.48999 9.2197031e-39
492.271 201.52301 290.48499 9.2197031e-39
3202.47 1418.871 509.67099 9.2197031e-39
3194.75 1386.4099 514.98401 9.2197031e-39
3190.3301 1327.749 526.22998 9.2197031e-39
3192.8601 1358.502 520.37097 9.2197031e-39
3184.8201 1269.423 537.21997 9.2197031e-39
3187.9199 1299.9971 531.49701 9.2197031e-39
3170.47 1209.866 546.93402 9.2197031e-39
3182.8799 1242.041 542.49103 9.2197031e-39
3170.6001 1153.8511 558.42603 9.2197031e-39
3166.0601 1182.3259 551.81097 9.2197031e-39
3151.1699 1094.838 567.15002 9.2197031e-39
3156.9299 1124.8879 561.992 9.2197031e-39
1510.33 -333.65002 576.026 9.2197031e-39
1513.24 -318.10602 573.34497 9.2197031e-39
1518.46 -302.255 571.00201 9.2197031e-39
1532 -292.98602 571.44397 9.2197031e-39
1542.04 -279.86798 570.49402 9.2197031e-39
1558.01 -271.703 571.58301 9.2197031e-39
1595.27 -272.966 578.28101 9.2197031e-39
3150.24 1039.558 578.30798 9.2197031e-39
3155.55 1069.2939 573.13702 9.2197031e-39
1504.66 -386.67004 585.901 9.2197031e-39
1508.9399 -369.71997 583.17102 9.2197031e-39
1511.38 -353.58002 580.28699 9.2197031e-39
3138.51 983.09998 587.84003 9.2197031e-39
3145.3401 1012.737 582.95203 9.2197031e-39
1518.15 -433.85999 597.89502 9.2197031e-39
1511.6 -409.25 591.72198 9.2197031e-39
1680.9301 -300.68903 598.763 9.2197031e-39
3134.6201 928.14697 598.41803 9.2197031e-39
3132.1399 956.37402 592.21198 9.2197031e-39
1458.3101 -510.44995 603.23401 9.2197031e-39
1473.3199 -500.43005 603.77502 9.2197031e-39
1486.52 -490.93994 604.11499 9.2197031e-39
1493.52 -474.97998 602.05798 9.2197031e-39
1499.4301 -460.29004 600.06897 9.2197031e-39
1517.3 -451.92004 601.44598 9.2197031e-39
3131.71 873.58502 609.08899 9.2197031e-39
3129.75 901.80402 602.97101 9.2197031e-39
3118 818.37201 618.02301 9.2197031e-39
3124.4099 847.19397 613.22998 9.2197031e-39
3111.2 764.16278 627.948 9.2197031e-39
3118.1201 792.80603 623.27802 9.2197031e-39
3102.47 710.15582 637.49597 9.2197031e-39
3110.8701 738.65613 633.112 9.2197031e-39
3101.6599 656.70172 648.302 9.2197031e-39
3101.6899 684.72491 642.56799 9.2197031e-39
3093.02 603.17688 657.76703 9.2197031e-39
3093.53 631.14032 652.13 9.2197031e-39
3081.48 549.927 666.67499 9.2197031e-39
3081.5 577.80127 660.96997 9.2197031e-39
3078.8601 496.79401 677.10199 9.2197031e-39
3079.3701 524.68103 671.479 9.2197031e-39
3066.47 444.04498 685.75897 9.2197031e-39
3068.4399 471.823 680.41302 9.2197031e-39
3053.6699 366.379 699.44897 9.2197031e-39
3055.1299 391.52701 694.55298 9.2197031e-39
3064.46 418.88202 690.56403 9.2197031e-39
3046.8701 313.73001 709.05402 9.2197031e-39
3049.75 338.78101 704.42297 9.2197031e-39
3040.1299 261.09299 718.66602 9.2197031e-39
3043.45 286.10599 714.11902 9.2197031e-39
3032.47 208.54999 728.10101 9.2197031e-39
3042.0801 232.866 724.78302 9.2197031e-39
3024.8701 155.98297 737.54901 9.2197031e-39
3034.8999 180.151 734.33502 9.2197031e-39
3023.1201 102.45599 748.20801 9.2197031e-39
3028.73 127.23602 744.10303 9.2197031e-39
3012.6899 50.138 757.11603 9.2197031e-39
3017.76 74.98999 752.90503 9.2197031e-39
3010 -3.6799927 767.67102 9.2197031e-39
3007.8201 22.577026 761.91699 9.2197031e-39
2364.47 -605.79004 779.37799 9.2197031e-39
2997.71 -55.817017 776.22198 9.2197031e-39
3003.6699 -31.054016 772.18103 9.2197031e-39
2349.6001 -623.20996 780.37402 9.2197031e-39
2995.01 -110.15802 786.88 9.2197031e-39
2990.8999 -83.093994 780.63 9.2197031e-39
2979.9099 -161.84802 794.85498 9.2197031e-39
2986.75 -137.19897 790.98901 9.2197031e-39
2464.03 -627.16003 800.96198 9.2197031e-39
2982.8 -218.29901 806.91302 9.2197031e-39
2988.22 -193.12097 802.69397 9.2197031e-39
2973.3401 -271.93103 816.258 9.2197031e-39
2982.98 -247.81897 812.987 9.2197031e-39
2964.77 -326.104 825.86902 9.2197031e-39
2974.8501 -302.07898 822.69098 9.2197031e-39
2955.2 -380.30005 835.31201 9.2197031e-39
2963.8601 -355.79004 831.78802 9.2197031e-39
2953.8601 -437.66003 846.82501 9.2197031e-39
2953.74 -410.06006 841.15198 9.2197031e-39
2949.55 -494.67004 857.75299 9.2197031e-39
2950.8899 -467.23999 852.36902 9.2197031e-39
2702.4099 -715.72998 860.29901 9.2197031e-39
2937.78 -549.45996 866.93597 9.2197031e-39
2939.6299 -521.96997 861.62701 9.2197031e-39
2923.1799 -603.5 875.47699 9.2197031e-39
2933.6899 -579.18005 872.31403 9.2197031e-39
2915.6399 -660.85999 885.91901 9.2197031e-39
2928.4199 -637.32996 883.31 9.2197031e-39
2917.6299 -723.14001 899.013 9.2197031e-39
2918.4399 -694.16003 893.21997 9.2197031e-39
2905.97 -780.16003 908.67499 9.2197031e-39
2910.8799 -752.68994 903.89899 9.2197031e-39
