# .PCD v0.7 - Point Cloud Data file format
VERSION 0.7
FIELDS x y z rgb
SIZE 4 4 4 4
TYPE F F F F
COUNT 1 1 1 1
WIDTH 274
HEIGHT 1
VIEWPOINT 0 0 0 1 0 0 0
POINTS 274
DATA ascii
-1284.33 -150.62903 134 9.2197031e-39
-1271.8101 -157.00098 137.255 9.2197031e-39
59.8699 691.56152 139.98 9.2197031e-39
62.955059 696.91516 139.2244 9.2197031e-39
3140.04 2708.8799 134.00101 9.2197031e-39
-1280.08 -207.12799 147.332 9.2197031e-39
-1287.16 -196.89697 144 9.2197031e-39
-1289.16 -183.26099 140.64 9.2197031e-39
-763.46802 134.422 145.60899 9.2197031e-39
-572.94598 265.19 143.89101 9.2197031e-39
-532.92999 288.47299 144.472 9.2197031e-39
-477.42401 324.49701 144.438 9.2197031e-39
-462.90399 330.24399 145.256 9.2197031e-39
-421.79501 357.228 145.16299 9.2197031e-39
-417.07401 356.146 146.093 9.2197031e-39
-395.30701 369.009 146.364 9.2197031e-39
-363.008 391.14499 146.08099 9.2197031e-39
-345.63 401.565 146.263 9.2197031e-39
-314.03601 424.617 145.67101 9.2197031e-39
-301.68399 431.76199 145.85899 9.2197031e-39
-264.05701 461.642 144.608 9.2197031e-39
-246.987 474.065 144.295 9.2197031e-39
-224.992 491.48901 143.573 9.2197031e-39
-193.577 491.94202 148.03999 9.2197031e-39
-207.69 505.17902 143.009 9.2197031e-39
-176.771 514.30853 145.451 9.2197031e-39
-184.96799 522.65149 142.3815 9.2197031e-39
-171.54601 526.13666 143.54933 9.2197031e-39
-169.80499 526.789 143.65601 9.2197031e-39
-176.701 530.61499 141.79201 9.2197031e-39
-168.0995 534.755 142.11099 9.2197031e-39
66.18795 657.53125 148.5575 9.2197031e-39
75.445251 662.82416 148.713 9.2197031e-39
86.8302 667.05811 149.416 9.2197031e-39
96.392548 672.68262 149.541 9.2197031e-39
102.5695 677.15125 149.43399 9.2197031e-39
74.162102 684.68188 143.60716 9.2197031e-39
81.226601 682.1687 145.2 9.2197031e-39
93.429039 682.97748 146.793 9.2197031e-39
103.80866 681.32831 148.674 9.2197031e-39
66.754501 693.22821 140.60699 9.2197031e-39
76.0047 694.33032 141.70399 9.2197031e-39
83.91925 694.59009 142.79651 9.2197031e-39
91.835899 697.66772 143.256 9.2197031e-39
86.5728 700.18372 141.924 9.2197031e-39
3090.6899 2639.4302 142.45 9.2197031e-39
-1282.7 -224.22601 150.799 9.2197031e-39
-252.82899 409.11099 158.062 9.2197031e-39
-231.853 438.25598 154.55499 9.2197031e-39
-216.177 460.181 151.901 9.2197031e-39
-209.23399 471.245 150.42101 9.2197031e-39
73.449402 655.61389 150.045 9.2197031e-39
101.19 671.49841 150.505 9.2197031e-39
3107.45 2612.72 150.899 9.2197031e-39
-321.04599 314.543 169.422 9.2197031e-39
-290.14401 358.62 163.998 9.2197031e-39
3272.4399 2676.5801 160.52499 9.2197031e-39
-370.715 244.73999 177.907 9.2197031e-39
3357.95 2650.3 178.87601 9.2197031e-39
3360.6499 2690.98 170.11301 9.2197031e-39
-392.09601 178.23599 189.763 9.2197031e-39
-382.44299 183.758 189.924 9.2197031e-39
-395.98547 193.00151 185.87399 9.2197031e-39
-389.05499 190.60101 187.422 9.2197031e-39
-393.862 207.38699 182.946 9.2197031e-39
3350.47 2607.3 187.465 9.2197031e-39
-365.33936 175.67534 194.23033 9.2197031e-39
-351.72101 179.86801 195.26801 9.2197031e-39
-347.237 178.41901 196.246 9.2197031e-39
-339.25601 173.93701 198.416 9.2197031e-39
-325.33701 179.965 199.08299 9.2197031e-39
-375.1485 181.98849 191.383 9.2197031e-39
-333.96201 182.94101 197.1595 9.2197031e-39
-318.483 183.104 199.37399 9.2197031e-39
3341.6201 2564.0601 195.907 9.2197031e-39
-310.573 179.11401 201.422 9.2197031e-39
-303.68951 177.983 202.67801 9.2197031e-39
-280.965 179.64499 205.60899 9.2197031e-39
-258.60699 177.03101 209.44901 9.2197031e-39
-314.064 181.96301 200.27299 9.2197031e-39
-291.93799 186.69 202.42799 9.2197031e-39
-287.12299 181.7995 204.2285 9.2197031e-39
-272.87 186.95999 205.14 9.2197031e-39
-265.26065 183.15668 207.10301 9.2197031e-39
-250.881 184.69601 208.84801 9.2197031e-39
-246.57001 184.18399 209.59 9.2197031e-39
3334.8999 2522.5698 204.26801 9.2197031e-39
-235.23433 178.57434 212.50134 9.2197031e-39
-222.343 177.27701 214.668 9.2197031e-39
-242.26199 183.71201 210.323 9.2197031e-39
-224.41499 184.08899 212.834 9.2197031e-39
-213.43799 184.4355 214.35251 9.2197031e-39
-204.52 185.5565 215.397 9.2197031e-39
-197.009 182.1055 217.26599 9.2197031e-39
-186.14301 183.08968 218.625 9.2197031e-39
3334.73 2485.1299 212.66901 9.2197031e-39
-175.15034 176.42468 221.724 9.2197031e-39
-153.92168 178.03999 224.44835 9.2197031e-39
-144.0795 175.1615 226.5275 9.2197031e-39
-133.722 175.40701 227.978 9.2197031e-39
-124.994 179.481 228.3315 9.2197031e-39
-163.56949 181.59399 222.245 9.2197031e-39
-136.74699 182.64801 225.909 9.2197031e-39
-124.875 180.436 228.134 9.2197031e-39
-112.531 182.427 229.481 9.2197031e-39
3323.4399 2405.55 228.936 9.2197031e-39
3331.52 2446.4102 220.91499 9.2197031e-39
-117.672 171.99301 231.08099 9.2197031e-39
-74.472298 178.625 235.87201 9.2197031e-39
-68.4076 177.793 236.94099 9.2197031e-39
-56.277802 179.298 238.367 9.2197031e-39
-104.54934 181.66968 230.81201 9.2197031e-39
-94.445251 182.60249 232.07199 9.2197031e-39
-84.396767 184.09233 233.198 9.2197031e-39
-62.463402 188.26199 235.45001 9.2197031e-39
-52.475101 186.36099 237.33 9.2197031e-39
-44.519932 186.95967 238.35266 9.2197031e-39
3319.3701 2367.22 236.968 9.2197031e-39
-19.5597 178.89001 243.799 9.2197031e-39
-34.1712 182.53999 240.85199 9.2197031e-39
-26.193399 183.92801 241.7005 9.2197031e-39
-14.11195 185.06001 243.203 9.2197031e-39
-5.7242298 183.41949 244.79199 9.2197031e-39
4.4933085 184.07268 246.13098 9.2197031e-39
16.7565 185.19501 247.662 9.2197031e-39
25.006767 185.71501 248.745 9.2197031e-39
33.1698 186.99899 249.64301 9.2197031e-39
11.5425 191.04501 245.58701 9.2197031e-39
74.590103 178.85699 257.5 9.2197031e-39
88.041496 179.41599 259.33099 9.2197031e-39
37.386902 187.06799 250.241 9.2197031e-39
45.374451 180.66699 252.84351 9.2197031e-39
54.842731 185.87398 253.04866 9.2197031e-39
66.244301 184.29399 255.0625 9.2197031e-39
76.882896 185.75699 256.28101 9.2197031e-39
81.204597 186.229 256.80301 9.2197031e-39
92.84375 185.31 258.703 9.2197031e-39
102.597 177.64001 261.84698 9.2197031e-39
131.98 176.32199 266.418 9.2197031e-39
106.27499 186.3875 260.414 9.2197031e-39
112.302 188.862 260.73401 9.2197031e-39
122.225 182.0605 263.70752 9.2197031e-39
135.15601 185.74651 264.75848 9.2197031e-39
144.451 186.948 265.84 9.2197031e-39
154.61499 186.591 267.39899 9.2197031e-39
173.847 189.08749 269.634 9.2197031e-39
159.991 190.978 267.19299 9.2197031e-39
164.42999 192.22699 267.55801 9.2197031e-39
196.87799 186.11351 273.65302 9.2197031e-39
203.44901 188.93799 273.97299 9.2197031e-39
213.571 186.1265 276.078 9.2197031e-39
224.353 182.68399 278.42099 9.2197031e-39
231.409 189.642 277.88101 9.2197031e-39
243.29601 189.57101 279.62601 9.2197031e-39
183.27899 191.04849 270.56451 9.2197031e-39
224.17799 191.79599 276.345 9.2197031e-39
234.336 193.95499 277.33701 9.2197031e-39
255.521 185.19301 282.3895 9.2197031e-39
265.94299 187.992 283.27551 9.2197031e-39
277.87799 184.85901 285.716 9.2197031e-39
284.927 184.17499 286.896 9.2197031e-39
296.715 186.07101 288.18301 9.2197031e-39
286.59698 190.37799 285.74301 9.2197031e-39
300.164 190.09799 287.77899 9.2197031e-39
315.90948 183.67599 291.5145 9.2197031e-39
323.621 187.03 291.88101 9.2197031e-39
333.905 187.6465 293.23801 9.2197031e-39
346.86899 185.59299 295.586 9.2197031e-39
355.978 188.03101 296.36151 9.2197031e-39
368.46701 187.138 298.379 9.2197031e-39
378.672 184.85699 300.37701 9.2197031e-39
386.20499 185.44199 301.341 9.2197031e-39
390.991 188.82001 301.27701 9.2197031e-39
405.50299 186.993 303.79849 9.2197031e-39
415.89099 189.39401 304.76901 9.2197031e-39
425.698 188.505 306.396 9.2197031e-39
438.45901 185.17899 309 9.2197031e-39
444.026 188.409 309.08301 9.2197031e-39
448.10599 192.95801 308.65302 9.2197031e-39
458.81799 191.92801 310.44199 9.2197031e-39
468.099 192.284 311.71201 9.2197031e-39
477.418 192.76599 312.95901 9.2197031e-39
486.017 193.979 313.93701 9.2197031e-39
530.534 167.24301 326.42801 9.2197031e-39
3160.1101 1012.892 518.58197 9.2197031e-39
3165.4199 1041.551 512.90503 9.2197031e-39
3148.72 955.89404 529.75201 9.2197031e-39
3153.5601 984.23199 524.07898 9.2197031e-39
3141.6599 927.47101 535.12097 9.2197031e-39
3136.6599 871.74902 546.93402 9.2197031e-39
3142.25 899.83002 541.427 9.2197031e-39
3129.6799 816.16998 558.42603 9.2197031e-39
3127.8501 843.57397 551.99298 9.2197031e-39
3120.73 760.8028 569.58398 9.2197031e-39
3130.28 788.68701 564.698 9.2197031e-39
1521.25 -313.84399 578.78601 9.2197031e-39
1531.72 -300.84698 577.383 9.2197031e-39
1543.76 -288.71698 576.40601 9.2197031e-39
1557.42 -277.40997 575.84802 9.2197031e-39
3111.9299 733.10992 574.53601 9.2197031e-39
1513.87 -367.82996 589.862 9.2197031e-39
1509.9301 -345.69 584.30499 9.2197031e-39
1515.67 -329.77399 581.55902 9.2197031e-39
1593.1801 -278.13702 581.21301 9.2197031e-39
3113.3999 678.43164 587.05499 9.2197031e-39
3113.78 705.80389 580.95001 9.2197031e-39
1513.46 -387.48999 594.22699 9.2197031e-39
1650.53 -289.85199 592.19 9.2197031e-39
3103.02 623.71222 597.85901 9.2197031e-39
3101.8999 651.00238 591.55402 9.2197031e-39
1518.41 -431.38 604.82202 9.2197031e-39
1520.12 -412.04004 600.71997 9.2197031e-39
3091.6799 569.30298 608.45398 9.2197031e-39
3101.9199 596.41302 603.84302 9.2197031e-39
1468.5699 -522.33997 618.04303 9.2197031e-39
1473.73 -504.70996 614.82703 9.2197031e-39
1480.26 -488.22998 612.06897 9.2197031e-39
1495.33 -477.93005 611.94098 9.2197031e-39
1505.5601 -464.12 610.32202 9.2197031e-39
1523.6801 -455.71997 611.06598 9.2197031e-39
3099 541.82599 615.70203 9.2197031e-39
1460.91 -538.19995 620.5 9.2197031e-39
3088.21 487.59 626.33698 9.2197031e-39
3090.26 514.80603 620.51202 9.2197031e-39
3074.5 433.76501 636.45599 9.2197031e-39
3078.02 460.82401 630.87799 9.2197031e-39
3069.7 379.504 647.96899 9.2197031e-39
3071.72 406.66599 642.151 9.2197031e-39
3061.97 325.48199 659.00201 9.2197031e-39
3065.46 352.522 653.42499 9.2197031e-39
3058.25 298.465 664.53998 9.2197031e-39
3058.8799 243.40799 677.02197 9.2197031e-39
3054.28 271.474 670.03699 9.2197031e-39
3049.74 189.42001 687.84198 9.2197031e-39
3054.4299 216.39801 682.453 9.2197031e-39
3039.6399 135.56897 698.492 9.2197031e-39
3044.8101 162.47699 693.18799 9.2197031e-39
3028.6001 81.869995 708.97101 9.2197031e-39
3034.24 108.69897 703.75299 9.2197031e-39
3031.4299 53.448975 715.77802 9.2197031e-39
3017.01 0.25500488 725.65198 9.2197031e-39
3025.3 26.630981 720.922 9.2197031e-39
3012.22 -55.041992 737.39899 9.2197031e-39
3010.4199 -26.452026 730.703 9.2197031e-39
3006.4099 -110.42798 749.01703 9.2197031e-39
3005.1399 -81.721008 742.37201 9.2197031e-39
3010.26 -139.94598 756.21997 9.2197031e-39
2338.01 -632.45996 769.28101 9.2197031e-39
2992.46 -192.73798 765.51202 9.2197031e-39
3002.4199 -166.62903 761.08502 9.2197031e-39
2373.1799 -623.40002 772.35797 9.2197031e-39
2411.8799 -615.59998 776.229 9.2197031e-39
2986 -248.75403 777.17798 9.2197031e-39
2992.6699 -221.65802 772.04999 9.2197031e-39
2983.1699 -306.30499 789.71698 9.2197031e-39
2982.8401 -276.93701 783.06097 9.2197031e-39
2497.8401 -630.5 792.086 9.2197031e-39
2973.8701 -332.78998 794.32599 9.2197031e-39
2971.27 -391.18005 807.08801 9.2197031e-39
2974.5701 -362.56006 801.12799 9.2197031e-39
2967.53 -449.83997 819.74402 9.2197031e-39
2969.54 -420.47998 813.42999 9.2197031e-39
2956.96 -476.22998 824.146 9.2197031e-39
2951.55 -535.10999 836.60797 9.2197031e-39
2954.3999 -505.64001 830.39203 9.2197031e-39
2943.1599 -593.45996 848.52002 9.2197031e-39
2948.3999 -564.63 842.79401 9.2197031e-39
2941.24 -623.81995 855.073 9.2197031e-39
2933.79 -683.58997 867.44 9.2197031e-39
2937.22 -653.48999 861.164 9.2197031e-39
2924.27 -743.14001 879.45502 9.2197031e-39
2926.51 -712.15002 872.80701 9.2197031e-39
2896.8701 -794.78003 887.091 9.2197031e-39
2917.29 -772.14001 884.966 9.2197031e-39
