# .PCD v0.7 - Point Cloud Data file format
VERSION 0.7
FIELDS x y z rgb
SIZE 4 4 4 4
TYPE F F F F
COUNT 1 1 1 1
WIDTH 275
HEIGHT 1
VIEWPOINT 0 0 0 1 0 0 0
POINTS 275
DATA ascii
-1259.16 -48.08197 137.076 9.2197031e-39
-1264.04 -37.960999 134.076 9.2197031e-39
-211.549 572.0509 136.944 9.2197031e-39
-205.5304 573.99084 137.31799 9.2197031e-39
-199.87 581.51721 136.354 9.2197031e-39
37.738201 706.92261 139.8405 9.2197031e-39
35.737301 710.55731 138.73 9.2197031e-39
43.305851 713.14819 139.16449 9.2197031e-39
52.752499 716.48822 139.683 9.2197031e-39
3360.1399 2698.1001 133.778 9.2197031e-39
-1277.9 -101.23102 146.778 9.2197031e-39
-1281.87 -89.388 143.506 9.2197031e-39
-1267.52 -67.026978 140.306 9.2197031e-39
-383.42401 433.02698 145.565 9.2197031e-39
-367.36099 441.69598 145.756 9.2197031e-39
-350.591 451.12601 145.869 9.2197031e-39
-334.08899 460.927 145.85899 9.2197031e-39
-297.58899 487.349 144.744 9.2197031e-39
-274.685 503.58301 144.12399 9.2197031e-39
-253.533 518.82098 143.495 9.2197031e-39
-225.735 514.59601 148.261 9.2197031e-39
-228.92999 537.72699 142.49001 9.2197031e-39
-205.47 537.95599 145.63699 9.2197031e-39
-216.63 546.44299 142.158 9.2197031e-39
-203.2166 546.02203 144.08438 9.2197031e-39
-204.69124 552.651 142.35425 9.2197031e-39
38.456799 671.995 147.994 9.2197031e-39
47.453999 671.91083 149.241 9.2197031e-39
53.956036 676.51483 149.06599 9.2197031e-39
67.382797 681.29309 149.795 9.2197031e-39
77.150146 686.60144 149.9035 9.2197031e-39
47.55275 696.2088 143.65025 9.2197031e-39
58.451099 695.96997 145.192 9.2197031e-39
66.4953 696.66522 146.129 9.2197031e-39
76.694878 694.37073 148.04926 9.2197031e-39
82.272095 694.55261 148.76849 9.2197031e-39
40.694801 706.1637 140.41901 9.2197031e-39
53.95866 705.6424 142.3486 9.2197031e-39
61.642548 708.2431 142.79651 9.2197031e-39
3345.6499 2649.6299 142.978 9.2197031e-39
-1285.76 -134.86603 153.463 9.2197031e-39
-1282.51 -118.01599 150.02 9.2197031e-39
-289.47198 432.62201 158.47301 9.2197031e-39
-270.01199 457.93799 155.289 9.2197031e-39
-249.53999 483.72302 152.134 9.2197031e-39
-242.14799 494.48901 150.659 9.2197031e-39
56.554001 670.42389 150.825 9.2197031e-39
62.376499 672.39349 151.16499 9.2197031e-39
77.9832 684.48419 150.505 9.2197031e-39
84.110298 690.24231 150.013 9.2197031e-39
3342.78 2610.3999 151.63699 9.2197031e-39
-328.67099 383.57599 164.438 9.2197031e-39
3328.6599 2526.71 169.011 9.2197031e-39
3335.9199 2567.47 160.60001 9.2197031e-39
-422.57599 262.233 179.61501 9.2197031e-39
-365.854 335.48001 170.459 9.2197031e-39
3331.3999 2489.96 177.86 9.2197031e-39
-462.138 199.612 188.662 9.2197031e-39
-458.55801 211.97198 186.3 9.2197031e-39
3327.6799 2451.9302 186.12601 9.2197031e-39
-456.95398 177.717 194.41901 9.2197031e-39
-446.17499 170.69199 197.509 9.2197031e-39
-434.52802 178.37799 197.325 9.2197031e-39
-422.802 177.73901 199.07201 9.2197031e-39
-465.79449 183.00751 191.99249 9.2197031e-39
-445.72501 180.07599 195.40601 9.2197031e-39
-426.83801 180.397 197.908 9.2197031e-39
3320.73 2410.8198 194.659 9.2197031e-39
-414.83447 176.1655 200.5215 9.2197031e-39
-402.94501 176.37849 202.09399 9.2197031e-39
-394.233 176.35599 203.28799 9.2197031e-39
-385.15302 177.394 204.2865 9.2197031e-39
-374.27002 176.9735 205.868 9.2197031e-39
-355.54099 176.58099 208.513 9.2197031e-39
-349.84201 177.035 209.186 9.2197031e-39
-362.87299 182.634 206.117 9.2197031e-39
-358.15399 181.26999 207.075 9.2197031e-39
-342.065 182.03101 209.09399 9.2197031e-39
3317.0701 2373.6201 202.73801 9.2197031e-39
-336.4635 177.70551 210.85599 9.2197031e-39
-327.724 179.64899 211.60001 9.2197031e-39
-303.62299 177.918 215.286 9.2197031e-39
-294.776 175.519 217.04633 9.2197031e-39
-321.936 181.383 211.989 9.2197031e-39
-313.34351 183.56851 212.657 9.2197031e-39
-306.47101 182.28 213.892 9.2197031e-39
-283.10199 180.63199 217.459 9.2197031e-39
-275.73199 181.1595 218.343 9.2197031e-39
-265.17651 184.35599 219.0455 9.2197031e-39
3311.95 2299.6299 219.104 9.2197031e-39
3314.6101 2335.6201 211.166 9.2197031e-39
-250.735 179.34299 222.172 9.2197031e-39
-244.9485 176.15051 223.69699 9.2197031e-39
-226.29251 177.87851 225.84299 9.2197031e-39
-215.84267 175.13268 227.90199 9.2197031e-39
-202.214 176.64999 229.411 9.2197031e-39
-197.257 178.71201 229.61099 9.2197031e-39
-256.72052 182.1805 220.7005 9.2197031e-39
-233.67349 183.287 223.589 9.2197031e-39
-191.134 187.577 228.40199 9.2197031e-39
3307.77 2261.52 227.323 9.2197031e-39
-208.14301 169.819 230.17799 9.2197031e-39
-184.879 175.1335 232.125 9.2197031e-39
-173.43401 178.89551 232.8185 9.2197031e-39
-143.444 179.707 236.7215 9.2197031e-39
-133.05 178.07199 238.517 9.2197031e-39
-128.573 179.814 238.726 9.2197031e-39
-183.056 185.24301 230.04201 9.2197031e-39
-164.64551 180.255 233.70349 9.2197031e-39
-156.1125 180.3145 234.854 9.2197031e-39
-149.685 181.18399 235.53 9.2197031e-39
-136.897 181.22299 237.265 9.2197031e-39
-122.214 181.0495 239.30801 9.2197031e-39
-115.893 182.35699 239.869 9.2197031e-39
3302.53 2225.01 235.03 9.2197031e-39
-86.391701 179.806 244.481 9.2197031e-39
-111.638 181.32599 240.687 9.2197031e-39
-105.4015 180.828 241.6525 9.2197031e-39
-94.894836 180.828 243.08565 9.2197031e-39
-82.274803 180 244.998 9.2197031e-39
-75.927849 181.34451 245.5535 9.2197031e-39
-65.436272 182.78731 246.65167 9.2197031e-39
-55.013599 184.59799 247.65549 9.2197031e-39
-46.551102 184.5995 248.80951 9.2197031e-39
-36.331501 188.427 249.321 9.2197031e-39
-35.210648 178.30701 251.8075 9.2197031e-39
-26.420799 178.17599 253.037 9.2197031e-39
-13.6356 179.44901 254.487 9.2197031e-39
-8.9550695 178.383 255.371 9.2197031e-39
-23.6966 188.47299 251.034 9.2197031e-39
-2.8146539 180.638 255.689 9.2197031e-39
6.0380449 180.608 256.90302 9.2197031e-39
14.9328 180.739 258.08649 9.2197031e-39
22.579399 186.20201 257.86902 9.2197031e-39
-19.587 190.18399 251.19901 9.2197031e-39
34.303501 175.86749 261.8515 9.2197031e-39
45.416901 177.47667 262.99667 9.2197031e-39
54.117699 179.87701 263.63 9.2197031e-39
63.819199 179.047 265.14401 9.2197031e-39
78.0961 179.03 267.09601 9.2197031e-39
56.7966 185.85599 262.616 9.2197031e-39
67.045502 183.24701 264.616 9.2197031e-39
72.011703 182.97299 265.35599 9.2197031e-39
83.510803 184.19701 266.64252 9.2197031e-39
95.2593 185.43201 267.96033 9.2197031e-39
103.855 188.345 268.461 9.2197031e-39
114.44501 181.39149 271.509 9.2197031e-39
123.5245 183.94899 272.1575 9.2197031e-39
145.743 186.79167 274.53268 9.2197031e-39
165.50351 185.2795 277.577 9.2197031e-39
177.55099 183.7525 279.57251 9.2197031e-39
183.22701 188.73401 279.19699 9.2197031e-39
128.47701 190.04099 271.42801 9.2197031e-39
133.39799 190.293 272.04099 9.2197031e-39
154.539 190.30499 274.922 9.2197031e-39
187.826 190.35501 279.45099 9.2197031e-39
194.65199 188.85699 280.72699 9.2197031e-39
207.106 182.9675 283.78448 9.2197031e-39
216.40601 187.23351 284.06897 9.2197031e-39
225.67101 187.00699 285.38501 9.2197031e-39
233.44299 189.399 285.89301 9.2197031e-39
245.728 185.62399 288.44 9.2197031e-39
250.44 187.81799 288.57599 9.2197031e-39
254.77 190.98199 288.43701 9.2197031e-39
261.20999 190.95499 289.32199 9.2197031e-39
274.12048 187.4245 291.897 9.2197031e-39
289.61099 181.11899 295.46399 9.2197031e-39
293.79999 184.461 295.26501 9.2197031e-39
303.34851 186.0145 296.20898 9.2197031e-39
312.31601 188.466 296.867 9.2197031e-39
326.32098 185.20351 299.52951 9.2197031e-39
337.23801 185.78699 300.884 9.2197031e-39
341.60699 189.715 300.57401 9.2197031e-39
350.39801 188.57901 302.035 9.2197031e-39
364.23401 186.94949 304.298 9.2197031e-39
383.758 188.314 306.646 9.2197031e-39
373.40601 190.371 304.76001 9.2197031e-39
386.71799 193.99399 305.73999 9.2197031e-39
399.26401 190.16299 308.33499 9.2197031e-39
406.44699 192.00101 308.89099 9.2197031e-39
417.01099 190.44501 310.69 9.2197031e-39
424.24399 192.48999 311.20499 9.2197031e-39
432.73099 193.116 312.21899 9.2197031e-39
442.19101 193.45001 313.43201 9.2197031e-39
453.702 191.797 315.383 9.2197031e-39
464.005 191.78601 316.79099 9.2197031e-39
473.396 192.289 317.95599 9.2197031e-39
487.57199 189.522 320.52802 9.2197031e-39
495.543 191.517 321.155 9.2197031e-39
706.39001 37.158997 385.51401 9.2197031e-39
3138.1101 904.12097 517.24597 9.2197031e-39
3145.5801 931.86597 511.86499 9.2197031e-39
3134.3799 848.38202 529.59198 9.2197031e-39
3140.3601 875.82397 524.07898 9.2197031e-39
3126.22 819.58099 535.12097 9.2197031e-39
3119.01 764.1004 546.93402 9.2197031e-39
3117.77 792.27899 540.26599 9.2197031e-39
3108.8401 708.8255 558.29498 9.2197031e-39
3118.01 737.20203 553.00201 9.2197031e-39
3109.3501 682.03369 564.54401 9.2197031e-39
1509.72 -329.79303 579.71899 9.2197031e-39
1512.77 -312.56598 576.16199 9.2197031e-39
1521.11 -297.646 573.85797 9.2197031e-39
1536.46 -287.75098 573.66998 9.2197031e-39
1545.41 -273.125 571.51801 9.2197031e-39
1575.11 -270.95697 575.06799 9.2197031e-39
3097.74 627.14673 575.61902 9.2197031e-39
3108.6001 653.8703 570.93701 9.2197031e-39
1504.25 -366.06006 587.33899 9.2197031e-39
1505.21 -347.21997 583.12299 9.2197031e-39
1624.16 -277.86499 583.35303 9.2197031e-39
3095.0701 572.35162 587.89203 9.2197031e-39
3096.49 599.07281 581.92297 9.2197031e-39
1508.51 -409.47998 597.93201 9.2197031e-39
1510.75 -390.97998 593.97101 9.2197031e-39
3084.5 517.88098 599.013 9.2197031e-39
3095.3 544.21997 594.41101 9.2197031e-39
1483.03 -475.69995 609.72998 9.2197031e-39
1493.17 -462.17004 607.99298 9.2197031e-39
1510.9 -452.83997 608.25897 9.2197031e-39
1506.37 -429.27002 602.20398 9.2197031e-39
3082.26 489.89801 605.16199 9.2197031e-39
1456.27 -521.23999 616.58301 9.2197031e-39
1463.4301 -504.34998 613.664 9.2197031e-39
1472.25 -489.82996 611.51801 9.2197031e-39
3079.1299 435.17999 617.35498 9.2197031e-39
3079.8999 463.272 610.97998 9.2197031e-39
3073.0601 380.63199 629.10797 9.2197031e-39
3074.3201 408.72101 622.80103 9.2197031e-39
3069.75 354.05801 634.78497 9.2197031e-39
3060.29 299.86099 645.99402 9.2197031e-39
3064.0701 326.37201 640.39502 9.2197031e-39
3053.79 245.33099 657.68298 9.2197031e-39
3058.03 271.80301 652.15802 9.2197031e-39
3044.3601 191.146 668.89502 9.2197031e-39
3049.0801 217.55499 663.44702 9.2197031e-39
3032.04 137.42499 679.604 9.2197031e-39
3039.1699 163.44101 674.57599 9.2197031e-39
3037.03 107.94897 687.08301 9.2197031e-39
3034.8501 52.137024 699.65802 9.2197031e-39
3031.3701 81.617004 692.38397 9.2197031e-39
3020.0801 -1.3900146 709.98901 9.2197031e-39
3026.78 26.198975 704.539 9.2197031e-39
3022.1299 -29.505005 716.75201 9.2197031e-39
3007.8501 -83.25 727.20001 9.2197031e-39
3013.01 -56.627014 721.76398 9.2197031e-39
3000.24 -138.724 738.95599 9.2197031e-39
3007.8 -112.58801 733.95898 9.2197031e-39
2999.6499 -168.13898 745.659 9.2197031e-39
2991.4099 -223.97198 757.414 9.2197031e-39
2991.6001 -194.21997 750.578 9.2197031e-39
2329.6499 -634.19995 761.76202 9.2197031e-39
2364.4199 -624.18994 764.198 9.2197031e-39
2376.05 -603.23999 760.95001 9.2197031e-39
2991.3701 -252.48999 763.98401 9.2197031e-39
2475.3899 -624.64001 779.43597 9.2197031e-39
2981.5701 -308.43103 775.54999 9.2197031e-39
2990.6001 -282.40002 770.77698 9.2197031e-39
2979.1001 -367.16003 788.75702 9.2197031e-39
2982.1101 -339.02002 782.67798 9.2197031e-39
2968.8501 -394.42004 793.646 9.2197031e-39
2964.7 -453.39001 806.68103 9.2197031e-39
2967.1699 -423.21997 800.06 9.2197031e-39
2952.98 -510.16003 818.17603 9.2197031e-39
2956.03 -479.93005 811.61902 9.2197031e-39
2956.5701 -541.64001 825.92603 9.2197031e-39
2942.28 -598.18994 837.01801 9.2197031e-39
2953.8 -572.40002 832.64301 9.2197031e-39
2938.03 -628.60999 843.45599 9.2197031e-39
2929.24 -688.28003 856.01898 9.2197031e-39
2942.1599 -661.28003 851.55298 9.2197031e-39
2922.8 -749.75 869.31702 9.2197031e-39
2932.72 -721.17004 864.078 9.2197031e-39
2873.8701 -791.37 872.242 9.2197031e-39
2916.8 -778.68005 875.16998 9.2197031e-39
