# .PCD v0.7 - Point Cloud Data file format
VERSION 0.7
FIELDS x y z rgb
SIZE 4 4 4 4
TYPE F F F F
COUNT 1 1 1 1
WIDTH 280
HEIGHT 1
VIEWPOINT 0 0 0 1 0 0 0
POINTS 280
DATA ascii
-1252.35 111.40503 136.855 9.2197031e-39
-1254.74 120.38397 134.42101 9.2197031e-39
-282.60501 596.16058 139.30299 9.2197031e-39
-275.815 598.60931 139.54601 9.2197031e-39
-254.74899 616.56287 137.8275 9.2197031e-39
-254.868 621.4458 136.64799 9.2197031e-39
-245.94966 626.04169 136.63733 9.2197031e-39
-12.0009 738.53619 138.28999 9.2197031e-39
-0.60089397 739.11139 139.54201 9.2197031e-39
-1.25008 742.59351 138.6315 9.2197031e-39
9.4958096 743.60242 139.7 9.2197031e-39
3321.28 2463.4399 132.707 9.2197031e-39
-1270.26 52.348999 148.767 9.2197031e-39
-1260.01 68.789978 146.092 9.2197031e-39
-1262.53 81.632996 142.72 9.2197031e-39
-1260.75 93.062988 140.209 9.2197031e-39
-274.36401 562.21802 148.408 9.2197031e-39
-278.11499 588.09668 141.77499 9.2197031e-39
-277.24026 593.25513 140.65001 9.2197031e-39
-263.08099 596.38501 141.62799 9.2197031e-39
-256.20599 598.94519 141.855 9.2197031e-39
-245.73349 596.65918 143.67625 9.2197031e-39
-238.86099 598.68738 144.02901 9.2197031e-39
-252.354 600.52637 141.946 9.2197031e-39
-244.875 601.44385 142.63867 9.2197031e-39
-238.261 602.45929 143.202 9.2197031e-39
-1.3987499 703.0108 148.06 9.2197031e-39
7.4321551 705.38806 148.5685 9.2197031e-39
13.7113 706.49615 149.06934 9.2197031e-39
25.4764 712.06104 149.1745 9.2197031e-39
38.417599 717.80573 149.38 9.2197031e-39
40.897751 718.1283 149.60501 9.2197031e-39
12.6844 727.77252 143.866 9.2197031e-39
23.678499 726.92133 145.409 9.2197031e-39
34.814701 724.7403 147.28601 9.2197031e-39
45.565697 724.88171 148.5625 9.2197031e-39
6.2341022 736.14417 141.0825 9.2197031e-39
18.0359 733.54419 143.14099 9.2197031e-39
21.802799 735.92566 143.03149 9.2197031e-39
15.7629 740.25037 141.26401 9.2197031e-39
3312.28 2416.98 142.696 9.2197031e-39
-1275.2 34.880981 152.334 9.2197031e-39
-342.31201 485.013 158.55499 9.2197031e-39
-313.31 516.57501 154.556 9.2197031e-39
-302.16699 530.78101 152.52299 9.2197031e-39
-287.483 547.11499 150.414 9.2197031e-39
18.51 701.58838 150.825 9.2197031e-39
3304.6599 2341.3701 159.814 9.2197031e-39
3315.5601 2387.78 150.065 9.2197031e-39
-381.405 441.07401 164.27901 9.2197031e-39
3299.1499 2308.53 166.98 9.2197031e-39
-423.86899 393.50299 170.459 9.2197031e-39
3297.24 2267.3101 176.58501 9.2197031e-39
-487.37399 320.66699 180.105 9.2197031e-39
3292.8601 2235.6201 183.61301 9.2197031e-39
-564.914 199.53299 199.56799 9.2197031e-39
-574.14203 206.043 196.89101 9.2197031e-39
-563.29602 208.56 197.61099 9.2197031e-39
-572.36902 215.05099 194.957 9.2197031e-39
-561.48499 235.99301 191.285 9.2197031e-39
3284.1101 2162.95 199.88901 9.2197031e-39
3290.0701 2194.73 193.03101 9.2197031e-39
-559.43103 188.63501 202.83701 9.2197031e-39
-516.15802 189.46799 207.91 9.2197031e-39
-561.88501 193.17499 201.455 9.2197031e-39
-544.55103 192.72 203.67499 9.2197031e-39
-532.35303 193.99899 204.856 9.2197031e-39
-524.87451 190.9035 206.50549 9.2197031e-39
-503.56799 192.123 208.81 9.2197031e-39
-491.11401 195.005 209.63901 9.2197031e-39
3281.3799 2122.8198 209.13499 9.2197031e-39
-465.23001 187.75101 214.524 9.2197031e-39
-452.05499 189.06299 215.81599 9.2197031e-39
-447.47198 185.242 217.286 9.2197031e-39
-432.91199 189.51801 218.039 9.2197031e-39
-488.52399 190.88101 210.939 9.2197031e-39
-476.21198 194.08551 211.6745 9.2197031e-39
-469.00699 190.09201 213.505 9.2197031e-39
-454.21701 193.81 214.42 9.2197031e-39
-439.017 190.66901 217.021 9.2197031e-39
-424.121 195.979 217.56799 9.2197031e-39
-416.711 193.1425 219.14801 9.2197031e-39
3272.9099 2090.6099 215.78999 9.2197031e-39
-410.228 188.673 221.004 9.2197031e-39
-393.819 189.39999 222.83 9.2197031e-39
-388.70401 186.991 224.028 9.2197031e-39
-372.069 189.25 225.515 9.2197031e-39
-353.47049 188.457 227.97 9.2197031e-39
-402.19901 194.58701 220.571 9.2197031e-39
-397.13901 192.095 221.782 9.2197031e-39
-381.814 191.427 223.80901 9.2197031e-39
-375.42599 191.80099 224.498 9.2197031e-39
-362.36652 192.086 226.02051 9.2197031e-39
-342.40799 195.242 227.69901 9.2197031e-39
-339.39899 192.00101 228.839 9.2197031e-39
3279.54 2054.9199 225.11501 9.2197031e-39
-334.09698 179.60199 232.444 9.2197031e-39
-334.66501 189.21201 230.08099 9.2197031e-39
-325.71201 186.06 231.924 9.2197031e-39
-314.69299 188.61401 232.657 9.2197031e-39
-303.64349 185.69499 234.69949 9.2197031e-39
-293.27802 187.289 235.582 9.2197031e-39
-284.6965 183.43501 237.547 9.2197031e-39
-273.55701 181.14301 239.451 9.2197031e-39
-261.99399 188.53699 239.095 9.2197031e-39
-256.84 187.423 239.989 9.2197031e-39
-319.12799 192.14001 231.27499 9.2197031e-39
-309.89401 190.17999 232.868 9.2197031e-39
-274.746 191.52499 236.82899 9.2197031e-39
3272.3 2023.76 231.67 9.2197031e-39
-268.078 180.866 240.185 9.2197031e-39
-253.687 183.76999 241.245 9.2197031e-39
-244.188 183.91901 242.366 9.2197031e-39
-224.763 187.60901 243.85201 9.2197031e-39
-215.744 186.33899 245.254 9.2197031e-39
-203.69101 187.84 246.3645 9.2197031e-39
-194.549 187.8985 247.4635 9.2197031e-39
-185.56949 186.6595 248.8535 9.2197031e-39
-246.521 191.33401 240.313 9.2197031e-39
-235.173 191.7585 241.59399 9.2197031e-39
-227.862 192.04099 242.41701 9.2197031e-39
-209.058 195.336 243.92101 9.2197031e-39
-178.257 195.435 247.64999 9.2197031e-39
-155.15401 198.401 249.757 9.2197031e-39
-217.25301 200.349 241.72701 9.2197031e-39
3266.0601 1983.5601 240.50301 9.2197031e-39
-171.914 186.78751 250.4865 9.2197031e-39
-162.7775 187.881 251.3385 9.2197031e-39
-128.53799 188.87 255.274 9.2197031e-39
-103.8365 186.37299 258.879 9.2197031e-39
-151.50101 195.42599 250.912 9.2197031e-39
-144.545 193.45351 252.23 9.2197031e-39
-135.6185 192.57901 253.526 9.2197031e-39
-124.78 195.81699 254.07401 9.2197031e-39
-115.37134 194.02299 255.64801 9.2197031e-39
-95.258347 193.94951 258.11551 9.2197031e-39
-86.252701 194.409 259.10303 9.2197031e-39
-64.771599 185.69966 263.79834 9.2197031e-39
-8.1099701 188.771 269.96799 9.2197031e-39
-77 192.6095 260.66 9.2197031e-39
-53.770752 190.76201 263.931 9.2197031e-39
-44.666199 191.9375 264.759 9.2197031e-39
-35.578247 193.26851 265.54852 9.2197031e-39
-25.997002 192.38899 266.92599 9.2197031e-39
-17.109301 194.9865 267.38849 9.2197031e-39
-6.1270199 197.297 268.17499 9.2197031e-39
13.50605 188.791 272.5965 9.2197031e-39
2.5127921 193.14999 270.21753 9.2197031e-39
19.817699 193.759 272.17999 9.2197031e-39
24.2278 193.134 272.867 9.2197031e-39
31.753101 194.091 273.55499 9.2197031e-39
45.077267 192.43733 275.57266 9.2197031e-39
56.5238 195.8365 276.15601 9.2197031e-39
65.914398 190.68701 278.52899 9.2197031e-39
66.789497 203.54501 275.56699 9.2197031e-39
74.416901 203.0685 276.60999 9.2197031e-39
85.76635 201.1485 278.4505 9.2197031e-39
96.508904 194.33099 281.38599 9.2197031e-39
100.869 198.48499 280.92599 9.2197031e-39
119.629 192.55399 284.62701 9.2197031e-39
123.068 198.62399 283.59698 9.2197031e-39
133.2865 194.69 285.78101 9.2197031e-39
144.1675 196.1575 286.7565 9.2197031e-39
157.00549 194.491 288.71851 9.2197031e-39
171.371 196.73901 289.93201 9.2197031e-39
104.27 201.168 280.70001 9.2197031e-39
110.653 201.043 281.508 9.2197031e-39
174.198 200.70801 289.32901 9.2197031e-39
166.17101 193.651 290.035 9.2197031e-39
185.63699 198.1375 291.336 9.2197031e-39
206.09399 196.4075 294.241 9.2197031e-39
216.116 195.57199 295.66101 9.2197031e-39
226.03949 196.56549 296.633 9.2197031e-39
236.013 197.72501 297.57101 9.2197031e-39
249.125 198.95801 298.87399 9.2197031e-39
194.035 200.62399 291.76501 9.2197031e-39
239.28 201.29501 297.117 9.2197031e-39
266.147 203.47699 299.87 9.2197031e-39
258.90601 194.21899 301.19699 9.2197031e-39
295.203 197.10101 304.931 9.2197031e-39
302.875 195.94699 306.14099 9.2197031e-39
262.31601 200.48901 300.116 9.2197031e-39
276.81201 200.827 301.80099 9.2197031e-39
283.75 200.21301 302.793 9.2197031e-39
308.08401 200.37701 305.71799 9.2197031e-39
313.86899 201.54099 306.14499 9.2197031e-39
324.8725 203.51649 307.01401 9.2197031e-39
341.51001 203.60501 309.02002 9.2197031e-39
351.61899 207.108 309.41501 9.2197031e-39
360.22198 205.95901 310.737 9.2197031e-39
376.63 203.71649 313.27148 9.2197031e-39
393.358 205.44099 314.89801 9.2197031e-39
407.92899 205.89301 316.565 9.2197031e-39
418.254 204.12201 318.246 9.2197031e-39
430.70599 203.28799 319.96201 9.2197031e-39
438.22198 204.33401 320.62799 9.2197031e-39
453.46149 205.388 322.23297 9.2197031e-39
472.55399 203.67499 324.96701 9.2197031e-39
481.703 203.94199 326.01801 9.2197031e-39
530.435 175.922 338.642 9.2197031e-39
3123.75 802.90399 504.935 9.2197031e-39
3109.6699 747.02991 516.55402 9.2197031e-39
3118.8 770.85602 511.98099 9.2197031e-39
3101.55 691.60742 528.79303 9.2197031e-39
3111.1001 715.2348 524.31799 9.2197031e-39
3100.4399 659.86713 536.23199 9.2197031e-39
3097.73 604.56458 549.09998 9.2197031e-39
3100.3999 636.27832 541.85699 9.2197031e-39
3086.3701 581.35529 553.255 9.2197031e-39
1518.8101 -279.07098 567.63501 9.2197031e-39
1532.54 -264.49701 565.82898 9.2197031e-39
1550.3199 -257.91302 566.42401 9.2197031e-39
3085.23 526.11096 566.30103 9.2197031e-39
3084.1299 549.73901 560.52802 9.2197031e-39
1487.4301 -316.612 572.771 9.2197031e-39
1500.39 -307.63202 572.20697 9.2197031e-39
1512.6899 -292.284 570.04303 9.2197031e-39
1589.5 -257.16302 571.01703 9.2197031e-39
3078.1699 471.16101 578.55499 9.2197031e-39
3080.46 494.616 573.23602 9.2197031e-39
1499.38 -364.82996 585.73401 9.2197031e-39
1493.78 -343.76001 580.02399 9.2197031e-39
3064.22 416.86401 589.81299 9.2197031e-39
3066.9199 440.22998 584.565 9.2197031e-39
1510.09 -413.80005 598.72699 9.2197031e-39
1503.41 -391.32996 592.54797 9.2197031e-39
1718.85 -310.62903 599.53601 9.2197031e-39
3060.3101 385.427 596.84003 9.2197031e-39
1467.96 -470.37 607.09399 9.2197031e-39
1477.1 -458.43005 605.35901 9.2197031e-39
1489.27 -442.26001 602.98199 9.2197031e-39
1513.42 -440.68005 605.54797 9.2197031e-39
3057.2 362.099 602.02802 9.2197031e-39
1448.04 -525.18005 617.74799 9.2197031e-39
1448.48 -499.88 611.76501 9.2197031e-39
1463.3101 -492.15002 611.72498 9.2197031e-39
3051.1699 307.19601 614.39697 9.2197031e-39
3062.5601 329.59201 610.43903 9.2197031e-39
3050.04 251.52399 627.54498 9.2197031e-39
3048.1101 275.603 621.56299 9.2197031e-39
3040.0901 196.94601 639.35797 9.2197031e-39
3046.3999 219.89499 634.65002 9.2197031e-39
3033.9399 165.69501 646.06702 9.2197031e-39
3032.1699 109.56598 659.24701 9.2197031e-39
3031.1101 142.17902 651.33502 9.2197031e-39
3026.97 86.393005 664.14398 9.2197031e-39
3014.0901 32.153992 675.51898 9.2197031e-39
3019.6899 55.244995 670.69098 9.2197031e-39
3015.6201 -25.405029 689.44202 9.2197031e-39
3014.9199 -0.79699707 683.48499 9.2197031e-39
3007.2 -56.46698 695.83002 9.2197031e-39
3000.3701 -112.63098 708.401 9.2197031e-39
3008.3999 -81.380005 701.92102 9.2197031e-39
3002.05 -137.88898 714.63397 9.2197031e-39
2992.75 -193.93298 726.87701 9.2197031e-39
2992.49 -168.84399 720.85699 9.2197031e-39
2983.3701 -250.25201 739.17401 9.2197031e-39
2982.6201 -224.80902 733.01099 9.2197031e-39
2335.23 -613.56995 746.92401 9.2197031e-39
2364.6799 -605.20996 748.51599 9.2197031e-39
2981.1001 -283.70398 746.88098 9.2197031e-39
2404.6899 -593.56006 750.60999 9.2197031e-39
2970.04 -340.08002 758.98901 9.2197031e-39
2981.3401 -309.29303 753.01801 9.2197031e-39
2479.6699 -607.06006 762.96503 9.2197031e-39
2969.8 -365.75 765.08398 9.2197031e-39
2966.4299 -425.51001 778.93597 9.2197031e-39
2966.25 -399.38 772.67902 9.2197031e-39
2953.9399 -456.18005 784.73401 9.2197031e-39
2956.0701 -519.04004 799.99701 9.2197031e-39
2952.71 -482.03003 790.75403 9.2197031e-39
2946.1201 -541.77002 804.20898 9.2197031e-39
2940.1399 -602.46997 817.966 9.2197031e-39
2941.5 -576.02002 811.82001 9.2197031e-39
2933.9399 -636.43994 825.31598 9.2197031e-39
2925.1599 -697.04004 838.70898 9.2197031e-39
2931.1499 -662.59998 831.22101 9.2197031e-39
2921.8401 -723.29004 844.57098 9.2197031e-39
2913.95 -785.41003 858.435 9.2197031e-39
2922.22 -761.17004 853.65698 9.2197031e-39
