# .PCD v0.7 - Point Cloud Data file format
VERSION 0.7
FIELDS x y z rgb
SIZE 4 4 4 4
TYPE F F F F
COUNT 1 1 1 1
WIDTH 274
HEIGHT 1
VIEWPOINT 0 0 0 1 0 0 0
POINTS 274
DATA ascii
-1239.63 297.84698 136.604 9.2197031e-39
-1250.13 302.42001 134.42 9.2197031e-39
-1203.05 301.064 139.45399 9.2197031e-39
-309.10599 670.40924 136.78101 9.2197031e-39
-294.37299 678.98663 136.117 9.2197031e-39
-40.143002 768.40729 139.241 9.2197031e-39
-32.145901 769.29102 139.819 9.2197031e-39
-41.652699 770.40198 138.59399 9.2197031e-39
-30.7647 772.164 139.242 9.2197031e-39
-24.619301 776.39899 138.802 9.2197031e-39
3279.3799 2126.48 132.65601 9.2197031e-39
-1227.83 260.52802 147.062 9.2197031e-39
-1205.59 279.328 144.606 9.2197031e-39
-1209.11 289.83099 141.642 9.2197031e-39
-594.78601 528.61401 143.54401 9.2197031e-39
-561.47101 540.27002 143.96899 9.2197031e-39
-535.15399 550.315 144.09599 9.2197031e-39
-508.51901 559.82001 144.39 9.2197031e-39
-498.42899 562.17102 144.811 9.2197031e-39
-486.16501 564.77002 145.38901 9.2197031e-39
-472.698 569.37201 145.58701 9.2197031e-39
-454.526 575.86133 145.787 9.2197031e-39
-431.74399 586.39978 145.439 9.2197031e-39
-376.936 615.45569 143.67999 9.2197031e-39
-342.67401 634.1142 142.45799 9.2197031e-39
-302.582 631.89362 147.01001 9.2197031e-39
-296.97 633.57526 147.15132 9.2197031e-39
-287.522 638.34106 146.909 9.2197031e-39
-322.92801 643.98669 141.97301 9.2197031e-39
-311.246 649.81708 141.688 9.2197031e-39
-295.20132 645.52905 144.35533 9.2197031e-39
-288.92599 649.35687 144.02901 9.2197031e-39
-294.66452 654.96625 142.06166 9.2197031e-39
-288.58899 653.86792 142.94099 9.2197031e-39
-37.2047 729.27783 149.265 9.2197031e-39
-42.896301 734.01343 147.52 9.2197031e-39
-36.5429 731.7793 148.709 9.2197031e-39
-25.244436 736.40234 148.68633 9.2197031e-39
-9.9454899 739.04053 149.55701 9.2197031e-39
-4.5001569 745.02832 148.61086 9.2197031e-39
-31.561401 757.53406 142.80099 9.2197031e-39
-26.985998 753.53046 144.2532 9.2197031e-39
-13.85605 751.16949 146.14999 9.2197031e-39
-35.741901 767.02783 140.02299 9.2197031e-39
-25.420826 764.86188 141.59125 9.2197031e-39
-14.14395 765.68182 142.5125 9.2197031e-39
-7.1582599 766.38519 143.034 9.2197031e-39
3275.22 2057.6899 149.34801 9.2197031e-39
3275.1101 2085.73 142.364 9.2197031e-39
-1263.03 231.776 150.702 9.2197031e-39
-21.1474 731.06891 150.422 9.2197031e-39
3270.1201 2017.27 158.892 9.2197031e-39
3261.2 1986.33 165.69501 9.2197031e-39
3256.2 1946.67 175.061 9.2197031e-39
3257.05 1919.71 181.84801 9.2197031e-39
-687.60999 277.54001 196.72301 9.2197031e-39
3242.0601 1850.46 197.575 9.2197031e-39
3243.6699 1877.83 190.92999 9.2197031e-39
3244.04 1814.24 206.78 9.2197031e-39
-737.04303 187.20901 214.256 9.2197031e-39
-716.72198 199.36301 213.261 9.2197031e-39
-664.39099 198.68301 218.64999 9.2197031e-39
-695.29248 206.4435 213.63751 9.2197031e-39
-681.73798 206.10001 215.075 9.2197031e-39
-677.82898 202.57101 216.343 9.2197031e-39
-666.98199 203.57199 217.17599 9.2197031e-39
-652.27899 201.38599 219.186 9.2197031e-39
-630.492 207.793 219.76601 9.2197031e-39
3233.3 1784.38 213.13499 9.2197031e-39
-877.02197 73.906006 228.46899 9.2197031e-39
-880.76398 83.429016 225.72701 9.2197031e-39
-856.06097 115.185 220.29401 9.2197031e-39
-648.33002 198.06799 220.405 9.2197031e-39
-624.01202 207.64899 220.448 9.2197031e-39
-619.24799 202.591 222.18201 9.2197031e-39
-606.599 204.70149 222.91901 9.2197031e-39
-595.323 205.47699 223.851 9.2197031e-39
-585.79504 202.77249 225.4735 9.2197031e-39
-575.07599 201.79901 226.785 9.2197031e-39
-563.45502 209.37601 226.06 9.2197031e-39
-557.25201 202.7485 228.3275 9.2197031e-39
-541.29401 209.966 228.12399 9.2197031e-39
-537.95398 206.62601 229.28799 9.2197031e-39
3231.8799 1721.38 228.66 9.2197031e-39
3234.5601 1748.38 222.213 9.2197031e-39
-882.22601 59.388 231.56 9.2197031e-39
-529.12 199.89401 231.843 9.2197031e-39
-482.2475 196.93999 237.25351 9.2197031e-39
-465.93701 199.616 238.216 9.2197031e-39
-532.52698 203.17899 230.686 9.2197031e-39
-517.0675 202.39799 232.423 9.2197031e-39
-502.14148 205.6615 233.10001 9.2197031e-39
-491.71899 202.05701 235.0365 9.2197031e-39
-469.91101 201.63 237.31799 9.2197031e-39
-454.96552 202.444 238.60699 9.2197031e-39
-445.26651 198.39099 240.58249 9.2197031e-39
-432.84698 194.94901 242.677 9.2197031e-39
-426.862 193.43399 243.651 9.2197031e-39
-415.21201 193.91299 244.694 9.2197031e-39
-409.595 195.89401 244.76199 9.2197031e-39
-395.711 194.77701 246.424 9.2197031e-39
-385.17999 193.58051 247.77299 9.2197031e-39
-374.16602 193.96049 248.7765 9.2197031e-39
-367.14099 192.18301 249.92 9.2197031e-39
-434.702 201.146 240.951 9.2197031e-39
-417.48999 203.35101 242.12 9.2197031e-39
-400.953 200.95001 244.366 9.2197031e-39
-355.69699 200.93951 248.8835 9.2197031e-39
-346.46201 197.20401 250.73401 9.2197031e-39
-336.58551 195.5 252.14301 9.2197031e-39
-329.24701 192.58701 253.599 9.2197031e-39
-315.64301 196.86099 253.89401 9.2197031e-39
-305.68402 196.1675 255.05951 9.2197031e-39
-295.62201 196.125 256.07401 9.2197031e-39
-285.88751 194.8255 257.3685 9.2197031e-39
-275.58551 196.569 257.96201 9.2197031e-39
-265.96252 195.134 259.27899 9.2197031e-39
-253.40401 199.39499 259.47198 9.2197031e-39
-322.81601 200.06 252.382 9.2197031e-39
-257.272 200.85101 258.724 9.2197031e-39
-247.177 203.58401 259.052 9.2197031e-39
-243.81799 198.33499 260.69199 9.2197031e-39
-236.229 197.617 261.6275 9.2197031e-39
-226.5605 197.33549 262.66248 9.2197031e-39
-217.04651 195.28 264.1225 9.2197031e-39
-209.409 194.91599 264.97501 9.2197031e-39
-183.09399 197.86801 266.866 9.2197031e-39
-173.45999 197.52101 267.91351 9.2197031e-39
-166.565 192.86099 269.76001 9.2197031e-39
-204.884 202.52802 263.53299 9.2197031e-39
-197.32199 202.8175 264.216 9.2197031e-39
-189.83299 201.26001 265.35001 9.2197031e-39
-76.946899 188.30499 279.83301 9.2197031e-39
-160.90199 192.117 270.51001 9.2197031e-39
-154.0835 194.89751 270.49899 9.2197031e-39
-144.41699 196.50101 271.06451 9.2197031e-39
-134.6595 195.8475 272.2005 9.2197031e-39
-125.05949 197.77699 272.67853 9.2197031e-39
-118.014 196.62601 273.66699 9.2197031e-39
-105.479 197.79199 274.6275 9.2197031e-39
-95.11985 194.465 276.48853 9.2197031e-39
-85.438248 196.097 277.04852 9.2197031e-39
-62.7883 198.09399 278.811 9.2197031e-39
-58.323601 197.10101 279.504 9.2197031e-39
-112.728 200.215 273.302 9.2197031e-39
-73.5457 201.776 276.82199 9.2197031e-39
-69.6978 203.54599 276.76599 9.2197031e-39
-33.920601 205.142 279.93799 9.2197031e-39
-52.282799 196.50699 280.254 9.2197031e-39
-45.622952 199.118 280.26898 9.2197031e-39
-27.3853 196.91699 282.63599 9.2197031e-39
-39.003399 201.79099 280.26501 9.2197031e-39
-23.855101 205.95599 280.73999 9.2197031e-39
-17.225349 208.42851 280.7865 9.2197031e-39
-5.9951048 205.85651 282.54651 9.2197031e-39
4.3064451 206.71451 283.36099 9.2197031e-39
13.3127 202.67001 285.26501 9.2197031e-39
26.360849 205.38751 285.89099 9.2197031e-39
33.152802 207.991 285.92099 9.2197031e-39
45.9706 203.76599 288.25 9.2197031e-39
53.175148 207.83501 287.957 9.2197031e-39
63.0522 205.80301 289.448 9.2197031e-39
16.260201 211.936 283.255 9.2197031e-39
38.6754 210.18399 285.927 9.2197031e-39
77.014801 211.12 289.51801 9.2197031e-39
127.49 197.79501 297.867 9.2197031e-39
133.493 196.69299 298.73999 9.2197031e-39
68.274002 204.96201 290.17801 9.2197031e-39
73.834702 207.50201 290.10101 9.2197031e-39
87.704697 208.2155 291.30701 9.2197031e-39
105.7985 208.136 293.1315 9.2197031e-39
115.801 205.754 294.72198 9.2197031e-39
137.692 202.38599 297.74399 9.2197031e-39
153.633 202.1765 299.38599 9.2197031e-39
163.06599 203.931 299.89001 9.2197031e-39
95.454903 211.51599 291.259 9.2197031e-39
146.67999 196.401 300.12799 9.2197031e-39
172.79599 203.74051 300.90851 9.2197031e-39
186.48199 203.92451 302.228 9.2197031e-39
197.746 202.10699 303.80399 9.2197031e-39
205.39099 207.3335 303.267 9.2197031e-39
216.974 207.18701 304.45801 9.2197031e-39
225.653 203.88699 306.14499 9.2197031e-39
233.8705 208.72101 305.76251 9.2197031e-39
241.41901 214.41 305.10101 9.2197031e-39
253.034 213.61801 306.45648 9.2197031e-39
266.617 210.78601 308.51599 9.2197031e-39
275.30499 211.60001 309.17999 9.2197031e-39
284.29999 214.67149 309.31351 9.2197031e-39
293.95599 217.14801 309.66101 9.2197031e-39
304.68399 216.20001 310.96701 9.2197031e-39
315.28299 212.629 312.91199 9.2197031e-39
327.50201 214.52499 313.65948 9.2197031e-39
342.50299 213.879 315.31699 9.2197031e-39
353.38 210.815 317.164 9.2197031e-39
367.5545 211.701 318.358 9.2197031e-39
379.69501 214.85999 318.78299 9.2197031e-39
389.39401 213.62799 320.05701 9.2197031e-39
402.68399 216.2085 320.74152 9.2197031e-39
423.51151 216.4055 322.77002 9.2197031e-39
438.06201 218.67801 323.65601 9.2197031e-39
446.52899 219.414 324.31799 9.2197031e-39
465.58701 214.60199 327.41599 9.2197031e-39
472.63901 216.83499 327.564 9.2197031e-39
527.90302 184.20099 341.19299 9.2197031e-39
3077.1699 493.504 518.58301 9.2197031e-39
3079.48 516.797 513.02002 9.2197031e-39
3075.6699 461.194 526.46899 9.2197031e-39
3068.8999 405.80701 539.56702 9.2197031e-39
3072.95 437.91901 531.98499 9.2197031e-39
3065.76 382.573 545.03198 9.2197031e-39
1496.9301 -295.28699 557.10303 9.2197031e-39
1510.47 -280.008 554.65399 9.2197031e-39
1519.2 -268.26099 552.60303 9.2197031e-39
1536.72 -255.17999 551.099 9.2197031e-39
1557.1801 -250.02002 551.85699 9.2197031e-39
1614.8 -258.82599 559.79498 9.2197031e-39
3057.5801 327.33401 557.953 9.2197031e-39
3061.1399 350.521 552.54102 9.2197031e-39
1498.88 -337.71997 567.85101 9.2197031e-39
1493.8 -310.50201 560.57501 9.2197031e-39
3050.4199 295.62201 565.12598 9.2197031e-39
1502.26 -382.19995 579.24799 9.2197031e-39
1491.29 -350.37 570.23999 9.2197031e-39
3042.6599 240.319 578.104 9.2197031e-39
3049.3999 272.07901 570.87799 9.2197031e-39
1508.0601 -404.20996 585.29999 9.2197031e-39
3041.21 216.77399 583.815 9.2197031e-39
1456.58 -481.60999 599.41302 9.2197031e-39
1465.59 -462.28003 595.50598 9.2197031e-39
1474.85 -450.31995 593.45502 9.2197031e-39
1487.48 -433.69995 590.58099 9.2197031e-39
1511.76 -432.15002 592.61798 9.2197031e-39
3036.8999 160.686 597.33398 9.2197031e-39
3041.71 183.759 592.07501 9.2197031e-39
1444.63 -518.04004 607.28101 9.2197031e-39
1448.64 -494.62 601.85901 9.2197031e-39
3029.99 128.87701 604.55402 9.2197031e-39
1876.88 -384.91003 617.29401 9.2197031e-39
3026.01 72.372009 618.20898 9.2197031e-39
3026.71 105.49701 610.04199 9.2197031e-39
3020.3701 49.39502 623.36102 9.2197031e-39
3016.8401 -7.6279907 637.19 9.2197031e-39
3012.3 17.728027 630.43103 9.2197031e-39
3001.71 -62.138 649.23602 9.2197031e-39
3006.26 -38.804016 643.88702 9.2197031e-39
3007.77 -97.64801 658.672 9.2197031e-39
3000.8601 -120.52002 663.66998 9.2197031e-39
2992.25 -177.24902 676.91901 9.2197031e-39
2992.9299 -152.56 670.84698 9.2197031e-39
2990.3401 -211.229 685.17798 9.2197031e-39
2980.03 -268.03302 698.27698 9.2197031e-39
2982.5701 -233.99298 690.065 9.2197031e-39
2980.27 -293.48499 704.63 9.2197031e-39
2334.8601 -602.31995 717.04797 9.2197031e-39
2358.3101 -590.93994 716.55701 9.2197031e-39
2966.5601 -349.70001 717.24298 9.2197031e-39
2968.6599 -324.82202 711.26501 9.2197031e-39
2434.54 -597.22998 725.72699 9.2197031e-39
2962.71 -383.89001 725.362 9.2197031e-39
2500.1499 -606.03003 734.46002 9.2197031e-39
2964.75 -410.54004 732.19202 9.2197031e-39
2948.8601 -466.75 744.58398 9.2197031e-39
2960.21 -444.87 740.276 9.2197031e-39
2942.8601 -527.23999 759.02899 9.2197031e-39
2954.6499 -505.42004 754.78003 9.2197031e-39
2947.8701 -566.19995 769.21802 9.2197031e-39
2937.45 -588.70996 773.77698 9.2197031e-39
2937.0601 -653.23999 789.78601 9.2197031e-39
2929.98 -622.82996 781.51801 9.2197031e-39
2930.6399 -688.31006 797.86798 9.2197031e-39
2927.3101 -714.45996 804.03802 9.2197031e-39
2908.3799 -771.94995 816.44598 9.2197031e-39
2920.1799 -749.59998 812.06598 9.2197031e-39
