# .PCD v0.7 - Point Cloud Data file format
VERSION 0.7
FIELDS x y z rgb
SIZE 4 4 4 4
TYPE F F F F
COUNT 1 1 1 1
WIDTH 306
HEIGHT 1
VIEWPOINT 0 0 0 1 0 0 0
POINTS 306
DATA ascii
255.61034 241.69366 134.96733 9.2197031e-39
264.5495 244.202 137.36249 9.2197031e-39
269.69601 250.39999 138.742 9.2197031e-39
273.08099 253.57101 139.649 9.2197031e-39
269.27301 805.828 138.62801 9.2197031e-39
270.98901 801.539 139.088 9.2197031e-39
272.97 815.38245 139.619 9.2197031e-39
270.83499 828.80701 139.047 9.2197031e-39
270.427 2855.9199 138.938 9.2197031e-39
252.00101 2864 134 9.2197031e-39
276.41299 256.772 140.541 9.2197031e-39
279.289 265.987 141.312 9.2197031e-39
283.8385 273.371 142.53149 9.2197031e-39
288.19901 280.79999 143.69901 9.2197031e-39
291.57901 280.147 144.605 9.2197031e-39
292.78601 299.39801 144.929 9.2197031e-39
292.84799 325.58701 144.94501 9.2197031e-39
294.72351 344.99899 145.448 9.2197031e-39
295.26001 370.328 145.592 9.2197031e-39
288.71799 429.992 143.839 9.2197031e-39
285.798 460.90698 143.056 9.2197031e-39
285.211 475.008 142.899 9.2197031e-39
284.21301 490.064 142.631 9.2197031e-39
301.655 496.45398 147.30499 9.2197031e-39
285.00668 517.82666 142.84399 9.2197031e-39
293 511.58801 144.98599 9.2197031e-39
283.36401 527.06738 142.40379 9.2197031e-39
292.25201 522.26599 144.78549 9.2197031e-39
302.77252 786.70801 147.60449 9.2197031e-39
308.85999 794.81348 149.23599 9.2197031e-39
308.0405 806.69153 149.01599 9.2197031e-39
277.608 816.6095 140.86151 9.2197031e-39
289.75 815.85498 144.11501 9.2197031e-39
308.086 813.71301 149.028 9.2197031e-39
310.87701 813.599 149.776 9.2197031e-39
279.069 824.98547 141.25299 9.2197031e-39
287.40851 825.73621 143.48749 9.2197031e-39
292.95132 824.6167 144.97301 9.2197031e-39
309.35001 820.72803 149.367 9.2197031e-39
285.54352 836.92395 142.98801 9.2197031e-39
298.36301 832.04102 146.423 9.2197031e-39
306.41125 835.94128 148.5795 9.2197031e-39
304.29251 844.28345 148.01199 9.2197031e-39
305.60501 2789.27 148.36301 9.2197031e-39
288.36301 2826.6699 143.744 9.2197031e-39
344.867 382.65799 158.884 9.2197031e-39
331.39801 417.01898 155.27499 9.2197031e-39
323.74399 434.43201 153.224 9.2197031e-39
311.871 467.263 150.04201 9.2197031e-39
312.04901 834.11853 150.09 9.2197031e-39
312.12701 841.02399 150.11099 9.2197031e-39
323.332 2784.71 153.11301 9.2197031e-39
342.37701 2812.96 158.216 9.2197031e-39
376.13699 307.08301 167.26199 9.2197031e-39
359.86499 345.68701 162.90199 9.2197031e-39
361.19501 2827.04 163.259 9.2197031e-39
382.26199 2874.8799 168.90401 9.2197031e-39
403.88501 249.43399 174.698 9.2197031e-39
413.66199 245.12035 177.31734 9.2197031e-39
394.05801 265.93201 172.064 9.2197031e-39
417.418 3119.02 178.32401 9.2197031e-39
426.8165 238.4155 180.84149 9.2197031e-39
439.01001 235.15201 184.10899 9.2197031e-39
444.694 237.27501 185.632 9.2197031e-39
455.944 232.265 188.6465 9.2197031e-39
460.60101 236.85199 189.895 9.2197031e-39
431.48599 242.64999 182.093 9.2197031e-39
463.806 239.64401 190.75301 9.2197031e-39
473.74899 238.23901 193.418 9.2197031e-39
488.396 237.43301 197.342 9.2197031e-39
466.53299 243.34799 191.48399 9.2197031e-39
476.91901 241.13699 194.267 9.2197031e-39
480.99399 242.311 195.35899 9.2197031e-39
493.60101 241.11049 198.7365 9.2197031e-39
504.80249 238.7025 201.73801 9.2197031e-39
526.073 237.22701 207.4375 9.2197031e-39
512.55048 242.48999 203.814 9.2197031e-39
530.28699 4330.6797 208.567 9.2197031e-39
561.38501 4331.02 216.89999 9.2197031e-39
600.92999 134.44202 227.495 9.2197031e-39
592.51099 4331.0703 225.24001 9.2197031e-39
623.45801 4328.8501 233.532 9.2197031e-39
750.414 -80.778992 267.54999 9.2197031e-39
1403.28 -1032.2 442.48401 9.2197031e-39
1425.4399 -1033.13 448.42099 9.2197031e-39
1479.49 -1079.09 462.905 9.2197031e-39
1524.08 3095.53 474.854 9.2197031e-39
1515.38 3129.8899 472.522 9.2197031e-39
1522.25 3196.21 474.36301 9.2197031e-39
1528.54 3263.72 476.047 9.2197031e-39
1528.61 3320.8 476.065 9.2197031e-39
1549.63 3093.5701 481.70001 9.2197031e-39
1546.02 3416.71 480.73001 9.2197031e-39
1606.64 3148.77 496.974 9.2197031e-39
1684.37 -1334.01 517.80103 9.2197031e-39
1692.0601 -1272.92 519.862 9.2197031e-39
1699.46 -1318.6 521.84497 9.2197031e-39
1794.9301 -927.34998 547.42603 9.2197031e-39
1828.6801 -494.31006 556.47101 9.2197031e-39
1808.37 -458.21997 551.02802 9.2197031e-39
1813.04 -440.71997 552.28003 9.2197031e-39
1815.14 -421.54004 552.84198 9.2197031e-39
1819.45 -404.06995 553.99597 9.2197031e-39
1829.25 -390.41003 556.62299 9.2197031e-39
1865.8101 -731.92004 566.41998 9.2197031e-39
1850.74 -694.39001 562.38 9.2197031e-39
1848.67 -668.56006 561.82501 9.2197031e-39
1859.89 -654.08997 564.83197 9.2197031e-39
1870.99 -639.51001 567.80603 9.2197031e-39
1878.16 -598.63 569.72803 9.2197031e-39
1854.42 -386.87 563.36798 9.2197031e-39
1878.84 -382.42004 569.909 9.2197031e-39
1881.96 -624.83997 570.74701 9.2197031e-39
1903.54 -595.18994 576.53003 9.2197031e-39
1914.15 -580.21997 579.37 9.2197031e-39
1918.9399 -387.54004 580.65503 9.2197031e-39
1989.89 -411.06006 599.66602 9.2197031e-39
2074.49 -1318.25 622.33502 9.2197031e-39
2111.98 -1324.01 632.38 9.2197031e-39
2134.8101 -1313.55 638.49701 9.2197031e-39
2192.76 -1304.46 654.026 9.2197031e-39
2235.04 -1312.55 665.354 9.2197031e-39
2276.2 -1318.66 676.383 9.2197031e-39
2315.49 -1322.12 686.91101 9.2197031e-39
2336 -600.88 692.40698 9.2197031e-39
2412.72 -621.5 712.96301 9.2197031e-39
2477.3301 -633.43994 730.27502 9.2197031e-39
2537.3101 -1497.97 746.34601 9.2197031e-39
2608.6101 -1526.76 765.45203 9.2197031e-39
2626.78 -692.80005 770.32098 9.2197031e-39
2777.51 -1643.21 810.70898 9.2197031e-39
2794 -1617.6799 815.12701 9.2197031e-39
2799.97 -1582.9299 816.72498 9.2197031e-39
2898.78 -817.78003 843.203 9.2197031e-39
2903.55 -789.58997 844.47998 9.2197031e-39
2909.75 -762.33997 846.14203 9.2197031e-39
2913.1201 -733.73999 847.04401 9.2197031e-39
2915.3401 -704.73999 847.64001 9.2197031e-39
2920.75 -677.55005 849.08899 9.2197031e-39
2923.29 -649.08997 849.76898 9.2197031e-39
2915.5901 4199.5 847.70599 9.2197031e-39
2926.4299 -621.09998 850.60999 9.2197031e-39
2928.4199 -592.73999 851.14398 9.2197031e-39
2931.8999 -565.26001 852.07703 9.2197031e-39
2942.21 -541 854.84003 9.2197031e-39
2942.54 -512.34998 854.927 9.2197031e-39
2944.3701 -484.56006 855.41803 9.2197031e-39
2945.9399 -456.81995 855.83801 9.2197031e-39
2947.24 -429.14001 856.18799 9.2197031e-39
2956.4099 -404.75 858.64301 9.2197031e-39
2956.3201 -376.77002 858.61902 9.2197031e-39
2928.3999 4153.3896 851.13898 9.2197031e-39
2944.54 4302.7598 855.46301 9.2197031e-39
2964.1299 -351.96002 860.71198 9.2197031e-39
2964.4399 -324.40997 860.797 9.2197031e-39
2971.8101 -299.54199 862.771 9.2197031e-39
2971.6299 -272.07703 862.724 9.2197031e-39
2979.47 -247.47101 864.82397 9.2197031e-39
2978.8101 -220.08899 864.64697 9.2197031e-39
2986.21 -195.41998 866.62903 9.2197031e-39
2984.1399 -167.84497 866.07397 9.2197031e-39
2992.03 -143.40601 868.18701 9.2197031e-39
2997.8501 -118.35303 869.74701 9.2197031e-39
2995.99 -91.187012 869.25 9.2197031e-39
2963.74 4136.8501 860.60797 9.2197031e-39
3003.24 -66.617981 871.19202 9.2197031e-39
3000.9099 -39.557007 870.56702 9.2197031e-39
3006.78 -14.695007 872.14203 9.2197031e-39
3003.04 12.468018 871.138 9.2197031e-39
3009.4199 37.130981 872.84802 9.2197031e-39
3016.54 61.651001 874.755 9.2197031e-39
3021.5601 86.650024 876.10101 9.2197031e-39
3024.48 112.07501 876.88202 9.2197031e-39
3031.9199 136.59698 878.87799 9.2197031e-39
3025.8501 163.642 877.25 9.2197031e-39
3030.96 188.556 878.62097 9.2197031e-39
3034.9199 213.681 879.67999 9.2197031e-39
3016.21 4141.54 874.66699 9.2197031e-39
3011.71 4675.4502 873.461 9.2197031e-39
3038.6599 238.84 880.68201 9.2197031e-39
3042.1799 264.03201 881.62799 9.2197031e-39
3047.4199 288.99399 883.02899 9.2197031e-39
3048.6001 314.50699 883.34698 9.2197031e-39
3051.49 339.78601 884.12201 9.2197031e-39
3054.1699 365.091 884.83899 9.2197031e-39
3056.6299 390.418 885.49902 9.2197031e-39
3057.9199 415.854 885.84399 9.2197031e-39
3060.9199 441.13501 886.64801 9.2197031e-39
3062.74 466.52002 887.13599 9.2197031e-39
3064.3501 491.92102 887.56702 9.2197031e-39
3055.9199 4129.46 885.30701 9.2197031e-39
3075.3899 516.81299 890.52502 9.2197031e-39
3075.6101 542.37 890.58301 9.2197031e-39
3084.3 567.60498 892.91199 9.2197031e-39
3085.0601 593.1969 893.11499 9.2197031e-39
3085.5901 618.79468 893.25897 9.2197031e-39
3093.6499 644.32648 895.41602 9.2197031e-39
3095.6899 670 895.96301 9.2197031e-39
3093.6499 695.67352 895.41602 9.2197031e-39
3102.98 721.51953 897.91699 9.2197031e-39
3102.4399 747.27429 897.77197 9.2197031e-39
3110.3601 773.33698 899.896 9.2197031e-39
3109.3799 799.15698 899.63397 9.2197031e-39
3106.3 4129.8501 898.80701 9.2197031e-39
3117.8301 825.48999 901.89697 9.2197031e-39
3125.0901 851.92499 903.84198 9.2197031e-39
3123.45 877.87402 903.40198 9.2197031e-39
3131.22 904.59302 905.48297 9.2197031e-39
3129.1299 930.59601 904.92401 9.2197031e-39
3135.48 957.44104 906.625 9.2197031e-39
3142.55 984.526 908.52002 9.2197031e-39
3139.79 1010.628 907.78003 9.2197031e-39
3147.3501 1038.045 909.80701 9.2197031e-39
3151.8 1065.233 910.99902 9.2197031e-39
3149.3201 1091.5549 910.33301 9.2197031e-39
3154.25 1119.045 911.65503 9.2197031e-39
3158.9399 1146.656 912.91199 9.2197031e-39
3164.3401 1174.55 914.35901 9.2197031e-39
3168.54 1202.405 915.48297 9.2197031e-39
3173.4399 1230.556 916.79602 9.2197031e-39
3177.1299 1258.646 917.78699 9.2197031e-39
3180.5801 1286.844 918.71002 9.2197031e-39
3184.72 1315.3579 919.81799 9.2197031e-39
3150.5 3014.4399 910.65002 9.2197031e-39
3151.8301 4123.5498 911.00702 9.2197031e-39
3160.3999 4739.1201 913.302 9.2197031e-39
3187.6499 1343.776 920.60498 9.2197031e-39
3190.3301 1372.297 921.323 9.2197031e-39
3192.75 1400.917 921.97198 9.2197031e-39
3203.3501 1431.812 924.81097 9.2197031e-39
3206.1699 1460.95 925.56598 9.2197031e-39
3208.72 1490.197 926.25 9.2197031e-39
3209.1399 1519.016 926.362 9.2197031e-39
3218.5801 1550.661 928.89301 9.2197031e-39
3218.45 1579.7009 928.85901 9.2197031e-39
3218.99 1609.098 929.00098 9.2197031e-39
3192.3701 3005.8201 921.87 9.2197031e-39
3189.5701 3221.8701 921.11902 9.2197031e-39
3195.6799 3319.1699 922.755 9.2197031e-39
3192.3501 4110.7002 921.86499 9.2197031e-39
3196.3301 4715.0898 922.92999 9.2197031e-39
3226.6201 1640.979 931.04602 9.2197031e-39
3230.26 1671.8301 932.02301 9.2197031e-39
3240.9399 1705.36 934.88397 9.2197031e-39
3235.75 1733.63 933.49402 9.2197031e-39
3247.6201 1768.22 936.67297 9.2197031e-39
3241.8799 1796.61 935.13501 9.2197031e-39
3239.5 1826.38 934.49902 9.2197031e-39
3249.48 1861.21 937.17297 9.2197031e-39
3237.53 1887.52 933.96997 9.2197031e-39
3236.1101 1918.1899 933.58899 9.2197031e-39
3241.54 1951.99 935.04401 9.2197031e-39
3243.95 1984.8101 935.69098 9.2197031e-39
3244.27 2016.97 935.77698 9.2197031e-39
3257.51 2055.3398 939.32501 9.2197031e-39
3235.0901 2997.22 933.31702 9.2197031e-39
3240.78 3220.6699 934.84198 9.2197031e-39
3231.8501 3304.8101 932.448 9.2197031e-39
3245.1599 4111.5 936.01398 9.2197031e-39
3270.3301 2094.0601 942.75897 9.2197031e-39
3268.72 2126.3398 942.32703 9.2197031e-39
3265.05 2157.8501 941.34302 9.2197031e-39
3270.6201 2194.22 942.83698 9.2197031e-39
3274.0801 2229.9102 943.76398 9.2197031e-39
3282.3401 2268.5 945.97601 9.2197031e-39
3288.45 2306.4399 947.61499 9.2197031e-39
3295.01 2345.0698 949.37201 9.2197031e-39
3289.26 2377.27 947.83197 9.2197031e-39
3265.3999 2657.47 941.43903 9.2197031e-39
3273.6499 2701.5 943.64801 9.2197031e-39
3288.72 2954.1299 947.68597 9.2197031e-39
3283.3201 2992.1899 946.24103 9.2197031e-39
3265.99 3958.1201 941.59601 9.2197031e-39
3286.45 4098.3398 947.07898 9.2197031e-39
3299.26 2418.71 950.51001 9.2197031e-39
3306.26 2458.97 952.38599 9.2197031e-39
3303.6101 2494 951.677 9.2197031e-39
3318.0801 2539.77 955.55402 9.2197031e-39
3327.04 2582.8501 957.95502 9.2197031e-39
3324.8 2619.4399 957.35498 9.2197031e-39
3299.24 2641.3 950.50598 9.2197031e-39
3298.4199 2919.6399 950.28497 9.2197031e-39
3301.2 3226.3 951.03101 9.2197031e-39
3332.51 3972.49 959.41998 9.2197031e-39
3329.0701 4086.1499 958.49799 9.2197031e-39
3364.3401 2802.6799 967.95001 9.2197031e-39
3344.96 2912.1101 962.755 9.2197031e-39
3376.6799 2851.97 971.255 9.2197031e-39
3376.48 2893.1399 971.20099 9.2197031e-39
3404.28 3265.8899 978.65002 9.2197031e-39
3377.8301 3963.0801 971.56403 9.2197031e-39
3426.6399 3956.6299 984.64301 9.2197031e-39
3438.5901 6384.0298 987.84399 9.2197031e-39
3452.48 3601.4299 991.56598 9.2197031e-39
3459.95 3660.3401 993.56799 9.2197031e-39
3466.6699 3719.6101 995.36798 9.2197031e-39
3472.6299 3779.23 996.96503 9.2197031e-39
3477.8301 3839.1799 998.35797 9.2197031e-39
3478.79 3895.99 998.61401 9.2197031e-39
3470.0701 3943.95 996.28003 9.2197031e-39
3480.75 6344.6899 999.14099 9.2197031e-39
3534.9299 6326.4502 1013.66 9.2197031e-39
3721.78 6531.8999 1063.72 9.2197031e-39
5909.6201 10043.47 1649.95 9.2197031e-39
6005.02 10018.99 1675.52 9.2197031e-39
6033.6299 9886.9902 1683.1801 9.2197031e-39
