# .PCD v0.7 - Point Cloud Data file format
VERSION 0.7
FIELDS x y z rgb
SIZE 4 4 4 4
TYPE F F F F
COUNT 1 1 1 1
WIDTH 309
HEIGHT 1
VIEWPOINT 0 0 0 1 0 0 0
POINTS 309
DATA ascii
-1186.72 874.70105 137.18399 9.2197031e-39
-1178.48 887.12097 134.2 9.2197031e-39
-145.647 1014.2905 139.4075 9.2197031e-39
-136.64551 1015.427 139.4455 9.2197031e-39
-129.662 1018.292 138.94901 9.2197031e-39
3193.0601 1512.162 133.21899 9.2197031e-39
-1183.48 855.41602 142.422 9.2197031e-39
-1164.53 851.896 144.07001 9.2197031e-39
-1080.52 859.86401 145.12399 9.2197031e-39
-1184.9399 863.716 140.16499 9.2197031e-39
-983.271 873.33203 145.218 9.2197031e-39
-936.91803 876.46399 146.13499 9.2197031e-39
-876.26801 884.67102 146.245 9.2197031e-39
-842.85797 886.63403 146.98399 9.2197031e-39
-825.31097 886.36096 147.718 9.2197031e-39
-801.75098 886.92902 148.45599 9.2197031e-39
-780.40302 888.23804 148.91299 9.2197031e-39
-746.33398 892.42499 149.08701 9.2197031e-39
-724.15698 894.76196 149.304 9.2197031e-39
-693.19202 899.20001 149.29401 9.2197031e-39
-639.52301 911.55402 148.03999 9.2197031e-39
-577.31201 926.82501 146.334 9.2197031e-39
-457.36899 935.21399 148.632 9.2197031e-39
-519.37 942.427 144.38 9.2197031e-39
-500.595 946.091 144.116 9.2197031e-39
-436.1015 947.33899 146.21701 9.2197031e-39
-481.07401 950.729 143.62199 9.2197031e-39
-461.53799 955.37201 143.127 9.2197031e-39
-433.047 953.86328 144.60101 9.2197031e-39
-429.19101 952.56604 145.091 9.2197031e-39
-433.715 963.58203 141.998 9.2197031e-39
-424.06479 962.94159 142.53159 9.2197031e-39
-151.66833 978.50098 148.67467 9.2197031e-39
-135.767 977.46204 149.55 9.2197031e-39
-172.332 980.06 147.48199 9.2197031e-39
-162.742 980.75696 147.659 9.2197031e-39
-146.052 981.37097 148.125 9.2197031e-39
-136.52367 982.66193 148.142 9.2197031e-39
-126.73034 985.54913 147.74567 9.2197031e-39
-143.38933 996.29706 144.26601 9.2197031e-39
-139.39166 996.16504 144.45201 9.2197031e-39
-142.22467 1003.627 142.36568 9.2197031e-39
-132.215 1003.062 142.89301 9.2197031e-39
-127.021 1005.405 142.467 9.2197031e-39
-118.836 1008.438 141.97099 9.2197031e-39
-144.733 1010.696 140.396 9.2197031e-39
-136.70399 1011.631 140.45 9.2197031e-39
2671.1101 1386.752 146.80701 9.2197031e-39
2764.3601 1422.068 140.955 9.2197031e-39
-502.521 909.65399 153.71001 9.2197031e-39
-479.07199 922.89801 151.08099 9.2197031e-39
-139.51601 971.75403 150.923 9.2197031e-39
2637.1101 1332.488 159.92101 9.2197031e-39
2650.55 1356.561 154.041 9.2197031e-39
-620.49701 845.05499 166.39799 9.2197031e-39
-578.15802 869.39301 161.53799 9.2197031e-39
2638.8601 1305.286 167.203 9.2197031e-39
-708.06201 795.52698 176.23599 9.2197031e-39
2607.3 1252.933 179.901 9.2197031e-39
2638.9199 1282.8459 173.158 9.2197031e-39
-811.87 736.3446 188.022 9.2197031e-39
2620.8899 1231.808 186.01801 9.2197031e-39
2637.8501 1183.519 199.467 9.2197031e-39
2626.6299 1205.1121 193.31599 9.2197031e-39
2653.1001 1157.0811 207.056 9.2197031e-39
-1090.0699 579.10791 219.244 9.2197031e-39
2667.9299 1135.2791 213.399 9.2197031e-39
-1201.58 509.5 233.506 9.2197031e-39
-1430.12 343.30801 268.97601 9.2197031e-39
-1556.53 284.931 279.69601 9.2197031e-39
-1253.6899 329.87 279.19299 9.2197031e-39
-1664.59 236.802 288.39001 9.2197031e-39
-1216.1 307.51401 286.54199 9.2197031e-39
-1264.26 310.991 283.80301 9.2197031e-39
-1234.95 318.479 282.922 9.2197031e-39
-1226.95 313.12299 284.64401 9.2197031e-39
-1197.84 310.229 286.51001 9.2197031e-39
-1571.65 230.43701 293.58301 9.2197031e-39
-1671.74 154.64502 309.91501 9.2197031e-39
-1668.03 189.22699 300.88101 9.2197031e-39
-1576.08 183.26999 305.92801 9.2197031e-39
-1257.0699 222.31 307.60001 9.2197031e-39
-1253.96 239.93799 303.04099 9.2197031e-39
-1256.27 250.327 300.198 9.2197031e-39
-1654.05 147.78601 312.401 9.2197031e-39
-1260.17 191.48901 315.659 9.2197031e-39
-1260.5699 206.79401 311.58401 9.2197031e-39
-1686.5601 77.78302 329.746 9.2197031e-39
-1679.09 98.221985 324.60599 9.2197031e-39
-1273.28 137.22498 329.56 9.2197031e-39
-1270.78 169.336 321.13599 9.2197031e-39
-1254.26 167.509 322.24301 9.2197031e-39
-1688.8199 57.098022 335.14801 9.2197031e-39
-1274.92 104.78802 338.103 9.2197031e-39
-1273.42 120.23401 334.06201 9.2197031e-39
-719.771 213.599 330.17001 9.2197031e-39
-706.32501 212.46001 330.979 9.2197031e-39
-690.29602 216.74799 330.44601 9.2197031e-39
-684.258 212.89301 331.69601 9.2197031e-39
-671.66302 218.995 330.552 9.2197031e-39
-665.21002 216.15701 331.54901 9.2197031e-39
-647.599 217.14801 331.94901 9.2197031e-39
-634.328 217.5405 332.34552 9.2197031e-39
-613.56097 218.371 332.909 9.2197031e-39
-593.48547 216.2755 334.2215 9.2197031e-39
-581.04303 218.164 334.19 9.2197031e-39
-573.16498 215.55301 335.17899 9.2197031e-39
-564.43799 219.89499 334.35599 9.2197031e-39
-556.57599 217.43799 335.30499 9.2197031e-39
-543.08099 210.37201 337.68799 9.2197031e-39
-534.54303 215.01401 336.77899 9.2197031e-39
-523.51147 211.5005 338.1265 9.2197031e-39
-506.83502 215.733 337.633 9.2197031e-39
-494.224 218.67599 337.327 9.2197031e-39
-476.504 215.224 338.91101 9.2197031e-39
-449.246 218.25699 339.134 9.2197031e-39
-653.638 220.73801 330.76901 9.2197031e-39
-620.00201 220.81601 332.017 9.2197031e-39
-603.52502 220.888 332.61899 9.2197031e-39
-548.28302 221.01801 334.668 9.2197031e-39
-487.04999 220.01199 337.24301 9.2197031e-39
-1282.11 65.906982 348.147 9.2197031e-39
-1275.3101 86.963989 342.81699 9.2197031e-39
-444.62799 207.59601 342.13699 9.2197031e-39
-436.46301 207.20499 342.548 9.2197031e-39
-399.62799 209.79001 343.25101 9.2197031e-39
-385.34201 206.233 344.73401 9.2197031e-39
-344.56799 206.3625 346.237 9.2197031e-39
-326.50201 209.875 345.98599 9.2197031e-39
-315.28949 208.584 346.7515 9.2197031e-39
-297.47 208.35501 347.48401 9.2197031e-39
-282.92899 209.41299 347.75201 9.2197031e-39
-465.452 212.452 340.06299 9.2197031e-39
-459.138 210.23499 340.89001 9.2197031e-39
-424.59351 213.194 341.40698 9.2197031e-39
-414.112 211.66901 342.207 9.2197031e-39
-406.01999 211.565 342.54001 9.2197031e-39
-390.914 214.62299 342.298 9.2197031e-39
-373.32751 211.877 343.68951 9.2197031e-39
-362.02301 211.89099 344.112 9.2197031e-39
-355.57999 210.44501 344.73801 9.2197031e-39
-333.043 210.13599 345.67001 9.2197031e-39
-303.96701 211.29401 346.45901 9.2197031e-39
-289.45999 217.07401 345.47299 9.2197031e-39
-275.086 218.26401 345.69901 9.2197031e-39
-264.58051 215.68851 346.7785 9.2197031e-39
-254.20399 218.05301 346.543 9.2197031e-39
-246.30901 218.47299 346.729 9.2197031e-39
-235.821 218.18451 347.20099 9.2197031e-39
-225.47501 219.93201 347.12701 9.2197031e-39
-214.189 219.0025 347.7995 9.2197031e-39
-196.381 218.94101 348.487 9.2197031e-39
-184.765 216.48351 349.57751 9.2197031e-39
-173.606 217.99899 349.59601 9.2197031e-39
-203.067 220.13199 347.91901 9.2197031e-39
-167.7 222.771 348.55301 9.2197031e-39
-155.9175 220.2325 349.6705 9.2197031e-39
-1279.0699 35.544983 356.31601 9.2197031e-39
-1273.47 56.127991 351.06699 9.2197031e-39
-143.18401 213.09201 352.04501 9.2197031e-39
-137.017 216.17499 351.45999 9.2197031e-39
-125.6575 217.38049 351.56799 9.2197031e-39
-76.492302 216.66901 353.61099 9.2197031e-39
-64.421501 216.35501 354.14899 9.2197031e-39
-53.120098 218.979 353.879 9.2197031e-39
-43.830799 211.59799 356.18701 9.2197031e-39
-37.311901 218.58099 354.58099 9.2197031e-39
-25.376099 217.2225 355.39099 9.2197031e-39
-5.4293098 218.66501 355.76099 9.2197031e-39
15.4144 216.258 357.185 9.2197031e-39
27.125601 219.043 356.888 9.2197031e-39
35.790001 216.14099 357.98401 9.2197031e-39
44.8339 216.569 358.21201 9.2197031e-39
61.1791 218.00101 358.448 9.2197031e-39
85.294502 219.97501 358.83401 9.2197031e-39
-114.717 220.61099 351.12299 9.2197031e-39
-108.678 223.896 350.48001 9.2197031e-39
-96.954147 223.59601 351.00098 9.2197031e-39
-84.441704 220.64401 352.25601 9.2197031e-39
-14.926 220.58499 354.89301 9.2197031e-39
1.05699 220.897 355.41299 9.2197031e-39
50.580601 220.965 357.26199 9.2197031e-39
66.882698 222.508 357.46799 9.2197031e-39
75.961304 223.263 357.60999 9.2197031e-39
92.7659 224.41599 357.93701 9.2197031e-39
105.7095 224.03549 358.526 9.2197031e-39
115.634 229.86499 357.354 9.2197031e-39
127.494 225.98901 358.82901 9.2197031e-39
162.105 229.80099 359.12299 9.2197031e-39
-1292.38 3.3800049 364.34698 9.2197031e-39
-1273.15 7.1279907 364.077 9.2197031e-39
-811.52899 61.776978 366.98599 9.2197031e-39
157.584 219.67001 361.64001 9.2197031e-39
177.31599 218.21899 362.76901 9.2197031e-39
138.054 221.54199 360.40701 9.2197031e-39
147.80099 222.19699 360.60101 9.2197031e-39
182.741 226.80701 360.69501 9.2197031e-39
190.683 227.98199 360.68301 9.2197031e-39
206.5885 226.59549 361.651 9.2197031e-39
230.686 227.009 362.45001 9.2197031e-39
242.311 226.276 363.08301 9.2197031e-39
327.004 227.63 365.91699 9.2197031e-39
219.476 230.37299 361.13501 9.2197031e-39
248.198 231.19501 362 9.2197031e-39
255.98599 236.271 360.94699 9.2197031e-39
267.41101 233.353 362.15201 9.2197031e-39
280.32001 231.517 363.125 9.2197031e-39
295.24298 232.39751 363.4545 9.2197031e-39
310.83499 232.72101 363.957 9.2197031e-39
331.009 235.44299 363.995 9.2197031e-39
343.66699 235.228 364.53 9.2197031e-39
354.991 234.09399 365.25699 9.2197031e-39
379.84698 232.57999 366.59601 9.2197031e-39
388.909 237.40399 365.65799 9.2197031e-39
400.43301 236.78799 366.25601 9.2197031e-39
413.40399 237.47601 366.56299 9.2197031e-39
427.673 234.25601 367.95499 9.2197031e-39
439.44101 236.71399 367.746 9.2197031e-39
451.85599 235.95401 368.41599 9.2197031e-39
465.04501 237.30099 368.556 9.2197031e-39
478.25699 236.14301 369.36099 9.2197031e-39
490.854 238.51901 369.20599 9.2197031e-39
362.755 240.16 363.94101 9.2197031e-39
-1280.0601 -35.711975 375.18201 9.2197031e-39
-1288.5 -28.205994 372.87201 9.2197031e-39
-848.23798 18.002014 377.21399 9.2197031e-39
515.354 226.715 373.26099 9.2197031e-39
-1306.5699 -84.536987 387.13501 9.2197031e-39
-1285.05 -78.341003 386.302 9.2197031e-39
-1297.27 -113.13397 395.07101 9.2197031e-39
-1295.62 -151.42297 405.29099 9.2197031e-39
-1311.6 -147.30402 403.59601 9.2197031e-39
-1295.41 -193.00299 416.32901 9.2197031e-39
-1305.33 -181.46503 412.89499 9.2197031e-39
-938.99298 -122.07703 410.953 9.2197031e-39
-1301.88 -220.31299 423.33099 9.2197031e-39
-1308.3199 -273.26099 437.134 9.2197031e-39
-1310.67 -255.59302 432.358 9.2197031e-39
-1313.1 -305.05798 445.38901 9.2197031e-39
-1310.77 -323.65198 450.409 9.2197031e-39
-1325.12 -392.67004 468.17801 9.2197031e-39
-1322.3101 -365.96997 461.20099 9.2197031e-39
-1324.45 -420.40002 475.56 9.2197031e-39
-1330.45 -452.93994 483.966 9.2197031e-39
-1328.9301 -506.51001 498.233 9.2197031e-39
-1260.79 -493.26001 497.28799 9.2197031e-39
-1289.87 -480.10999 492.70401 9.2197031e-39
-1272.9 -480.20996 493.371 9.2197031e-39
-1262.74 -522.84998 505.06299 9.2197031e-39
-1201.61 -517.12 505.85001 9.2197031e-39
-1182.26 -512.08997 505.246 9.2197031e-39
-1262.53 -555.81006 513.815 9.2197031e-39
-1246.24 -557.20996 514.80103 9.2197031e-39
3022.1799 -2.9459839 528.70801 9.2197031e-39
1518.77 -244.17102 536.01398 9.2197031e-39
1535.59 -234.73999 534.146 9.2197031e-39
1645.59 -234.93103 538.34399 9.2197031e-39
1548.05 -217.66199 530.08502 9.2197031e-39
1574.59 -214.40802 530.22302 9.2197031e-39
3020.1599 -36.388 537.50299 9.2197031e-39
1506.63 -282.75 545.78998 9.2197031e-39
1514.0601 -266.677 541.80701 9.2197031e-39
3013.1399 -62.223999 544.09198 9.2197031e-39
1514.09 -314.61603 554.52502 9.2197031e-39
3002.97 -121.526 559.44098 9.2197031e-39
3012.3601 -96.362976 553.11902 9.2197031e-39
-1530.16 -770.04004 560.55499 9.2197031e-39
1523.86 -371.31006 569.93402 9.2197031e-39
1515.66 -337.82001 560.73999 9.2197031e-39
2999.6699 -155.08301 568.21802 9.2197031e-39
1505.96 -408.01001 578.995 9.2197031e-39
1518.59 -389.97998 574.68799 9.2197031e-39
2999.1299 -183.54999 575.75 9.2197031e-39
1481.23 -439.56006 586.43201 9.2197031e-39
1494.96 -422.33997 582.38202 9.2197031e-39
2994.23 -216.867 584.40302 9.2197031e-39
1466.37 -479.62 596.49799 9.2197031e-39
1472.22 -455.59998 590.34802 9.2197031e-39
2992.1899 -245.09802 591.81598 9.2197031e-39
1367.86 -523.43005 604.40503 9.2197031e-39
1468.11 -505.21997 603.35498 9.2197031e-39
2984.95 -307.16602 608.00897 9.2197031e-39
2988.48 -279.20801 600.724 9.2197031e-39
1483.66 -548.80005 615.50299 9.2197031e-39
2980.55 -341.37 616.91602 9.2197031e-39
2975.5601 -369.01001 624.05902 9.2197031e-39
2978.6499 -406.82996 634.211 9.2197031e-39
2330.76 -551.68994 648.20801 9.2197031e-39
2362.3201 -542.58997 646.98401 9.2197031e-39
2424.0701 -544.34998 649.78198 9.2197031e-39
2968.55 -432.56006 640.65399 9.2197031e-39
2319.0801 -578.60999 654.909 9.2197031e-39
2490.1599 -553.63 654.73499 9.2197031e-39
2966.51 -499.23999 658.26599 9.2197031e-39
2970.8701 -470.62 650.83801 9.2197031e-39
2336.8 -617.77002 665.96802 9.2197031e-39
2959.1001 -533.31006 667.026 9.2197031e-39
2323.5901 -644.30005 672.50598 9.2197031e-39
2954.1599 -561.97998 674.44501 9.2197031e-39
2954.8999 -600.48999 684.68799 9.2197031e-39
2956.3999 -632.83997 693.328 9.2197031e-39
2948.3899 -667.56006 702.23499 9.2197031e-39
2932.6299 -730.68005 718.38702 9.2197031e-39
2944.8401 -697.81006 710.12598 9.2197031e-39
2920.6799 -756.69995 724.83801 9.2197031e-39
2803.1399 -1757.26 985.83899 9.2197031e-39
2796.9299 -1805.8701 998.5 9.2197031e-39
2786.26 -1897.03 1022.28 9.2197031e-39
2781.98 -1939.55 1033.4 9.2197031e-39
