# .PCD v0.7 - Point Cloud Data file format
VERSION 0.7
FIELDS x y z rgb
SIZE 4 4 4 4
TYPE F F F F
COUNT 1 1 1 1
WIDTH 312
HEIGHT 1
VIEWPOINT 0 0 0 1 0 0 0
POINTS 312
DATA ascii
-1180.46 884.04401 138.065 9.2197031e-39
-1135 898.05798 135.927 9.2197031e-39
-1172.66 900.37 134 9.2197031e-39
-155.8295 1015.497 138.8555 9.2197031e-39
-143.98666 1015.4807 139.27234 9.2197031e-39
3179.05 1471.2891 134.00101 9.2197031e-39
-1181.04 868.56799 142.157 9.2197031e-39
-1163 863.987 144.00301 9.2197031e-39
-1123.3 863.66003 145.47301 9.2197031e-39
-1182.27 876.08002 140.118 9.2197031e-39
-1008.05 878.48999 145.55 9.2197031e-39
-934.29199 886.99402 145.862 9.2197031e-39
-897.92297 888.94702 146.61099 9.2197031e-39
-855.77502 892.78198 147.061 9.2197031e-39
-839.086 891.56299 147.966 9.2197031e-39
-797.12097 896.58398 148.095 9.2197031e-39
-785.38202 894.93402 148.94299 9.2197031e-39
-752.33801 898.88098 149.04601 9.2197031e-39
-731.966 900.07501 149.439 9.2197031e-39
-700.07599 904.74701 149.30901 9.2197031e-39
-651.94702 914.54199 148.384 9.2197031e-39
-565.63702 936.26904 145.62 9.2197031e-39
-478.707 934.41504 149.14301 9.2197031e-39
-522.81201 946.55396 144.38 9.2197031e-39
-451.814 942.79602 147.853 9.2197031e-39
-441.81848 947.32349 146.99899 9.2197031e-39
-504.05499 950.19299 144.067 9.2197031e-39
-492.99701 951.72302 144.04601 9.2197031e-39
-464.89301 959.02197 143.08701 9.2197031e-39
-441.66748 954.25098 145.164 9.2197031e-39
-434.755 957.08252 144.6525 9.2197031e-39
-425.603 950.487 146.724 9.2197031e-39
-436.935 966.78796 141.998 9.2197031e-39
-427.69818 965.98987 142.53201 9.2197031e-39
-163.01601 977.78534 148.62367 9.2197031e-39
-158.16901 978.784 148.52699 9.2197031e-39
-147.877 978.49103 148.964 9.2197031e-39
-134.4585 978.45197 149.442 9.2197031e-39
-132.694 983.64453 148.12399 9.2197031e-39
-128.86266 984.76263 147.96066 9.2197031e-39
-151.586 999.02899 143.37801 9.2197031e-39
-143.845 996.81396 144.237 9.2197031e-39
-134.71001 992.90601 145.593 9.2197031e-39
-150.435 1000.087 143.13699 9.2197031e-39
-142.345 1000.425 143.32899 9.2197031e-39
-134.57967 1004.4634 142.52716 9.2197031e-39
-128.664 1007.223 142 9.2197031e-39
-138.9545 1010.9935 140.6395 9.2197031e-39
2665.5801 1353.343 147.439 9.2197031e-39
2693.4199 1382.022 140.78999 9.2197031e-39
-549.534 893.09399 157.65199 9.2197031e-39
2644.4099 1325.8921 153.994 9.2197031e-39
-602.66101 861.33203 164.23801 9.2197031e-39
2633.1599 1274.9509 167.13499 9.2197031e-39
2642.8799 1300.751 160.62 9.2197031e-39
-691.92798 812.83398 174.01199 9.2197031e-39
2612.99 1223.897 179.996 9.2197031e-39
2630.1699 1249.89 173.689 9.2197031e-39
-754.69299 776.08899 181.586 9.2197031e-39
2643.47 1201.23 187.08 9.2197031e-39
2631.8201 1175.77 193.438 9.2197031e-39
2658.77 1127.394 207.23 9.2197031e-39
2642.9099 1151.577 200.252 9.2197031e-39
-1089.8199 594.2334 218.21899 9.2197031e-39
2670.4299 1102.832 214.161 9.2197031e-39
-1106.09 558.66003 227.103 9.2197031e-39
-1111 565.04797 225.235 9.2197031e-39
-1086.05 587.53418 220.131 9.2197031e-39
-1117.54 542.93701 230.881 9.2197031e-39
-1403.03 341.31601 274.496 9.2197031e-39
-1543.1801 270.86499 288.328 9.2197031e-39
-1544.6 284.41699 284.67801 9.2197031e-39
-1257.9399 309.67899 287.95801 9.2197031e-39
-1211.1 294.17401 293.70999 9.2197031e-39
-1251.6 301.59399 290.327 9.2197031e-39
-1233.33 302.53601 290.71301 9.2197031e-39
-1217.51 301.91699 291.42899 9.2197031e-39
-1596.53 208.659 302.995 9.2197031e-39
-1572.48 208.323 303.922 9.2197031e-39
-1240.35 244.51801 305.88199 9.2197031e-39
-1593.4399 147.69098 319.29999 9.2197031e-39
-1583.67 170.073 313.694 9.2197031e-39
-1262.03 198.77701 317.27899 9.2197031e-39
-1254.6899 190.67099 319.68799 9.2197031e-39
-1247.9301 224.60599 310.909 9.2197031e-39
-1676.4399 126.20697 322.11499 9.2197031e-39
-1267.1801 150.37903 329.957 9.2197031e-39
-1256.98 174.181 323.98901 9.2197031e-39
-1690.8 65.419983 337.763 9.2197031e-39
-1260.3 126.13898 336.63699 9.2197031e-39
-1261.61 140.24799 332.84299 9.2197031e-39
-715.72998 197.086 336.76901 9.2197031e-39
-705.258 199.68301 336.444 9.2197031e-39
-697.90698 196.27499 337.60599 9.2197031e-39
-682.27399 191.409 339.444 9.2197031e-39
-670.32703 197.927 338.129 9.2197031e-39
-652.00702 199.784 338.27301 9.2197031e-39
-645.81598 194.14301 339.98801 9.2197031e-39
-686.25702 201.70599 336.569 9.2197031e-39
-659.33197 202.80499 337.216 9.2197031e-39
-633.10797 203.80399 337.86401 9.2197031e-39
-626.16199 200.103 339.09 9.2197031e-39
-608.953 201.03201 339.44299 9.2197031e-39
-599.53198 203.89401 339.01099 9.2197031e-39
-582.89502 204.41501 339.452 9.2197031e-39
-1686.63 32.932983 346.54001 9.2197031e-39
-1685.55 51.452026 341.65799 9.2197031e-39
-1272.1801 83.51001 347.54901 9.2197031e-39
-1269.64 101.87299 342.758 9.2197031e-39
-491.52802 189.45999 346.60999 9.2197031e-39
-464.38202 188.87749 347.71051 9.2197031e-39
-452.81699 188.73499 348.15201 9.2197031e-39
-445 189.36401 348.25699 9.2197031e-39
-437.88501 186.246 349.33401 9.2197031e-39
-414.685 187.77399 349.73599 9.2197031e-39
-406.80899 189.69601 349.5 9.2197031e-39
-618.81097 197.36301 340.07401 9.2197031e-39
-595.258 193.16599 342.01001 9.2197031e-39
-564.88147 197.679 341.86951 9.2197031e-39
-554.70001 191.58301 343.84399 9.2197031e-39
-544.96198 196.86899 342.77899 9.2197031e-39
-538.13898 192.95401 344.05701 9.2197031e-39
-524.46252 198.85899 342.965 9.2197031e-39
-513.789 194.646 344.45599 9.2197031e-39
-506.38501 192.85501 345.19 9.2197031e-39
-497.298 197.711 344.21701 9.2197031e-39
-482.086 196.35699 345.10699 9.2197031e-39
-475.121 192.94101 346.25699 9.2197031e-39
-425.32401 192.67801 348.06299 9.2197031e-39
-398.46899 195.52701 348.242 9.2197031e-39
-383.87799 192.03 349.67899 9.2197031e-39
-376.34399 192.297 349.871 9.2197031e-39
-575.26001 202.957 340.10599 9.2197031e-39
-1270.83 51.997009 355.96701 9.2197031e-39
-1268.77 70.526978 351.116 9.2197031e-39
-392.24799 185.10101 351.228 9.2197031e-39
-354.108 189.62799 351.35501 9.2197031e-39
-346.65201 189.185 351.733 9.2197031e-39
-316.79099 188.04199 353.077 9.2197031e-39
-305.569 188.84801 353.254 9.2197031e-39
-294.367 188.81299 353.65399 9.2197031e-39
-286.897 187.90799 354.155 9.2197031e-39
-271.95001 188.22 354.59299 9.2197031e-39
-365.23599 190.89999 350.629 9.2197031e-39
-335.22449 192.991 351.12 9.2197031e-39
-324.181 190.16501 352.255 9.2197031e-39
-279.54901 197.69501 351.81 9.2197031e-39
-264.74799 197.16199 352.46799 9.2197031e-39
-257.35599 197.47198 352.64301 9.2197031e-39
-246.0495 194.20349 353.90552 9.2197031e-39
-235.069 196.84799 353.586 9.2197031e-39
-227.821 199.33499 353.17801 9.2197031e-39
-215.98349 191.64 355.63501 9.2197031e-39
-197.386 193.55499 355.77399 9.2197031e-39
-186.2495 194.905 355.80353 9.2197031e-39
-175.39799 198.293 355.28201 9.2197031e-39
-167.87 198.40201 355.51501 9.2197031e-39
-155.395 191.545 357.772 9.2197031e-39
-145.241 199.11801 356.11401 9.2197031e-39
-136.62 193.789 357.82999 9.2197031e-39
-125.67599 196.855 357.397 9.2197031e-39
-113.158 192.48401 358.99399 9.2197031e-39
-105.718 194.07401 358.83099 9.2197031e-39
-94.5867 196.58449 358.55249 9.2197031e-39
-66.7089 195.5 359.81201 9.2197031e-39
-55.591751 198.50499 359.40149 9.2197031e-39
-205.717 201.38599 353.40302 9.2197031e-39
-84.433403 202.96701 357.211 9.2197031e-39
-77.086998 204.798 356.98001 9.2197031e-39
-44.239498 200.70599 359.21201 9.2197031e-39
-36.0084 200.10699 359.65799 9.2197031e-39
-12.3836 202.43701 359.86301 9.2197031e-39
-1270.72 18.14801 364.96399 9.2197031e-39
-1277.52 28.47699 361.983 9.2197031e-39
-791.77802 71.200989 367.56299 9.2197031e-39
-26.562901 195.90399 361.104 9.2197031e-39
-18.846201 197.306 361.00101 9.2197031e-39
-2.1423399 196.66299 361.754 9.2197031e-39
5.9223399 197.37 361.84698 9.2197031e-39
15.3465 194.52301 362.93201 9.2197031e-39
22.7731 197.198 362.48001 9.2197031e-39
30.529499 199.03299 362.263 9.2197031e-39
59.417198 191.57901 365.25 9.2197031e-39
65.328003 198.17801 363.703 9.2197031e-39
119.252 197.73801 365.69901 9.2197031e-39
37.916 201.83499 361.776 9.2197031e-39
47.126999 200.22601 362.52399 9.2197031e-39
72.723602 201.27399 363.138 9.2197031e-39
85.791794 201.64349 363.49548 9.2197031e-39
98.086304 203.93799 363.314 9.2197031e-39
107.987 202.08499 364.15201 9.2197031e-39
122.68 209.05701 362.811 9.2197031e-39
132.67599 207.48001 363.57901 9.2197031e-39
153.31599 203.797 365.27701 9.2197031e-39
163.97301 201.702 366.20499 9.2197031e-39
172.78101 203.10001 366.14099 9.2197031e-39
189.93401 206.98999 365.70499 9.2197031e-39
214.597 207.1785 366.51401 9.2197031e-39
235.01599 206.978 367.27951 9.2197031e-39
139.99001 211.142 362.86099 9.2197031e-39
178.185 210.45801 364.37399 9.2197031e-39
197.758 210.30499 365.09698 9.2197031e-39
243.558 217.42001 364.80301 9.2197031e-39
254.07201 217.19501 365.229 9.2197031e-39
266.85199 213.89099 366.55301 9.2197031e-39
279.73499 210.742 367.83801 9.2197031e-39
286.457 216.435 366.56 9.2197031e-39
300.61301 211.98099 368.237 9.2197031e-39
310.81201 213.16199 368.27802 9.2197031e-39
320.444 215.23001 368.065 9.2197031e-39
333.07401 213.55099 368.95099 9.2197031e-39
355.51099 214.44901 369.49399 9.2197031e-39
364.62601 217.73001 368.94 9.2197031e-39
376.23401 218.10901 369.24399 9.2197031e-39
388.51801 217.88 369.733 9.2197031e-39
-1278.51 -25.27301 376.228 9.2197031e-39
-1274.09 -2.78302 370.40701 9.2197031e-39
346.388 211.26001 370.02301 9.2197031e-39
402.77399 215.58499 370.84 9.2197031e-39
414.54401 216.39899 371.034 9.2197031e-39
429.61301 213.71799 372.271 9.2197031e-39
464.01801 218.91599 372.09 9.2197031e-39
481.41299 214.811 373.78601 9.2197031e-39
492.09698 217.92499 373.332 9.2197031e-39
509.00299 214.92499 374.71799 9.2197031e-39
436.22501 220.608 370.67099 9.2197031e-39
448.08899 221.82101 370.76199 9.2197031e-39
-1290.35 -75.051025 389.04001 9.2197031e-39
-1275.2 -39.981018 380.25101 9.2197031e-39
-855.078 -4.1500244 385.375 9.2197031e-39
-837.51001 6.664978 383.11401 9.2197031e-39
-1292.2 -115.93298 399.83701 9.2197031e-39
-1295.05 -99.469971 395.36401 9.2197031e-39
-1302.5699 -189.63 419.05499 9.2197031e-39
-1303.11 -169.16199 413.59799 9.2197031e-39
-1311.75 -158.43201 410.44699 9.2197031e-39
-1298.77 -228.50201 429.51501 9.2197031e-39
-1299.24 -207.14001 423.823 9.2197031e-39
-1297.99 -249.94598 435.23901 9.2197031e-39
-1305.0601 -305.52899 449.759 9.2197031e-39
-1304.76 -281.53198 443.39401 9.2197031e-39
-1312.1 -339.03998 458.41599 9.2197031e-39
-1308.09 -358.55005 463.73999 9.2197031e-39
-1318.8101 -398.73999 474.04401 9.2197031e-39
-1321.99 -456.64001 489.31601 9.2197031e-39
-1323.1899 -431.21997 482.51999 9.2197031e-39
-1173.42 -514.82996 509.953 9.2197031e-39
-1277.0699 -503.26001 503.26599 9.2197031e-39
-1256.5601 -500.67004 503.293 9.2197031e-39
-1242.91 -508.65002 505.88901 9.2197031e-39
-1224.0699 -508.16003 506.41699 9.2197031e-39
-1202.79 -503.28003 505.862 9.2197031e-39
-1184.65 -503.21997 506.47699 9.2197031e-39
-1292.83 -498.26001 501.388 9.2197031e-39
-1141.36 -489.76001 504.409 9.2197031e-39
-1361.77 -571.93994 518.56201 9.2197031e-39
1554.53 -229.94299 529.349 9.2197031e-39
1511.73 -270.79199 538.70898 9.2197031e-39
1529.05 -259.38898 536.284 9.2197031e-39
1537.39 -241.65503 531.86298 9.2197031e-39
1599.5 -236.54102 532.66901 9.2197031e-39
3017.3201 -73.942993 538.88898 9.2197031e-39
3027.29 -45.901978 531.78699 9.2197031e-39
1510.24 -293.57098 544.70898 9.2197031e-39
1673.65 -261.27301 541.82397 9.2197031e-39
3018.3799 -105.72699 547.37 9.2197031e-39
1517.4301 -347.64001 559.32501 9.2197031e-39
1515.59 -321.69299 552.367 9.2197031e-39
3006.9399 -133.367 554.31403 9.2197031e-39
-1526 -781.16003 568.42102 9.2197031e-39
1525.17 -378.51001 567.797 9.2197031e-39
3006.46 -164.922 562.68103 9.2197031e-39
1514.8101 -421.39001 578.82703 9.2197031e-39
1534.8101 -411.43994 576.88 9.2197031e-39
2999.9099 -226.52802 578.82001 9.2197031e-39
3002.8701 -195.53302 570.68799 9.2197031e-39
1489.8199 -453.10999 586.38397 9.2197031e-39
1503.15 -437.92004 582.81201 9.2197031e-39
2997.5601 -257.92798 587.08002 9.2197031e-39
1468.72 -488.26001 594.98602 9.2197031e-39
1480.86 -471.97998 591.08398 9.2197031e-39
2993.97 -289.02197 595.216 9.2197031e-39
1474.9 -520.55005 603.78003 9.2197031e-39
2990.99 -320.53101 603.48297 9.2197031e-39
1498.24 -568.66003 617.375 9.2197031e-39
1394.2 -557.60999 610.81201 9.2197031e-39
2982.26 -382.93005 619.75598 9.2197031e-39
2986.78 -351.71002 611.62 9.2197031e-39
2977.4199 -414.18005 627.88898 9.2197031e-39
2972.27 -445.44995 636.01898 9.2197031e-39
2331.78 -562.69995 644.84399 9.2197031e-39
2371.6201 -555.43994 644.30298 9.2197031e-39
2975.8 -480.88 645.55499 9.2197031e-39
2328.1599 -591.59998 652.39502 9.2197031e-39
2475.6001 -584.69995 655.70203 9.2197031e-39
2504.76 -569.45996 652.66803 9.2197031e-39
2969.97 -512.29004 653.69501 9.2197031e-39
2344.26 -633.12 663.98602 9.2197031e-39
2963.8301 -543.70996 661.83002 9.2197031e-39
2337.3799 -660.71997 671.07898 9.2197031e-39
2960.3201 -611.47998 679.711 9.2197031e-39
2958.26 -575.58997 670.104 9.2197031e-39
2951.4199 -642.13 687.54401 9.2197031e-39
2952.72 -678.25 697.185 9.2197031e-39
2946.6399 -710.80005 705.62201 9.2197031e-39
2937.6201 -741.96997 713.58698 9.2197031e-39
2930.01 -774.07996 721.85303 9.2197031e-39
2800.01 -1770.99 982.17297 9.2197031e-39
2803.3601 -1823.6799 996.28802 9.2197031e-39
2782.3701 -1905.5901 1017.32 9.2197031e-39
2778.1499 -1953.4099 1029.88 9.2197031e-39
2774.7 -2002.77 1042.87 9.2197031e-39
