# .PCD v0.7 - Point Cloud Data file format
VERSION 0.7
FIELDS x y z rgb
SIZE 4 4 4 4
TYPE F F F F
COUNT 1 1 1 1
WIDTH 320
HEIGHT 1
VIEWPOINT 0 0 0 1 0 0 0
POINTS 320
DATA ascii
-1177.5 884.48401 138.052 9.2197031e-39
-1133.02 898.33502 135.922 9.2197031e-39
-1171.67 900.5 134 9.2197031e-39
-162.299 1016.1165 138.4655 9.2197031e-39
-157.39999 1012.181 139.681 9.2197031e-39
-145.67099 1015.075 139.32167 9.2197031e-39
3170.1299 1470.1179 134 9.2197031e-39
-1181.04 868.56799 142.157 9.2197031e-39
-1168.91 862.95599 144.07001 9.2197031e-39
-1113.47 865.46002 145.338 9.2197031e-39
-1181.28 876.23596 140.11099 9.2197031e-39
-1020.82 876.04199 145.756 9.2197031e-39
-957.82001 882.27698 146.295 9.2197031e-39
-889.11603 890.79102 146.42799 9.2197031e-39
-846.98401 894.69897 146.858 9.2197031e-39
-822.513 895.32501 147.545 9.2197031e-39
-804.90399 894.74799 148.312 9.2197031e-39
-784.41101 895.172 148.91299 9.2197031e-39
-750.40002 899.37299 148.983 9.2197031e-39
-736.79901 898.80499 149.608 9.2197031e-39
-699.112 905.00903 149.27299 9.2197031e-39
-644.25098 916.703 148.078 9.2197031e-39
-573.31403 934.04297 145.944 9.2197031e-39
-478.707 934.41504 149.14301 9.2197031e-39
-522.81201 946.55396 144.38 9.2197031e-39
-443.32651 945.84998 147.338 9.2197031e-39
-428.293 949.18298 146.97701 9.2197031e-39
-495.46399 952.84302 143.66299 9.2197031e-39
-484.42899 954.44501 143.62199 9.2197031e-39
-435.51749 953.89197 145.47351 9.2197031e-39
-429.41602 958.56848 144.44351 9.2197031e-39
-457.29901 961.505 142.692 9.2197031e-39
-431.25601 968.698 141.688 9.2197031e-39
-424.44278 965.87439 142.67619 9.2197031e-39
-421.396 970.77698 141.48 9.2197031e-39
-168.74699 978.39404 148.26199 9.2197031e-39
-152.07349 978.33655 148.85901 9.2197031e-39
-149.192 977.539 149.17101 9.2197031e-39
-138.854 977.46802 149.55 9.2197031e-39
-172.83701 981.84998 147.202 9.2197031e-39
-148.485 981.85248 148.0495 9.2197031e-39
-133.94601 982.53101 148.37625 9.2197031e-39
-127.19567 986.11102 147.66066 9.2197031e-39
-155.88901 997.245 143.702 9.2197031e-39
-145.09351 995.41272 144.56525 9.2197031e-39
-134.603 991.55396 145.95599 9.2197031e-39
-151.42599 1000.201 143.07201 9.2197031e-39
-143.85699 1001.8367 142.90167 9.2197031e-39
-132.42 1004.0875 142.7025 9.2197031e-39
-128.33534 1007.2047 142.01666 9.2197031e-39
-142.478 1010.487 140.65199 9.2197031e-39
2663.5901 1353.116 147.42999 9.2197031e-39
2693.4199 1382.022 140.78999 9.2197031e-39
-549.534 893.09399 157.65199 9.2197031e-39
-148.41499 973.39899 150.298 9.2197031e-39
2643.4199 1325.787 153.987 9.2197031e-39
-601.76898 861.77399 164.15199 9.2197031e-39
2633.1599 1274.9509 167.13499 9.2197031e-39
2633.9299 1299.8821 160.53799 9.2197031e-39
-685.70697 815.98303 173.392 9.2197031e-39
2628.1799 1249.731 173.662 9.2197031e-39
-779.46503 763.28589 184.12399 9.2197031e-39
2641.47 1201.104 187.04401 9.2197031e-39
2613.99 1223.969 180.01199 9.2197031e-39
2625.8301 1175.443 193.31599 9.2197031e-39
2658.77 1127.394 207.23 9.2197031e-39
2653.8899 1152.084 200.5 9.2197031e-39
-1081.67 589.89429 219.65601 9.2197031e-39
-1088.9399 594.698 218.127 9.2197031e-39
2666.4299 1102.715 214.05299 9.2197031e-39
-1119.11 551.35999 228.589 9.2197031e-39
-1117.97 561.21301 226.011 9.2197031e-39
-1129.63 536.02197 232.297 9.2197031e-39
-1400.48 342.862 274.17401 9.2197031e-39
-1543.1801 270.86499 288.328 9.2197031e-39
-1530 292.93701 282.923 9.2197031e-39
-1270.75 300.32199 289.99701 9.2197031e-39
-1227.01 307.32199 289.66199 9.2197031e-39
-1254.78 299.228 290.84399 9.2197031e-39
-1212.66 292.952 293.98001 9.2197031e-39
-1217.51 301.91699 291.42899 9.2197031e-39
-1584.6899 215.97601 301.46301 9.2197031e-39
-1568.27 210.97101 303.36499 9.2197031e-39
-1249.58 237.02701 307.55099 9.2197031e-39
-1586 152.64697 318.242 9.2197031e-39
-1583.67 170.073 313.694 9.2197031e-39
-1254.79 218.92899 312.177 9.2197031e-39
-1243.85 214.06699 313.85001 9.2197031e-39
-1672.26 128.89099 321.547 9.2197031e-39
-1274.88 158.58899 327.508 9.2197031e-39
-1260.52 156.28198 328.621 9.2197031e-39
-1259.2 186.81 320.55701 9.2197031e-39
-1690.8 65.419983 337.763 9.2197031e-39
-1263.21 123.466 337.246 9.2197031e-39
-1266.75 135.61401 333.89499 9.2197031e-39
-705.258 199.68301 336.444 9.2197031e-39
-697.90698 196.27499 337.60599 9.2197031e-39
-689.67102 194.685 338.315 9.2197031e-39
-666.03052 197.69901 338.3385 9.2197031e-39
-645.42902 195.03699 339.76401 9.2197031e-39
-618.448 198.267 339.84601 9.2197031e-39
-712.578 203.15302 335.267 9.2197031e-39
-678.086 200.22101 337.24899 9.2197031e-39
-651.21698 201.56699 337.827 9.2197031e-39
-632.729 204.70099 337.63901 9.2197031e-39
-625.79102 201.004 338.86301 9.2197031e-39
-608.953 201.03201 339.44299 9.2197031e-39
-1692.3101 28.934021 347.40399 9.2197031e-39
-1689.63 48.630005 342.26501 9.2197031e-39
-1278.3101 93.781982 344.60599 9.2197031e-39
-1264.3 90.992981 345.83499 9.2197031e-39
-547.55798 188.51901 344.90701 9.2197031e-39
-483.633 189.746 346.80899 9.2197031e-39
-460.45999 189.12399 347.78201 9.2197031e-39
-437.88501 186.246 349.33401 9.2197031e-39
-414.685 187.77399 349.73599 9.2197031e-39
-406.80899 189.69601 349.5 9.2197031e-39
-399.229 189.76801 349.745 9.2197031e-39
-602.30298 196.617 340.84698 9.2197031e-39
-594.58197 194.991 341.548 9.2197031e-39
-586.19397 195.263 341.76901 9.2197031e-39
-564.8855 197.6805 341.86951 9.2197031e-39
-537.57898 194.814 343.582 9.2197031e-39
-520.65002 198.36899 343.228 9.2197031e-39
-513.534 195.58301 344.216 9.2197031e-39
-506.13901 193.79401 344.94901 9.2197031e-39
-495.13098 190.76451 346.13751 9.2197031e-39
-474.69601 194.83301 345.76901 9.2197031e-39
-467.90399 190.52802 347.14999 9.2197031e-39
-452.44299 190.63699 347.659 9.2197031e-39
-444.82199 190.31601 348.01001 9.2197031e-39
-425.24799 193.15601 347.93851 9.2197031e-39
-391.06799 194.70901 348.71701 9.2197031e-39
-383.659 193.953 349.17599 9.2197031e-39
-376.24399 193.26001 349.61899 9.2197031e-39
-575.26001 202.957 340.10599 9.2197031e-39
-551.73199 200.83701 341.48901 9.2197031e-39
-528.00299 200.28101 342.46399 9.2197031e-39
-1269.4301 53.380981 355.64899 9.2197031e-39
-1268.77 70.526978 351.116 9.2197031e-39
-354.25699 187.69901 351.862 9.2197031e-39
-316.729 189.974 352.56601 9.2197031e-39
-309.319 187.914 353.371 9.2197031e-39
-294.367 188.81299 353.65399 9.2197031e-39
-286.901 188.875 353.89801 9.2197031e-39
-279.436 188.99899 354.125 9.2197031e-39
-127.892 188.54501 359.52802 9.2197031e-39
-365.23599 190.89999 350.629 9.2197031e-39
-346.586 190.14999 351.479 9.2197031e-39
-335.22449 192.991 351.12 9.2197031e-39
-324.10199 192.09698 351.745 9.2197031e-39
-301.69699 198.48001 350.82999 9.2197031e-39
-272.16299 197.88 352.01901 9.2197031e-39
-264.74799 197.16199 352.46799 9.2197031e-39
-257.43399 199.40302 352.12799 9.2197031e-39
-246.302 198.54399 352.74402 9.2197031e-39
-235.19901 198.776 353.069 9.2197031e-39
-224.134 199.646 353.224 9.2197031e-39
-212.897 198.71701 353.862 9.2197031e-39
-204.92 193.70001 355.47299 9.2197031e-39
-197.386 193.55499 355.77399 9.2197031e-39
-182.666 196.33401 355.54901 9.2197031e-39
-175.39799 198.293 355.28201 9.2197031e-39
-168.013 199.35699 355.25699 9.2197031e-39
-144.228 193.41101 357.66501 9.2197031e-39
-105.93 195.017 358.573 9.2197031e-39
-94.806801 197.52499 358.29498 9.2197031e-39
-75.368202 198.255 358.77899 9.2197031e-39
-66.7089 195.5 359.81201 9.2197031e-39
-55.72715 198.96899 359.2735 9.2197031e-39
-191.129 204.02301 353.211 9.2197031e-39
-160.94 202.39099 354.69699 9.2197031e-39
-153.592 203.577 354.638 9.2197031e-39
-138.217 202.33499 355.504 9.2197031e-39
-122.556 200.42001 356.55801 9.2197031e-39
-115.189 201.92999 356.414 9.2197031e-39
-1277.64 11.109985 366.59299 9.2197031e-39
-1270.55 35.45697 360.37201 9.2197031e-39
-81.8255 192.66101 360.039 9.2197031e-39
-41.447498 191.45001 361.76901 9.2197031e-39
-33.707802 192.72299 361.70001 9.2197031e-39
-26.562901 195.90399 361.104 9.2197031e-39
-19.1504 198.224 360.746 9.2197031e-39
-5.8648801 195.429 361.95151 9.2197031e-39
5.2642498 199.19 361.341 9.2197031e-39
15.0092 195.42999 362.67899 9.2197031e-39
23.118601 196.29401 362.73199 9.2197031e-39
65.328003 198.17801 363.703 9.2197031e-39
101.012 197.81799 365.04199 9.2197031e-39
29.822201 200.83499 361.759 9.2197031e-39
37.554199 202.733 361.52499 9.2197031e-39
47.126999 200.22601 362.52399 9.2197031e-39
54.503399 203.168 362 9.2197031e-39
73.117699 200.38901 363.38699 9.2197031e-39
85.590744 202.084 363.37152 9.2197031e-39
107.561 202.95599 363.905 9.2197031e-39
113.614 209.008 362.509 9.2197031e-39
122.68 209.05701 362.811 9.2197031e-39
132.22701 208.33899 363.33499 9.2197031e-39
143.64799 204.29901 364.80701 9.2197031e-39
152.851 204.64801 365.034 9.2197031e-39
163.5 202.54999 365.96301 9.2197031e-39
171.341 205.63 365.418 9.2197031e-39
188.94299 208.66 365.22699 9.2197031e-39
209.134 207.90601 366.13101 9.2197031e-39
238.42 209.63101 366.69299 9.2197031e-39
178.185 210.45801 364.37399 9.2197031e-39
197.255 211.13599 364.85901 9.2197031e-39
213.34 217.146 363.82199 9.2197031e-39
225.825 213.31299 365.276 9.2197031e-39
247.88 210.953 366.672 9.2197031e-39
254.07201 217.19501 365.229 9.2197031e-39
266.298 214.69 366.32101 9.2197031e-39
273.552 219.479 365.30099 9.2197031e-39
298.884 214.33401 367.55099 9.2197031e-39
319.853 216.004 367.83801 9.2197031e-39
331.879 215.09 368.5 9.2197031e-39
345.17899 212.789 369.57501 9.2197031e-39
364.008 218.48401 368.71899 9.2197031e-39
376.23401 218.10901 369.24399 9.2197031e-39
388.51801 217.88 369.733 9.2197031e-39
281.33301 223.54001 364.49399 9.2197031e-39
305.56 220.17899 366.23099 9.2197031e-39
350.008 221.28201 367.487 9.2197031e-39
-1289.37 -36.71698 378.89001 9.2197031e-39
-1289.85 -19.103027 374.194 9.2197031e-39
-804.14502 47.901001 373.32199 9.2197031e-39
401.49701 217.06 370.40302 9.2197031e-39
414.54401 216.39899 371.034 9.2197031e-39
429.61301 213.71799 372.271 9.2197031e-39
453.41 216.09698 372.46899 9.2197031e-39
492.09698 217.92499 373.332 9.2197031e-39
511.76599 212.155 375.54999 9.2197031e-39
434.90799 222.04999 370.242 9.2197031e-39
462.67401 220.336 371.66599 9.2197031e-39
473.95401 222.55701 371.46899 9.2197031e-39
-1287.6899 -72.14502 388.36099 9.2197031e-39
-1284.62 -50.072998 382.604 9.2197031e-39
-854.13098 -2.4400024 384.95401 9.2197031e-39
-842.16699 -1.9260254 385.23401 9.2197031e-39
-1293.0699 -97.27301 394.85001 9.2197031e-39
-1294.16 -118.14502 400.35699 9.2197031e-39
-1291.8199 -176.81897 416.026 9.2197031e-39
-1313.6801 -160.66101 410.97101 9.2197031e-39
-1298.63 -163.92401 412.36301 9.2197031e-39
-1288.6 -194.23901 420.76599 9.2197031e-39
-1296.15 -247.638 434.69 9.2197031e-39
-1301.87 -232.323 430.422 9.2197031e-39
-1307.79 -285.40302 444.31699 9.2197031e-39
-1310.3199 -336.67999 457.853 9.2197031e-39
-1307.45 -308.646 450.504 9.2197031e-39
-1312.1801 -364.06995 465.065 9.2197031e-39
-1322.85 -404.30005 475.379 9.2197031e-39
-1326.04 -435.20996 483.48199 9.2197031e-39
-1328.74 -466.28003 491.642 9.2197031e-39
-1258.66 -503.96997 504.09799 9.2197031e-39
-1242.39 -507.81995 505.686 9.2197031e-39
-1224.58 -509 506.621 9.2197031e-39
-1203.8 -504.95996 506.272 9.2197031e-39
-1187.63 -508.28003 507.71701 9.2197031e-39
-1167.55 -504.66003 507.45599 9.2197031e-39
-1289.04 -492.54004 500.00101 9.2197031e-39
-1269.6 -491.75 500.47 9.2197031e-39
-1147.13 -499.96997 506.922 9.2197031e-39
-1375.48 -592.26001 523.48199 9.2197031e-39
3019.21 -74.564026 539.12 9.2197031e-39
3017.4399 -105.40802 547.25299 9.2197031e-39
3016.3101 -136.63599 555.51001 9.2197031e-39
-1523.22 -777.12 567.44397 9.2197031e-39
3005.53 -164.58698 562.56 9.2197031e-39
1659.75 -402.32996 578.81403 9.2197031e-39
1671.03 -384.56006 574.487 9.2197031e-39
1693.42 -374.63 572.62799 9.2197031e-39
1713.34 -362.75 570.16602 9.2197031e-39
1749.53 -361.66003 571.13898 9.2197031e-39
1784.21 -358.97998 571.63501 9.2197031e-39
2999.9099 -226.52802 578.82001 9.2197031e-39
3002.8701 -195.53302 570.68799 9.2197031e-39
1653.04 -423.52002 584.211 9.2197031e-39
2997.5601 -257.92798 587.08002 9.2197031e-39
1656.3 -452.41003 592 9.2197031e-39
2993.97 -289.02197 595.216 9.2197031e-39
1701.26 -513.79004 609.87299 9.2197031e-39
2990.0801 -320.15698 603.35199 9.2197031e-39
2982.26 -382.93005 619.75598 9.2197031e-39
2986.78 -351.71002 611.62 9.2197031e-39
2975.6001 -413.38 627.61401 9.2197031e-39
1766.13 -592.38 633.01501 9.2197031e-39
2972.27 -445.44995 636.01898 9.2197031e-39
1799.77 -648.33997 649.05298 9.2197031e-39
2339.3899 -567.28003 646.32599 9.2197031e-39
2364.8301 -551.43005 643 9.2197031e-39
2967.7 -477.17004 644.28601 9.2197031e-39
2327.3201 -591.07996 652.229 9.2197031e-39
2475.6001 -584.69995 655.70203 9.2197031e-39
2504.76 -569.45996 652.66803 9.2197031e-39
2969.97 -512.29004 653.69501 9.2197031e-39
2339.25 -629.97998 662.97803 9.2197031e-39
2963.8301 -543.70996 661.83002 9.2197031e-39
2344.8501 -665.48999 672.60699 9.2197031e-39
2960.3201 -611.47998 679.711 9.2197031e-39
2958.26 -575.58997 670.104 9.2197031e-39
2953.1799 -643.03003 687.84399 9.2197031e-39
2944.8401 -674.13 695.81598 9.2197031e-39
2944.8999 -709.87 705.31403 9.2197031e-39
2937.6201 -741.96997 713.58698 9.2197031e-39
2539.96 -824.77002 721.72601 9.2197031e-39
2931.74 -775.04004 722.16803 9.2197031e-39
2134.49 -949.81006 740.81201 9.2197031e-39
2025.8101 -1072.73 769.67999 9.2197031e-39
2057.96 -1064.64 768.65198 9.2197031e-39
2087.9299 -1054.24 766.93298 9.2197031e-39
2382.47 -1269.79 834.46503 9.2197031e-39
2830.1499 -1559.4299 927.01801 9.2197031e-39
2818.5601 -1595.96 936.32001 9.2197031e-39
2803.3601 -1823.6799 996.28802 9.2197031e-39
2795.27 -1866.6101 1007.41 9.2197031e-39
2788.05 -1910.98 1018.95 9.2197031e-39
2777.45 -1952.73 1029.67 9.2197031e-39
2774 -2002.0801 1042.66 9.2197031e-39
