# .PCD v0.7 - Point Cloud Data file format
VERSION 0.7
FIELDS x y z rgb
SIZE 4 4 4 4
TYPE F F F F
COUNT 1 1 1 1
WIDTH 313
HEIGHT 1
VIEWPOINT 0 0 0 1 0 0 0
POINTS 313
DATA ascii
-1178.49 884.33704 138.056 9.2197031e-39
-1133.02 898.33502 135.922 9.2197031e-39
-1173.65 900.23901 134 9.2197031e-39
-152.8575 1013.8185 139.405 9.2197031e-39
-141.84 1015.502 139.34149 9.2197031e-39
-133.311 1016.763 139.304 9.2197031e-39
3153.27 1467.907 134 9.2197031e-39
-1181.04 868.56799 142.157 9.2197031e-39
-1169.9 862.78503 144.082 9.2197031e-39
-1115.4301 865.09998 145.36501 9.2197031e-39
-1182.27 876.08002 140.118 9.2197031e-39
-1007.07 878.67798 145.534 9.2197031e-39
-942.13501 885.422 146.006 9.2197031e-39
-846.88501 889.79297 148.16499 9.2197031e-39
-873.45898 894.06799 146.103 9.2197031e-39
-855.77502 892.78198 147.061 9.2197031e-39
-814.63397 892.453 148.582 9.2197031e-39
-785.38202 894.93402 148.94299 9.2197031e-39
-744.58698 900.84802 148.793 9.2197031e-39
-730.03198 900.58301 149.371 9.2197031e-39
-700.07599 904.74701 149.30901 9.2197031e-39
-646.17499 916.16296 148.155 9.2197031e-39
-565.63702 936.26904 145.62 9.2197031e-39
-479.62201 934.01801 149.216 9.2197031e-39
-523.76898 946.26801 144.423 9.2197031e-39
-443.021 945.21802 147.517 9.2197031e-39
-437.28799 949.38904 146.608 9.2197031e-39
-504.05499 950.19299 144.067 9.2197031e-39
-485.38101 954.14197 143.66901 9.2197031e-39
-465.84299 958.711 143.136 9.2197031e-39
-434.25598 955.56097 145.07401 9.2197031e-39
-425.47299 954.83502 145.573 9.2197031e-39
-432.63028 964.5415 142.74501 9.2197031e-39
-427.60233 965.56769 142.64734 9.2197031e-39
-166.15601 979.89801 147.953 9.2197031e-39
-152.444 977.18152 149.153 9.2197031e-39
-143.675 978.70001 149.05499 9.2197031e-39
-132.35049 978.65649 149.4615 9.2197031e-39
-129.439 977.96497 149.746 9.2197031e-39
-166.78101 981.21997 147.58 9.2197031e-39
-159.746 980.42798 148.036 9.2197031e-39
-132.40533 985.66455 147.5975 9.2197031e-39
-128.785 984.987 147.903 9.2197031e-39
-143.75874 997.44379 144.07225 9.2197031e-39
-136.46051 992.51501 145.63599 9.2197031e-39
-151.138 1002.549 142.459 9.2197031e-39
-145.32201 1000.741 143.142 9.2197031e-39
-137.62633 1003.8384 142.58733 9.2197031e-39
-127.00567 1007.1313 142.08266 9.2197031e-39
-141.479 1010.449 140.69701 9.2197031e-39
-130.35001 1014.076 140.121 9.2197031e-39
2668.5601 1353.683 147.452 9.2197031e-39
2696.3999 1382.387 140.797 9.2197031e-39
-550.435 892.66699 157.73399 9.2197031e-39
-149.767 972.49597 150.491 9.2197031e-39
2645.4099 1325.9971 154 9.2197031e-39
-599.98297 862.659 163.979 9.2197031e-39
2643.1201 1275.832 167.248 9.2197031e-39
2632.9299 1299.7849 160.52901 9.2197031e-39
-684.81799 816.43201 173.304 9.2197031e-39
2631.1699 1249.97 173.702 9.2197031e-39
-762.65503 771.97302 182.40199 9.2197031e-39
2640.47 1201.041 187.026 9.2197031e-39
2615.98 1224.1121 180.043 9.2197031e-39
2624.8301 1175.3879 193.29601 9.2197031e-39
2660.77 1127.469 207.27901 9.2197031e-39
2643.9099 1151.623 200.27499 9.2197031e-39
-1089.8199 594.2334 218.21899 9.2197031e-39
2671.4299 1102.8621 214.188 9.2197031e-39
-1101.75 561.09399 226.608 9.2197031e-39
-1103.8049 573.49933 223.24051 9.2197031e-39
-1133.95 533.552 232.80299 9.2197031e-39
-1392.83 347.50201 273.20801 9.2197031e-39
-1537.1899 274.42401 287.591 9.2197031e-39
-1520.55 298.45001 281.78799 9.2197031e-39
-1269.95 300.90701 289.87 9.2197031e-39
-1220.6801 312.10699 288.61099 9.2197031e-39
-1257.17 297.45401 291.233 9.2197031e-39
-1211.1 294.17401 293.70999 9.2197031e-39
-1212.01 306.14999 290.496 9.2197031e-39
-1584.6899 215.97601 301.46301 9.2197031e-39
-1569.11 210.44101 303.47699 9.2197031e-39
-1241.12 243.89401 306.021 9.2197031e-39
-1585.1801 153.198 318.125 9.2197031e-39
-1596.97 161.37299 315.54199 9.2197031e-39
-1248.6801 195.81799 318.53 9.2197031e-39
-1252.1801 207.05899 315.422 9.2197031e-39
-1251.74 221.452 311.61301 9.2197031e-39
-1677.27 125.66998 322.228 9.2197031e-39
-1264.22 153.00201 329.36401 9.2197031e-39
-1248.03 181.97699 322.23001 9.2197031e-39
-1680.12 72.669006 336.20999 9.2197031e-39
-1255.92 114.68402 339.83301 9.2197031e-39
-1259.5699 126.80701 336.48499 9.2197031e-39
-1258.67 142.89697 332.242 9.2197031e-39
-715.72998 197.086 336.76901 9.2197031e-39
-698.34198 195.401 337.823 9.2197031e-39
-689.67102 194.685 338.315 9.2197031e-39
-670.32703 197.927 338.129 9.2197031e-39
-645.04199 195.931 339.54001 9.2197031e-39
-704.81598 200.55399 336.228 9.2197031e-39
-678.086 200.22101 337.24899 9.2197031e-39
-655.27051 202.18449 337.52197 9.2197031e-39
-633.487 202.90601 338.09 9.2197031e-39
-626.16199 200.103 339.09 9.2197031e-39
-609.30798 200.125 339.67099 9.2197031e-39
-595.18951 204.45801 339.01251 9.2197031e-39
-1685.01 34.075012 346.293 9.2197031e-39
-1683.1 53.14502 341.293 9.2197031e-39
-1259.28 95.754028 344.745 9.2197031e-39
-523.547 188.08899 345.858 9.2197031e-39
-460.65601 188.17499 348.02701 9.2197031e-39
-452.63 189.686 347.90601 9.2197031e-39
-414.82901 186.81699 349.98499 9.2197031e-39
-399.35501 188.80801 349.996 9.2197031e-39
-618.81097 197.36301 340.07401 9.2197031e-39
-585.86401 196.17801 341.53699 9.2197031e-39
-565.1825 196.75499 342.10449 9.2197031e-39
-554.99701 190.65701 344.07999 9.2197031e-39
-544.67297 197.797 342.543 9.2197031e-39
-538.41901 192.02399 344.29401 9.2197031e-39
-528.81799 197.48401 343.17801 9.2197031e-39
-513.02502 197.45599 343.73599 9.2197031e-39
-506.38501 192.85501 345.19 9.2197031e-39
-497.53601 196.76999 344.45801 9.2197031e-39
-485.77399 197.1505 344.76752 9.2197031e-39
-474.90799 193.88699 346.013 9.2197031e-39
-467.90399 190.52802 347.14999 9.2197031e-39
-443.75201 196.03101 346.52899 9.2197031e-39
-436.358 194.83099 347.10599 9.2197031e-39
-425.40051 192.19951 348.18701 9.2197031e-39
-405.591 198.32501 347.25 9.2197031e-39
-391.186 193.74799 348.96799 9.2197031e-39
-383.54999 194.91501 348.92401 9.2197031e-39
-376.34399 192.297 349.871 9.2197031e-39
-575.26001 202.957 340.10599 9.2197031e-39
-1278 61.606995 353.16501 9.2197031e-39
-354.108 189.62799 351.35501 9.2197031e-39
-346.65201 189.185 351.733 9.2197031e-39
-316.79099 188.04199 353.077 9.2197031e-39
-305.5755 188.3645 353.38202 9.2197031e-39
-294.37201 187.84698 353.91 9.2197031e-39
-286.901 188.875 353.89801 9.2197031e-39
-279.423 188.03201 354.38199 9.2197031e-39
-158.97 189.98999 358.06 9.2197031e-39
-365.23599 190.89999 350.629 9.2197031e-39
-335.30151 191.543 351.5015 9.2197031e-39
-324.10199 192.09698 351.745 9.2197031e-39
-272.12 195.948 352.534 9.2197031e-39
-264.71799 196.19601 352.72601 9.2197031e-39
-257.39499 198.43701 352.38501 9.2197031e-39
-246.2225 197.097 353.13098 9.2197031e-39
-235.134 197.81201 353.327 9.2197031e-39
-227.74699 198.37201 353.436 9.2197031e-39
-216.306 195.00549 354.729 9.2197031e-39
-204.72 191.77802 355.991 9.2197031e-39
-197.386 193.55499 355.77399 9.2197031e-39
-186.12799 193.94701 356.0625 9.2197031e-39
-175.263 197.33701 355.54099 9.2197031e-39
-167.87 198.40201 355.51501 9.2197031e-39
-136.44299 192.83899 358.08899 9.2197031e-39
-125.866 197.80251 357.13849 9.2197031e-39
-94.468147 196.116 358.681 9.2197031e-39
-74.631599 195.45001 359.54901 9.2197031e-39
-55.329353 197.57449 359.6575 9.2197031e-39
-43.681099 198.85501 359.72299 9.2197031e-39
-35.720798 199.18399 359.91299 9.2197031e-39
-153.431 202.62399 354.897 9.2197031e-39
-145.409 200.069 355.85501 9.2197031e-39
-114.782 200.04099 356.92999 9.2197031e-39
-107.834 203.50201 356.25299 9.2197031e-39
-83.722198 200.15601 357.98199 9.2197031e-39
-1269.29 2.184021 369.255 9.2197031e-39
-1269.34 19.55603 364.638 9.2197031e-39
-1271.9399 34.060974 360.694 9.2197031e-39
-66.454903 194.56799 360.069 9.2197031e-39
-26.562901 195.90399 361.104 9.2197031e-39
-19.1504 198.224 360.746 9.2197031e-39
-5.387815 194.0585 362.33252 9.2197031e-39
6.25139 196.461 362.10001 9.2197031e-39
15.3465 194.52301 362.93201 9.2197031e-39
22.7731 197.198 362.48001 9.2197031e-39
30.1759 199.93399 362.01099 9.2197031e-39
47.496899 199.33099 362.77499 9.2197031e-39
58.661301 193.362 364.75 9.2197031e-39
65.713997 197.29001 363.952 9.2197031e-39
74.694 196.85001 364.38199 9.2197031e-39
128.862 196.97299 366.23801 9.2197031e-39
37.916 201.83499 361.776 9.2197031e-39
85.791794 201.64349 363.49548 9.2197031e-39
98.086304 203.93799 363.314 9.2197031e-39
107.987 202.08499 364.15201 9.2197031e-39
113.614 209.008 362.509 9.2197031e-39
132.67599 207.48001 363.57901 9.2197031e-39
156.51749 206.563 364.6535 9.2197031e-39
179.161 208.78 364.854 9.2197031e-39
190.42999 206.155 365.944 9.2197031e-39
209.645 207.07901 366.36801 9.2197031e-39
218.002 209.74799 365.95001 9.2197031e-39
280.297 209.948 368.069 9.2197031e-39
139.076 212.853 362.37399 9.2197031e-39
168.459 210.69 363.97299 9.2197031e-39
197.758 210.30499 365.09698 9.2197031e-39
226.87601 211.67801 365.74701 9.2197031e-39
237.354 211.25699 366.224 9.2197031e-39
243.558 217.42001 364.80301 9.2197031e-39
256.263 213.98001 366.16 9.2197031e-39
267.40701 213.09201 366.784 9.2197031e-39
287.595 214.85699 367.01901 9.2197031e-39
311.39499 212.383 368.50601 9.2197031e-39
320.444 215.23001 368.065 9.2197031e-39
333.07401 213.55099 368.95099 9.2197031e-39
351.23001 219.763 367.93301 9.2197031e-39
364.008 218.48401 368.71899 9.2197031e-39
376.85901 217.35999 369.465 9.2197031e-39
387.88599 218.62299 369.51401 9.2197031e-39
293.69601 221.39499 365.49399 9.2197031e-39
410.672 220.79401 369.73099 9.2197031e-39
-1272.4 -18.835999 374.73099 9.2197031e-39
-804.604 47.038025 373.535 9.2197031e-39
346.388 211.26001 370.02301 9.2197031e-39
402.77399 215.58499 370.84 9.2197031e-39
430.26599 212.991 372.487 9.2197031e-39
454.73999 214.66501 372.89499 9.2197031e-39
476.66599 219.73999 372.311 9.2197031e-39
492.09698 217.92499 373.332 9.2197031e-39
506.23901 217.69501 373.88599 9.2197031e-39
436.22501 220.608 370.67099 9.2197031e-39
462.67401 220.336 371.66599 9.2197031e-39
-1289.02 -73.598022 388.70099 9.2197031e-39
-1275.88 -40.702026 380.41901 9.2197031e-39
-854.60498 -3.2949829 385.16501 9.2197031e-39
-838.44098 4.9470215 383.53799 9.2197031e-39
-1295.71 -100.20203 395.535 9.2197031e-39
-1309.8101 -156.203 409.922 9.2197031e-39
-1293.51 -117.40802 400.18301 9.2197031e-39
-1294.35 -179.83301 416.73901 9.2197031e-39
-1299.91 -165.41998 412.716 9.2197031e-39
-1295.49 -202.58698 422.74399 9.2197031e-39
-1309.01 -263.79102 438.53299 9.2197031e-39
-1302.49 -233.08698 430.603 9.2197031e-39
-1308.39 -286.177 444.50201 9.2197031e-39
-1312.6899 -339.82001 458.604 9.2197031e-39
-1308.05 -309.42499 450.69 9.2197031e-39
-1320.9399 -375.91003 467.90399 9.2197031e-39
-1315.35 -393.97998 472.89899 9.2197031e-39
-1336.87 -450.39001 487.13599 9.2197031e-39
-1327.62 -464.68005 491.254 9.2197031e-39
-1171.47 -511.43994 509.12 9.2197031e-39
-1296.08 -503.16003 502.578 9.2197031e-39
-1259.1899 -504.80005 504.29901 9.2197031e-39
-1239.27 -502.82996 504.47101 9.2197031e-39
-1223.05 -506.48999 506.009 9.2197031e-39
-1201.28 -500.77002 505.246 9.2197031e-39
-1188.13 -509.12 507.92401 9.2197031e-39
-1274.4 -499.15002 502.267 9.2197031e-39
-1146.65 -499.12 506.71201 9.2197031e-39
-1371.09 -585.76001 521.90802 9.2197031e-39
3019.21 -74.564026 539.12 9.2197031e-39
3019.3201 -106.04602 547.48798 9.2197031e-39
3009.75 -134.34802 554.67297 9.2197031e-39
3008.3301 -165.591 562.92401 9.2197031e-39
-1532.11 -790.05005 570.57001 9.2197031e-39
3001.76 -227.229 579.07001 9.2197031e-39
3003.8 -195.875 570.81201 9.2197031e-39
2998.48 -258.28601 587.20697 9.2197031e-39
2994.8899 -289.388 595.34497 9.2197031e-39
1851.33 -485.34998 607.547 9.2197031e-39
1882.8101 -479.38 607.05798 9.2197031e-39
2991.9099 -320.90503 603.61401 9.2197031e-39
1788.13 -523.59998 615.50598 9.2197031e-39
1807.67 -509.93005 612.55603 9.2197031e-39
1830.33 -498.32996 610.26599 9.2197031e-39
1940.45 -490.62 612.05499 9.2197031e-39
2987.7 -352.09003 611.75299 9.2197031e-39
1784.63 -577.83997 629.79401 9.2197031e-39
1780.27 -545.93005 621.16699 9.2197031e-39
2976.51 -413.78003 627.75201 9.2197031e-39
2991.3701 -386.81995 621.10797 9.2197031e-39
2972.27 -445.44995 636.01898 9.2197031e-39
1810.23 -626.88 643.716 9.2197031e-39
2332.6299 -563.20996 645.00897 9.2197031e-39
2365.6799 -551.93005 643.16302 9.2197031e-39
2976.7 -481.30005 645.69598 9.2197031e-39
1817.4399 -662.41003 653.40698 9.2197031e-39
2329 -592.12 652.56201 9.2197031e-39
2476.46 -585.19995 655.86298 9.2197031e-39
2497.03 -565.06995 651.23401 9.2197031e-39
2971.77 -513.13 653.98102 9.2197031e-39
1814.24 -690.16003 660.66699 9.2197031e-39
2337.5701 -628.93005 662.64203 9.2197031e-39
2965.6201 -544.56995 662.11902 9.2197031e-39
2346.51 -666.55005 672.94702 9.2197031e-39
2961.21 -611.92004 679.85999 9.2197031e-39
2959.1499 -576.03003 670.25098 9.2197031e-39
2954.9399 -643.93005 688.14502 9.2197031e-39
2363.77 -743.16003 693.90302 9.2197031e-39
2954.47 -679.17004 697.48999 9.2197031e-39
2946.6399 -710.80005 705.62201 9.2197031e-39
1987.05 -863.53003 712.75098 9.2197031e-39
2941.0901 -743.85999 714.21002 9.2197031e-39
2930.8799 -774.56006 722.01001 9.2197031e-39
1729.83 -973.57996 733.02301 9.2197031e-39
2605.21 -867.20996 735.27399 9.2197031e-39
2052.01 -1096.36 776.87 9.2197031e-39
2077.77 -1082.1899 774.005 9.2197031e-39
2023.1801 -1145.26 788.85699 9.2197031e-39
2044.22 -1126.8101 784.68799 9.2197031e-39
2148.5601 -1107.03 783.07098 9.2197031e-39
2008.37 -1169.59 794.80499 9.2197031e-39
2738.73 -1574.5 927.83398 9.2197031e-39
2819.3101 -1596.6001 936.51398 9.2197031e-39
2775.3401 -1950.6899 1029.05 9.2197031e-39
