# .PCD v0.7 - Point Cloud Data file format
VERSION 0.7
FIELDS x y z rgb
SIZE 4 4 4 4
TYPE F F F F
COUNT 1 1 1 1
WIDTH 311
HEIGHT 1
VIEWPOINT 0 0 0 1 0 0 0
POINTS 311
DATA ascii
-1187.39 883.01599 138.097 9.2197031e-39
-1133.02 898.33502 135.922 9.2197031e-39
-1173.65 900.23901 134 9.2197031e-39
-152.00301 1014.3554 139.29201 9.2197031e-39
-143.30499 1017.339 138.80249 9.2197031e-39
3152.28 1467.777 134 9.2197031e-39
-1182.03 868.40503 142.166 9.2197031e-39
-1163 863.987 144.00301 9.2197031e-39
-1106.58 866.71997 145.243 9.2197031e-39
-1172.39 877.63098 140.05 9.2197031e-39
-1022.78 875.66602 145.787 9.2197031e-39
-942.13501 885.422 146.006 9.2197031e-39
-892.052 890.17603 146.489 9.2197031e-39
-855.77502 892.78198 147.061 9.2197031e-39
-840.06097 891.34198 147.991 9.2197031e-39
-805.87701 894.51801 148.339 9.2197031e-39
-786.35303 894.69598 148.972 9.2197031e-39
-762.026 896.42297 149.36099 9.2197031e-39
-721.33301 902.86798 149.067 9.2197031e-39
-700.07599 904.74701 149.30901 9.2197031e-39
-645.21301 916.43298 148.116 9.2197031e-39
-567.55603 935.71301 145.701 9.2197031e-39
-486.02701 931.24097 149.731 9.2197031e-39
-523.76898 946.26801 144.423 9.2197031e-39
-441.06848 946.90295 147.13699 9.2197031e-39
-504.05499 950.19299 144.067 9.2197031e-39
-492.99701 951.72302 144.04601 9.2197031e-39
-437.87399 950.62701 146.259 9.2197031e-39
-428.16299 953.53052 145.82599 9.2197031e-39
-458.24799 961.19501 142.741 9.2197031e-39
-434.82901 966.82849 142.061 9.2197031e-39
-427.41446 963.42413 143.22359 9.2197031e-39
-168.401 979.42297 148.00101 9.2197031e-39
-156.914 977.8075 148.83051 9.2197031e-39
-133.313 978.88501 149.367 9.2197031e-39
-156.20934 980.70734 148.08501 9.2197031e-39
-143.117 985.22205 147.34149 9.2197031e-39
-134.59399 985.43848 147.58099 9.2197031e-39
-128.222 982.96899 148.459 9.2197031e-39
-151.938 996.68896 143.98801 9.2197031e-39
-142.756 996.14319 144.45261 9.2197031e-39
-154.119 1002.84 142.278 9.2197031e-39
-145.32201 1000.741 143.142 9.2197031e-39
-134.51476 1006.2167 142.06375 9.2197031e-39
-129.43399 1003.851 142.86951 9.2197031e-39
-144.4465 1011.166 140.403 9.2197031e-39
2666.5701 1353.4561 147.44299 9.2197031e-39
2695.4099 1382.265 140.79401 9.2197031e-39
-542.33099 896.51196 156.995 9.2197031e-39
-149.767 972.49597 150.491 9.2197031e-39
2646.3999 1326.1021 154.007 9.2197031e-39
-604.44702 860.44702 164.411 9.2197031e-39
2643.1201 1275.832 167.248 9.2197031e-39
2641.8899 1300.655 160.61099 9.2197031e-39
-699.03802 809.23596 174.72 9.2197031e-39
2612.99 1223.897 179.996 9.2197031e-39
2630.1699 1249.89 173.689 9.2197031e-39
2644.47 1201.293 187.09801 9.2197031e-39
2624.8301 1175.3879 193.29601 9.2197031e-39
2660.77 1127.469 207.27901 9.2197031e-39
2647.8999 1151.808 200.36501 9.2197031e-39
-1035.22 623.04199 212.46899 9.2197031e-39
2671.4299 1102.8621 214.188 9.2197031e-39
-1117.37 552.33398 228.39101 9.2197031e-39
-1116.23 562.172 225.817 9.2197031e-39
-1105.33 577.14941 222.218 9.2197031e-39
-1126.17 537.99701 231.89301 9.2197031e-39
-1492.1899 314.98901 278.38199 9.2197031e-39
-1398.78 343.89301 273.95901 9.2197031e-39
-1548.3101 267.815 288.95901 9.2197031e-39
-1265.95 303.83099 289.23199 9.2197031e-39
-1213.91 279.07199 297.62399 9.2197031e-39
-1257.17 297.45401 291.233 9.2197031e-39
-1215.78 290.50601 294.521 9.2197031e-39
-1230.17 304.92899 290.18799 9.2197031e-39
-1214.37 304.336 290.896 9.2197031e-39
-1577.52 205.14401 304.591 9.2197031e-39
-1588.92 213.36301 302.01001 9.2197031e-39
-1243.4301 242.021 306.439 9.2197031e-39
-1576.91 158.70499 316.95001 9.2197031e-39
-1596.97 161.37299 315.54199 9.2197031e-39
-1255.97 203.87399 316.13599 9.2197031e-39
-1255.5601 218.29901 312.31799 9.2197031e-39
-1673.09 128.354 321.66101 9.2197031e-39
-1259.04 157.59399 328.32401 9.2197031e-39
-1271.15 161.83801 326.77499 9.2197031e-39
-1260.71 185.52301 320.84601 9.2197031e-39
-1684.23 69.880005 336.80701 9.2197031e-39
-1268.3101 118.789 338.311 9.2197031e-39
-1265.28 136.93799 333.59399 9.2197031e-39
-716.17999 196.21899 336.98401 9.2197031e-39
-706.14301 197.94199 336.87601 9.2197031e-39
-694.43701 194.16751 338.28699 9.2197031e-39
-674.62097 198.19099 337.90851 9.2197031e-39
-662.95898 194.814 339.21201 9.2197031e-39
-626.53198 199.203 339.31601 9.2197031e-39
-651.612 200.67599 338.04999 9.2197031e-39
-642.33301 202.19299 337.97101 9.2197031e-39
-633.86499 202.008 338.315 9.2197031e-39
-608.599 201.93799 339.21399 9.2197031e-39
-591.20001 204.11499 339.242 9.2197031e-39
-1681.76 36.359985 345.79901 9.2197031e-39
-1683.1 53.14502 341.293 9.2197031e-39
-1266.45 88.952026 346.30301 9.2197031e-39
-1263.87 107.26703 341.52701 9.2197031e-39
-555.29401 189.73199 344.315 9.2197031e-39
-452.63 189.686 347.90601 9.2197031e-39
-406.80899 189.69601 349.5 9.2197031e-39
-399.35501 188.80801 349.996 9.2197031e-39
-618.81097 197.36301 340.07401 9.2197031e-39
-602.65002 195.70801 341.077 9.2197031e-39
-586.52399 194.34799 342 9.2197031e-39
-578.47699 193.77899 342.43201 9.2197031e-39
-565.19049 196.75749 342.104 9.2197031e-39
-544.38501 198.72501 342.306 9.2197031e-39
-538.41901 192.02399 344.29401 9.2197031e-39
-524.59399 198.392 343.0845 9.2197031e-39
-513.534 195.58301 344.216 9.2197031e-39
-506.13901 193.79401 344.94901 9.2197031e-39
-497.53601 196.76999 344.45801 9.2197031e-39
-485.99902 196.207 345.01001 9.2197031e-39
-475.33401 191.995 346.50101 9.2197031e-39
-467.90399 190.52802 347.14999 9.2197031e-39
-459.09201 195.771 346.064 9.2197031e-39
-443.396 197.936 346.03601 9.2197031e-39
-436.358 194.83099 347.10599 9.2197031e-39
-425.48099 191.72151 348.311 9.2197031e-39
-383.87799 192.03 349.67899 9.2197031e-39
-1266.61 56.150024 355.01099 9.2197031e-39
-1278 61.606995 353.16501 9.2197031e-39
-414.97198 185.85901 350.23499 9.2197031e-39
-392.13 186.06201 350.97699 9.2197031e-39
-369.09698 189.73999 350.80301 9.2197031e-39
-354.18301 188.66299 351.60901 9.2197031e-39
-346.71799 188.22 351.987 9.2197031e-39
-324.22101 189.19901 352.51099 9.2197031e-39
-316.76001 189.008 352.82101 9.2197031e-39
-305.59351 187.39799 353.638 9.2197031e-39
-286.89301 186.94199 354.41101 9.2197031e-39
-376.44501 191.33499 350.12299 9.2197031e-39
-361.55899 190.134 350.961 9.2197031e-39
-335.27698 192.0255 351.37451 9.2197031e-39
-294.33301 195.57901 351.85699 9.2197031e-39
-275.82199 195.8555 352.4295 9.2197031e-39
-264.65799 194.26501 353.241 9.2197031e-39
-246.25049 197.57899 353.00201 9.2197031e-39
-235.004 195.88501 353.84399 9.2197031e-39
-223.9735 197.7205 353.74051 9.2197031e-39
-212.98801 199.67899 353.603 9.2197031e-39
-205.418 198.504 354.17899 9.2197031e-39
-186.2495 194.905 355.80353 9.2197031e-39
-174.995 195.42401 356.05801 9.2197031e-39
-164.10199 198.48851 355.6235 9.2197031e-39
-125.67999 196.85451 357.397 9.2197031e-39
-112.955 191.54001 359.25201 9.2197031e-39
-105.507 193.13101 359.08899 9.2197031e-39
-94.696747 197.05499 358.42352 9.2197031e-39
-83.4851 199.21899 358.23901 9.2197031e-39
-51.626701 198.59799 359.51501 9.2197031e-39
-43.9603 199.78101 359.46799 9.2197031e-39
-35.720798 199.18399 359.91299 9.2197031e-39
-257.47299 200.36801 351.87 9.2197031e-39
-198.36099 202.194 353.44501 9.2197031e-39
-153.431 202.62399 354.897 9.2197031e-39
-145.578 201.01999 355.59698 9.2197031e-39
-138.217 202.33499 355.504 9.2197031e-39
-76.841499 203.86301 357.237 9.2197031e-39
-1268.65 20.258972 364.47501 9.2197031e-39
-1274.03 31.96698 361.177 9.2197031e-39
-66.454903 194.56799 360.069 9.2197031e-39
-58.7696 195.621 360.05701 9.2197031e-39
-26.266899 194.983 361.35901 9.2197031e-39
-18.846201 197.306 361.00101 9.2197031e-39
-1.17995 193.92599 362.51401 9.2197031e-39
5.5932899 198.28 361.59399 9.2197031e-39
15.6838 193.617 363.18399 9.2197031e-39
24.155001 193.582 363.48901 9.2197031e-39
30.883101 198.133 362.51401 9.2197031e-39
47.866798 198.43701 363.026 9.2197031e-39
58.283298 194.25299 364.5 9.2197031e-39
65.713997 197.29001 363.952 9.2197031e-39
73.9058 198.62 363.88501 9.2197031e-39
-11.7586 200.60699 360.371 9.2197031e-39
37.916 201.83499 361.776 9.2197031e-39
78.885399 207.07501 361.81201 9.2197031e-39
89.891602 202.384 363.44199 9.2197031e-39
97.250298 205.686 362.82101 9.2197031e-39
108.412 201.215 364.39801 9.2197031e-39
114.047 208.14099 362.754 9.2197031e-39
123.121 208.194 363.056 9.2197031e-39
134.024 204.901 364.311 9.2197031e-39
154.246 202.09399 365.76199 9.2197031e-39
163.97301 201.702 366.20499 9.2197031e-39
171.821 204.78601 365.659 9.2197031e-39
180.13699 207.10101 365.33401 9.2197031e-39
190.42999 206.155 365.944 9.2197031e-39
209.134 207.90601 366.13101 9.2197031e-39
248.96001 209.336 367.13901 9.2197031e-39
280.297 209.948 368.069 9.2197031e-39
139.533 211.99799 362.61801 9.2197031e-39
197.255 211.13599 364.85901 9.2197031e-39
214.37601 215.50201 364.29501 9.2197031e-39
226.87601 211.67801 365.74701 9.2197031e-39
233.623 216.948 364.582 9.2197031e-39
256.81 213.17599 366.392 9.2197031e-39
267.40701 213.09201 366.784 9.2197031e-39
287.026 215.646 366.789 9.2197031e-39
303.09 216.082 367.23352 9.2197031e-39
320.444 215.23001 368.065 9.2197031e-39
333.672 212.78101 369.17599 9.2197031e-39
345.78299 212.02499 369.79901 9.2197031e-39
351.23001 219.763 367.93301 9.2197031e-39
365.245 216.97601 369.16199 9.2197031e-39
378.10901 215.86301 369.90601 9.2197031e-39
388.51801 217.88 369.733 9.2197031e-39
-1279.1899 -25.987976 376.39499 9.2197031e-39
-1283.6801 -12.71698 372.71201 9.2197031e-39
-808.26801 40.133972 375.242 9.2197031e-39
402.77399 215.58499 370.84 9.2197031e-39
415.189 215.66699 371.25101 9.2197031e-39
454.73999 214.66501 372.89499 9.2197031e-39
463.34601 219.62601 371.87799 9.2197031e-39
477.345 219.03601 372.522 9.2197031e-39
492.09698 217.92499 373.332 9.2197031e-39
510.384 213.54001 375.134 9.2197031e-39
423.09299 220.98599 370.11301 9.2197031e-39
435.56601 221.32901 370.457 9.2197031e-39
-1291.01 -75.778015 389.20999 9.2197031e-39
-1284.62 -50.072998 382.604 9.2197031e-39
-859.34003 -11.846985 387.272 9.2197031e-39
-838.44098 4.9470215 383.53799 9.2197031e-39
-1295.71 -100.20203 395.535 9.2197031e-39
-1309.8101 -156.203 409.922 9.2197031e-39
-1293.51 -117.40802 400.18301 9.2197031e-39
-1297.51 -183.60101 417.63 9.2197031e-39
-1296.71 -161.67902 411.83301 9.2197031e-39
-1300.01 -230.03101 429.87799 9.2197031e-39
-1291.11 -197.27502 421.48599 9.2197031e-39
-1309.01 -263.79102 438.53299 9.2197031e-39
-1305.66 -306.30798 449.94501 9.2197031e-39
-1307.79 -285.40302 444.31699 9.2197031e-39
-1315.65 -343.73999 459.54199 9.2197031e-39
-1312.1801 -364.06995 465.065 9.2197031e-39
-1319.39 -399.53003 474.23499 9.2197031e-39
-1321.48 -428.81995 481.94299 9.2197031e-39
-1329.3101 -467.08997 491.836 9.2197031e-39
-1245.5 -512.80005 506.90201 9.2197031e-39
-1298.24 -506.43005 503.371 9.2197031e-39
-1280.8101 -509.01001 504.664 9.2197031e-39
-1257.08 -501.5 503.49399 9.2197031e-39
-1201.79 -501.59998 505.45099 9.2197031e-39
-1186.64 -506.58997 507.30399 9.2197031e-39
-1168.04 -505.51001 507.664 9.2197031e-39
-1215.89 -494.81006 503.15302 9.2197031e-39
-1141.84 -490.60999 504.61801 9.2197031e-39
-1376.03 -593.06995 523.67902 9.2197031e-39
3021.0901 -75.185974 539.35101 9.2197031e-39
3020.27 -106.36401 547.60498 9.2197031e-39
3020.0601 -137.94299 555.98798 9.2197031e-39
-1523.22 -777.12 567.44397 9.2197031e-39
3009.26 -165.92603 563.04602 9.2197031e-39
3001.76 -227.229 579.07001 9.2197031e-39
3004.73 -196.21802 570.935 9.2197031e-39
2998.48 -258.28601 587.20697 9.2197031e-39
2995.8201 -289.75403 595.474 9.2197031e-39
1823.13 -493.18994 608.64801 9.2197031e-39
1851.33 -485.34998 607.547 9.2197031e-39
1924.95 -480.15002 608.73297 9.2197031e-39
1874.7 -473.80005 605.29303 9.2197031e-39
2991.9099 -320.90503 603.61401 9.2197031e-39
1781.02 -518.32996 613.85901 9.2197031e-39
1798.92 -503.56006 610.56097 9.2197031e-39
2983.1699 -383.31995 619.89099 9.2197031e-39
2985.8701 -351.33002 611.487 9.2197031e-39
1783.85 -577.23999 629.60797 9.2197031e-39
1778.7 -544.75 620.79797 9.2197031e-39
2978.3301 -414.56995 628.026 9.2197031e-39
2974.98 -446.67004 636.43597 9.2197031e-39
1797.85 -617.19995 640.71198 9.2197031e-39
2342.77 -569.31995 646.98401 9.2197031e-39
2365.6799 -551.93005 643.16302 9.2197031e-39
2968.6001 -477.57996 644.427 9.2197031e-39
1815.13 -660.57996 652.83899 9.2197031e-39
2328.1599 -591.59998 652.39502 9.2197031e-39
2468.77 -580.75 654.41302 9.2197031e-39
2497.03 -565.06995 651.23401 9.2197031e-39
2972.6599 -513.55005 654.12402 9.2197031e-39
1823.39 -697.57996 662.95697 9.2197031e-39
2345.0901 -633.64001 664.15399 9.2197031e-39
2971.8601 -547.56006 663.13202 9.2197031e-39
2280.8501 -688.19995 676.41101 9.2197031e-39
2347.3501 -667.07996 673.117 9.2197031e-39
2959.4399 -611.04004 679.56299 9.2197031e-39
2959.1499 -576.03003 670.25098 9.2197031e-39
2954.9399 -643.93005 688.14502 9.2197031e-39
2954.47 -679.17004 697.48999 9.2197031e-39
2949.26 -712.19995 706.08398 9.2197031e-39
2939.3601 -742.91003 713.89899 9.2197031e-39
2022.62 -892.89001 721.79102 9.2197031e-39
2933.47 -776 722.48297 9.2197031e-39
1738.89 -982.51001 735.71002 9.2197031e-39
1768.26 -976.04004 735.01501 9.2197031e-39
2596.95 -861.83997 733.55902 9.2197031e-39
2048.3701 -1093.0699 775.87201 9.2197031e-39
2083.6399 -1087.39 775.59198 9.2197031e-39
2019.6 -1141.91 787.84399 9.2197031e-39
2037 -1120.1801 782.677 9.2197031e-39
2150.04 -1108.3199 783.46503 9.2197031e-39
2021.85 -1182.41 798.67999 9.2197031e-39
2737.98 -1573.8601 927.63898 9.2197031e-39
2819.3101 -1596.6001 936.51398 9.2197031e-39
