# .PCD v0.7 - Point Cloud Data file format
VERSION 0.7
FIELDS x y z rgb
SIZE 4 4 4 4
TYPE F F F F
COUNT 1 1 1 1
WIDTH 316
HEIGHT 1
VIEWPOINT 0 0 0 1 0 0 0
POINTS 316
DATA ascii
-1177.5 884.48401 138.052 9.2197031e-39
-1183.5601 898.93896 134 9.2197031e-39
-1131.04 898.61096 135.918 9.2197031e-39
-166.8205 1015.0615 138.588 9.2197031e-39
-154.81949 1014.9825 139.0275 9.2197031e-39
-139.30701 1018.012 138.763 9.2197031e-39
3143.3601 1466.606 134 9.2197031e-39
-1182.03 868.40503 142.166 9.2197031e-39
-1163 863.987 144.00301 9.2197031e-39
-1115.4301 865.09998 145.36501 9.2197031e-39
-1182.27 876.08002 140.118 9.2197031e-39
-1029.65 874.34698 145.89799 9.2197031e-39
-926.45001 888.56702 145.717 9.2197031e-39
-890.09497 890.586 146.448 9.2197031e-39
-847.961 894.48596 146.88 9.2197031e-39
-831.28699 893.33398 147.76801 9.2197031e-39
-814.63397 892.453 148.582 9.2197031e-39
-785.38202 894.93402 148.94299 9.2197031e-39
-753.30603 898.63599 149.077 9.2197031e-39
-727.13202 901.34399 149.27 9.2197031e-39
-692.36102 906.84399 149.021 9.2197031e-39
-645.21301 916.43298 148.116 9.2197031e-39
-564.677 936.54797 145.58 9.2197031e-39
-476.87701 935.20801 148.996 9.2197031e-39
-523.76898 946.26801 144.423 9.2197031e-39
-505.01001 949.89899 144.112 9.2197031e-39
-444.84366 945.94366 147.25966 9.2197031e-39
-438.155 944.40002 147.903 9.2197031e-39
-493.94901 951.42102 144.09399 9.2197031e-39
-432.44351 958.02051 144.48399 9.2197031e-39
-428.90701 957.39801 144.772 9.2197031e-39
-457.29901 961.505 142.692 9.2197031e-39
-438.69467 964.79803 142.46533 9.2197031e-39
-426.69101 964.35596 143.00125 9.2197031e-39
-158.76834 976.93335 148.99834 9.2197031e-39
-131.02901 979.77002 149.211 9.2197031e-39
-170.92799 981.29199 147.416 9.2197031e-39
-165.502 982.00299 147.41701 9.2197031e-39
-155.405 981.09351 148.0105 9.2197031e-39
-144.297 980.17896 148.64 9.2197031e-39
-136.29266 985.10175 147.61168 9.2197031e-39
-126.00175 982.64551 148.6225 9.2197031e-39
-152.577 999.151 143.311 9.2197031e-39
-140.293 993.75403 145.173 9.2197031e-39
-135.12926 992.98682 145.55701 9.2197031e-39
-152.418 1000.315 143.008 9.2197031e-39
-144.18834 1001.8637 142.883 9.2197031e-39
-135.39 1006.7376 141.89465 9.2197031e-39
-127.3235 1005.078 142.6165 9.2197031e-39
-148.41299 1011.913 140.06599 9.2197031e-39
-135.49001 1010.22 140.966 9.2197031e-39
2667.5601 1353.569 147.448 9.2197031e-39
2696.3999 1382.387 140.797 9.2197031e-39
-542.33099 896.51196 156.995 9.2197031e-39
2645.4099 1325.9971 154 9.2197031e-39
-601.76898 861.77399 164.15199 9.2197031e-39
2641.1299 1275.656 167.22501 9.2197031e-39
2640.8899 1300.558 160.60201 9.2197031e-39
-669.70898 824.07898 171.799 9.2197031e-39
2632.1599 1250.05 173.716 9.2197031e-39
-793.62 755.96997 185.57401 9.2197031e-39
2642.47 1201.167 187.062 9.2197031e-39
2613.99 1223.969 180.01199 9.2197031e-39
2629.8201 1175.661 193.397 9.2197031e-39
2660.77 1127.469 207.27901 9.2197031e-39
2647.8999 1151.808 200.36501 9.2197031e-39
-1091.58 593.30402 218.405 9.2197031e-39
2659.4399 1102.51 213.864 9.2197031e-39
-1119.98 550.87299 228.688 9.2197031e-39
-1102.05 574.44336 223.05099 9.2197031e-39
-1115.8101 543.92499 230.679 9.2197031e-39
-1473.29 326.01501 276.112 9.2197031e-39
-1398.78 343.89301 273.95901 9.2197031e-39
-1542.3199 271.37399 288.22198 9.2197031e-39
-1261.9399 306.755 288.595 9.2197031e-39
-1214.6899 278.45499 297.76099 9.2197031e-39
-1223.5699 284.39301 295.87299 9.2197031e-39
-1254.78 299.228 290.84399 9.2197031e-39
-1239.66 297.75101 291.76401 9.2197031e-39
-1214.37 304.336 290.896 9.2197031e-39
-1572.48 208.323 303.922 9.2197031e-39
-1588.0699 213.88501 301.901 9.2197031e-39
-1251.88 235.15399 307.96799 9.2197031e-39
-1583.53 154.29901 317.89001 9.2197031e-39
-1591.15 165.17999 314.733 9.2197031e-39
-1255.4399 190.02701 319.83301 9.2197031e-39
-1255.97 203.87399 316.13599 9.2197031e-39
-1255.5601 218.29901 312.31799 9.2197031e-39
-1680.62 123.52301 322.68201 9.2197031e-39
-1259.04 157.59399 328.32401 9.2197031e-39
-1248.03 181.97699 322.23001 9.2197031e-39
-1684.23 69.880005 336.80701 9.2197031e-39
-1271.23 116.11603 338.91901 9.2197031e-39
-1277.03 126.34497 335.99899 9.2197031e-39
-716.17999 196.21899 336.98401 9.2197031e-39
-705.70099 198.81299 336.66 9.2197031e-39
-698.34198 195.401 337.823 9.2197031e-39
-674.82654 197.74899 338.01898 9.2197031e-39
-685.40399 203.461 336.133 9.2197031e-39
-655.27051 202.18449 337.52197 9.2197031e-39
-642.33301 202.19299 337.97101 9.2197031e-39
-633.487 202.90601 338.09 9.2197031e-39
-625.79102 201.004 338.86301 9.2197031e-39
-609.30798 200.125 339.67099 9.2197031e-39
-591.539 203.203 339.47299 9.2197031e-39
-1693.12 28.362 347.52802 9.2197031e-39
-1675.75 58.226013 340.19901 9.2197031e-39
-1272.1801 83.51001 347.54901 9.2197031e-39
-1263.87 107.26703 341.52701 9.2197031e-39
-523.547 188.08899 345.858 9.2197031e-39
-484.07501 187.85699 347.29501 9.2197031e-39
-464.38202 188.87749 347.71051 9.2197031e-39
-445.17899 188.41101 348.504 9.2197031e-39
-406.80899 189.69601 349.5 9.2197031e-39
-399.229 189.76801 349.745 9.2197031e-39
-619.17401 196.45901 340.30099 9.2197031e-39
-602.65002 195.70801 341.077 9.2197031e-39
-585.534 197.09399 341.30499 9.2197031e-39
-578.47699 193.77899 342.43201 9.2197031e-39
-565.03796 197.21899 341.98651 9.2197031e-39
-554.40302 192.508 343.60901 9.2197031e-39
-544.96198 196.86899 342.77899 9.2197031e-39
-534.01801 193.353 344.095 9.2197031e-39
-513.789 194.646 344.45599 9.2197031e-39
-494.17902 194.52751 345.17102 9.2197031e-39
-474.90799 193.88699 346.013 9.2197031e-39
-450.76099 199.19601 345.444 9.2197031e-39
-436.358 194.83099 347.10599 9.2197031e-39
-425.32401 192.67801 348.06299 9.2197031e-39
-413.534 195.436 347.741 9.2197031e-39
-391.186 193.74799 348.96799 9.2197031e-39
-383.54999 194.91501 348.92401 9.2197031e-39
-376.34399 192.297 349.871 9.2197031e-39
-353.51199 197.34299 349.32599 9.2197031e-39
-503.92001 202.242 342.78201 9.2197031e-39
-1264.5 58.226013 354.53299 9.2197031e-39
-1269.48 69.841003 351.27399 9.2197031e-39
-346.65201 189.185 351.733 9.2197031e-39
-316.76001 189.008 352.82101 9.2197031e-39
-309.319 187.914 353.371 9.2197031e-39
-279.41 187.06601 354.63901 9.2197031e-39
-365.24051 190.9005 350.629 9.2197031e-39
-335.30151 191.543 351.5015 9.2197031e-39
-324.142 191.13101 352 9.2197031e-39
-301.80499 190.74799 352.88 9.2197031e-39
-294.33301 195.57901 351.85699 9.2197031e-39
-286.92801 195.64001 352.099 9.2197031e-39
-272.12 195.948 352.534 9.2197031e-39
-264.65799 194.26501 353.241 9.2197031e-39
-257.39499 198.43701 352.38501 9.2197031e-39
-246.17499 196.13251 353.38898 9.2197031e-39
-235.004 195.88501 353.84399 9.2197031e-39
-224.056 198.683 353.48199 9.2197031e-39
-212.98801 199.67899 353.603 9.2197031e-39
-205.418 198.504 354.17899 9.2197031e-39
-186.438 196.34149 355.41501 9.2197031e-39
-175.129 196.38 355.79901 9.2197031e-39
-164.17749 198.9655 355.49402 9.2197031e-39
-136.26601 191.89001 358.34698 9.2197031e-39
-125.9635 198.2755 357.00949 9.2197031e-39
-94.696747 197.05499 358.42352 9.2197031e-39
-83.4851 199.21899 358.23901 9.2197031e-39
-67.216904 197.36499 359.29901 9.2197031e-39
-51.3559 197.67001 359.771 9.2197031e-39
-43.9603 199.78101 359.46799 9.2197031e-39
-35.720798 199.18399 359.91299 9.2197031e-39
-198.36099 202.194 353.44501 9.2197031e-39
-153.431 202.62399 354.897 9.2197031e-39
-145.578 201.01999 355.59698 9.2197031e-39
-114.985 200.98499 356.672 9.2197031e-39
-107.411 201.616 356.76901 9.2197031e-39
-77.086998 204.798 356.98001 9.2197031e-39
-61.3937 204.92401 357.49399 9.2197031e-39
-29.8179 206.03 358.29999 9.2197031e-39
-1270.72 18.14801 364.96399 9.2197031e-39
-1274.73 31.268982 361.33801 9.2197031e-39
-18.541901 196.388 361.255 9.2197031e-39
-2.46314 197.57599 361.5 9.2197031e-39
15.3465 194.52301 362.93201 9.2197031e-39
23.118601 196.29401 362.73199 9.2197031e-39
30.883101 198.133 362.51401 9.2197031e-39
47.496899 199.33099 362.77499 9.2197031e-39
65.713997 197.29001 363.952 9.2197031e-39
73.9058 198.62 363.88501 9.2197031e-39
-11.7586 200.60699 360.371 9.2197031e-39
4.9352002 200.10001 361.08701 9.2197031e-39
36.8307 204.52899 361.022 9.2197031e-39
54.881401 202.276 362.25 9.2197031e-39
78.483299 207.957 361.56299 9.2197031e-39
89.481598 203.26199 363.194 9.2197031e-39
97.250298 205.686 362.82101 9.2197031e-39
107.987 202.08499 364.15201 9.2197031e-39
114.047 208.14099 362.754 9.2197031e-39
123.121 208.194 363.056 9.2197031e-39
133.125 206.62 363.823 9.2197031e-39
154.246 202.09399 365.76199 9.2197031e-39
185.03549 207.0455 365.5195 9.2197031e-39
202.286 202.828 367.241 9.2197031e-39
218.002 209.74799 365.95001 9.2197031e-39
238.952 208.81799 366.92801 9.2197031e-39
139.076 212.853 362.37399 9.2197031e-39
159.24699 210.177 363.789 9.2197031e-39
168.459 210.69 363.97299 9.2197031e-39
204.02901 216.17001 363.75699 9.2197031e-39
224.774 214.948 364.80499 9.2197031e-39
242.47701 219.03699 364.336 9.2197031e-39
256.263 213.98001 366.16 9.2197031e-39
267.40701 213.09201 366.784 9.2197031e-39
274.67599 217.89099 365.76199 9.2197031e-39
287.595 214.85699 367.01901 9.2197031e-39
300.03699 212.76501 368.008 9.2197031e-39
310.81201 213.16199 368.27802 9.2197031e-39
320.444 215.23001 368.065 9.2197031e-39
332.47699 214.32001 368.72601 9.2197031e-39
345.78299 212.02499 369.79901 9.2197031e-39
351.23001 219.763 367.93301 9.2197031e-39
364.62601 217.73001 368.94 9.2197031e-39
376.23401 218.10901 369.24399 9.2197031e-39
388.51801 217.88 369.733 9.2197031e-39
395.74899 223.70099 368.439 9.2197031e-39
-1290.05 -37.432007 379.05701 9.2197031e-39
-1277.52 -6.3309937 371.23099 9.2197031e-39
-808.26801 40.133972 375.242 9.2197031e-39
415.189 215.66699 371.25101 9.2197031e-39
464.01801 218.91599 372.09 9.2197031e-39
491.41299 218.62299 373.12201 9.2197031e-39
509.00299 214.92499 374.71799 9.2197031e-39
423.745 220.26001 370.32901 9.2197031e-39
436.22501 220.608 370.67099 9.2197031e-39
448.08899 221.82101 370.76199 9.2197031e-39
475.98801 220.44501 372.10101 9.2197031e-39
-1286.35 -70.692017 388.022 9.2197031e-39
-1280.58 -45.747986 381.59601 9.2197031e-39
-858.39301 -10.137024 386.85001 9.2197031e-39
-843.099 -3.6439819 385.65799 9.2197031e-39
-1295.71 -100.20203 395.535 9.2197031e-39
-1306.58 -152.48901 409.048 9.2197031e-39
-1295.46 -119.62 400.703 9.2197031e-39
-1297.51 -183.60101 417.63 9.2197031e-39
-1295.4301 -160.18201 411.48001 9.2197031e-39
-1296.91 -226.21002 428.97 9.2197031e-39
-1297.37 -204.86298 423.28299 9.2197031e-39
-1298.6 -250.71503 435.422 9.2197031e-39
-1305.0601 -305.52899 449.759 9.2197031e-39
-1308.39 -286.177 444.50201 9.2197031e-39
-1313.9301 -366.43994 465.633 9.2197031e-39
-1319.79 -349.22998 460.85699 9.2197031e-39
-1324.59 -406.68005 475.952 9.2197031e-39
-1330.03 -440.81006 484.828 9.2197031e-39
-1327.62 -464.68005 491.254 9.2197031e-39
-1227.14 -513.17004 507.64001 9.2197031e-39
-1207.83 -511.67004 507.91501 9.2197031e-39
-1257.08 -501.5 503.49399 9.2197031e-39
-1242.39 -507.81995 505.686 9.2197031e-39
-1188.13 -509.12 507.92401 9.2197031e-39
-1150.5 -505.93005 508.38699 9.2197031e-39
-1292.83 -498.26001 501.388 9.2197031e-39
-1272.27 -495.85999 501.46799 9.2197031e-39
-1175.38 -518.21997 510.785 9.2197031e-39
-1374.9301 -591.44995 523.28497 9.2197031e-39
3021.0901 -75.185974 539.35101 9.2197031e-39
3029.1799 -46.507996 532.01398 9.2197031e-39
3019.3201 -106.04602 547.48798 9.2197031e-39
3009.75 -134.34802 554.67297 9.2197031e-39
2997.28 -193.47699 569.94702 9.2197031e-39
3008.3301 -165.591 562.92401 9.2197031e-39
-1532.11 -790.05005 570.57001 9.2197031e-39
3002.6899 -227.57898 579.19598 9.2197031e-39
2998.48 -258.28601 587.20697 9.2197031e-39
2995.8201 -289.75403 595.474 9.2197031e-39
2990.99 -320.53101 603.48297 9.2197031e-39
1824.37 -522.07996 616.36603 9.2197031e-39
1852.75 -514.33997 615.29999 9.2197031e-39
1970.64 -511.01001 618.52502 9.2197031e-39
1878.73 -504.55005 613.60498 9.2197031e-39
1913.62 -500.57996 613.76501 9.2197031e-39
2983.1699 -383.31995 619.89099 9.2197031e-39
2988.6101 -352.46997 611.88702 9.2197031e-39
1795.17 -557.18005 624.67401 9.2197031e-39
1809.45 -539.40002 620.448 9.2197031e-39
2978.3301 -414.56995 628.026 9.2197031e-39
1798.65 -588.60999 633.14502 9.2197031e-39
2974.0701 -446.26001 636.297 9.2197031e-39
1817.97 -632.93005 645.59302 9.2197031e-39
2334.3201 -564.22998 645.33801 9.2197031e-39
2365.6799 -551.93005 643.16302 9.2197031e-39
2976.7 -481.30005 645.69598 9.2197031e-39
1818.2 -663.02002 653.59601 9.2197031e-39
2327.3201 -591.07996 652.229 9.2197031e-39
2467.9099 -580.25 654.25201 9.2197031e-39
2504.76 -569.45996 652.66803 9.2197031e-39
2971.77 -513.13 653.98102 9.2197031e-39
1834.0699 -706.22998 665.62799 9.2197031e-39
2340.9199 -631.02002 663.31403 9.2197031e-39
2965.6201 -544.56995 662.11902 9.2197031e-39
2340.7 -662.83997 671.758 9.2197031e-39
2959.4399 -611.04004 679.56299 9.2197031e-39
2959.1499 -576.03003 670.25098 9.2197031e-39
1875.8 -771.69995 684.47699 9.2197031e-39
2953.1799 -643.03003 687.84399 9.2197031e-39
2956.22 -680.07996 697.79401 9.2197031e-39
2948.3899 -711.72998 705.92999 9.2197031e-39
2941.0901 -743.85999 714.21002 9.2197031e-39
2930.8799 -774.56006 722.01001 9.2197031e-39
1767.55 -975.35999 734.81 9.2197031e-39
2613.46 -872.57996 736.98901 9.2197031e-39
1779.3199 -1022.33 747.698 9.2197031e-39
2114.03 -1004 754.495 9.2197031e-39
2255.77 -1161.42 801.258 9.2197031e-39
2895.71 -1095.79 806.12598 9.2197031e-39
2253.5701 -1198.45 811.01801 9.2197031e-39
2254.5601 -1238.85 821.78802 9.2197031e-39
2800.01 -1770.99 982.17297 9.2197031e-39
2801.9199 -1822.3501 995.88599 9.2197031e-39
2794.55 -1865.9399 1007.21 9.2197031e-39
2778.8301 -1902.21 1016.3 9.2197031e-39
