# .PCD v0.7 - Point Cloud Data file format
VERSION 0.7
FIELDS x y z rgb
SIZE 4 4 4 4
TYPE F F F F
COUNT 1 1 1 1
WIDTH 309
HEIGHT 1
VIEWPOINT 0 0 0 1 0 0 0
POINTS 309
DATA ascii
255.55701 248.01599 134.953 9.2197031e-39
264.45251 248.201 137.3365 9.2197031e-39
270.03299 242.40701 138.832 9.2197031e-39
255.532 251.032 134.9465 9.2197031e-39
273.13101 252.573 139.662 9.2197031e-39
269.77701 809.79401 138.763 9.2197031e-39
272.37866 805.69501 139.46068 9.2197031e-39
269.77499 819.87402 138.763 9.2197031e-39
274.13 823.297 139.92999 9.2197031e-39
252.00101 2860 134 9.2197031e-39
270.48599 2862.9199 138.953 9.2197031e-39
276.41299 256.772 140.541 9.2197031e-39
279.22198 266.98401 141.29401 9.2197031e-39
282.08701 274.224 142.062 9.2197031e-39
286.51599 281.142 143.2485 9.2197031e-39
291.67749 294.74548 144.632 9.2197031e-39
291.67099 335.51199 144.63 9.2197031e-39
293.68152 352.92603 145.16849 9.2197031e-39
295.11801 371.31699 145.55299 9.2197031e-39
290.078 421.103 144.203 9.2197031e-39
287.233 452.03101 143.44099 9.2197031e-39
311.306 469.17599 149.89101 9.2197031e-39
283.534 484.85602 142.44901 9.2197031e-39
304.12399 487.82401 147.967 9.2197031e-39
284.21301 490.064 142.631 9.2197031e-39
282.22601 509.013 142.099 9.2197031e-39
285.03448 518.85803 142.8515 9.2197031e-39
284.38638 525.86505 142.6778 9.2197031e-39
292.00967 520.64099 144.72066 9.2197031e-39
306.07599 792.84497 148.49001 9.2197031e-39
307.20969 802.52466 148.79366 9.2197031e-39
289.75 815.85498 144.11501 9.2197031e-39
309.745 810.83704 149.47301 9.2197031e-39
277.99799 822.64502 140.966 9.2197031e-39
285.16428 824.78516 142.88628 9.2197031e-39
292.24847 825.508 144.7845 9.2197031e-39
308.75598 825.23804 149.20801 9.2197031e-39
310.15399 826.841 149.582 9.2197031e-39
280.69199 830.271 141.688 9.2197031e-39
297.26199 833.414 146.12801 9.2197031e-39
307.45801 832.13403 148.86 9.2197031e-39
310.18301 831.10803 149.59 9.2197031e-39
305.05957 844.12726 148.21719 9.2197031e-39
305.70599 2793.27 148.39101 9.2197031e-39
288.397 2828.6699 143.75301 9.2197031e-39
344.867 382.65799 158.884 9.2197031e-39
329.60699 422.72501 154.795 9.2197031e-39
323.74399 434.43201 153.224 9.2197031e-39
312.297 800.875 150.157 9.2197031e-39
318.948 818.63403 151.939 9.2197031e-39
312.42801 824.83997 150.192 9.2197031e-39
312.065 850.59399 150.09399 9.2197031e-39
323.02899 2775.72 153.032 9.2197031e-39
342.29199 2810.96 158.194 9.2197031e-39
376.13699 307.08301 167.26199 9.2197031e-39
357.978 351.35999 162.397 9.2197031e-39
361.19501 2827.04 163.259 9.2197031e-39
382.26199 2874.8799 168.90401 9.2197031e-39
406.86652 246.86049 175.49649 9.2197031e-39
415.931 244.6095 177.92551 9.2197031e-39
421.297 246.86301 179.36301 9.2197031e-39
394.05801 265.93201 172.064 9.2197031e-39
417.62 3122.01 178.37801 9.2197031e-39
428.63101 239.20401 181.328 9.2197031e-39
434.952 234.397 183.022 9.2197031e-39
444.694 237.27501 185.632 9.2197031e-39
450.35699 239.46701 187.149 9.2197031e-39
460.60101 236.85199 189.895 9.2197031e-39
435.08099 244.28799 183.056 9.2197031e-39
453.978 241.27499 188.12 9.2197031e-39
464.24399 238.75299 190.871 9.2197031e-39
472.59802 235.91699 193.10901 9.2197031e-39
487.92001 238.30399 197.215 9.2197031e-39
492.03299 239.58499 198.317 9.2197031e-39
477.38 240.259 194.39 9.2197031e-39
480.99399 242.311 195.35899 9.2197031e-39
499.57401 234.87701 200.33701 9.2197031e-39
504.80652 238.7045 201.7395 9.2197031e-39
525.54297 238.06351 207.2955 9.2197031e-39
513.06952 241.6465 203.953 9.2197031e-39
530.28699 4330.6797 208.567 9.2197031e-39
561.38501 4331.02 216.89999 9.2197031e-39
596.60901 141.07397 226.338 9.2197031e-39
592.51099 4331.0703 225.24001 9.2197031e-39
623.65997 4330.8301 233.586 9.2197031e-39
740.56598 -65.945007 264.91101 9.2197031e-39
1403.28 -1032.2 442.48401 9.2197031e-39
1426 -1033.9399 448.57199 9.2197031e-39
1480.63 -1080.71 463.20901 9.2197031e-39
1524.55 3096.4099 474.97699 9.2197031e-39
1515.38 3129.8899 472.522 9.2197031e-39
1522.25 3196.21 474.36301 9.2197031e-39
1524.15 3254.8101 474.87201 9.2197031e-39
1528.61 3320.8 476.065 9.2197031e-39
1549.16 3092.7 481.57401 9.2197031e-39
1546.02 3416.71 480.73001 9.2197031e-39
1607.11 3149.6399 497.10101 9.2197031e-39
1684.37 -1334.01 517.80103 9.2197031e-39
1697.72 -1316.21 521.37799 9.2197031e-39
1695 -1276.89 520.65002 9.2197031e-39
1781.3 -480.30005 543.77399 9.2197031e-39
1789.36 -465.27002 545.935 9.2197031e-39
1790.17 -445.03003 546.15198 9.2197031e-39
1796.33 -428.82996 547.80103 9.2197031e-39
1803.9301 -413.71997 549.83801 9.2197031e-39
1828.3101 -410.14001 556.37 9.2197031e-39
1864.15 -705.83997 565.97498 9.2197031e-39
1868.9301 -685.56006 567.25598 9.2197031e-39
1854.63 -557.70996 563.422 9.2197031e-39
1852.75 -406.20996 562.91803 9.2197031e-39
1908.73 -769.19995 577.91998 9.2197031e-39
1880.3 -670.90002 570.30103 9.2197031e-39
1891.54 -656.13 573.31299 9.2197031e-39
1888.86 -630.31006 572.59497 9.2197031e-39
1892.8199 -610.06006 573.65503 9.2197031e-39
1885.38 -407.29004 571.66302 9.2197031e-39
1909.96 -402.56006 578.25 9.2197031e-39
1939.83 -1108.13 586.25201 9.2197031e-39
2013.65 -447.62 606.03302 9.2197031e-39
2072.5 -1316.0699 621.79999 9.2197031e-39
2113.3201 -1325.45 632.73999 9.2197031e-39
2165.1201 -1310.61 646.61902 9.2197031e-39
2194.8301 -1306.5601 654.58002 9.2197031e-39
2235.04 -1312.55 665.354 9.2197031e-39
2276.2 -1318.66 676.383 9.2197031e-39
2318.3201 -1324.84 687.66803 9.2197031e-39
2321.8999 -617.58997 688.62799 9.2197031e-39
2336 -600.88 692.40698 9.2197031e-39
2412.72 -621.5 712.96301 9.2197031e-39
2475.6499 -632.45996 729.82501 9.2197031e-39
2536.5901 -1497.29 746.15503 9.2197031e-39
2615.0701 -1532.78 767.18298 9.2197031e-39
2626.78 -692.80005 770.32098 9.2197031e-39
2773.8999 -1639.8899 809.73999 9.2197031e-39
2794 -1617.6799 815.12701 9.2197031e-39
2794.0901 -1577.74 815.151 9.2197031e-39
2900.48 -818.72998 843.65802 9.2197031e-39
2903.55 -789.58997 844.47998 9.2197031e-39
2908.04 -761.42004 845.68298 9.2197031e-39
2913.1201 -733.73999 847.04401 9.2197031e-39
2917.0701 -705.63 848.10303 9.2197031e-39
2919.01 -676.68005 848.62402 9.2197031e-39
2923.29 -649.08997 849.76898 9.2197031e-39
2922.3899 4145.5601 849.52802 9.2197031e-39
2909.6399 4191.6201 846.112 9.2197031e-39
2926.4299 -621.09998 850.60999 9.2197031e-39
2928.4199 -592.73999 851.14398 9.2197031e-39
2931.02 -564.84998 851.841 9.2197031e-39
2933.3501 -537.01001 852.466 9.2197031e-39
2943.4299 -512.73999 855.16498 9.2197031e-39
2945.26 -484.93994 855.65698 9.2197031e-39
2945.04 -456.43994 855.59802 9.2197031e-39
2954.4299 -432.06995 858.11499 9.2197031e-39
2955.5 -404.39001 858.40198 9.2197031e-39
2956.3201 -376.77002 858.61902 9.2197031e-39
2944.54 4302.7598 855.46301 9.2197031e-39
2964.1299 -351.96002 860.71198 9.2197031e-39
2964.4399 -324.40997 860.797 9.2197031e-39
2972.72 -299.867 863.01501 9.2197031e-39
2972.55 -272.39502 862.96899 9.2197031e-39
2979.47 -247.47101 864.82397 9.2197031e-39
2977.8899 -219.78802 864.40002 9.2197031e-39
2986.21 -195.41998 866.62903 9.2197031e-39
2985.0701 -168.12903 866.32202 9.2197031e-39
2991.1001 -143.13 867.93903 9.2197031e-39
2997.8501 -118.35303 869.74701 9.2197031e-39
2996.9199 -91.445007 869.5 9.2197031e-39
2963.74 4136.8501 860.60797 9.2197031e-39
3002.3 -66.367004 870.94098 9.2197031e-39
3008.3999 -41.492004 872.57599 9.2197031e-39
3006.78 -14.695007 872.14203 9.2197031e-39
3012.45 10.218994 873.65997 9.2197031e-39
3009.4199 37.130981 872.84802 9.2197031e-39
3016.54 61.651001 874.755 9.2197031e-39
3021.5601 86.650024 876.10101 9.2197031e-39
3026.3701 111.69299 877.39001 9.2197031e-39
3030.97 136.77899 878.62299 9.2197031e-39
3035.3601 161.90601 879.79901 9.2197031e-39
3030.96 188.556 878.62097 9.2197031e-39
3034.9199 213.681 879.67999 9.2197031e-39
3016.21 4141.54 874.66699 9.2197031e-39
3013.3899 4677.8896 873.91199 9.2197031e-39
3038.6599 238.84 880.68201 9.2197031e-39
3044.1001 263.754 882.14001 9.2197031e-39
3045.5 289.255 882.51599 9.2197031e-39
3048.6001 314.50699 883.34698 9.2197031e-39
3051.49 339.78601 884.12201 9.2197031e-39
3054.1699 365.091 884.83899 9.2197031e-39
3056.6299 390.418 885.49902 9.2197031e-39
3058.8799 415.767 886.10199 9.2197031e-39
3060.9199 441.13501 886.64801 9.2197031e-39
3062.74 466.52002 887.13599 9.2197031e-39
3057.1599 4130.9902 885.64001 9.2197031e-39
3073.99 491.311 890.15002 9.2197031e-39
3074.4299 516.86499 890.26599 9.2197031e-39
3075.6101 542.37 890.58301 9.2197031e-39
3084.3 567.60498 892.91199 9.2197031e-39
3085.0601 593.1969 893.11499 9.2197031e-39
3085.5901 618.79468 893.25897 9.2197031e-39
3093.6499 644.32648 895.41602 9.2197031e-39
3095.6899 670 895.96301 9.2197031e-39
3103.3 695.76068 898.00403 9.2197031e-39
3102.98 721.51953 897.91699 9.2197031e-39
3102.4399 747.27429 897.77197 9.2197031e-39
3101.6799 773.02301 897.56799 9.2197031e-39
3106.3 4129.8501 898.80701 9.2197031e-39
3119.03 799.59302 902.21899 9.2197031e-39
3117.8301 825.48999 901.89697 9.2197031e-39
3116.4099 851.375 901.51703 9.2197031e-39
3123.45 877.87402 903.40198 9.2197031e-39
3131.22 904.59302 905.48297 9.2197031e-39
3137.79 931.38 907.24402 9.2197031e-39
3136.4399 957.53699 906.88202 9.2197031e-39
3142.55 984.526 908.52002 9.2197031e-39
3139.79 1010.628 907.78003 9.2197031e-39
3146.3899 1037.923 909.54999 9.2197031e-39
3142.8899 3008.28 908.60999 9.2197031e-39
3152.76 1065.364 911.25598 9.2197031e-39
3149.3201 1091.5549 910.33301 9.2197031e-39
3154.25 1119.045 911.65503 9.2197031e-39
3158.9399 1146.656 912.91199 9.2197031e-39
3164.3401 1174.55 914.35901 9.2197031e-39
3168.54 1202.405 915.48297 9.2197031e-39
3173.4399 1230.556 916.79602 9.2197031e-39
3177.1299 1258.646 917.78699 9.2197031e-39
3181.52 1287.0439 918.96301 9.2197031e-39
3184.72 1315.3579 919.81799 9.2197031e-39
3152.47 4124.2998 911.177 9.2197031e-39
3149.48 4723.8501 910.37701 9.2197031e-39
3187.6499 1343.776 920.60498 9.2197031e-39
3190.3301 1372.297 921.323 9.2197031e-39
3193.6899 1401.151 922.22302 9.2197031e-39
3195.8501 1429.876 922.802 9.2197031e-39
3206.1699 1460.95 925.56598 9.2197031e-39
3208.72 1490.197 926.25 9.2197031e-39
3210.0701 1519.283 926.612 9.2197031e-39
3210.23 1548.1799 926.65399 9.2197031e-39
3218.45 1579.7009 928.85901 9.2197031e-39
3218.99 1609.098 929.00098 9.2197031e-39
3217.4099 1637.9719 928.578 9.2197031e-39
3192.3701 3005.8201 921.87 9.2197031e-39
3190.3101 3222.51 921.31799 9.2197031e-39
3194.95 3318.51 922.56 9.2197031e-39
3198.75 4118.1899 923.58002 9.2197031e-39
3195.75 4714.29 922.77502 9.2197031e-39
3230.26 1671.8301 932.02301 9.2197031e-39
3232.7 1702.51 932.67499 9.2197031e-39
3237.5801 1734.28 933.98401 9.2197031e-39
3241.24 1765.89 934.96503 9.2197031e-39
3243.6899 1797.3 935.62097 9.2197031e-39
3239.5 1826.38 934.49902 9.2197031e-39
3237.76 1856.5601 934.03101 9.2197031e-39
3244.72 1890.45 935.896 9.2197031e-39
3243.27 1921.1899 935.50897 9.2197031e-39
3242.4299 1952.37 935.28302 9.2197031e-39
3233.28 1980.12 932.83301 9.2197031e-39
3244.27 2016.97 935.77698 9.2197031e-39
3235.0901 2997.22 933.31702 9.2197031e-39
3234.0701 3214.95 933.04401 9.2197031e-39
3231.8501 3304.8101 932.448 9.2197031e-39
3245.1599 4111.5 936.01398 9.2197031e-39
3266.3401 2059.4102 941.68903 9.2197031e-39
3268.5701 2093.23 942.28802 9.2197031e-39
3267.8401 2125.9199 942.09198 9.2197031e-39
3268.53 2159.5698 942.27698 9.2197031e-39
3268.02 2192.8999 942.13898 9.2197031e-39
3277.54 2231.6899 944.69098 9.2197031e-39
3278.03 2266.23 944.823 9.2197031e-39
3285.03 2304.5898 946.69598 9.2197031e-39
3290.75 2342.73 948.22998 9.2197031e-39
3289.26 2377.27 947.83197 9.2197031e-39
3265.3999 2657.47 941.43903 9.2197031e-39
3273.6499 2701.5 943.64801 9.2197031e-39
3295.75 2959.4199 949.57001 9.2197031e-39
3283.3201 2992.1899 946.24103 9.2197031e-39
3265.3301 3957.3999 941.41803 9.2197031e-39
3287.1001 4099.0801 947.25299 9.2197031e-39
3299.26 2418.71 950.51001 9.2197031e-39
3306.26 2458.97 952.38599 9.2197031e-39
3303.6101 2494 951.677 9.2197031e-39
3312.26 2536.22 953.99298 9.2197031e-39
3322.8999 2580.28 956.84601 9.2197031e-39
3305.8 2645.54 952.26202 9.2197031e-39
3299.2 2920.22 950.49597 9.2197031e-39
3301.2 3226.3 951.03101 9.2197031e-39
3331.8401 3971.77 959.23999 9.2197031e-39
3327.75 4084.6899 958.14502 9.2197031e-39
3334.6899 2625.71 960.00299 9.2197031e-39
3365.95 2803.79 968.38098 9.2197031e-39
3368.6699 2846.3799 969.10901 9.2197031e-39
3340.21 2908.6699 961.48297 9.2197031e-39
3377.27 2893.71 971.414 9.2197031e-39
3404.28 3265.8899 978.65002 9.2197031e-39
3377.8301 3963.0801 971.56403 9.2197031e-39
3426.6399 3956.6299 984.64301 9.2197031e-39
3452.48 3601.4299 991.56598 9.2197031e-39
3453.49 3654.3201 991.836 9.2197031e-39
3466.6699 3719.6101 995.36798 9.2197031e-39
3472.6299 3779.23 996.96503 9.2197031e-39
3477.8301 3839.1799 998.35797 9.2197031e-39
3463.1799 3936.9399 994.43402 9.2197031e-39
3454.53 6412.6099 992.11499 9.2197031e-39
3485.04 3902.24 1000.29 9.2197031e-39
3928.8401 7132.2202 1119.2 9.2197031e-39
3997.5901 7123.6099 1137.63 9.2197031e-39
4064.47 7110.8398 1155.55 9.2197031e-39
5908.0898 10040.93 1649.54 9.2197031e-39
6008.1401 10024.05 1676.35 9.2197031e-39
6029.9502 9881.1201 1682.2 9.2197031e-39
