# .PCD v0.7 - Point Cloud Data file format
VERSION 0.7
FIELDS x y z rgb
SIZE 4 4 4 4
TYPE F F F F
COUNT 1 1 1 1
WIDTH 304
HEIGHT 1
VIEWPOINT 0 0 0 1 0 0 0
POINTS 304
DATA ascii
257.33148 248.03999 135.4285 9.2197031e-39
264.58301 243.2025 137.37149 9.2197031e-39
252 251 134 9.2197031e-39
269.69601 250.39999 138.742 9.2197031e-39
273.18201 251.57401 139.67599 9.2197031e-39
268.77148 806.39801 138.49399 9.2197031e-39
270.41699 805.66699 138.935 9.2197031e-39
273.60001 815.28748 139.78799 9.2197031e-39
252.00101 2848 134 9.2197031e-39
270.51999 2866.9199 138.96201 9.2197031e-39
276.41299 256.772 140.541 9.2197031e-39
279.35599 264.98901 141.33 9.2197031e-39
283.88098 272.87299 142.5425 9.2197031e-39
288.19901 280.79999 143.69901 9.2197031e-39
290.771 288.104 144.38901 9.2197031e-39
292.896 298.40399 144.95799 9.2197031e-39
293.0755 335.69702 145.006 9.2197031e-39
295.82501 347.173 145.743 9.2197031e-39
294.832 373.29501 145.47701 9.2197031e-39
288.26501 432.95502 143.717 9.2197031e-39
285.00101 465.83899 142.843 9.2197031e-39
308.20001 479.69501 149.05901 9.2197031e-39
283.03 487.811 142.315 9.2197031e-39
283.86099 492.03101 142.537 9.2197031e-39
302.75299 492.61798 147.599 9.2197031e-39
282.595 507.04999 142.198 9.2197031e-39
286.11401 517.02399 143.14101 9.2197031e-39
279.923 527.91101 141.48199 9.2197031e-39
285.8645 524.86639 143.07384 9.2197031e-39
291.73199 524.1925 144.646 9.2197031e-39
301.39401 779.66302 147.235 9.2197031e-39
302.896 792.66003 147.6375 9.2197031e-39
310.21799 796.362 149.599 9.2197031e-39
310.883 803.76404 149.778 9.2197031e-39
276.83466 815.74603 140.65466 9.2197031e-39
285.91733 816.48267 143.088 9.2197031e-39
308.92499 812.27698 149.25301 9.2197031e-39
286.36475 824.40924 143.20775 9.2197031e-39
295.06631 825.39264 145.53966 9.2197031e-39
308.81152 825.22949 149.22299 9.2197031e-39
311.04602 823.25696 149.8215 9.2197031e-39
286.21149 833.18604 143.16699 9.2197031e-39
304.30698 834.95996 148.01534 9.2197031e-39
306.91199 842.36548 148.7135 9.2197031e-39
310.914 844.65503 149.78601 9.2197031e-39
305.681 2792.27 148.384 9.2197031e-39
288.34601 2825.6699 143.739 9.2197031e-39
343.33499 387.39999 158.47301 9.2197031e-39
329.30801 423.67599 154.715 9.2197031e-39
323.16299 436.33899 153.06799 9.2197031e-39
313.289 812.513 150.422 9.2197031e-39
323.26501 2782.71 153.095 9.2197031e-39
341.99701 2803.97 158.11501 9.2197031e-39
376.45901 306.14001 167.349 9.2197031e-39
357.349 353.25101 162.228 9.2197031e-39
361.043 2824.04 163.218 9.2197031e-39
382.26199 2874.8799 168.90401 9.2197031e-39
403.88501 249.43399 174.698 9.2197031e-39
414.134 243.87968 177.44402 9.2197031e-39
394.05801 265.93201 172.064 9.2197031e-39
417.55301 3121.01 178.36 9.2197031e-39
427.005 237.95551 180.892 9.2197031e-39
445.09851 236.367 185.74051 9.2197031e-39
454.49301 235.42549 188.25751 9.2197031e-39
433.28351 243.46899 182.57449 9.2197031e-39
462.85751 236.9095 190.49899 9.2197031e-39
474.203 237.35599 193.539 9.2197031e-39
492.03299 239.58499 198.317 9.2197031e-39
467.42499 241.57401 191.72301 9.2197031e-39
477.38 240.259 194.39 9.2197031e-39
483.4985 242.04401 196.03 9.2197031e-39
495.16101 242.63199 199.155 9.2197031e-39
505.05499 238.276 201.806 9.2197031e-39
526.33948 236.81001 207.509 9.2197031e-39
513.32898 241.22499 204.02249 9.2197031e-39
530.13501 4328.6899 208.526 9.2197031e-39
560.96399 4326.0303 216.787 9.2197031e-39
589.58698 151.85199 224.45599 9.2197031e-39
592.23297 4328.0801 225.16499 9.2197031e-39
623.15601 4325.8604 233.451 9.2197031e-39
654.06702 4323.3604 241.733 9.2197031e-39
742.20801 -68.416992 265.35101 9.2197031e-39
1423.75 -1030.6899 447.97 9.2197031e-39
1401.62 -1029.74 442.039 9.2197031e-39
1481.76 -1082.33 463.51401 9.2197031e-39
1523.62 3094.6599 474.73001 9.2197031e-39
1515.83 3130.77 472.64301 9.2197031e-39
1518.24 3188.22 473.28699 9.2197031e-39
1524.15 3254.8101 474.87201 9.2197031e-39
1528.61 3320.8 476.065 9.2197031e-39
1549.63 3093.5701 481.70001 9.2197031e-39
1546.02 3416.71 480.73001 9.2197031e-39
1605.6899 3147.03 496.71899 9.2197031e-39
1684.9399 -1334.8199 517.95502 9.2197031e-39
1691.47 -1272.13 519.70502 9.2197031e-39
1701.2 -1321 522.31299 9.2197031e-39
1832.09 -518.5 557.38397 9.2197031e-39
1828.6801 -494.31006 556.47101 9.2197031e-39
1831.3199 -474.85999 557.17603 9.2197031e-39
1841.7 -461.10999 559.95898 9.2197031e-39
1878.17 -767.88 569.73199 9.2197031e-39
1856.9301 -724.20996 564.04102 9.2197031e-39
1864.9 -706.46997 566.17499 9.2197031e-39
1875.6899 -691.21997 569.06598 9.2197031e-39
1852.3 -555.93005 562.79797 9.2197031e-39
1850.37 -446.15002 562.28302 9.2197031e-39
1874.22 -441.59998 568.67297 9.2197031e-39
1886.35 -675.88 571.92102 9.2197031e-39
1903.72 -665.98999 576.57599 9.2197031e-39
1908.02 -645.53003 577.729 9.2197031e-39
1909.02 -622.69995 577.99597 9.2197031e-39
1897.3 -436.16003 574.85699 9.2197031e-39
1927.9301 -1005.52 583.06299 9.2197031e-39
1944.04 -445.96997 587.37903 9.2197031e-39
1968.05 -874.35999 593.81403 9.2197031e-39
2093.45 -521.26001 627.41602 9.2197031e-39
2111.3101 -1323.29 632.20001 9.2197031e-39
2142.26 -1321.39 640.49298 9.2197031e-39
2172.6299 -1318.38 648.63202 9.2197031e-39
2161.76 -1272.92 645.71899 9.2197031e-39
2274.1001 -1316.59 675.82001 9.2197031e-39
2299.24 -1306.4301 682.55701 9.2197031e-39
2297.79 -627.89001 682.16803 9.2197031e-39
2319.4199 -616.05005 687.96198 9.2197031e-39
2332.6699 -598.84998 691.51501 9.2197031e-39
2408.54 -619 711.84302 9.2197031e-39
2473.1299 -630.97998 729.14899 9.2197031e-39
2539.4399 -1500 746.91803 9.2197031e-39
2607.1799 -1525.4199 765.06799 9.2197031e-39
2625.9399 -692.31006 770.09497 9.2197031e-39
2778.96 -1644.53 811.09698 9.2197031e-39
2897.0901 -816.82996 842.74799 9.2197031e-39
2901.8401 -788.65002 844.02301 9.2197031e-39
2906.3301 -760.5 845.224 9.2197031e-39
2909.6799 -731.92004 846.12201 9.2197031e-39
2911.8799 -702.94995 846.71301 9.2197031e-39
2915.54 -674.92004 847.69299 9.2197031e-39
2919.8 -647.35999 848.83502 9.2197031e-39
2922.9299 -619.41003 849.672 9.2197031e-39
2920.5801 4143.21 849.04498 9.2197031e-39
2908.45 4190.04 845.79401 9.2197031e-39
2925.78 -591.5 850.43701 9.2197031e-39
2927.49 -563.22998 850.89502 9.2197031e-39
2929.8101 -535.42004 851.51703 9.2197031e-39
2938.98 -510.79004 853.974 9.2197031e-39
2940.8 -483.02002 854.461 9.2197031e-39
2951.3101 -459.06006 857.27802 9.2197031e-39
2951.74 -430.96997 857.39203 9.2197031e-39
2951.8999 -402.94995 857.435 9.2197031e-39
2952.7 -375.37 857.64899 9.2197031e-39
2961.4099 -350.92999 859.98297 9.2197031e-39
2960.8 -323.07501 859.82098 9.2197031e-39
2948.6499 4308.3203 856.56598 9.2197031e-39
2969.0701 -298.565 862.03601 9.2197031e-39
2967.97 -270.80798 861.742 9.2197031e-39
2976.72 -246.54401 864.08502 9.2197031e-39
2975.1299 -218.88599 863.659 9.2197031e-39
2982.51 -194.25 865.63898 9.2197031e-39
2980.4299 -166.70898 865.08197 9.2197031e-39
2987.3799 -142.02698 866.94299 9.2197031e-39
2995.99 -117.81799 869.24799 9.2197031e-39
2994.1201 -90.669006 868.75 9.2197031e-39
2963.74 4136.8501 860.60797 9.2197031e-39
3000.4299 -65.867004 870.44 9.2197031e-39
2999.03 -39.072998 870.065 9.2197031e-39
3003.97 -13.994995 871.38702 9.2197031e-39
3009.6299 10.893982 872.90302 9.2197031e-39
3016.02 35.616028 874.617 9.2197031e-39
3013.7 62.273987 873.99597 9.2197031e-39
3016.8301 87.645996 874.83301 9.2197031e-39
3023.53 112.26599 876.62799 9.2197031e-39
3030.02 136.961 878.36902 9.2197031e-39
3024.8999 163.81601 876.995 9.2197031e-39
3029.0601 188.88599 878.10999 9.2197031e-39
3033.01 213.99399 879.16901 9.2197031e-39
3016.8201 4142.3101 874.83099 9.2197031e-39
3015.0701 4680.3301 874.36298 9.2197031e-39
3036.75 239.13599 880.16998 9.2197031e-39
3040.27 264.311 881.11499 9.2197031e-39
3044.54 289.38599 882.25897 9.2197031e-39
3046.6899 314.75101 882.83398 9.2197031e-39
3049.5701 340.013 883.60797 9.2197031e-39
3052.25 365.29999 884.32397 9.2197031e-39
3055.6699 390.51401 885.242 9.2197031e-39
3056.96 415.94098 885.586 9.2197031e-39
3058.99 441.29199 886.13202 9.2197031e-39
3060.8201 466.66 886.61902 9.2197031e-39
3062.4199 492.04401 887.04999 9.2197031e-39
3072.71 542.50098 889.80798 9.2197031e-39
3062.1299 4137.1201 886.97101 9.2197031e-39
3073.46 516.91699 890.008 9.2197031e-39
3081.3999 567.71002 892.13599 9.2197031e-39
3082.1599 593.27539 892.33801 9.2197031e-39
3082.7 618.84698 892.48297 9.2197031e-39
3091.71 644.34399 894.89899 9.2197031e-39
3093.75 670 895.44501 9.2197031e-39
3091.71 695.65601 894.89899 9.2197031e-39
3100.0801 721.4671 897.14099 9.2197031e-39
3099.54 747.1958 896.99597 9.2197031e-39
3108.4299 773.26801 899.37903 9.2197031e-39
3107.45 799.07001 899.11603 9.2197031e-39
3101.9099 4124.52 897.63098 9.2197031e-39
3115.8999 825.38501 901.38 9.2197031e-39
3113.52 851.19202 900.742 9.2197031e-39
3120.5601 877.66498 902.62701 9.2197031e-39
3128.3301 904.35699 904.70898 9.2197031e-39
3126.24 930.33398 904.15002 9.2197031e-39
3133.55 957.25 906.10901 9.2197031e-39
3139.6699 984.21204 907.74799 9.2197031e-39
3136.9099 1010.289 907.00897 9.2197031e-39
3144.48 1037.6799 909.03601 9.2197031e-39
3142.1201 3007.6699 908.40601 9.2197031e-39
3148.9299 1064.842 910.229 9.2197031e-39
3155.05 1092.39 911.87097 9.2197031e-39
3152.3401 1118.749 911.14301 9.2197031e-39
3156.0801 1146.186 912.14502 9.2197031e-39
3161.48 1174.0549 913.59302 9.2197031e-39
3165.6799 1201.884 914.71899 9.2197031e-39
3170.5901 1230.01 916.03198 9.2197031e-39
3174.29 1258.073 917.02399 9.2197031e-39
3177.74 1286.246 917.94897 9.2197031e-39
3181.8799 1314.734 919.05902 9.2197031e-39
3184.8201 1343.127 919.84698 9.2197031e-39
3184.71 2999.73 919.81702 9.2197031e-39
3154.3701 4126.5703 911.68701 9.2197031e-39
3154.6499 4731.0801 911.763 9.2197031e-39
3188.45 1371.8469 920.81897 9.2197031e-39
3191.8101 1400.6841 921.71997 9.2197031e-39
3193.04 1429.151 922.04901 9.2197031e-39
3203.3601 1460.199 924.815 9.2197031e-39
3205.9199 1489.421 925.5 9.2197031e-39
3207.28 1518.4819 925.86401 9.2197031e-39
3206.51 1547.078 925.659 9.2197031e-39
3215.6799 1578.849 928.11401 9.2197031e-39
3215.29 1607.928 928.01099 9.2197031e-39
3191.05 3223.1499 921.51599 9.2197031e-39
3195.6799 3319.1699 922.755 9.2197031e-39
3198.75 4118.1899 923.58002 9.2197031e-39
3194 4711.8896 922.30701 9.2197031e-39
3222.9299 1639.776 930.05902 9.2197031e-39
3225.6699 1670.29 930.79199 9.2197031e-39
3235.45 1703.46 933.41199 9.2197031e-39
3233.01 1732.65 932.76001 9.2197031e-39
3244.8899 1767.22 935.94098 9.2197031e-39
3239.1499 1795.59 934.40503 9.2197031e-39
3237.6899 1825.6801 934.01398 9.2197031e-39
3238.6599 1856.91 934.27301 9.2197031e-39
3238.4299 1887.88 934.211 9.2197031e-39
3236.1101 1918.1899 933.58899 9.2197031e-39
3242.4299 1952.37 935.28302 9.2197031e-39
3235.0601 1980.9 933.30902 9.2197031e-39
3244.27 2016.97 935.77698 9.2197031e-39
3255.75 2054.53 938.85199 9.2197031e-39
3234.3201 2996.6201 933.10999 9.2197031e-39
3240.04 3220.04 934.64203 9.2197031e-39
3232.5801 3305.46 932.64502 9.2197031e-39
3245.1599 4111.5 936.01398 9.2197031e-39
3265.9399 2091.98 941.58197 9.2197031e-39
3263.47 2123.8101 940.91998 9.2197031e-39
3272.02 2161.29 943.21198 9.2197031e-39
3273.23 2195.53 943.53497 9.2197031e-39
3273.22 2229.46 943.53302 9.2197031e-39
3281.48 2268.05 945.745 9.2197031e-39
3279.8799 2301.8198 945.31897 9.2197031e-39
3294.1599 2344.6001 949.14398 9.2197031e-39
3291.8101 2378.7 948.51501 9.2197031e-39
3265.3999 2657.47 941.43903 9.2197031e-39
3273.6499 2701.5 943.64801 9.2197031e-39
3287.9399 2953.55 947.47601 9.2197031e-39
3276.3401 2986.8301 944.36798 9.2197031e-39
3264.6599 3956.6699 941.23999 9.2197031e-39
3287.1001 4099.0801 947.25299 9.2197031e-39
3301.79 2420.1602 951.18903 9.2197031e-39
3305.4199 2458.48 952.16101 9.2197031e-39
3314.49 2500.5 954.591 9.2197031e-39
3312.26 2536.22 953.99298 9.2197031e-39
3326.22 2582.3398 957.73297 9.2197031e-39
3326.45 2620.49 957.79602 9.2197031e-39
3304.98 2645.01 952.04303 9.2197031e-39
3299.2 2920.22 950.49597 9.2197031e-39
3301.95 3226.9299 951.23199 9.2197031e-39
3331.1699 3971.05 959.06 9.2197031e-39
3364.3401 2802.6799 967.95001 9.2197031e-39
3367.0701 2845.26 968.67999 9.2197031e-39
3340.21 2908.6699 961.48297 9.2197031e-39
3335 4092.73 960.086 9.2197031e-39
3374.0901 2891.4399 970.56097 9.2197031e-39
3402.76 3264.6399 978.245 9.2197031e-39
3377.1499 3962.3601 971.38202 9.2197031e-39
3425.28 3955.22 984.27698 9.2197031e-39
3429.4199 6367.5801 985.38501 9.2197031e-39
3451.03 3600.1101 991.17798 9.2197031e-39
3452.05 3652.98 991.45203 9.2197031e-39
3466.6699 3719.6101 995.36798 9.2197031e-39
3471.22 3777.8701 996.58698 9.2197031e-39
3471.52 3832.99 996.66803 9.2197031e-39
3482.96 3900.1599 999.73199 9.2197031e-39
3469.3799 3943.25 996.09497 9.2197031e-39
3926.8701 7128.77 1118.6801 9.2197031e-39
3997.1001 7122.75 1137.5 9.2197031e-39
4069.51 7119.3701 1156.9 9.2197031e-39
5909.6201 10043.47 1649.95 9.2197031e-39
6001.9102 10013.93 1674.6801 9.2197031e-39
6027.3198 9876.9199 1681.49 9.2197031e-39
