# .PCD v0.7 - Point Cloud Data file format
VERSION 0.7
FIELDS x y z rgb
SIZE 4 4 4 4
TYPE F F F F
COUNT 1 1 1 1
WIDTH 356
HEIGHT 1
VIEWPOINT 0 0 0 1 0 0 0
POINTS 356
DATA ascii
528.60901 3128.6101 -300.345 1.8403113e-38
552.51801 3129.9399 -301.28201 1.8403113e-38
606.72998 3125.97 -300.867 1.8403113e-38
408.82001 3138.0701 -301.51199 1.8403113e-38
434.745 3139.6101 -302.56201 1.8403113e-38
466.724 3135.96 -301.84201 1.8403113e-38
490.89401 3138.01 -303.04501 1.8403113e-38
216.73 3145.6499 -300.62399 1.8403113e-38
282.67999 3143.9099 -301.24301 1.8403113e-38
310.659 3145.8201 -302.466 1.8403113e-38
344.07401 3143.29 -302.18201 1.8403113e-38
376.53101 3140.8999 -301.92899 1.8403113e-38
128.87601 3159.6699 -304.05301 1.8403113e-38
242.526 3150.0601 -302.715 1.8403113e-38
-71.428703 3169.4099 -303.79501 1.8403113e-38
6.8949699 3168.6699 -305.008 1.8403113e-38
48.306099 3165.8899 -304.784 1.8403113e-38
91.168098 3161.46 -303.987 1.8403113e-38
-163.166 3175.3601 -304.21701 1.8403113e-38
-121.016 3174.97 -304.87399 1.8403113e-38
-36.390099 3171.8799 -305.358 1.8403113e-38
-316.58499 3187.1201 -305.58099 1.8403113e-38
-267.79901 3185.3799 -305.875 1.8403113e-38
-215.784 3181 -305.267 1.8403113e-38
-472.00601 3192.1499 -304.45999 1.8403113e-38
-423.49701 3193.0601 -305.711 1.8403113e-38
-373.414 3192.3401 -306.401 1.8403113e-38
-929.85602 3216.3701 -304.58099 1.8403113e-38
-1156.21 3222.95 -302.677 1.8403113e-38
-1081.11 3222.1499 -303.81299 1.8403113e-38
-1010.81 3222.1899 -305.159 1.8403113e-38
1934.4399 3027.7 -290.332 1.8403113e-38
1700.49 3039.98 -290.35901 1.8403113e-38
1776.83 3037.0701 -290.74899 1.8403113e-38
1840.9399 3032.1599 -290.17999 1.8403113e-38
1630.98 3048.3999 -292.099 1.8403113e-38
1644.27 3042.3 -290.134 1.8403113e-38
1654.35 3046.01 -291.67599 1.8403113e-38
1664.74 3048.74 -292.86401 1.8403113e-38
1677.52 3043.21 -291.095 1.8403113e-38
1448.47 3056.1499 -291.45599 1.8403113e-38
1488.3101 3050.95 -290.32001 1.8403113e-38
1497.98 3056.78 -292.62201 1.8403113e-38
1521.59 3058.5801 -293.72501 1.8403113e-38
1535.35 3054.49 -292.49899 1.8403113e-38
1547.9399 3052.8999 -292.16199 1.8403113e-38
1559.09 3054.74 -293.039 1.8403113e-38
1570.5699 3055.5801 -293.565 1.8403113e-38
1583.03 3053.6599 -293.10199 1.8403113e-38
1594.45 3054.3 -293.54999 1.8403113e-38
1617.86 3053.47 -293.69299 1.8403113e-38
1336.4 3069.05 -294.01901 1.8403113e-38
1350.78 3067.74 -293.81299 1.8403113e-38
1380.24 3062.98 -292.64499 1.8403113e-38
1391.24 3067.1201 -294.35501 1.8403113e-38
1405.35 3065.23 -293.93799 1.8403113e-38
1430.79 3066.1499 -294.755 1.8403113e-38
1458.54 3061.4299 -293.564 1.8403113e-38
1469.88 3064.03 -294.72699 1.8403113e-38
1508.09 3061.6599 -294.58801 1.8403113e-38
1200.1 3079.5801 -295.259 1.8403113e-38
1218.9 3074.1101 -293.63 1.8403113e-38
1230.62 3078.8101 -295.56 1.8403113e-38
1246.5601 3076.98 -295.198 1.8403113e-38
1261.9 3075.79 -295.05499 1.8403113e-38
1291.3199 3074.55 -295.16101 1.8403113e-38
1306.4301 3072.8701 -294.84 1.8403113e-38
1321.46 3071.04 -294.45901 1.8403113e-38
1361.38 3072.95 -295.91 1.8403113e-38
1415.92 3070 -295.87201 1.8403113e-38
1049.2 3087.8799 -295.41501 1.8403113e-38
1067.22 3086.54 -295.26999 1.8403113e-38
1083.36 3087.27 -295.84 1.8403113e-38
1104.16 3081.72 -294.21799 1.8403113e-38
1120.71 3081.29 -294.375 1.8403113e-38
1131.42 3088.3899 -297.16 1.8403113e-38
1151.88 3082.21 -295.30099 1.8403113e-38
1168.22 3081.25 -295.26099 1.8403113e-38
1184.48 3080.1001 -295.155 1.8403113e-38
1273.58 3080.1101 -296.84799 1.8403113e-38
874.34497 3099.53 -296.332 1.8403113e-38
915.28003 3097.05 -296.20901 1.8403113e-38
937.21802 3093.6599 -295.39099 1.8403113e-38
955.13898 3094.3201 -295.97299 1.8403113e-38
971.71698 3096.24 -296.98401 1.8403113e-38
994.57001 3090.6499 -295.38501 1.8403113e-38
1010.99 3092.1499 -296.242 1.8403113e-38
1027.99 3092.73 -296.77399 1.8403113e-38
787.09601 3105.55 -296.867 1.8403113e-38
803.55298 3109.9199 -298.767 1.8403113e-38
827.52802 3106.52 -297.987 1.8403113e-38
851.34998 3102.8201 -297.09399 1.8403113e-38
891.20801 3102.3 -297.65799 1.8403113e-38
685.13397 3119.03 -299.82999 1.8403113e-38
709.78302 3117.1399 -299.61301 1.8403113e-38
733.59003 3115.6101 -299.508 1.8403113e-38
757.974 3113.1101 -299.06201 1.8403113e-38
583.79401 3124.6599 -299.95599 1.8403113e-38
636.91901 3120.5601 -299.474 1.8403113e-38
660.35602 3120.6001 -299.931 1.8403113e-38
188.438 3142.5601 -298.96301 1.8403113e-38
-1233.11 3192.1399 -290.01999 1.8403113e-38
-1215.89 3216.3201 -299.13599 1.8403113e-38
2888.96 2959.47 -283.63699 1.8403113e-38
2904.28 2958.5901 -283.60699 1.8403113e-38
2920.28 2958.25 -283.789 1.8403113e-38
2935.0601 2956.3101 -283.362 1.8403113e-38
2952.49 2957.03 -283.95401 1.8403113e-38
2971.3201 2958.9399 -285.00699 1.8403113e-38
2746.3799 2969.1001 -284.43201 1.8403113e-38
2789.76 2969.28 -285.32001 1.8403113e-38
2816.21 2965.0901 -284.29901 1.8403113e-38
2831.27 2965.03 -284.564 1.8403113e-38
2845.1699 2963.3201 -284.20499 1.8403113e-38
2859.1101 2961.46 -283.793 1.8403113e-38
2874.9399 2961.6499 -284.16299 1.8403113e-38
2531.0801 2978.51 -283.76999 1.8403113e-38
2568.4199 2979.95 -285.00101 1.8403113e-38
2592.6399 2978.6201 -284.979 1.8403113e-38
2605.27 2978.6101 -285.21301 1.8403113e-38
2640.45 2972.9199 -283.81299 1.8403113e-38
2655.74 2976.46 -285.388 1.8403113e-38
2669.0901 2976.6101 -285.69501 1.8403113e-38
2681.97 2975.8201 -285.65201 1.8403113e-38
2693.3201 2972.51 -284.66501 1.8403113e-38
2707.3201 2973.05 -285.12701 1.8403113e-38
2722.48 2975.01 -286.12799 1.8403113e-38
2736.0801 2974.46 -286.185 1.8403113e-38
2761.72 2970.6001 -285.26999 1.8403113e-38
2776 2970.3999 -285.46701 1.8403113e-38
2805.3101 2970.29 -285.98199 1.8403113e-38
2430.28 2987.8201 -285.23999 1.8403113e-38
2464.72 2987.95 -285.94299 1.8403113e-38
2486.79 2985.21 -285.36401 1.8403113e-38
2499.47 2987.1101 -286.297 1.8403113e-38
2510.1499 2984.6201 -285.595 1.8403113e-38
2520.4099 2981.1899 -284.54001 1.8403113e-38
2544.3401 2980.8 -284.854 1.8403113e-38
2558.5801 2984.6299 -286.51599 1.8403113e-38
2581.8899 2981.8401 -285.94501 1.8403113e-38
2620.3601 2982.5701 -286.93799 1.8403113e-38
2634.0901 2983.9099 -287.68701 1.8403113e-38
2197.54 2999.6499 -285.125 1.8403113e-38
2238.5701 2997.77 -285.22299 1.8403113e-38
2290.6299 2995.75 -285.47601 1.8403113e-38
2334.46 2998.8201 -287.423 1.8403113e-38
2345.01 2997.77 -287.242 1.8403113e-38
2354.6699 2993.9399 -286.03299 1.8403113e-38
2364.5901 2990.9299 -285.12701 1.8403113e-38
2377.9399 2997.6299 -287.815 1.8403113e-38
2386.9399 2991.77 -285.854 1.8403113e-38
2400.1499 2997.3401 -288.13 1.8403113e-38
2411.1201 2996.6001 -288.07001 1.8403113e-38
2423.1499 2998.3999 -288.952 1.8403113e-38
2444.51 2994.6599 -287.99899 1.8403113e-38
2454.0701 2990.05 -286.50101 1.8403113e-38
2480.01 2996.1299 -289.207 1.8403113e-38
2096.51 3005.8101 -285.45099 1.8403113e-38
2106.4399 3003.98 -284.974 1.8403113e-38
2116.25 3001.1399 -284.12601 1.8403113e-38
2126.5701 3002.8799 -284.95499 1.8403113e-38
2137.1699 3006.3999 -286.436 1.8403113e-38
2146.5701 3000.51 -284.474 1.8403113e-38
2157.5 3005.72 -286.57401 1.8403113e-38
2167.3799 3003.3999 -285.91699 1.8403113e-38
2177.24 3000.99 -285.23001 1.8403113e-38
2187.55 3001.29 -285.53299 1.8403113e-38
2208.5901 3003.46 -286.72299 1.8403113e-38
2218.6001 3001.6499 -286.25299 1.8403113e-38
2228.79 3000.6699 -286.091 1.8403113e-38
2250.4399 3003.97 -287.69901 1.8403113e-38
2261.1201 3004.55 -288.11499 1.8403113e-38
2271.8301 3005.05 -288.49799 1.8403113e-38
2282.1001 3003.6299 -288.17599 1.8403113e-38
2302.6101 3000.52 -287.43701 1.8403113e-38
2313.3899 3000.6499 -287.68799 1.8403113e-38
2325.01 3003.3899 -288.905 1.8403113e-38
1924.79 3018.74 -286.892 1.8403113e-38
1975.6899 3014.8301 -286.436 1.8403113e-38
1985.79 3015.8601 -287.00299 1.8403113e-38
1995.92 3013.99 -286.51599 1.8403113e-38
2006.02 3013.9199 -286.68201 1.8403113e-38
2016.14 3014.71 -287.16 1.8403113e-38
2026.25 3014.47 -287.26501 1.8403113e-38
2036.39 3015.0901 -287.68301 1.8403113e-38
2046.42 3012.8101 -287.04401 1.8403113e-38
2056.5701 3013.26 -287.401 1.8403113e-38
2066.95 3017.3799 -289.09601 1.8403113e-38
2076.6299 3010.1699 -286.65701 1.8403113e-38
2086.77 3010.3701 -286.923 1.8403113e-38
1767.6899 3029.73 -287.905 1.8403113e-38
1810.05 3028.99 -288.44101 1.8403113e-38
1820.9 3026.72 -287.82199 1.8403113e-38
1830.97 3029.01 -288.84698 1.8403113e-38
1852.22 3025.8899 -288.11499 1.8403113e-38
1862.4301 3027 -288.711 1.8403113e-38
1872.76 3027.0901 -288.939 1.8403113e-38
1883.08 3027.0901 -289.13599 1.8403113e-38
1893.48 3026.0701 -288.96301 1.8403113e-38
1903.62 3027.77 -289.77499 1.8403113e-38
1913.92 3027.52 -289.87799 1.8403113e-38
1945 3021.5601 -288.29999 1.8403113e-38
1955.25 3020.03 -287.93701 1.8403113e-38
1965.37 3021.23 -288.56601 1.8403113e-38
1689.92 3038.46 -289.60501 1.8403113e-38
1712.96 3034.1001 -288.45801 1.8403113e-38
1723.47 3035.4299 -289.14099 1.8403113e-38
1734.65 3033.9199 -288.80399 1.8403113e-38
1745.5699 3033.23 -288.76099 1.8403113e-38
1756.05 3034.29 -289.34399 1.8403113e-38
1788.73 3030.46 -288.57199 1.8403113e-38
1798.8199 3033.02 -289.69199 1.8403113e-38
1609.92 3043.2 -289.81 1.8403113e-38
-1620.63 3207.0601 -288.09399 1.8403113e-38
-2980.6201 3281.3701 -289.30801 1.8403113e-38
-1232.5 3161.03 -278.724 1.8403113e-38
-1636.89 3179.01 -277.58899 1.8403113e-38
-3013.95 3246.1299 -275.866 1.8403113e-38
-5486.7798 3378.3701 -277.03 1.8403113e-38
-295.15701 3077.3601 -266.09201 1.8403113e-38
-1277.9399 3116.4399 -261.655 1.8403113e-38
-1239 3132.8 -268.34 1.8403113e-38
-3027.6699 3205.51 -260.84399 1.8403113e-38
-539.20001 3069.6399 -258.65701 1.8403113e-38
-5552.5898 3326.8301 -257.04501 1.8403113e-38
-355.63199 3034.6101 -249.407 1.8403113e-38
-1481.16 3093.1799 -249.34599 1.8403113e-38
-2269.52 3125.72 -246.222 1.8403113e-38
-3048.76 3166.6799 -246.328 1.8403113e-38
-336 3001.6299 -237.791 1.8403113e-38
-1442.46 3048.5901 -233.873 1.8403113e-38
-3066.6001 3126.8999 -231.53 1.8403113e-38
3069.49 2783.76 -223.19299 1.8403113e-38
2831.6299 2794.8601 -222.718 1.8403113e-38
3065.1799 2795.6201 -227.423 1.8403113e-38
-1454.45 3020.98 -223.608 1.8403113e-38
-5402.5801 3236.1599 -226.937 1.8403113e-38
3064.6001 2749.8999 -210.795 1.8403113e-38
2995.78 2753.49 -210.793 1.8403113e-38
2813.47 2761.01 -210.069 1.8403113e-38
3067.54 2767.0801 -217.09399 1.8403113e-38
-16.007999 2916.23 -212.82001 1.8403113e-38
-3543.8899 3096.29 -211.35201 1.8403113e-38
-3120.0901 3095.1399 -218.972 1.8403113e-38
3051.3501 2725.1799 -201.558 1.8403113e-38
2822.77 2741.3201 -203.089 1.8403113e-38
2823.96 2756.99 -208.80901 1.8403113e-38
-32.152599 2903.1499 -207.758 1.8403113e-38
-1408.13 2975.3601 -207.907 1.8403113e-38
-3190.9099 3066.45 -207.19901 1.8403113e-38
2817.6299 2708.22 -190.961 1.8403113e-38
2857.9199 2704.6201 -190.41499 1.8403113e-38
3041.6299 2703.6499 -193.55 1.8403113e-38
2928 2710.9099 -194.03101 1.8403113e-38
3074.8 2714.05 -197.959 1.8403113e-38
2817.8999 2722.3601 -196.105 1.8403113e-38
-1401.33 2942.5701 -196.118 1.8403113e-38
-3602.1899 3060.55 -197.256 1.8403113e-38
-5272.1699 3151.55 -198.65401 1.8403113e-38
3058.3301 2674.24 -183.17599 1.8403113e-38
3075.72 2672.72 -182.95399 1.8403113e-38
2863.72 2696.21 -187.47099 1.8403113e-38
2880.3701 2697.3601 -188.203 1.8403113e-38
2894.8999 2696.3899 -188.12601 1.8403113e-38
3061.5701 2690.3501 -189.091 1.8403113e-38
2842.0801 2703.79 -189.814 1.8403113e-38
3054.4399 2644.5701 -172.319 1.8403113e-38
3074.9399 2645.0901 -172.896 1.8403113e-38
2775.5901 2655.0601 -170.842 1.8403113e-38
-5204.9102 3079.4299 -173.718 1.8403113e-38
3069.3401 2615.0801 -161.88 1.8403113e-38
3070.2 2628.6899 -166.845 1.8403113e-38
3067.1299 2588.05 -152.015 1.8403113e-38
3067.49 2601.01 -156.73 1.8403113e-38
-5204.0698 3018.7 -151.661 1.8403113e-38
3071.8101 2565.8401 -144.032 1.8403113e-38
3073.3 2579.23 -148.927 1.8403113e-38
3069.1899 2539.78 -134.509 1.8403113e-38
3070.1599 2552.53 -139.161 1.8403113e-38
3064.51 2501.47 -120.494 1.8403113e-38
3066.8 2514.48 -125.268 1.8403113e-38
3066.3601 2526.1399 -129.495 1.8403113e-38
-5208.5898 2958.9199 -129.845 1.8403113e-38
3067.3 2479.77 -112.66 1.8403113e-38
3062.0601 2488.54 -115.747 1.8403113e-38
3064.3301 2455.53 -103.793 1.8403113e-38
3064.5701 2466.95 -107.948 1.8403113e-38
-5202.6499 2897.8 -107.743 1.8403113e-38
3062.8201 2421.5601 -91.418404 1.8403113e-38
3063.45 2432.8401 -95.528099 1.8403113e-38
3058.6399 2441.5701 -98.611702 1.8403113e-38
3055.77 2396.76 -82.267998 1.8403113e-38
3062.0601 2410.3401 -87.3246 1.8403113e-38
-5206.0298 2838.1101 -85.9814 1.8403113e-38
3055.9399 2365.22 -70.807198 1.8403113e-38
3064.48 2379.3101 -76.090897 1.8403113e-38
3060.1599 2388.05 -79.1866 1.8403113e-38
3061.54 2336.5 -60.477299 1.8403113e-38
3057.6201 2345.22 -63.571499 1.8403113e-38
3060.04 2356.51 -67.720901 1.8403113e-38
-5206.8701 2778.1899 -64.187302 1.8403113e-38
3061.6899 2316.24 -53.1157 1.8403113e-38
3058.8899 2325.3101 -56.358398 1.8403113e-38
3056.4399 2284.49 -41.476398 1.8403113e-38
3061.4199 2296.1101 -45.791599 1.8403113e-38
3057.8799 2304.8201 -48.892399 1.8403113e-38
-5209.1299 2718.54 -42.4636 1.8403113e-38
3058.6699 2255.95 -31.1423 1.8403113e-38
3063.0601 2267.0601 -35.266602 1.8403113e-38
3059.79 2275.79 -38.377102 1.8403113e-38
3058.1299 2227 -20.6115 1.8403113e-38
3054.28 2235.4099 -23.594299 1.8403113e-38
3060.8 2246.9399 -27.9097 1.8403113e-38
-5209.8501 2658.8101 -20.740101 1.8403113e-38
3058.6399 2198.8201 -10.3772 1.8403113e-38
3056 2207.51 -13.4861 1.8403113e-38
3060.95 2218.29 -17.499001 1.8403113e-38
3056.155 2174.9399 -1.6517718 1.8403113e-38
3061.2 2190.1101 -7.25916 1.8403113e-38
3055.03 2151.73 6.8073702 1.8403113e-38
3059.6299 2161.8999 3.02126 1.8403113e-38
-5209 2599.03 0.97233498 1.8403113e-38
3055.1799 2115.51 19.969299 1.8403113e-38
3053.3101 2124.1699 16.8566 1.8403113e-38
3059.1899 2134.3601 13.0427 1.8403113e-38
3055.2 2142.6499 10.1041 1.8403113e-38
3060.6299 2098.47 26.0609 1.8403113e-38
3058.9199 2107.1699 22.9291 1.8403113e-38
-4707.4399 2496.73 28.6434 1.8403113e-38
3057.73 2062.3701 39.236401 1.8403113e-38
3054.6499 2075.24 34.616249 1.8403113e-38
3051.4099 2088.0701 30.013399 1.8403113e-38
3050.4299 2035.13 49.276199 1.8403113e-38
3051.3 2043.97 46.0452 1.8403113e-38
3059.02 2053.6799 42.370998 1.8403113e-38
-4591.4702 2432.4399 49.8102 1.8403113e-38
3048.3201 2008.8199 58.876999 1.8403113e-38
3054.4099 2018.04 55.4128 1.8403113e-38
3053.46 2026.6899 52.2859 1.8403113e-38
3045.47 1982.71 68.423599 1.8403113e-38
3051.8201 1991.72 65.025597 1.8403113e-38
3051.1101 2000.36 61.901901 1.8403113e-38
-4602.5298 2378.8601 69.495399 1.8403113e-38
2965.1599 1970.38 74.428802 1.8403113e-38
2640.24 1944.79 89.892303 1.8403113e-38
2694.9299 1952.14 86.184196 1.8403113e-38
2581.71 1923.9399 98.5821 1.8403113e-38
2595.6699 1928.78 96.555496 1.8403113e-38
2607.5801 1933.83 94.494202 1.8403113e-38
2617.4399 1939.04 92.4161 1.8403113e-38
-1911.04 2161.8999 97.305397 1.8403113e-38
2559.05 1896.46 109 1.8403113e-38
2562.3501 1903.2151 106.481 1.8403113e-38
2566.5701 1910.03 103.924 1.8403113e-38
2575.1851 1916.865 101.276 1.8403113e-38
-4929.7598 2287.26 108.999 1.8403113e-38
