# .PCD v0.7 - Point Cloud Data file format
VERSION 0.7
FIELDS x y z rgb
SIZE 4 4 4 4
TYPE F F F F
COUNT 1 1 1 1
WIDTH 357
HEIGHT 1
VIEWPOINT 0 0 0 1 0 0 0
POINTS 357
DATA ascii
243.804 3238.74 -300.827 1.8403113e-38
209.39301 3240.6001 -300.94199 1.8403113e-38
-158.151 3259.8201 -301.93201 1.8403113e-38
-105.553 3254.1101 -300.716 1.8403113e-38
-69.894402 3256.3501 -302.10999 1.8403113e-38
-25.367599 3253.8101 -301.91501 1.8403113e-38
13.3755 3252.9399 -302.23099 1.8403113e-38
-308.582 3269.8101 -303.10999 1.8403113e-38
-252.33 3263.5901 -301.76901 1.8403113e-38
-207.888 3264.1599 -302.69901 1.8403113e-38
-525.71997 3278.8201 -302.845 1.8403113e-38
-474.69601 3278.95 -303.724 1.8403113e-38
-416.26999 3275.6799 -303.48901 1.8403113e-38
-357.76999 3270.1499 -302.43301 1.8403113e-38
-1063.37 3297.1101 -300.72601 1.8403113e-38
-1233.04 3304.54 -300.65701 1.8403113e-38
1671.6899 3147.98 -291.12201 1.8403113e-38
1694.4301 3145.8301 -290.71201 1.8403113e-38
1716.99 3143.28 -290.15201 1.8403113e-38
1416.6899 3159.26 -291.06299 1.8403113e-38
1480.83 3157.8301 -291.59 1.8403113e-38
1505.59 3157.3999 -291.83701 1.8403113e-38
1516.53 3159.53 -292.79099 1.8403113e-38
1529.4399 3158.25 -292.53699 1.8403113e-38
1543.23 3153.1599 -290.90701 1.8403113e-38
1556.34 3150.73 -290.241 1.8403113e-38
1566.47 3154.21 -291.66901 1.8403113e-38
1579.8 3150.6699 -290.599 1.8403113e-38
1590.58 3152.1699 -291.323 1.8403113e-38
1601.22 3155.53 -292.716 1.8403113e-38
1648.5 3150.6201 -291.70401 1.8403113e-38
1303.66 3169.1699 -292.82001 1.8403113e-38
1318.9 3167.55 -292.48099 1.8403113e-38
1348.13 3164.3999 -291.811 1.8403113e-38
1358.85 3168.7 -293.55301 1.8403113e-38
1373.8101 3166.48 -292.98901 1.8403113e-38
1399.37 3168.0701 -293.98499 1.8403113e-38
1428.6899 3161.52 -292.082 1.8403113e-38
1441.88 3160.05 -291.759 1.8403113e-38
1453 3163.79 -293.302 1.8403113e-38
1466.92 3160.3501 -292.27802 1.8403113e-38
1491.8101 3160.1799 -292.62201 1.8403113e-38
1150.7 3176.1299 -292.85901 1.8403113e-38
1165.53 3177.74 -293.685 1.8403113e-38
1181.5 3176.53 -293.505 1.8403113e-38
1197.9 3175.46 -293.383 1.8403113e-38
1228.85 3174.0601 -293.37799 1.8403113e-38
1260.5601 3170.3799 -292.56 1.8403113e-38
1272.92 3172.99 -293.70999 1.8403113e-38
1288.84 3170.8899 -293.207 1.8403113e-38
1329.17 3172.9199 -294.60199 1.8403113e-38
1384.53 3170.5801 -294.65302 1.8403113e-38
896.78198 3188.6499 -293.267 1.8403113e-38
954.16602 3188.23 -294.04999 1.8403113e-38
994.15198 3184.02 -293.173 1.8403113e-38
1042.8101 3188.01 -295.41501 1.8403113e-38
1064.75 3182.49 -293.76801 1.8403113e-38
1075.77 3189.1499 -296.367 1.8403113e-38
1097.48 3183.1799 -294.552 1.8403113e-38
1113.1899 3183.46 -294.91101 1.8403113e-38
1129.9399 3183.1499 -295.07001 1.8403113e-38
1208.24 3181.8 -295.85699 1.8403113e-38
1235.47 3185.74 -297.73499 1.8403113e-38
786.45898 3198.6201 -295.09201 1.8403113e-38
826.78198 3199.78 -296.17401 1.8403113e-38
849.64001 3196.6799 -295.41599 1.8403113e-38
867.45801 3199.29 -296.65799 1.8403113e-38
913.73102 3191.47 -294.56799 1.8403113e-38
930.79102 3192.97 -295.39099 1.8403113e-38
970.42102 3190.02 -294.966 1.8403113e-38
1005.2 3191.26 -295.98599 1.8403113e-38
1022.44 3192.1499 -296.58899 1.8403113e-38
714.716 3204.3 -295.987 1.8403113e-38
737.979 3203.76 -296.16901 1.8403113e-38
755.65802 3207.1101 -297.67499 1.8403113e-38
803.27197 3202.1399 -296.64801 1.8403113e-38
532.09601 3217.25 -297.71701 1.8403113e-38
557.92603 3216.53 -297.87601 1.8403113e-38
582.65997 3217.29 -298.55499 1.8403113e-38
612.72498 3212.1299 -297.16901 1.8403113e-38
631.30298 3217.3101 -299.35599 1.8403113e-38
660.33002 3212.0901 -297.93201 1.8403113e-38
684.599 3211.55 -298.133 1.8403113e-38
349.47699 3229.97 -299.36099 1.8403113e-38
380.81799 3227.98 -299.14801 1.8403113e-38
409.397 3228.54 -299.82001 1.8403113e-38
440.444 3225.74 -299.30701 1.8403113e-38
471.078 3223.72 -299.07401 1.8403113e-38
501.79401 3220.0901 -298.25601 1.8403113e-38
73.356201 3239.25 -298.23199 1.8403113e-38
189.873 3230.98 -297.12601 1.8403113e-38
284.21399 3233.1599 -299.45599 1.8403113e-38
318.258 3230.3201 -298.979 1.8403113e-38
-1242.0601 3276.3201 -290.24799 1.8403113e-38
-1138.66 3296.97 -299.44299 1.8403113e-38
3040.45 3058.6101 -280.957 1.8403113e-38
2804.22 3069.77 -281.16101 1.8403113e-38
2941.3999 3064.45 -281.46399 1.8403113e-38
2961.24 3068.1499 -283.133 1.8403113e-38
2978.3701 3067.71 -283.254 1.8403113e-38
2993.1001 3065.3701 -282.64401 1.8403113e-38
3011.02 3065.24 -282.88699 1.8403113e-38
3023.8 3060.5 -281.371 1.8403113e-38
2725.5801 3079.8201 -283.53299 1.8403113e-38
2776.1799 3071.3601 -281.28201 1.8403113e-38
2820.02 3070.47 -281.673 1.8403113e-38
2839.04 3075.8101 -283.92401 1.8403113e-38
2854.4399 3075.3701 -284.01599 1.8403113e-38
2868.8101 3074.3601 -283.884 1.8403113e-38
2882.45 3071.3899 -283.02499 1.8403113e-38
2899.4099 3072.98 -283.88199 1.8403113e-38
2913.75 3070.4099 -283.181 1.8403113e-38
2934.0701 3075.22 -285.26099 1.8403113e-38
2586.3201 3088.24 -284.32101 1.8403113e-38
2611.6001 3088.27 -284.74701 1.8403113e-38
2637.55 3088.6201 -285.29401 1.8403113e-38
2648.6201 3085.8701 -284.478 1.8403113e-38
2662.6899 3086.8101 -285.048 1.8403113e-38
2676.8701 3088.6599 -285.953 1.8403113e-38
2686.9199 3082.8999 -284.021 1.8403113e-38
2702.26 3086.0701 -285.42499 1.8403113e-38
2716.5701 3086.4199 -285.784 1.8403113e-38
2741.6001 3082.25 -284.67599 1.8403113e-38
2756.7 3084.01 -285.56201 1.8403113e-38
2770.6599 3082.98 -285.41599 1.8403113e-38
2797.6499 3080.02 -284.78101 1.8403113e-38
2380.1899 3098.02 -284.51501 1.8403113e-38
2425.52 3099.7 -285.86401 1.8403113e-38
2481.51 3096.6899 -285.68399 1.8403113e-38
2494.01 3097.73 -286.26599 1.8403113e-38
2506.1001 3098.8401 -286.867 1.8403113e-38
2518.72 3099.6299 -287.36099 1.8403113e-38
2527.1299 3092.8501 -285.034 1.8403113e-38
2538.9299 3091.73 -284.819 1.8403113e-38
2553.3401 3096.6201 -286.82999 1.8403113e-38
2563.9099 3092.73 -285.58899 1.8403113e-38
2577.5901 3095.6599 -286.87799 1.8403113e-38
2601.04 3092.5801 -286.13901 1.8403113e-38
2628.4199 3095.6101 -287.68701 1.8403113e-38
2119.95 3103.3999 -282.224 1.8403113e-38
2130.6899 3106.98 -283.70001 1.8403113e-38
2151.02 3107.3899 -284.18201 1.8403113e-38
2160.8899 3107.03 -284.21399 1.8403113e-38
2170.52 3101.8899 -282.5 1.8403113e-38
2180.99 3105.0801 -283.83401 1.8403113e-38
2192.1699 3109.04 -285.45499 1.8403113e-38
2211.96 3104.73 -284.20901 1.8403113e-38
2222.6201 3107.5701 -285.41501 1.8403113e-38
2233.24 3107.46 -285.548 1.8403113e-38
2253.3999 3104.3101 -284.733 1.8403113e-38
2274.21 3103.5701 -284.80301 1.8403113e-38
2284.8799 3104.9399 -285.47601 1.8403113e-38
2295.8201 3105.1899 -285.74701 1.8403113e-38
2305.54 3102.75 -285.017 1.8403113e-38
2318.1101 3108.25 -287.22 1.8403113e-38
2327.04 3102.9199 -285.42801 1.8403113e-38
2337.5 3100.99 -284.89801 1.8403113e-38
2349.51 3105.3899 -286.69501 1.8403113e-38
2360.01 3103.27 -286.09601 1.8403113e-38
2372.49 3108.3501 -288.14499 1.8403113e-38
2394.0601 3106.4399 -287.802 1.8403113e-38
2405.6001 3106.5901 -288.04401 1.8403113e-38
2415.6799 3104.1499 -287.32101 1.8403113e-38
2437.3301 3101.47 -286.702 1.8403113e-38
2449.3201 3102.0801 -287.12 1.8403113e-38
2459.77 3100.1499 -286.58801 1.8403113e-38
2471.8201 3100.54 -286.927 1.8403113e-38
1919.3101 3119.6299 -284.853 1.8403113e-38
2010.46 3117.1899 -285.45401 1.8403113e-38
2040.46 3117.3999 -286.01801 1.8403113e-38
2050.77 3116.98 -286.03299 1.8403113e-38
2070.78 3114.03 -285.28799 1.8403113e-38
2080.99 3119.01 -287.26501 1.8403113e-38
2091.3201 3118.25 -287.15701 1.8403113e-38
2100.6399 3111.8301 -284.974 1.8403113e-38
2111.1799 3113.7 -285.82901 1.8403113e-38
2141.03 3110.52 -285.15601 1.8403113e-38
2202.4399 3110.2 -286.04501 1.8403113e-38
2244.01 3110.1101 -286.68701 1.8403113e-38
2265.3501 3111.3501 -287.48901 1.8403113e-38
1815.72 3127.8301 -286.146 1.8403113e-38
1826.4301 3127.4399 -286.177 1.8403113e-38
1836.21 3129.6799 -287.15302 1.8403113e-38
1857.45 3125.6001 -286.013 1.8403113e-38
1867.95 3125.78 -286.25 1.8403113e-38
1878.6 3120.21 -284.39999 1.8403113e-38
1888.45 3125.8301 -286.603 1.8403113e-38
1898.35 3126.6399 -287.06201 1.8403113e-38
1908.91 3125.54 -286.83301 1.8403113e-38
1929.08 3128.6699 -288.29999 1.8403113e-38
1939.34 3123.53 -286.59799 1.8403113e-38
1949.71 3123.96 -286.922 1.8403113e-38
1959.7 3121.46 -286.17899 1.8403113e-38
1974.98 3121.8052 -286.55151 1.8403113e-38
1990.27 3121.97 -286.862 1.8403113e-38
2000.15 3121.97 -287.02399 1.8403113e-38
2020.39 3122.6699 -287.60699 1.8403113e-38
2030.7 3120.54 -287 1.8403113e-38
2060.8 3120.25 -287.38599 1.8403113e-38
1685.7 3136.8999 -287.32101 1.8403113e-38
1729.09 3137.22 -288.14499 1.8403113e-38
1739.59 3139.4099 -289.11301 1.8403113e-38
1751.71 3132.22 -286.69501 1.8403113e-38
1762.16 3134.22 -287.59399 1.8403113e-38
1772.14 3136.05 -288.42099 1.8403113e-38
1783.54 3133.25 -287.591 1.8403113e-38
1794.04 3132.1299 -287.354 1.8403113e-38
1804.65 3132.8501 -287.789 1.8403113e-38
1846.63 3130.98 -287.793 1.8403113e-38
1616.67 3143.4299 -288.56799 1.8403113e-38
1627.22 3146.5601 -289.88 1.8403113e-38
1639.96 3141.3701 -288.20001 1.8403113e-38
1661.12 3145.22 -289.94501 1.8403113e-38
1706.46 3140.8999 -289.11401 1.8403113e-38
218.754 3190.78 -282.978 1.8403113e-38
220.35201 3167.8799 -274.67999 1.8403113e-38
-386.66199 3184.9199 -270.97198 1.8403113e-38
-1222.34 3238.8701 -276.953 1.8403113e-38
-2998.2 3310.6699 -274.08899 1.8403113e-38
-5437.1899 3419.99 -274.047 1.8403113e-38
-1226.04 3209.0801 -266.061 1.8403113e-38
-1510.22 3182.27 -251.677 1.8403113e-38
-1233.62 3182.25 -256.18201 1.8403113e-38
-3014.2 3271.8501 -259.71201 1.8403113e-38
-5530.7598 3374.99 -256.15799 1.8403113e-38
-615.03198 3137.1599 -249.88 1.8403113e-38
-1238.62 3153.1399 -245.51601 1.8403113e-38
-1374.86 3169.75 -249.334 1.8403113e-38
-3035.24 3232.04 -244.896 1.8403113e-38
-354.97699 3074.04 -231.17101 1.8403113e-38
-1442.5601 3129.3999 -233.55701 1.8403113e-38
-2269.95 3163.0601 -232.297 1.8403113e-38
-3053.46 3193.51 -230.589 1.8403113e-38
2919.3799 2923.6101 -229.897 1.8403113e-38
-229.51401 3041.48 -221.382 1.8403113e-38
-1473.61 3106.95 -224.888 1.8403113e-38
-5455.1802 3296.8799 -228.99001 1.8403113e-38
-333.26401 3041.8 -219.80499 1.8403113e-38
-3105.95 3160.3201 -217.66299 1.8403113e-38
3070.5901 2843.05 -203.069 1.8403113e-38
3074.71 2860.53 -209.494 1.8403113e-38
-29.789101 2992.3999 -206.793 1.8403113e-38
-1421.04 3060.52 -208.862 1.8403113e-38
-3170.4199 3131.05 -205.968 1.8403113e-38
-5298.3301 3210.1499 -200.01199 1.8403113e-38
3063.54 2809.2 -190.646 1.8403113e-38
3070.48 2828.1799 -197.661 1.8403113e-38
-25.2395 2969.1201 -198.401 1.8403113e-38
-1393.1899 3020.9199 -194.91901 1.8403113e-38
-3224.4299 3096.5801 -192.55499 1.8403113e-38
-3586.45 3123.6201 -196.481 1.8403113e-38
3071.52 2787.0901 -182.737 1.8403113e-38
2815.1499 2795.1699 -181.493 1.8403113e-38
3070.9299 2800.21 -187.49899 1.8403113e-38
2824.97 2817.71 -189.84801 1.8403113e-38
-1483.77 2985.1399 -180.431 1.8403113e-38
-1410.5 2996.1799 -185.64301 1.8403113e-38
2815.6201 2769.28 -172.089 1.8403113e-38
3074.96 2762.21 -173.748 1.8403113e-38
3077.0901 2776.9199 -179.132 1.8403113e-38
2813.8601 2780.3999 -176.101 1.8403113e-38
-5213.0498 3134.22 -173.79601 1.8403113e-38
3061.4399 2726.74 -160.63 1.8403113e-38
2885.9099 2739.6201 -162.451 1.8403113e-38
2816.8301 2744.8999 -163.244 1.8403113e-38
2861.3501 2744.79 -163.929 1.8403113e-38
2877.6101 2745.8301 -164.571 1.8403113e-38
3071.3301 2746.0801 -167.82401 1.8403113e-38
2810.3101 2751.4399 -165.513 1.8403113e-38
2919.1001 2753.53 -168.047 1.8403113e-38
3072.6201 2708.1399 -154.05 1.8403113e-38
2795.6299 2713.98 -151.65401 1.8403113e-38
3064.76 2715.6599 -156.657 1.8403113e-38
-5200.6699 3073.3201 -151.855 1.8403113e-38
3070.02 2681.25 -144.23 1.8403113e-38
3072.3799 2694.97 -149.255 1.8403113e-38
2798.1001 2704.4399 -148.22501 1.8403113e-38
3073.53 2646.1499 -131.52499 1.8403113e-38
3075.22 2659.6101 -136.446 1.8403113e-38
3069.45 2668.21 -139.479 1.8403113e-38
3071.0801 2620.8401 -122.282 1.8403113e-38
3073.1001 2634.1499 -127.156 1.8403113e-38
-5205.9502 3012.3 -129.58299 1.8403113e-38
3064.55 2593.97 -112.405 1.8403113e-38
3068.6399 2608.03 -117.585 1.8403113e-38
3066.6201 2561.1899 -100.521 1.8403113e-38
3068.77 2573.28 -104.952 1.8403113e-38
3063.53 2582.25 -108.127 1.8403113e-38
-5210.2598 2954.1001 -108.349 1.8403113e-38
3060.3501 2535.98 -91.25 1.8403113e-38
3065.45 2549.1899 -96.138 1.8403113e-38
3067.05 2506.27 -80.557404 1.8403113e-38
3064.25 2516.04 -84.063202 1.8403113e-38
3066.9399 2527.8701 -88.411003 1.8403113e-38
-5204.4702 2891.8799 -85.820396 1.8403113e-38
3063.96 2483.6599 -72.285797 1.8403113e-38
3064.1101 2494.55 -76.248802 1.8403113e-38
3061.5 2451.7 -60.624599 1.8403113e-38
3064.03 2462.78 -64.696701 1.8403113e-38
3059.8501 2471.71 -67.873497 1.8403113e-38
-5206.6899 2833.6399 -64.608002 1.8403113e-38
3065.6101 2422.49 -50.069801 1.8403113e-38
3061.8101 2431.4199 -53.2575 1.8403113e-38
3065.49 2442.76 -57.4403 1.8403113e-38
3064.3601 2402.01 -42.604599 1.8403113e-38
3061.6899 2411.27 -45.928001 1.8403113e-38
-5207.6899 2772.5 -42.3592 1.8403113e-38
3059.24 2371.0601 -31.267599 1.8403113e-38
3063.6299 2382.01 -35.320202 1.8403113e-38
3059.27 2390.6101 -38.377102 1.8403113e-38
3067.5801 2344.3899 -21.706301 1.8403113e-38
3061.6699 2352.48 -24.552601 1.8403113e-38
3062.47 2362.1499 -28.0804 1.8403113e-38
-5207.8198 2714.22 -21.166401 1.8403113e-38
3064.45 2315.1599 -11.0283 1.8403113e-38
3064.6799 2324.46 -14.4134 1.8403113e-38
3064.6799 2334.21 -17.9557 1.8403113e-38
3058.6201 2285.4299 -0.122387 1.8403113e-38
3066.74 2296.9399 -4.4408498 1.8403113e-38
3061.3701 2304.73 -7.1845498 1.8403113e-38
3058.5801 2258.0601 9.8298903 1.8403113e-38
3063.25 2268.03 6.1280398 1.8403113e-38
3060.9199 2276.95 2.9241199 1.8403113e-38
-5206.6699 2653.0701 1.04693 1.8403113e-38
3064.6899 2231.74 19.2997 1.8403113e-38
3061.7148 2244.9302 14.55465 1.8403113e-38
3066.05 2205.0701 28.976999 1.8403113e-38
3060.47 2212.9199 26.2127 1.8403113e-38
3060.6201 2222.1599 22.849199 1.8403113e-38
-5208.7002 2595.1299 22.147699 1.8403113e-38
3057.8201 2176.8401 39.3764 1.8403113e-38
3058.3301 2185.99 36.038898 1.8403113e-38
3056.8501 2194.45 32.986801 1.8403113e-38
3062.01 2155.345 47.121948 1.8403113e-38
3059.1399 2168.3701 42.4333 1.8403113e-38
3059.73 2124.22 58.476101 1.8403113e-38
3063.73 2133.5801 55.0084 1.8403113e-38
3062.73 2142.0801 51.933102 1.8403113e-38
-4560.0098 2489.1299 50.105701 1.8403113e-38
3062.05 2098.3601 67.842796 1.8403113e-38
3063.3601 2106.99 64.684097 1.8403113e-38
3058.5801 2115.5901 61.633999 1.8403113e-38
-4616.4902 2439.8601 68.945 1.8403113e-38
3054.6899 2071.7 77.655998 1.8403113e-38
3055.96 2084.8501 72.852348 1.8403113e-38
3055.5701 2045.98 86.9925 1.8403113e-38
3057.3601 2054.46 83.880798 1.8403113e-38
3057.05 2063.3201 80.662498 1.8403113e-38
-4546.8701 2380.4099 89.4254 1.8403113e-38
3048.6201 2011.55 99.625999 1.8403113e-38
3055.73 2019.84 96.494003 1.8403113e-38
3048.75 2028.72 93.379898 1.8403113e-38
3046.7 2037.09 90.368797 1.8403113e-38
2887.98 1992.8 109.063 1.8403113e-38
3048.1699 1994.38 105.875 1.8403113e-38
3046.4299 2002.8199 102.837 1.8403113e-38
-1901.16 2208.6299 108.721 1.8403113e-38
