# .PCD v0.7 - Point Cloud Data file format
VERSION 0.7
FIELDS x y z rgb
SIZE 4 4 4 4
TYPE F F F F
COUNT 1 1 1 1
WIDTH 329
HEIGHT 1
VIEWPOINT 0 0 0 1 0 0 0
POINTS 329
DATA ascii
-321.20999 3228.8999 -301.35501 1.8403113e-38
-225.05499 3228.0701 -301.422 1.8403113e-38
-130.521 3224.9099 -300.63599 1.8403113e-38
-46.2444 3224.3301 -300.74799 1.8403113e-38
183.12199 3220.3101 -300.16501 1.8403113e-38
-1073.13 3235.78 -300.97501 1.8403113e-38
-534.38599 3230.72 -301.19901 1.8403113e-38
-427.86099 3231.5901 -301.927 1.8403113e-38
1449.73 3179.45 -290.15201 1.8403113e-38
1587.34 3179.01 -290.51801 1.8403113e-38
729.487 3189.9399 -291.20499 1.8403113e-38
816.73499 3188.0701 -290.86099 1.8403113e-38
896.125 3188.0901 -291.173 1.8403113e-38
963.966 3186.04 -290.68701 1.8403113e-38
970.112 3188.5701 -291.63101 1.8403113e-38
1008.22 3185.7 -290.73401 1.8403113e-38
1040.88 3187.79 -291.617 1.8403113e-38
1067.86 3186.3301 -291.19101 1.8403113e-38
1078.23 3183.2 -290.09299 1.8403113e-38
1099.46 3187.8501 -291.86301 1.8403113e-38
1109.71 3184.51 -290.68799 1.8403113e-38
1131.42 3187.9099 -292.008 1.8403113e-38
1141.54 3184.3601 -290.75601 1.8403113e-38
1163.11 3187.26 -291.89499 1.8403113e-38
1197.3101 3182.03 -290.12201 1.8403113e-38
1203.25 3183.52 -290.68799 1.8403113e-38
1222.3101 3188.6201 -292.616 1.8403113e-38
1232.6 3183.6799 -290.858 1.8403113e-38
1252.64 3186.76 -292.05701 1.8403113e-38
1282.15 3185.0601 -291.54999 1.8403113e-38
1308.35 3187.6101 -292.578 1.8403113e-38
1318.1801 3182.0801 -290.60599 1.8403113e-38
1337.84 3183.8899 -291.33801 1.8403113e-38
1372.25 3181.1201 -290.46201 1.8403113e-38
1392.1 3181.29 -290.599 1.8403113e-38
1416.21 3184.23 -291.76099 1.8403113e-38
1441.11 3185.01 -292.142 1.8403113e-38
1467.9 3181.03 -290.79599 1.8403113e-38
1473.52 3181.3201 -290.92401 1.8403113e-38
626.40601 3199.1299 -294.15601 1.8403113e-38
710.72101 3197.22 -293.784 1.8403113e-38
757.66199 3194.6201 -293.01901 1.8403113e-38
769.00201 3193.48 -292.64499 1.8403113e-38
797.72601 3196.8 -293.966 1.8403113e-38
839.58099 3195.99 -293.832 1.8403113e-38
851.39899 3193.6499 -293.02301 1.8403113e-38
879.66901 3195.53 -293.81601 1.8403113e-38
919.383 3194.1001 -293.44699 1.8403113e-38
930.93597 3191.22 -292.44501 1.8403113e-38
991.79303 3194.8401 -293.99799 1.8403113e-38
1030.37 3190.6799 -292.629 1.8403113e-38
1167.95 3190.45 -293.073 1.8403113e-38
349.862 3204.8501 -295.17599 1.8403113e-38
405.33301 3207.23 -296.255 1.8403113e-38
461.17001 3207.5601 -296.591 1.8403113e-38
499.94199 3209.5801 -297.47299 1.8403113e-38
523.51501 3201.0801 -294.46899 1.8403113e-38
553.422 3208.5701 -297.31299 1.8403113e-38
572.89697 3202.5901 -295.211 1.8403113e-38
607.91602 3204.9399 -296.19901 1.8403113e-38
655.867 3204.8899 -296.36499 1.8403113e-38
669.69397 3202.46 -295.53299 1.8403113e-38
-185.94501 3218.75 -298.17899 1.8403113e-38
-87.433998 3212.3101 -296.216 1.8403113e-38
-9.5464001 3214.1899 -297.19699 1.8403113e-38
211.304 3212.5 -297.42999 1.8403113e-38
258.76501 3214.3301 -298.27802 1.8403113e-38
279.27701 3210.72 -297.04199 1.8403113e-38
322.26999 3213.95 -298.38101 1.8403113e-38
386.02301 3211.27 -297.651 1.8403113e-38
443.62799 3210.8899 -297.73599 1.8403113e-38
-1211.88 3227.5701 -297.45499 1.8403113e-38
-1155.53 3221.25 -295.371 1.8403113e-38
-1002.27 3222.4199 -296.38501 1.8403113e-38
-493.42001 3223.8701 -298.86499 1.8403113e-38
-384.53201 3222.46 -298.76999 1.8403113e-38
-281.771 3220.51 -298.453 1.8403113e-38
-3002.8999 3239.53 -294.94 1.8403113e-38
2696.8101 3138.74 -280.117 1.8403113e-38
2841.26 3137.9399 -280.38101 1.8403113e-38
2850.0901 3139.9099 -281.133 1.8403113e-38
2880.21 3138.26 -280.64801 1.8403113e-38
2912.4099 3138.1299 -280.724 1.8403113e-38
2969.6799 3135.8799 -280.12299 1.8403113e-38
3014.53 3137.46 -280.87201 1.8403113e-38
3049.8 3136.3201 -280.59299 1.8403113e-38
2051.28 3149.6799 -281.62299 1.8403113e-38
2095.9299 3148.6101 -281.40601 1.8403113e-38
2111.25 3148.1599 -281.30099 1.8403113e-38
2171.99 3148.3201 -281.591 1.8403113e-38
2254.8799 3149.5701 -282.36401 1.8403113e-38
2274.76 3145.1101 -280.819 1.8403113e-38
2296.6101 3147.6001 -281.80801 1.8403113e-38
2361.97 3149.1001 -282.604 1.8403113e-38
2388.4399 3146.71 -281.83701 1.8403113e-38
2497.45 3145.6699 -281.87601 1.8403113e-38
2546.8799 3147.9299 -282.88599 1.8403113e-38
2596.1499 3146.5601 -282.577 1.8403113e-38
2624.54 3145.9849 -282.47748 1.8403113e-38
2644.48 3140.8 -280.66599 1.8403113e-38
2654.1299 3146.4099 -282.746 1.8403113e-38
2676.48 3144.365 -282.08701 1.8403113e-38
2736.29 3146.28 -283.013 1.8403113e-38
2765.5801 3147.1499 -283.44299 1.8403113e-38
2785.8799 3144.3 -282.48199 1.8403113e-38
2790.52 3141.24 -281.38699 1.8403113e-38
2812.6201 3140.27 -281.11899 1.8403113e-38
2820.78 3141.6599 -281.65701 1.8403113e-38
2875.5701 3141.6699 -281.86899 1.8403113e-38
2949.3799 3142.29 -282.38 1.8403113e-38
1730.9301 3157.1101 -283.10001 1.8403113e-38
1746.51 3159.3899 -283.98901 1.8403113e-38
1752.6801 3153.8899 -282.01199 1.8403113e-38
1788.79 3156.6499 -283.15302 1.8403113e-38
1794.1899 3153.72 -282.10901 1.8403113e-38
1855.02 3157.3701 -283.67099 1.8403113e-38
1895.74 3155.6299 -283.19299 1.8403113e-38
1911.01 3157.7 -284.00299 1.8403113e-38
1935.86 3158.1699 -284.272 1.8403113e-38
1953.605 3158.405 -284.42401 1.8403113e-38
1973.755 3156.075 -283.65253 1.8403113e-38
1993.7949 3153.4099 -282.7605 1.8403113e-38
2013.8201 3155.585 -283.62952 1.8403113e-38
2033.755 3152.2651 -282.49799 1.8403113e-38
2056.3301 3156.01 -283.94901 1.8403113e-38
2073.8052 3152.1599 -282.61249 1.8403113e-38
2091.51 3151.8 -282.55099 1.8403113e-38
2116.5601 3153.3 -283.19299 1.8403113e-38
2134.4951 3153.7251 -283.414 1.8403113e-38
2154.6851 3152.6401 -283.0965 1.8403113e-38
2193.23 3152.6299 -283.242 1.8403113e-38
2216.3701 3152.9102 -283.4325 1.8403113e-38
2237.665 3155.0649 -284.298 1.8403113e-38
2261.3601 3155.8701 -284.68301 1.8403113e-38
2282.8201 3156.78 -285.095 1.8403113e-38
2326.0801 3157.46 -285.508 1.8403113e-38
2343.9102 3152.9551 -283.93951 1.8403113e-38
2384.4199 3150 -283.01801 1.8403113e-38
2407.3501 3151.3701 -283.60599 1.8403113e-38
2414.4299 3155.95 -285.298 1.8403113e-38
2435.4751 3158.0552 -286.1445 1.8403113e-38
2456.425 3152.8149 -284.31952 1.8403113e-38
2476.3501 3151.1799 -283.79999 1.8403113e-38
2481.8101 3151.04 -283.76999 1.8403113e-38
2505.3701 3150.5801 -283.69299 1.8403113e-38
2526.925 3151.1299 -283.97498 1.8403113e-38
2557.26 3156.75 -286.13901 1.8403113e-38
2575.27 3154.6101 -285.42599 1.8403113e-38
2580.8799 3154.03 -285.23801 1.8403113e-38
2605.04 3151.6899 -284.478 1.8403113e-38
2710.99 3150.3401 -284.39499 1.8403113e-38
219.02 3165.6399 -280.40302 1.8403113e-38
1597.66 3165.4399 -285.62 1.8403113e-38
1613.79 3168.52 -286.80399 1.8403113e-38
1621.3101 3161.9299 -284.431 1.8403113e-38
1636.17 3168.29 -286.806 1.8403113e-38
1641.22 3168.76 -286.995 1.8403113e-38
1659.27 3164.96 -285.67999 1.8403113e-38
1664.01 3166.23 -286.16199 1.8403113e-38
1679.78 3169.3601 -287.362 1.8403113e-38
1686.61 3163.29 -285.17899 1.8403113e-38
1705.5349 3163.4951 -285.3255 1.8403113e-38
1723.95 3165.25 -286.034 1.8403113e-38
1766.45 3164.1899 -285.814 1.8403113e-38
1771.76 3162.29 -285.14099 1.8403113e-38
1808.23 3163.55 -285.73901 1.8403113e-38
1813.59 3160.54 -284.66299 1.8403113e-38
1829.01 3162.7 -285.508 1.8403113e-38
1833.6 3164.25 -286.091 1.8403113e-38
1849.1899 3165.22 -286.50601 1.8403113e-38
1872.275 3163.45 -285.94901 1.8403113e-38
1890.5 3160.8601 -285.077 1.8403113e-38
1915.37 3162.6899 -285.83801 1.8403113e-38
1930.76 3164.51 -286.55899 1.8403113e-38
2178.8601 3160.6101 -286.091 1.8403113e-38
2200.01 3162.95 -287.02499 1.8403113e-38
2305.4399 3160.9399 -286.69501 1.8403113e-38
2321.9099 3160.54 -286.61301 1.8403113e-38
2370.98 3160.1699 -286.66901 1.8403113e-38
1292.63 3178.9099 -289.353 1.8403113e-38
1347.01 3179 -289.59201 1.8403113e-38
1366.98 3179.55 -289.87 1.8403113e-38
1400.54 3176.8799 -289.02899 1.8403113e-38
1425.41 3177.98 -289.52301 1.8403113e-38
1496.34 3172.1899 -287.68701 1.8403113e-38
1500.72 3174.96 -288.71201 1.8403113e-38
1519.76 3173.21 -288.147 1.8403113e-38
1524.54 3175.02 -288.82599 1.8403113e-38
1545.8201 3173.7749 -288.4545 1.8403113e-38
1566.95 3172.1799 -287.95599 1.8403113e-38
1572.0601 3172.9299 -288.24701 1.8403113e-38
1263.3 3180.8201 -289.936 1.8403113e-38
-1632.0699 3193.28 -283.36301 1.8403113e-38
-1241.98 3192.0901 -284.42599 1.8403113e-38
88.323303 3191.54 -289.33099 1.8403113e-38
-5000.8599 3224.99 -281.983 1.8403113e-38
3061.3201 3119.5801 -274.54401 1.8403113e-38
2722.4099 3135.72 -279.116 1.8403113e-38
2750.8799 3136.0801 -279.35599 1.8403113e-38
2902.1299 3135.0801 -279.573 1.8403113e-38
2933.8301 3133.71 -279.19601 1.8403113e-38
2975.6101 3133.53 -279.29099 1.8403113e-38
3001.23 3132.29 -278.939 1.8403113e-38
3035.6499 3130.74 -278.508 1.8403113e-38
211.78 3160.3301 -278.44501 1.8403113e-38
-1232.6801 3174.8301 -278.181 1.8403113e-38
-3037.3999 3180.77 -273.423 1.8403113e-38
-1645.46 3181.9199 -279.17801 1.8403113e-38
-4661.0801 3195.6299 -272.60001 1.8403113e-38
3058.6899 3081.28 -260.59299 1.8403113e-38
3055.4299 3105.3501 -269.341 1.8403113e-38
-1246.05 3133.6201 -263.13101 1.8403113e-38
205.892 3132.3701 -268.246 1.8403113e-38
-3053.8401 3163.9299 -267.228 1.8403113e-38
-2606.9099 3166.22 -269.776 1.8403113e-38
-5525.8999 3184.47 -265.22101 1.8403113e-38
-5339.3501 3185.9199 -266.46399 1.8403113e-38
3061.6499 3075.8401 -258.62701 1.8403113e-38
-313.19601 3094.28 -252.392 1.8403113e-38
-1579.52 3112.6001 -254.203 1.8403113e-38
-1253.45 3122.0601 -258.896 1.8403113e-38
3047.0801 3036.1899 -244.13901 1.8403113e-38
3061.3401 3041.24 -246.033 1.8403113e-38
-3084.3999 3103.6399 -245.168 1.8403113e-38
-1470.08 3066.3201 -237.78 1.8403113e-38
-5534.8999 3089.1799 -230.508 1.8403113e-38
-3596.72 3089.3201 -237.993 1.8403113e-38
-3450.97 3084.6699 -236.86 1.8403113e-38
-3090.76 3084.48 -238.17101 1.8403113e-38
-330.14499 3010.26 -221.748 1.8403113e-38
-1413.77 2989.54 -210.05 1.8403113e-38
-344.31699 3005.3401 -219.901 1.8403113e-38
-1442.46 3011.52 -217.94099 1.8403113e-38
-5364.8501 3037.45 -212.33299 1.8403113e-38
-29.9095 2959.9399 -204.58501 1.8403113e-38
-52.356201 2929.28 -193.342 1.8403113e-38
-35.8535 2931.77 -194.31 1.8403113e-38
-1468.79 2943.1899 -192.97 1.8403113e-38
-1406.1 2941.53 -192.60699 1.8403113e-38
-5212.98 2925.6001 -172.20799 1.8403113e-38
-5212.6001 2897.4199 -161.951 1.8403113e-38
2802.3501 2781.98 -150.681 1.8403113e-38
3056.3101 2798.6201 -157.71201 1.8403113e-38
2820.4199 2803.7 -158.65601 1.8403113e-38
3049.9199 2800.49 -158.367 1.8403113e-38
2802.7 2757.95 -141.937 1.8403113e-38
3065.9199 2752.8701 -141.09599 1.8403113e-38
2804.1699 2764.8401 -144.44901 1.8403113e-38
3041.1499 2768.47 -146.681 1.8403113e-38
3070.4099 2761.73 -144.33701 1.8403113e-38
3055.6399 2771.96 -148.004 1.8403113e-38
2789.74 2729.21 -131.42599 1.8403113e-38
2801.6399 2733.52 -133.03999 1.8403113e-38
2921.22 2730.26 -132.314 1.8403113e-38
3071.865 2734.1951 -134.3235 1.8403113e-38
2845.47 2704.25 -122.555 1.8403113e-38
3069.2 2704.8999 -123.649 1.8403113e-38
2798.6899 2713.6399 -125.793 1.8403113e-38
2811.4299 2718.3701 -127.562 1.8403113e-38
2863.1799 2711.9199 -125.417 1.8403113e-38
3074.0701 2713.52 -126.807 1.8403113e-38
2903.22 2723.0601 -129.62199 1.8403113e-38
-5221.5098 2806.6799 -128.894 1.8403113e-38
3059.28 2675.1201 -112.773 1.8403113e-38
2802.23 2688.9399 -116.819 1.8403113e-38
3064.3601 2683.5801 -115.872 1.8403113e-38
2806.53 2697.3799 -119.906 1.8403113e-38
-5218.6201 2778.3301 -118.588 1.8403113e-38
3060.79 2657.9199 -106.52 1.8403113e-38
3071.1201 2658.02 -106.597 1.8403113e-38
3065.8999 2614.6201 -90.779198 1.8403113e-38
3059.8899 2628.9299 -95.965698 1.8403113e-38
3063.5801 2636.23 -98.634804 1.8403113e-38
3062.3999 2590.54 -82.0019 1.8403113e-38
3072.6599 2590.24 -81.934196 1.8403113e-38
3062.9399 2607.8501 -88.306297 1.8403113e-38
-5218.8501 2686.98 -85.337303 1.8403113e-38
3062.5449 2566.135 -73.121002 1.8403113e-38
-5213.4399 2658.5701 -75.021599 1.8403113e-38
3057.45 2542.385 -64.457298 1.8403113e-38
3060.3201 2504.1499 -50.551899 1.8403113e-38
3059.6201 2519.77 -56.236099 1.8403113e-38
3060.4199 2525.02 -58.148602 1.8403113e-38
3062.9849 2482.2451 -42.590801 1.8403113e-38
3063.1001 2500.3999 -49.201099 1.8403113e-38
-5215.9502 2567.71 -41.941601 1.8403113e-38
3063.28 2459.74 -34.401402 1.8403113e-38
3062.53 2464.1899 -36.017502 1.8403113e-38
-5196.04 2538.55 -31.4069 1.8403113e-38
3058.3701 2423.0801 -21.0394 1.8403113e-38
3062.73 2439.5901 -27.0679 1.8403113e-38
3061.1399 2443.7 -28.5569 1.8403113e-38
3058.47 2399.1499 -12.3306 1.8403113e-38
3057.05 2403.24 -13.8143 1.8403113e-38
3059.8701 2418.98 -19.554001 1.8403113e-38
3060.8899 2366.1001 -0.313932 1.8403113e-38
3064.125 2383.8398 -6.781105 1.8403113e-38
3058.0151 2344.3252 7.625 1.8403113e-38
3062.1499 2362 1.17562 1.8403113e-38
3054.115 2324.7949 14.74655 1.8403113e-38
-4684.9902 2395.8201 18.5804 1.8403113e-38
-4621.6699 2418.3301 10.1475 1.8403113e-38
3050.47 2285.3301 29.125 1.8403113e-38
3057.3701 2290.96 27.0473 1.8403113e-38
3058.0952 2307.27 21.108749 1.8403113e-38
3060.0901 2269.04 35.015999 1.8403113e-38
3059.24 2273.1399 33.527699 1.8403113e-38
3057.3901 2234.7151 47.517899 1.8403113e-38
3055.2549 2252.29 41.131149 1.8403113e-38
-4600.8701 2308.8601 49.908699 1.8403113e-38
3056.4199 2201.1299 59.747002 1.8403113e-38
3058.8799 2219.1799 53.166 1.8403113e-38
3063.46 2215.6001 54.452301 1.8403113e-38
-4701.7402 2286.6101 58.393501 1.8403113e-38
3051.1001 2178.8301 67.8815 1.8403113e-38
3059.5901 2183.79 66.043198 1.8403113e-38
3056.96 2197.04 61.2323 1.8403113e-38
3053.98 2148.2 79.019096 1.8403113e-38
3055.6499 2163.77 73.345749 1.8403113e-38
3055.3899 2126.74 86.825401 1.8403113e-38
3049.1699 2130.51 85.4748 1.8403113e-38
3054.29 2144.1201 80.501503 1.8403113e-38
3047.6099 2093.8149 98.835251 1.8403113e-38
3056.1799 2109.3301 93.156097 1.8403113e-38
3047.03 2113.1101 91.817299 1.8403113e-38
-1922.5 2150.3999 97.305397 1.8403113e-38
-4386.4902 2172.02 98.8881 1.8403113e-38
3047.7852 2076.55 105.11951 1.8403113e-38
3047.6699 2061.3101 110.668 1.8403113e-38
