# .PCD v0.7 - Point Cloud Data file format
VERSION 0.7
FIELDS x y z rgb
SIZE 4 4 4 4
TYPE F F F F
COUNT 1 1 1 1
WIDTH 356
HEIGHT 1
VIEWPOINT 0 0 0 1 0 0 0
POINTS 356
DATA ascii
-531.30103 2853.73 -300.03201 1.8403113e-38
-3092.3401 2592.4199 -291.01401 1.8403113e-38
-2932.6599 2611.8501 -292.71399 1.8403113e-38
-2768.1201 2627.98 -293.05701 1.8403113e-38
-2596.79 2640.3999 -291.82501 1.8403113e-38
-2474.77 2658.1399 -294.17001 1.8403113e-38
-2355.73 2674.4299 -296.09399 1.8403113e-38
-2238.71 2689.1899 -297.52701 1.8403113e-38
-2109.0601 2699.6799 -296.98801 1.8403113e-38
-1995.17 2711.1899 -297.35101 1.8403113e-38
-1861.9301 2716.8601 -294.948 1.8403113e-38
-1763.9 2727.95 -295.689 1.8403113e-38
-1665 2737.28 -295.76099 1.8403113e-38
-1577.84 2747.76 -296.642 1.8403113e-38
-1489.8101 2756.6399 -296.91299 1.8403113e-38
-1415.38 2767.51 -298.36499 1.8403113e-38
-1335.27 2775.74 -298.66501 1.8403113e-38
-1259.1 2783.74 -299.017 1.8403113e-38
-1187.83 2791.8899 -299.58499 1.8403113e-38
-1109.04 2796.74 -298.70801 1.8403113e-38
-1041.8101 2803.75 -298.99701 1.8403113e-38
-972.80499 2809.1299 -298.64099 1.8403113e-38
-908.66302 2814.9399 -298.599 1.8403113e-38
-851.23901 2821.8899 -299.19699 1.8403113e-38
-785.46198 2825.1599 -298.181 1.8403113e-38
-729.20697 2830.6101 -298.276 1.8403113e-38
-674.93298 2835.8701 -298.36499 1.8403113e-38
-623.56201 2841.3101 -298.61801 1.8403113e-38
-574.14899 2846.6699 -298.905 1.8403113e-38
-479.32101 2856.5801 -299.32599 1.8403113e-38
-314.27802 2856.27 -293.689 1.8403113e-38
-434.814 2861.5801 -299.64801 1.8403113e-38
-384.927 2863.6799 -298.73801 1.8403113e-38
-213.01199 2876.3 -297.56201 1.8403113e-38
-184.424 2884.3401 -299.51999 1.8403113e-38
-144.278 2886.55 -298.978 1.8403113e-38
-110.461 2891.1599 -299.51501 1.8403113e-38
-70.544403 2892.25 -298.57501 1.8403113e-38
-36.036098 2895.3999 -298.56201 1.8403113e-38
4.4916801 2894.9299 -297.035 1.8403113e-38
29.203699 2902.04 -298.78601 1.8403113e-38
63.417801 2903.74 -298.259 1.8403113e-38
88.907097 2909.6499 -299.54501 1.8403113e-38
128.065 2907.6001 -297.492 1.8403113e-38
151.70599 2913.6599 -298.89999 1.8403113e-38
183.795 2914.52 -298.13699 1.8403113e-38
215.76199 2914.9299 -297.215 1.8403113e-38
270.974 2919.5 -297.02399 1.8403113e-38
238.384 2920.4299 -298.45001 1.8403113e-38
294.30499 2923.8 -297.80399 1.8403113e-38
324.99899 2923.0801 -296.51599 1.8403113e-38
349.00601 2926.1799 -296.836 1.8403113e-38
372.94699 2928.97 -297.043 1.8403113e-38
403.285 2927.0701 -295.34201 1.8403113e-38
421.422 2933.03 -296.89301 1.8403113e-38
445.138 2934.8501 -296.76199 1.8403113e-38
468.77301 2936.3701 -296.51999 1.8403113e-38
493.10999 2937 -295.93399 1.8403113e-38
515.78302 2938.46 -295.70599 1.8403113e-38
539.92603 2938.46 -294.89801 1.8403113e-38
563.19 2938.73 -294.21799 1.8403113e-38
586.35303 2938.7 -293.42999 1.8403113e-38
604.09399 2942.5801 -294.24301 1.8403113e-38
627.83698 2941.3701 -293.01099 1.8403113e-38
643.22601 2946.6201 -294.39899 1.8403113e-38
665.297 2946.1001 -293.47198 1.8403113e-38
689.46899 2943.4099 -291.68799 1.8403113e-38
706.18903 2946.74 -292.33499 1.8403113e-38
722.87799 2949.8701 -292.91199 1.8403113e-38
740.25201 2952.1599 -293.16 1.8403113e-38
761.85303 2950.3301 -291.77399 1.8403113e-38
777.67798 2953.49 -292.388 1.8403113e-38
792.776 2957.1201 -293.20099 1.8403113e-38
808.54797 2959.9199 -293.686 1.8403113e-38
846.12201 2958.8401 -292.039 1.8403113e-38
824.97498 2961.8601 -293.84 1.8403113e-38
857.68298 2965.1699 -293.944 1.8403113e-38
879.30603 2961 -291.70999 1.8403113e-38
888.19702 2969.8101 -294.60501 1.8403113e-38
903.72699 2971.52 -294.70499 1.8403113e-38
919.21002 2973.05 -294.74399 1.8403113e-38
938.49799 2970.1299 -293.039 1.8403113e-38
950.03302 2975.6001 -294.63501 1.8403113e-38
971.02301 2970.0901 -291.936 1.8403113e-38
999.56 2973.71 -292.29199 1.8403113e-38
1026.74 2978.1899 -293.009 1.8403113e-38
977.539 2981.0901 -295.707 1.8403113e-38
1004.35 2986.75 -296.85901 1.8403113e-38
1034.65 2987.3401 -296.06 1.8403113e-38
1047.95 2989.6499 -296.452 1.8403113e-38
1083.64 2981.6201 -292.34799 1.8403113e-38
1216.27 2988.9299 -290.55801 1.8403113e-38
1062.38 2990.3 -296.20499 1.8403113e-38
1089.4 2993.4399 -296.439 1.8403113e-38
1100.89 2997.51 -297.52802 1.8403113e-38
1116.8199 2995.24 -296.173 1.8403113e-38
1158.66 2995.27 -294.78299 1.8403113e-38
1187.64 2992.4099 -292.77899 1.8403113e-38
1197.4399 2997.99 -294.474 1.8403113e-38
1225.55 2995.0901 -292.48001 1.8403113e-38
1239.72 2993 -291.25 1.8403113e-38
1251.9 2994.05 -291.22101 1.8403113e-38
1311.45 2999.1699 -291.08701 1.8403113e-38
1324.3101 2997.8301 -290.16901 1.8403113e-38
1124.48 3004.53 -299.285 1.8403113e-38
1139.77 3002.76 -298.13 1.8403113e-38
1272.95 3001.5901 -293.24899 1.8403113e-38
1297.2 3002.8999 -292.914 1.8403113e-38
1334.99 3000.5901 -290.814 1.8403113e-38
1344.4301 3005.8201 -292.39099 1.8403113e-38
1367.86 3006.6001 -291.89099 1.8403113e-38
1380.1 3005.53 -291.095 1.8403113e-38
1401.4301 3009.98 -291.99399 1.8403113e-38
1443.76 3018.6399 -293.716 1.8403113e-38
1430.64 3022.98 -295.72501 1.8403113e-38
-4093.1499 2474.72 -281.84601 1.8403113e-38
-3871.9399 2502.6899 -284.58099 1.8403113e-38
-3663.6299 2528.4399 -286.94101 1.8403113e-38
-3463.26 2551.71 -288.672 1.8403113e-38
-3261.9399 2571.6201 -289.15399 1.8403113e-38
-219.506 2837.29 -283.63901 1.8403113e-38
-201.931 2850.45 -287.823 1.8403113e-38
1179.97 2983.5701 -289.82901 1.8403113e-38
1265.9301 2991.6699 -289.89099 1.8403113e-38
1290.0699 2993.1399 -289.61401 1.8403113e-38
1360.42 2997.29 -288.76501 1.8403113e-38
1394.58 2999.1599 -288.29999 1.8403113e-38
1415.02 3005.1001 -289.76999 1.8403113e-38
1426.34 3005.3201 -289.47 1.8403113e-38
1459.4301 3007.1101 -289.013 1.8403113e-38
1472.58 3001.6101 -286.578 1.8403113e-38
1482.11 3005.74 -287.75601 1.8403113e-38
1493.84 3003.5601 -286.573 1.8403113e-38
1504.3 3004.8401 -286.68701 1.8403113e-38
1524.9301 3008.02 -287.15201 1.8403113e-38
1535.38 3009.04 -287.16901 1.8403113e-38
1546.35 3008.1499 -286.48001 1.8403113e-38
1567.67 3007.8999 -285.67499 1.8403113e-38
1578.28 3007.6299 -285.22299 1.8403113e-38
1513.01 3011.3999 -288.77499 1.8403113e-38
1555.22 3014.4099 -288.452 1.8403113e-38
1587.47 3012.74 -286.76801 1.8403113e-38
1598.08 3012.3 -286.25299 1.8403113e-38
1608.23 3013.5901 -286.384 1.8403113e-38
1618.58 3013.8899 -286.14401 1.8403113e-38
1629.12 3013.1799 -285.53299 1.8403113e-38
1638.48 3017.8999 -286.92999 1.8403113e-38
1648.46 3019.78 -287.27802 1.8403113e-38
1659.14 3017.8799 -286.23401 1.8403113e-38
1679.41 3019.3701 -286.09399 1.8403113e-38
1720.15 3019.47 -284.767 1.8403113e-38
1668.46 3023.3 -287.884 1.8403113e-38
1689.4 3020.9099 -286.32001 1.8403113e-38
1699.39 3022.3799 -286.51599 1.8403113e-38
1709.53 3022.8301 -286.341 1.8403113e-38
1729.45 3026.28 -286.923 1.8403113e-38
1739.39 3028.3501 -287.341 1.8403113e-38
1749.55 3028.46 -287.04401 1.8403113e-38
1765.1001 3024.73 -285.1705 1.8403113e-38
1800.42 3023.1101 -283.39999 1.8403113e-38
1820.26 3028.8201 -284.80899 1.8403113e-38
1830.4399 3024.52 -282.90701 1.8403113e-38
1779.8101 3030.1899 -286.65701 1.8403113e-38
1789.76 3032.79 -287.26501 1.8403113e-38
1810.04 3032.1101 -286.341 1.8403113e-38
1840.35 3030.46 -284.73001 1.8403113e-38
1850.39 3033.51 -285.49701 1.8403113e-38
1860.48 3033.6499 -285.211 1.8403113e-38
1870.58 3034.6499 -285.23599 1.8403113e-38
1880.6801 3034.6299 -284.89001 1.8403113e-38
1890.76 3033.5801 -284.173 1.8403113e-38
1900.91 3035.27 -284.44601 1.8403113e-38
1911.28 3040.6399 -286.04501 1.8403113e-38
1921.48 3041.22 -285.914 1.8403113e-38
1931.9399 3045.47 -287.10599 1.8403113e-38
1941.78 3040.26 -284.88599 1.8403113e-38
1962.6801 3045.52 -286.095 1.8403113e-38
1973.25 3048.49 -286.81699 1.8403113e-38
1983.25 3045.75 -285.48999 1.8403113e-38
2003.74 3044.71 -284.42599 1.8403113e-38
2066.8601 3048.8201 -283.80499 1.8403113e-38
1952.88 3050.8999 -288.37399 1.8403113e-38
1994.24 3051.3501 -287.15201 1.8403113e-38
2015.09 3051.99 -286.68701 1.8403113e-38
2026.3101 3057.3101 -288.23901 1.8403113e-38
2036.45 3055.0801 -287.091 1.8403113e-38
2047.03 3055.5601 -286.91 1.8403113e-38
2057.3 3054.0901 -286.03299 1.8403113e-38
2078.53 3054.6001 -285.508 1.8403113e-38
2089.55 3056.5701 -285.854 1.8403113e-38
2100.4199 3057.52 -285.83401 1.8403113e-38
2133.01 3058.8899 -285.23999 1.8403113e-38
2112.1599 3062.0601 -287.08801 1.8403113e-38
2122.48 3060.0601 -286.01599 1.8403113e-38
2145.8701 3066.79 -287.67499 1.8403113e-38
2155.26 3060.8501 -285.20801 1.8403113e-38
2167.8201 3066.71 -286.91 1.8403113e-38
2201.3 3067.23 -285.978 1.8403113e-38
2223.74 3067.0801 -285.17499 1.8403113e-38
2235.8999 3069.5601 -285.66599 1.8403113e-38
2246.8999 3068.3401 -284.854 1.8403113e-38
2179.99 3070.6201 -287.92099 1.8403113e-38
2191.1899 3070.79 -287.60699 1.8403113e-38
2213.6499 3070.8201 -286.867 1.8403113e-38
2262.02 3078.6499 -288.08499 1.8403113e-38
2272.8 3076.3101 -286.875 1.8403113e-38
2283.8999 3074.76 -285.94501 1.8403113e-38
2296.03 3075.78 -285.909 1.8403113e-38
2320.4299 3077.48 -285.70901 1.8403113e-38
2380.6201 3076.25 -283.24799 1.8403113e-38
2310.3101 3082 -287.68201 1.8403113e-38
2334.1699 3081.6799 -286.76901 1.8403113e-38
2347.27 3083.98 -287.16501 1.8403113e-38
2358.52 3081.79 -285.995 1.8403113e-38
2372.9099 3086.46 -287.20499 1.8403113e-38
2411.3799 3088.3799 -286.616 1.8403113e-38
2421.8999 3083.9199 -284.647 1.8403113e-38
2448.0801 3084.9399 -284.13901 1.8403113e-38
2476.74 3089.6499 -284.88699 1.8403113e-38
2400 3091.03 -287.95499 1.8403113e-38
2439.71 3093.8799 -287.659 1.8403113e-38
2465.72 3093.71 -286.728 1.8403113e-38
2490.5 3090.52 -284.74399 1.8403113e-38
2504.3201 3091.26 -284.547 1.8403113e-38
2534.5601 3096.4399 -285.41501 1.8403113e-38
2549.0901 3097.5601 -285.33301 1.8403113e-38
2564.1799 3099.3401 -285.474 1.8403113e-38
2577.8301 3098.52 -284.72 1.8403113e-38
2522.98 3100.1599 -287.151 1.8403113e-38
2594.1001 3101.6101 -285.298 1.8403113e-38
2613.6101 3109.3701 -287.457 1.8403113e-38
2623.77 3102.45 -284.608 1.8403113e-38
2639.77 3104.23 -284.71799 1.8403113e-38
2654.77 3104.25 -284.22299 1.8403113e-38
2672.5801 3108.0601 -285.00699 1.8403113e-38
2682.6899 3100.6699 -281.991 1.8403113e-38
2718.1799 3106.6101 -282.95599 1.8403113e-38
2707.46 3113.5 -285.811 1.8403113e-38
2739.29 3113.51 -284.75201 1.8403113e-38
-4863.8398 2376.1899 -271.923 1.8403113e-38
-4596.0801 2412.4199 -276.09299 1.8403113e-38
-4339.1699 2445.1699 -279.36801 1.8403113e-38
2743.53 3097.9299 -278.96301 1.8403113e-38
-5498.6299 2295.4099 -263.88599 1.8403113e-38
-5197.27 2339.28 -269.70099 1.8403113e-38
2862.8501 2949.5701 -221.19901 1.8403113e-38
2619.01 2917.8401 -217.85699 1.8403113e-38
2834.5 2938.22 -218.035 1.8403113e-38
2870.6299 2940.03 -217.481 1.8403113e-38
-4716.8198 2204.1201 -204.63699 1.8403113e-38
2623.3701 2888.8701 -207.213 1.8403113e-38
2613.47 2893.5 -209.22099 1.8403113e-38
2868.21 2903.99 -204.50101 1.8403113e-38
2861.49 2914.1699 -208.416 1.8403113e-38
-4890.3701 2155.3899 -192.785 1.8403113e-38
2640.4099 2843.8401 -190.32201 1.8403113e-38
2611.0801 2857.26 -196.168 1.8403113e-38
2723.0901 2855.8301 -191.90199 1.8403113e-38
2748.98 2866.99 -195.082 1.8403113e-38
2859.1299 2879.1101 -195.78999 1.8403113e-38
2871.96 2874.9299 -193.843 1.8403113e-38
2641.5601 2829.49 -185.08299 1.8403113e-38
2602.6101 2831.1101 -186.97501 1.8403113e-38
2660.7 2835.3899 -186.58099 1.8403113e-38
2672.78 2833.1599 -185.37 1.8403113e-38
2698.1299 2845.02 -188.82001 1.8403113e-38
2869.8301 2841.49 -181.795 1.8403113e-38
2865.9299 2853.5901 -186.31 1.8403113e-38
2579.8701 2788.95 -172.457 1.8403113e-38
2873.5701 2829.3999 -177.287 1.8403113e-38
2871.8501 2783.1599 -160.58701 1.8403113e-38
2870.8799 2797.03 -165.646 1.8403113e-38
2865.28 2807.1201 -169.492 1.8403113e-38
2872.47 2754.95 -150.343 1.8403113e-38
2871.8701 2768.72 -155.353 1.8403113e-38
2873.1299 2727.5701 -140.397 1.8403113e-38
2872.8899 2741.23 -145.35699 1.8403113e-38
2873.8899 2700.99 -130.739 1.8403113e-38
2881.8101 2720.48 -137.53799 1.8403113e-38
-4672.0498 1987.6 -124.669 1.8403113e-38
2874.76 2675.1899 -121.36 1.8403113e-38
2880.75 2692.71 -127.509 1.8403113e-38
2882.27 2654.6399 -113.658 1.8403113e-38
2874.1499 2661.8 -116.526 1.8403113e-38
-4654.8501 1934.01 -104.669 1.8403113e-38
2880.3201 2628.03 -104.079 1.8403113e-38
2879.75 2640.1899 -108.506 1.8403113e-38
2878.6399 2590.21 -90.427902 1.8403113e-38
2877.6899 2601.6899 -94.620499 1.8403113e-38
2879.0901 2614.8201 -99.334099 1.8403113e-38
-4528.2002 1881.8 -81.510498 1.8403113e-38
2882.6399 2568.8799 -82.565903 1.8403113e-38
2874.4099 2575.6299 -85.2882 1.8403113e-38
2883.8999 2534.79 -70.168503 1.8403113e-38
2878.5 2543.1201 -73.367401 1.8403113e-38
2878.1101 2554.4399 -77.484001 1.8403113e-38
-4661.9302 1826.9301 -66.096802 1.8403113e-38
2880.6101 2510.3401 -61.4174 1.8403113e-38
2884.9099 2523.99 -66.219803 1.8403113e-38
-2052.9399 2035.15 -54.268101 1.8403113e-38
2882.8501 2489.4299 -53.761299 1.8403113e-38
2877.8701 2497.75 -56.945202 1.8403113e-38
-4639.2402 1773.99 -46.150501 1.8403113e-38
-2064 2003.17 -43.045399 1.8403113e-38
2884.02 2457.5601 -42.172798 1.8403113e-38
2879.3301 2465.8999 -45.351898 1.8403113e-38
2879.8501 2476.9399 -49.337502 1.8403113e-38
2881.4299 2424.73 -30.361099 1.8403113e-38
2885.1001 2436.9099 -34.6521 1.8403113e-38
2882.3899 2446.1299 -38.0853 1.8403113e-38
-4711.98 1718.1 -28.327801 1.8403113e-38
2882.7 2404.72 -23.068001 1.8403113e-38
2884.8301 2415.96 -27.0679 1.8403113e-38
-4834.1401 1658.87 -10.9488 1.8403113e-38
2885.6499 2375.6699 -12.4391 1.8403113e-38
2882.6399 2384.4199 -15.7131 1.8403113e-38
2886.8201 2396.3501 -19.8965 1.8403113e-38
2889.53 2347.49 -2.0968101 1.8403113e-38
2885.8701 2355.8899 -5.2636299 1.8403113e-38
2889.49 2367.27 -9.2672701 1.8403113e-38
2892.73 2324.2998 6.4161797 1.8403113e-38
2886.6101 2336.5801 1.75845 1.8403113e-38
-4754 1607.9301 10.1922 1.8403113e-38
2887.1699 2288.8999 19.059099 1.8403113e-38
2887.8201 2298.5801 15.5721 1.8403113e-38
2890.25 2308.96 11.892 1.8403113e-38
2891.29 2262.1201 28.903 1.8403113e-38
2888.4199 2270.55 25.753201 1.8403113e-38
2894 2281.72 21.8911 1.8403113e-38
2890.78 2234.28 38.9753 1.8403113e-38
2896.79 2245.2 35.2206 1.8403113e-38
2892.1699 2253.1001 32.201099 1.8403113e-38
-3447.6499 1631.02 45.5336 1.8403113e-38
2888.46 2206.4299 48.9939 1.8403113e-38
2886.1101 2214.8401 45.867001 1.8403113e-38
2885.6101 2223.75 42.6203 1.8403113e-38
2890.1899 2179.97 58.639 1.8403113e-38
2893.7798 2194.2349 53.589199 1.8403113e-38
-5328.6099 1400.99 65.967598 1.8403113e-38
-3448.05 1587.29 61.368801 1.8403113e-38
2847.23 2153.21 66.901299 1.8403113e-38
2892.22 2171.53 61.768002 1.8403113e-38
2694.25 2113.95 76.012299 1.8403113e-38
-5318.02 1342.5601 87.500198 1.8403113e-38
2451.3501 2054.95 89.265602 1.8403113e-38
2468.03 2063.2 86.834396 1.8403113e-38
2405.0601 2023.4399 99.137001 1.8403113e-38
2414.26 2029.4 97.286301 1.8403113e-38
2413.1299 2036.22 94.776154 1.8403113e-38
2430.6201 2046.29 91.710701 1.8403113e-38
-1266.0699 1657.3101 108.999 1.8403113e-38
2386.3999 1994.51 109 1.8403113e-38
2389.5 2003.5699 105.818 1.8403113e-38
2397.9299 2004.48 105.772 1.8403113e-38
2403.3301 2014.12 102.459 1.8403113e-38
2411.6499 2019.77 100.69 1.8403113e-38
