# .PCD v0.7 - Point Cloud Data file format
VERSION 0.7
FIELDS x y z rgb
SIZE 4 4 4 4
TYPE F F F F
COUNT 1 1 1 1
WIDTH 333
HEIGHT 1
VIEWPOINT 0 0 0 1 0 0 0
POINTS 333
DATA ascii
-258.34201 -174.575 -308.67401 1.8403113e-38
-243.067 -11.4919 -301.931 1.8403113e-38
-243.519 103.101 -301.263 1.8403113e-38
-245.927 205.23199 -301.39801 1.8403113e-38
-246.181 304.89401 -300.767 1.8403113e-38
-253.686 383.55701 -302.92599 1.8403113e-38
-254.83701 469.64301 -302.72 1.8403113e-38
-252.564 556.81201 -301.26001 1.8403113e-38
-255.05499 630.40997 -301.63199 1.8403113e-38
-254.97301 704.31702 -301.06601 1.8403113e-38
-253.83501 775.94 -300.13101 1.8403113e-38
-204.813 -1495.96 -298.79001 1.8403113e-38
-205.80901 -612.28101 -292.73599 1.8403113e-38
-207.729 -448.95499 -292.24799 1.8403113e-38
-211.159 -332.12701 -292.64801 1.8403113e-38
-218.60899 -324.74399 -295.30499 1.8403113e-38
-223.963 -196.464 -296.32199 1.8403113e-38
-213.785 -195.509 -292.612 1.8403113e-38
-235.47301 -93.679398 -299.76401 1.8403113e-38
-229.646 42.349899 -296.65601 1.8403113e-38
-229.33 155.63499 -295.71799 1.8403113e-38
-233.541 251.092 -296.55801 1.8403113e-38
-243.14 329.08099 -299.48499 1.8403113e-38
-245.174 417.254 -299.58401 1.8403113e-38
-243.73399 506.54001 -298.41199 1.8403113e-38
-244.91901 585.60901 -298.26901 1.8403113e-38
-241.896 667.487 -296.57401 1.8403113e-38
-245.562 733.43597 -297.42999 1.8403113e-38
-245.339 802.26599 -296.84799 1.8403113e-38
-250.162 847.76398 -298.27301 1.8403113e-38
-240.549 874.638 -294.57999 1.8403113e-38
-250.95799 909.08698 -298.11801 1.8403113e-38
-242.409 933.23901 -294.83099 1.8403113e-38
-253.40401 965.065 -298.60101 1.8403113e-38
-243.23801 990.578 -294.71701 1.8403113e-38
-252.651 1023.01 -297.90601 1.8403113e-38
-241.38499 1049.03 -293.61801 1.8403113e-38
-253.81599 1075.71 -297.948 1.8403113e-38
-245.519 1096.73 -294.776 1.8403113e-38
-251.813 1130.3 -296.823 1.8403113e-38
-243.66299 1150.3 -293.711 1.8403113e-38
-253.80701 1177.47 -297.20499 1.8403113e-38
-247.67799 1194.2 -294.854 1.8403113e-38
-249.03101 1231.05 -295.078 1.8403113e-38
-241.907 1248.3199 -292.36099 1.8403113e-38
-252.91701 1272.17 -296.194 1.8403113e-38
-240.39 1295.15 -291.46799 1.8403113e-38
-252.58 1316.67 -295.74799 1.8403113e-38
-239.603 1339.33 -290.86099 1.8403113e-38
-249.813 1362.1801 -294.41101 1.8403113e-38
-245.575 1374.52 -292.77899 1.8403113e-38
-250.55099 1402.28 -294.388 1.8403113e-38
-246.71899 1413.77 -292.91 1.8403113e-38
-250.30901 1442.03 -294.01199 1.8403113e-38
-246.909 1452.6899 -292.69699 1.8403113e-38
-249.101 1481.41 -293.28601 1.8403113e-38
-246.237 1521.0699 -291.95599 1.8403113e-38
-243.07401 1530.8 -290.73401 1.8403113e-38
-250.22099 1553.11 -293.173 1.8403113e-38
-244.726 1564.6801 -291.08899 1.8403113e-38
-249.464 1622.28 -292.39499 1.8403113e-38
-243.811 1659.74 -290.06601 1.8403113e-38
-244.78 1690.73 -290.19299 1.8403113e-38
-182.174 -965.78998 -286.702 1.8403113e-38
-187.341 -943.14099 -288.41699 1.8403113e-38
-175.22501 -736.31897 -282.50699 1.8403113e-38
-178.494 -710.95898 -283.51199 1.8403113e-38
-197.05099 -618.724 -289.595 1.8403113e-38
-200.80701 -459.14001 -289.80301 1.8403113e-38
-239.254 1498.03 -289.582 1.8403113e-38
-240.513 1596.48 -289.32501 1.8403113e-38
-236.927 1605.95 -287.95099 1.8403113e-38
-238.373 1637.89 -288.246 1.8403113e-38
-241.334 1667.76 -289.10599 1.8403113e-38
-239.879 1700.4301 -288.33899 1.8403113e-38
-242.90149 1725.96 -289.254 1.8403113e-38
-240.052 1755.37 -288.00299 1.8403113e-38
-236.306 1763.65 -286.57999 1.8403113e-38
-245.179 1781.05 -289.68301 1.8403113e-38
-235.028 1793.65 -285.897 1.8403113e-38
-243.483 1811.01 -288.84799 1.8403113e-38
-238.631 1819.59 -287.01999 1.8403113e-38
-241.13699 1840.65 -287.77899 1.8403113e-38
-237.715 1848.05 -286.48001 1.8403113e-38
-239.76401 1868.96 -287.07401 1.8403113e-38
-235.388 1876.76 -285.42499 1.8403113e-38
-244.312 1893.03 -288.55399 1.8403113e-38
-232.45 1905.16 -284.14999 1.8403113e-38
-237.427 1925.88 -285.81 1.8403113e-38
-237.912 1948.9399 -285.819 1.8403113e-38
-237.258 1954.05 -285.54401 1.8403113e-38
-243.103 1973.78 -287.5275 1.8403113e-38
-237.645 1999.2 -285.35699 1.8403113e-38
-238.487 2003.35 -285.633 1.8403113e-38
-243.164 2020.91 -287.20801 1.8403113e-38
-237.104 2028.39 -284.948 1.8403113e-38
-245.6375 2046.1299 -287.92499 1.8403113e-38
-243.52901 2068.6699 -286.99399 1.8403113e-38
-238.938 2075.1001 -285.276 1.8403113e-38
-240.50999 2097.71 -285.68399 1.8403113e-38
-239.11099 2093.99 -285.202 1.8403113e-38
-245.3965 2116.605 -287.32501 1.8403113e-38
-240.27499 2139.27 -285.297 1.8403113e-38
-241.536 2142.99 -285.729 1.8403113e-38
-246.90601 2159.3201 -287.564 1.8403113e-38
-240.095 2165.9299 -285.03799 1.8403113e-38
-239.46051 2186.2251 -284.66 1.8403113e-38
-242.25301 2209.27 -285.508 1.8403113e-38
-239.396 2206.1101 -284.492 1.8403113e-38
-244.02699 2226.4099 -286.03 1.8403113e-38
-239.59399 2231.76 -284.37799 1.8403113e-38
-242.89 2252.28 -285.42801 1.8403113e-38
-236.515 2250.0801 -283.12399 1.8403113e-38
-246.802 2268.6101 -286.733 1.8403113e-38
-239.451 2274.47 -284.01501 1.8403113e-38
-246.61501 2293.8301 -286.48199 1.8403113e-38
-236.655 2292.29 -282.86801 1.8403113e-38
-236.0825 2315.2148 -282.4935 1.8403113e-38
-243.394 2336.3799 -285.00101 1.8403113e-38
-234.42 2334.3301 -281.75 1.8403113e-38
-237.6915 2356.1748 -282.78149 1.8403113e-38
-240.03 2374.3501 -283.50101 1.8403113e-38
-239.64301 2378.22 -283.332 1.8403113e-38
-244.217 2397.95 -284.853 1.8403113e-38
-236.289 2395.29 -281.98801 1.8403113e-38
-235.66451 2417.4849 -281.599 1.8403113e-38
-243.34201 2436.8052 -284.2525 1.8403113e-38
-241.347 2457.175 -283.37848 1.8403113e-38
-239.01349 2477.4399 -282.38199 1.8403113e-38
-237.7515 2497.52 -281.77753 1.8403113e-38
-238.452 2515.6001 -281.901 1.8403113e-38
-232.927 2519.48 -279.862 1.8403113e-38
-233.2975 2537.4702 -279.86652 1.8403113e-38
-230.58501 2555.45 -278.74899 1.8403113e-38
-229.634 2559.1299 -278.37601 1.8403113e-38
-232.2345 2577.1299 -279.1915 1.8403113e-38
-232.558 2598.8301 -279.151 1.8403113e-38
-224.239 2594.79 -276.15399 1.8403113e-38
-231.65199 2618.6499 -278.67801 1.8403113e-38
-228.092 2614.73 -277.41101 1.8403113e-38
-226.33051 2636.27 -276.61401 1.8403113e-38
-233.545 2658.6899 -279.07599 1.8403113e-38
-220.757 2653.72 -274.45901 1.8403113e-38
-234.46001 2678.8501 -279.263 1.8403113e-38
-228.29601 2674.3899 -277.052 1.8403113e-38
-231.99451 2696.78 -278.23499 1.8403113e-38
-231.127 2714.9399 -277.78799 1.8403113e-38
-227.839 2718.1899 -276.56799 1.8403113e-38
-230.541 2738.8799 -277.401 1.8403113e-38
-227.39 2734.55 -276.285 1.8403113e-38
-227.034 2754.78 -276.009 1.8403113e-38
-219.94099 2757.1799 -273.41101 1.8403113e-38
-213.0905 2774.135 -270.79449 1.8403113e-38
-225.3 2795.3501 -275.08301 1.8403113e-38
-232.819 2800.95 -277.77899 1.8403113e-38
-226.664 2816.3701 -275.427 1.8403113e-38
-232.257 2821.6699 -277.42401 1.8403113e-38
-228.571 2837.76 -275.966 1.8403113e-38
-227.69701 2841.4299 -275.621 1.8403113e-38
-223.74699 2857.45 -274.06699 1.8403113e-38
-221.90601 2860.8501 -273.37299 1.8403113e-38
-228.03149 2881.97 -275.44849 1.8403113e-38
-230.2 2902.1899 -276.091 1.8403113e-38
-227.334 2905.28 -275.02499 1.8403113e-38
-228.218 2925.3101 -275.20148 1.8403113e-38
-224.332 2943.8201 -273.65302 1.8403113e-38
-230.229 2950.1399 -275.75299 1.8403113e-38
-225.71201 2966.53 -273.98999 1.8403113e-38
-230.614 2972.6399 -275.73001 1.8403113e-38
-225.78999 2989.04 -273.85501 1.8403113e-38
-224.45399 2992.71 -273.34201 1.8403113e-38
-225.183 3013.71 -273.45551 1.8403113e-38
-225.2485 3036.875 -273.31097 1.8403113e-38
-223.504 3057.3201 -272.52802 1.8403113e-38
-231.381 3065.53 -275.33401 1.8403113e-38
-230.39799 3084.55 -274.83801 1.8403113e-38
-229.619 3088.6599 -274.52499 1.8403113e-38
-218.995 3102.9099 -270.556 1.8403113e-38
-225.127 3207.4099 -272.02802 1.8403113e-38
-223.935 3211.5801 -271.564 1.8403113e-38
-223.093 3232.6799 -271.10501 1.8403113e-38
-229.043 3241.54 -273.20499 1.8403113e-38
-228.71899 3268.6799 -272.89001 1.8403113e-38
-226.5975 3292.5149 -271.94501 1.8403113e-38
-231.01601 3326.8999 -273.30301 1.8403113e-38
-225.427 3438.26 -270.461 1.8403113e-38
-229.80701 3480.4399 -271.74899 1.8403113e-38
-226.629 3511.0601 -270.37 1.8403113e-38
-126.125 -991.01898 -266.48901 1.8403113e-38
-127.204 -952.15601 -266.599 1.8403113e-38
-217.31 3106.55 -269.91599 1.8403113e-38
-217.366 3255.9299 -268.85199 1.8403113e-38
-220.923 3314.21 -269.72299 1.8403113e-38
-211.36099 3335.98 -266.08499 1.8403113e-38
-216.63499 3345.3899 -267.936 1.8403113e-38
-203.96649 3362.375 -263.20251 1.8403113e-38
-201.55 3387.6101 -262.14001 1.8403113e-38
-220.67799 3408.8101 -268.94699 1.8403113e-38
-224.19299 3443.1699 -269.97601 1.8403113e-38
-218.048 3464.1101 -267.58801 1.8403113e-38
-222.362 3500.9299 -268.89099 1.8403113e-38
-214.452 3527.6299 -265.81799 1.8403113e-38
-224.17999 3543.1599 -269.246 1.8403113e-38
-217.839 3565.76 -266.77399 1.8403113e-38
-220.99699 3575.46 -267.853 1.8403113e-38
-213.42799 3597.4399 -264.939 1.8403113e-38
-217.073 3607.9299 -266.189 1.8403113e-38
-215.043 3636.24 -265.245 1.8403113e-38
-223.838 3652.46 -268.327 1.8403113e-38
-215.69901 3675.4099 -265.19901 1.8403113e-38
-218.87601 3686.1599 -266.27701 1.8403113e-38
-209.52 3708.4299 -262.711 1.8403113e-38
-222.869 3730.8701 -267.40601 1.8403113e-38
-214.088 3754.77 -264.03699 1.8403113e-38
-216.786 3765.75 -264.939 1.8403113e-38
-212.427 3795.6499 -263.13501 1.8403113e-38
-214.87801 3806.74 -263.94699 1.8403113e-38
-209.12399 3836.0701 -261.64001 1.8403113e-38
-216.845 3854.0901 -264.31799 1.8403113e-38
-209.631 3882.8799 -261.48401 1.8403113e-38
-216.97099 3901.1201 -264.02301 1.8403113e-38
-209.504 3930.8701 -261.08899 1.8403113e-38
-215.868 3948.54 -263.27701 1.8403113e-38
-208.114 3979.25 -260.23199 1.8403113e-38
-214.673 3997.8999 -262.48401 1.8403113e-38
-208.834 4032.79 -260.10599 1.8403113e-38
-214.98199 4051.6399 -262.20599 1.8403113e-38
-210 4100.1299 -260.04099 1.8403113e-38
-165.895 3146.1299 -250.91901 1.8403113e-38
-189.487 3164.8201 -259.36801 1.8403113e-38
-204.80299 4081.9099 -258.28201 1.8403113e-38
-197.321 4128.04 -255.224 1.8403113e-38
-199.46001 4142.29 -255.899 1.8403113e-38
-198.804 4202.02 -255.22701 1.8403113e-38
-196.09801 4249.3701 -253.89799 1.8403113e-38
-192.94 4256.29 -252.69901 1.8403113e-38
-200.425 4336.3799 -254.841 1.8403113e-38
-171.86301 4147.73 -245.817 1.8403113e-38
-181.535 4291.1401 -248.29601 1.8403113e-38
-182.802 4362.96 -248.235 1.8403113e-38
-187.826 4385.3999 -249.901 1.8403113e-38
-165.54401 4418.8198 -241.549 1.8403113e-38
-174.98801 4422.3101 -244.961 1.8403113e-38
-188.978 4542.4199 -249.179 1.8403113e-38
-167.60899 4568.2402 -241.216 1.8403113e-38
-188.98 4627.5298 -248.562 1.8403113e-38
-47.8204 -1137.14 -239.05499 1.8403113e-38
-46.5564 -924.54498 -237.05099 1.8403113e-38
-156.44501 4464.3701 -237.908 1.8403113e-38
-149.718 4618.6099 -234.34 1.8403113e-38
-145.09 4625.5698 -232.605 1.8403113e-38
-119.39 4644.6001 -223.11501 1.8403113e-38
-103.615 4627.1299 -217.50101 1.8403113e-38
-84.944801 4661.9199 -210.45399 1.8403113e-38
28.694799 -863.96802 -209.228 1.8403113e-38
-72.993797 4652.3398 -206.175 1.8403113e-38
89.233498 -1904.08 -194.75101 1.8403113e-38
-17.412201 3017.1101 -197.823 1.8403113e-38
-21.8353 3023.28 -199.388 1.8403113e-38
-4.6962099 3030.01 -193.10201 1.8403113e-38
-29.3554 4646.7998 -190.33501 1.8403113e-38
-38.4156 4650.2202 -193.60699 1.8403113e-38
5.0416498 3028.1499 -189.57201 1.8403113e-38
116.797 -732.56201 -176.213 1.8403113e-38
113.454 -699.88 -177.19299 1.8403113e-38
4.1586599 4645.7402 -178.147 1.8403113e-38
10.5596 4648.5898 -175.797 1.8403113e-38
145.715 -816.44098 -166.299 1.8403113e-38
158.379 -807.10999 -161.623 1.8403113e-38
43.166401 4648.6899 -163.931 1.8403113e-38
52.705799 4643.0298 -160.50101 1.8403113e-38
191.87199 -1219.9 -152.433 1.8403113e-38
205.44299 -863.44598 -144.90601 1.8403113e-38
207.326 -795.55103 -143.728 1.8403113e-38
323.94501 -844.578 -101.646 1.8403113e-38
319.63 -803.30402 -102.916 1.8403113e-38
364.90601 -964.54102 -87.611504 1.8403113e-38
367.42899 -865.927 -85.977402 1.8403113e-38
417.995 -1478.72 -72.026299 1.8403113e-38
429.87 -821.685 -62.933998 1.8403113e-38
449.28 -1291.3 -59.280701 1.8403113e-38
439.83401 -826.073 -59.339802 1.8403113e-38
371.69901 3842.95 -50.2295 1.8403113e-38
387.228 3943.53 -43.848499 1.8403113e-38
528.53802 -1803.16 -34.156101 1.8403113e-38
425.254 3756.25 -31.370701 1.8403113e-38
403.90302 3764.96 -39.0769 1.8403113e-38
420.431 3854.0601 -32.415401 1.8403113e-38
421.83499 3928.24 -31.365999 1.8403113e-38
402.60901 3976.3301 -38.0131 1.8403113e-38
541.849 -1804.24 -29.32 1.8403113e-38
541.44702 -827.00598 -22.370001 1.8403113e-38
431.15701 3751.0601 -29.2605 1.8403113e-38
593.59998 -1927.17 -11.3807 1.8403113e-38
552.35901 -821.06097 -18.356001 1.8403113e-38
481.77399 3803.3799 -10.4611 1.8403113e-38
475.491 3810.78 -12.6938 1.8403113e-38
607.289 -1928.01 -6.4053702 1.8403113e-38
503.40601 3790.26 -2.6845601 1.8403113e-38
504.13901 3802.95 -2.32567 1.8403113e-38
521.354 3805.8501 3.96018 1.8403113e-38
522.56403 3817.5601 4.4853201 1.8403113e-38
667.16199 -1929.16 15.3741 1.8403113e-38
542.42499 3809.49 11.6543 1.8403113e-38
544.71198 3817.29 12.543 1.8403113e-38
563.05902 3824.4102 19.2712 1.8403113e-38
681.09698 -1922.76 20.491501 1.8403113e-38
586.94946 3814.0249 27.8895 1.8403113e-38
613.83099 3795.1799 37.534599 1.8403113e-38
608.42999 3803.26 35.628101 1.8403113e-38
740.60498 -1934.79 42.058998 1.8403113e-38
754.47803 -1926.14 47.169998 1.8403113e-38
632.92297 3795.2549 44.48275 1.8403113e-38
633.04901 3923.48 45.459702 1.8403113e-38
635.10797 3938.99 46.321602 1.8403113e-38
636.19598 4112.9302 47.980499 1.8403113e-38
630.39001 4120.1699 45.920399 1.8403113e-38
629.396 4667.9199 49.536098 1.8403113e-38
639.776 4267.6499 50.406898 1.8403113e-38
645.133 4267.3101 52.353802 1.8403113e-38
635.86603 4668.6001 51.895599 1.8403113e-38
814.255 -1922.0601 68.952202 1.8403113e-38
665.26599 4657.3701 62.512699 1.8403113e-38
671.164 4664.9102 64.713501 1.8403113e-38
828.51501 -1552.16 76.827599 1.8403113e-38
755.37799 3856.1399 89.486099 1.8403113e-38
750.87799 3863.8501 87.904404 1.8403113e-38
876.38098 -966.02899 98.502296 1.8403113e-38
776.35199 3867.3501 97.1996 1.8403113e-38
771.94702 3875.1399 95.653603 1.8403113e-38
886.25598 -906.90198 102.525 1.8403113e-38
796.11548 3862.125 104.3535 1.8403113e-38
813.29999 4019.55 111.75 1.8403113e-38
