# .PCD v0.7 - Point Cloud Data file format
VERSION 0.7
FIELDS x y z rgb
SIZE 4 4 4 4
TYPE F F F F
COUNT 1 1 1 1
WIDTH 358
HEIGHT 1
VIEWPOINT 0 0 0 1 0 0 0
POINTS 358
DATA ascii
837.64203 -1546.45 -313.18799 1.8403113e-38
803.961 -1489.61 -318.04501 1.8403113e-38
647.836 -1002.86 -314.09601 1.8403113e-38
622.31201 -901.97998 -310.92499 1.8403113e-38
596.05103 -834.57098 -311.97501 1.8403113e-38
572.15503 -768.08398 -312.32101 1.8403113e-38
548.29797 -696.38702 -312.035 1.8403113e-38
526.97198 -622.69897 -310.642 1.8403113e-38
504.53201 -565.57397 -311.59601 1.8403113e-38
484.935 -498.58401 -310.40201 1.8403113e-38
464.44501 -441.22198 -310.65601 1.8403113e-38
676.78101 -1041.1 -308.66599 1.8403113e-38
446.561 -377.99799 -309.319 1.8403113e-38
427.60101 -324.38199 -309.48999 1.8403113e-38
410.60599 -270.84601 -308.995 1.8403113e-38
392.591 -223.935 -309.63599 1.8403113e-38
378.20901 -162.422 -307.297 1.8403113e-38
360.789 -123.202 -308.64401 1.8403113e-38
346.11301 -76.273598 -308.134 1.8403113e-38
330.298 -34.9501 -308.67999 1.8403113e-38
317.20099 13.0466 -307.5 1.8403113e-38
301.45599 46.701199 -308.92999 1.8403113e-38
288.89401 89.913399 -308.133 1.8403113e-38
274.99799 127.563 -308.45401 1.8403113e-38
262.61301 165.03 -308.276 1.8403113e-38
249.70399 201.795 -308.362 1.8403113e-38
238.869 241.241 -307.41699 1.8403113e-38
225.235 269.42001 -308.76999 1.8403113e-38
214.645 305.07001 -308.19 1.8403113e-38
203.52299 340.02399 -307.875 1.8403113e-38
194.013 375.689 -306.922 1.8403113e-38
182.037 403.05701 -307.79999 1.8403113e-38
174.29601 441.57001 -305.901 1.8403113e-38
164.536 473.702 -305.452 1.8403113e-38
154.451 499.91101 -305.81699 1.8403113e-38
145.62601 532.052 -305.04599 1.8403113e-38
137.20399 561.09399 -304.50201 1.8403113e-38
129.627 594.14398 -303.194 1.8403113e-38
119.412 614.784 -304.263 1.8403113e-38
111.822 645.02197 -303.29199 1.8403113e-38
102.58 666.62701 -303.91299 1.8403113e-38
94.543297 693.15399 -303.535 1.8403113e-38
86.938698 717.53802 -303.263 1.8403113e-38
76.6353 735.81799 -304.642 1.8403113e-38
71.4048 764.76599 -303.01199 1.8403113e-38
62.757198 785.80499 -303.495 1.8403113e-38
56.870602 811.06702 -302.52802 1.8403113e-38
50.3293 835.71002 -301.85901 1.8403113e-38
44.412701 859.11798 -301.121 1.8403113e-38
32.8321 870.32098 -303.77899 1.8403113e-38
28.6499 896.39502 -302.129 1.8403113e-38
23.032499 920.08002 -301.255 1.8403113e-38
16.7421 939.883 -301.073 1.8403113e-38
1.4323 973.677 -302.33801 1.8403113e-38
-8.1060305 986.85602 -304.05801 1.8403113e-38
-13.4197 1006.66 -303.54001 1.8403113e-38
-17.267599 1030.23 -302.07199 1.8403113e-38
-25.160999 1043.99 -303.15799 1.8403113e-38
-32.532799 1059.8199 -303.819 1.8403113e-38
-43.7883 1066.86 -306.85901 1.8403113e-38
-41.868 1098.76 -302.41699 1.8403113e-38
-47.068199 1115.92 -302.17401 1.8403113e-38
-60.875599 1170.47 -300.461 1.8403113e-38
-72.297096 1200.87 -300.789 1.8403113e-38
765.11102 -1187.05 -295.56299 1.8403113e-38
704.78998 -993.638 -293.40302 1.8403113e-38
15.0801 970.526 -298.01401 1.8403113e-38
-48.689899 1140.0699 -299.86899 1.8403113e-38
-54.372101 1155.5 -299.996 1.8403113e-38
-61.614101 1193.26 -298.01401 1.8403113e-38
-72.528702 1223.5699 -298.17899 1.8403113e-38
-77.680801 1239.3 -298.08801 1.8403113e-38
-83.752899 1252.26 -298.642 1.8403113e-38
-87.445297 1269.5699 -297.862 1.8403113e-38
-95.371101 1279.39 -299.42599 1.8403113e-38
-93.682198 1303.7 -295.96301 1.8403113e-38
-97.364197 1318.97 -295.422 1.8403113e-38
-103.579 1331.49 -296.077 1.8403113e-38
-106.907 1346.73 -295.41599 1.8403113e-38
-112.81 1359.26 -295.96201 1.8403113e-38
-114.609 1375.97 -294.60199 1.8403113e-38
-123.752 1384 -296.79599 1.8403113e-38
-119.797 1407.35 -292.66901 1.8403113e-38
-128.674 1415.4301 -294.767 1.8403113e-38
-133.394 1427.58 -294.95099 1.8403113e-38
-137.14799 1441.58 -294.58401 1.8403113e-38
-144.71001 1450.14 -296.173 1.8403113e-38
-148.808 1463.42 -296.008 1.8403113e-38
-149.16901 1479.85 -294.186 1.8403113e-38
-153.57401 1492.38 -294.21701 1.8403113e-38
-156.80499 1505.21 -293.80899 1.8403113e-38
-162.237 1516.35 -294.358 1.8403113e-38
-163.869 1530.53 -293.23901 1.8403113e-38
-167.70399 1543.03 -293.078 1.8403113e-38
-169.01601 1557.14 -291.858 1.8403113e-38
-175.953 1566.28 -293.16199 1.8403113e-38
-181.771 1575.73 -294.04401 1.8403113e-38
-183.707 1589.53 -293.07501 1.8403113e-38
-187.922 1600.3 -293.24899 1.8403113e-38
-188.86 1614.6801 -291.86801 1.8403113e-38
-194.95 1623.55 -292.914 1.8403113e-38
-199.871 1634.12 -293.35501 1.8403113e-38
-200.769 1647.38 -292.09201 1.8403113e-38
-207.62601 1656.12 -293.41599 1.8403113e-38
-214.936 1678.15 -293.32199 1.8403113e-38
-206.076 1671.16 -291.10101 1.8403113e-38
-212.356 1693.67 -290.59399 1.8403113e-38
-220.312 1701.34 -292.423 1.8403113e-38
-221.91901 1713.28 -291.56201 1.8403113e-38
-222.185 1726.75 -290.05801 1.8403113e-38
-234.159 1730.74 -293.70499 1.8403113e-38
-231.908 1745.87 -291.138 1.8403113e-38
-236.116 1755.53 -291.44101 1.8403113e-38
-236.645 1768.34 -290.10501 1.8403113e-38
-239.87399 1778.55 -290.00699 1.8403113e-38
-244.843 1788.13 -290.58099 1.8403113e-38
-252.614 1795.25 -292.41199 1.8403113e-38
-259.021 1803.91 -293.59 1.8403113e-38
-257.92801 1816.73 -291.69501 1.8403113e-38
-260.155 1827.9301 -291.13501 1.8403113e-38
-262.021 1838.6801 -290.50299 1.8403113e-38
-268.078 1847.4399 -291.54999 1.8403113e-38
-268.939 1858.66 -290.51599 1.8403113e-38
-271.56299 1869.36 -290.151 1.8403113e-38
-274.673 1879.16 -290.061 1.8403113e-38
-287.01999 1884.46 -293.68201 1.8403113e-38
-282.521 1898.34 -290.48901 1.8403113e-38
-288.10101 1907.3199 -291.345 1.8403113e-38
-290.87701 1917.1801 -291.13101 1.8403113e-38
-292.095 1928.34 -290.228 1.8403113e-38
-296.37799 1937.39 -290.63 1.8403113e-38
-303.22299 1956.8199 -290.68301 1.8403113e-38
-310.90399 1964.86 -292.37399 1.8403113e-38
-309.73499 1976.33 -290.612 1.8403113e-38
-312.961 1986.34 -290.53601 1.8403113e-38
-331.73499 2044.73 -290.078 1.8403113e-38
733.66901 -975.737 -281.34299 1.8403113e-38
-295.69699 1949.33 -288.98001 1.8403113e-38
-313.311 1997.01 -289.39301 1.8403113e-38
-312.87399 2008.45 -287.88699 1.8403113e-38
-316.513 2017.65 -288.04901 1.8403113e-38
-324.63599 2025.64 -289.897 1.8403113e-38
-322.86099 2036.92 -287.94901 1.8403113e-38
-330.65601 2055.6599 -288.41199 1.8403113e-38
-335.854 2064.8501 -289.11099 1.8403113e-38
-337.259 2074.8301 -288.41199 1.8403113e-38
-336.94101 2085.8501 -286.99701 1.8403113e-38
-339.95901 2095.24 -286.923 1.8403113e-38
-343.04501 2105.1201 -286.815 1.8403113e-38
-347.71201 2114.02 -287.366 1.8403113e-38
-356.06699 2122.4299 -289.24399 1.8403113e-38
-357.88599 2132.23 -288.70999 1.8403113e-38
-361.57199 2142.02 -288.81799 1.8403113e-38
-357.76199 2153.22 -286.17899 1.8403113e-38
-363.10001 2162.5801 -286.90799 1.8403113e-38
-368.25 2171.53 -287.61899 1.8403113e-38
-367.94199 2182.26 -286.241 1.8403113e-38
-370.186 2191.8899 -285.87299 1.8403113e-38
-384.70099 2209.7 -288.75699 1.8403113e-38
-378.909 2200.7 -287.83099 1.8403113e-38
-386.41052 2225.1099 -287.52002 1.8403113e-38
-391.65302 2239.8701 -287.57501 1.8403113e-38
-392.50699 2249.8401 -286.68701 1.8403113e-38
-399.88199 2259.3301 -288.10101 1.8403113e-38
-400.577 2269.3501 -287.15302 1.8403113e-38
-403.133 2279.6101 -286.81699 1.8403113e-38
-407.40399 2289.1899 -287.15201 1.8403113e-38
-415.41699 2298.9099 -288.75699 1.8403113e-38
-418.604 2308.73 -288.69 1.8403113e-38
-420.83499 2319.1799 -288.22 1.8403113e-38
-419.16299 2329.47 -286.42599 1.8403113e-38
-424.983 2339.6599 -287.22101 1.8403113e-38
-429.73401 2349.51 -287.689 1.8403113e-38
-432.56699 2360.03 -287.41699 1.8403113e-38
-430.55801 2370.3 -285.508 1.8403113e-38
-437.935 2380.6899 -286.81601 1.8403113e-38
-441.423 2390.8 -286.81799 1.8403113e-38
-438.24301 2401.5801 -284.44601 1.8403113e-38
-441.564 2411.74 -284.38599 1.8403113e-38
-448.60501 2422.46 -285.53799 1.8403113e-38
-448.923 2432.73 -284.431 1.8403113e-38
-454.845 2443.6101 -285.17899 1.8403113e-38
-459.72501 2454.0601 -285.62 1.8403113e-38
-463.57599 2465.0701 -285.64099 1.8403113e-38
-467.33801 2475.6399 -285.68399 1.8403113e-38
-470.06201 2486.72 -285.30801 1.8403113e-38
-476.487 2497.5901 -286.23099 1.8403113e-38
-476.18799 2508.6001 -284.82401 1.8403113e-38
-477.707 2519.24 -284.086 1.8403113e-38
-482.89401 2530.78 -284.504 1.8403113e-38
-483.28799 2541.4099 -283.38 1.8403113e-38
-490.17099 2553.3 -284.33899 1.8403113e-38
-499.81799 2565.1399 -286.25601 1.8403113e-38
-497.065 2576.1001 -284.01001 1.8403113e-38
-498.035 2587 -283.052 1.8403113e-38
-503.57001 2599.1599 -283.517 1.8403113e-38
-507.173 2610.5901 -283.40201 1.8403113e-38
-505.92099 2621.8401 -281.63699 1.8403113e-38
-514.961 2634.3601 -283.26501 1.8403113e-38
-518.19501 2646.55 -282.93399 1.8403113e-38
-518.58801 2657.72 -281.745 1.8403113e-38
-520.67798 2669.8301 -281.03 1.8403113e-38
-525.54498 2682.04 -281.25699 1.8403113e-38
-531.14801 2695.1001 -281.638 1.8403113e-38
-533.00098 2706.8701 -280.88101 1.8403113e-38
-535.58301 2719.46 -280.27802 1.8403113e-38
-542.79401 2732.72 -281.18799 1.8403113e-38
-541.43799 2744.5 -279.32501 1.8403113e-38
-544.716 2756.98 -278.974 1.8403113e-38
-551.453 2771.1201 -279.61801 1.8403113e-38
-554.49597 2783.78 -279.16501 1.8403113e-38
-544.43402 2793.21 -274.58499 1.8403113e-38
-782.41101 3504.0601 -272.24899 1.8403113e-38
-786.20099 3526.9199 -270.845 1.8403113e-38
-792.49402 3551.0601 -270.151 1.8403113e-38
857.68402 -1232.3101 -269.06799 1.8403113e-38
-521.60602 2797.96 -266.16599 1.8403113e-38
-799.62 3577.21 -269.50299 1.8403113e-38
-799.15698 3596.8701 -267.01501 1.8403113e-38
-799.56 3618.45 -264.59601 1.8403113e-38
-794.08502 3634.52 -260.80701 1.8403113e-38
-867.46698 3809.1299 -265.371 1.8403113e-38
-877.867 3841.76 -265.08301 1.8403113e-38
-886.57202 3874.6799 -264.17899 1.8403113e-38
-916.25598 3978.3301 -262.112 1.8403113e-38
-924.61298 4013.6399 -260.80399 1.8403113e-38
-953.03998 4096.9902 -260.70999 1.8403113e-38
-965.36499 4137.4199 -260.16 1.8403113e-38
-800.05798 3726.3301 -251.98399 1.8403113e-38
-841.35199 3856.74 -250.743 1.8403113e-38
-930.33301 4045.72 -258.97101 1.8403113e-38
-977.164 4179.5898 -259.22299 1.8403113e-38
-987.72601 4219.9302 -258.078 1.8403113e-38
-999.06 4263.4702 -256.82001 1.8403113e-38
-1009.19 4305.1299 -255.37 1.8403113e-38
-1040.76 4405.6899 -254.317 1.8403113e-38
-1040.55 4440.04 -250.174 1.8403113e-38
-1061.1899 4497.9902 -250.412 1.8403113e-38
-757.71002 3626.1499 -249.282 1.8403113e-38
-761.13397 3649.51 -247.692 1.8403113e-38
-775.75598 3683.8601 -248.653 1.8403113e-38
-838.88898 3879.47 -247.2 1.8403113e-38
-993.66199 4320.4502 -248.21001 1.8403113e-38
-1063.7 4537.3599 -246.612 1.8403113e-38
-1076.58 4588.4399 -244.991 1.8403113e-38
874.22198 -979.55798 -233.42599 1.8403113e-38
-1051.1899 4595 -235.47501 1.8403113e-38
902.39398 -967.01398 -222.244 1.8403113e-38
-1036.52 4612.9902 -228.295 1.8403113e-38
930.96399 -983.05603 -214.313 1.8403113e-38
-370.61401 2761.98 -218.466 1.8403113e-38
-1006.18 4612.7598 -217.881 1.8403113e-38
959.93799 -982.89502 -204.323 1.8403113e-38
-496.65799 3279.78 -200.48599 1.8403113e-38
-983.45801 4620.1201 -209.188 1.8403113e-38
986.11401 -965.66199 -193.27299 1.8403113e-38
-286.95099 2744.73 -191.71899 1.8403113e-38
-956.28198 4623.1602 -199.476 1.8403113e-38
1017.53 -992.75201 -185.67 1.8403113e-38
-256.276 2744.3 -181.214 1.8403113e-38
-425.198 3213.5601 -183.741 1.8403113e-38
-927.07703 4621.1802 -189.66 1.8403113e-38
1080.37 -1046.13 -170.371 1.8403113e-38
1047.84 -1017.66 -178.19299 1.8403113e-38
-245.4055 2754.5649 -176.256 1.8403113e-38
-245.286 2768.5901 -174.55299 1.8403113e-38
-246.211 2778.6799 -173.675 1.8403113e-38
-252.561 2790.5 -174.46001 1.8403113e-38
-253.21851 2805.4551 -172.91449 1.8403113e-38
-254.571 2820.8601 -171.55499 1.8403113e-38
-243.617 2825.8101 -167.19901 1.8403113e-38
-257.25 2841.8999 -169.983 1.8403113e-38
-255.87199 2851.1001 -168.41901 1.8403113e-38
-256.008 2861.52 -167.231 1.8403113e-38
-260.58301 2873.6201 -167.371 1.8403113e-38
-259.63101 2883.72 -165.847 1.8403113e-38
-271.78699 2899.8501 -168.119 1.8403113e-38
-274.05701 2911.8401 -167.48 1.8403113e-38
-272.939 2921.7 -165.927 1.8403113e-38
-286.134 2939.6799 -168.338 1.8403113e-38
-272.80399 2943.24 -163.328 1.8403113e-38
-287.37701 2962.46 -166.06599 1.8403113e-38
-279.02802 2968.71 -162.452 1.8403113e-38
-359.71701 3154.1699 -168.244 1.8403113e-38
1099.8101 -971.43799 -154.83 1.8403113e-38
-272.96899 2976.71 -159.418 1.8403113e-38
-249.41299 2973.9199 -151.642 1.8403113e-38
-280.35699 3038.3101 -154.662 1.8403113e-38
-272.93301 3045.6899 -151.233 1.8403113e-38
-280.095 3074.3799 -150.297 1.8403113e-38
1168.58 -1059.73 -141.627 1.8403113e-38
1129.05 -972.651 -144.912 1.8403113e-38
-240.80701 2980.1299 -147.94501 1.8403113e-38
-235.707 2987.8201 -145.278 1.8403113e-38
-251.873 3009.21 -148.308 1.8403113e-38
-273.04099 3057.3601 -149.886 1.8403113e-38
-273.45801 3081.8 -147.134 1.8403113e-38
1190.52 -1004.03 -127.476 1.8403113e-38
-588.62097 4224.8799 -120.144 1.8403113e-38
-621.48401 4239.6299 -129.705 1.8403113e-38
1217.08 -993.71503 -117.112 1.8403113e-38
-571.362 4233.0098 -113.24 1.8403113e-38
1247.38 -998.74597 -107.279 1.8403113e-38
-555.89502 4242.0801 -106.843 1.8403113e-38
1274.27 -990.88702 -97.0961 1.8403113e-38
-535.18701 4244.9199 -99.380203 1.8403113e-38
-518.53699 4251.98 -92.813499 1.8403113e-38
1304.67 -995.35797 -87.162903 1.8403113e-38
-495.69101 4251.0298 -85.0634 1.8403113e-38
-490.32501 4275.3198 -80.339302 1.8403113e-38
-482.32001 4297.5801 -74.946098 1.8403113e-38
-570.159 4593.0601 -70.162102 1.8403113e-38
-470.57599 4312.5601 -69.130096 1.8403113e-38
-469.81 4347.54 -64.7211 1.8403113e-38
-493.285 4422.4199 -63.926701 1.8403113e-38
-565.30298 4625.27 -64.674797 1.8403113e-38
-542.02197 4627.6001 -56.387001 1.8403113e-38
1212.72 -347.86401 -42.081501 1.8403113e-38
-503.746 4600.3198 -46.446899 1.8403113e-38
1236.1 -343.871 -33.562099 1.8403113e-38
1246.8199 -283.08301 -22.6686 1.8403113e-38
-381.58701 4457.3999 -21.342501 1.8403113e-38
-410.06601 4471.1499 -29.5131 1.8403113e-38
1262.61 -245.52 -12.7854 1.8403113e-38
1271.38 -183.672 -2.4398301 1.8403113e-38
1287.54 -153.75301 6.6684799 1.8403113e-38
1599.08 -995.26703 14.166 1.8403113e-38
1313.29 -170.619 13.5327 1.8403113e-38
1629.36 -998.80798 24.1677 1.8403113e-38
1428.66 -446.42599 20.5525 1.8403113e-38
1339.9 -185.037 20.9821 1.8403113e-38
-17.906799 3799.52 25.858601 1.8403113e-38
46.565601 3700.4199 36.303398 1.8403113e-38
1505.71 -449.24899 46.735802 1.8403113e-38
60.387402 3699.8 40.986198 1.8403113e-38
72.3368 3701.45 45.2948 1.8403113e-38
84.347801 3704.1399 49.7467 1.8403113e-38
1720.09 -995.375 55.799198 1.8403113e-38
93.736198 3710.98 53.7882 1.8403113e-38
104.541 3716.1699 58.121201 1.8403113e-38
1451.3101 -175.896 60.403599 1.8403113e-38
121.019 3707.3401 62.745499 1.8403113e-38
131.802 3712.27 67.040497 1.8403113e-38
1468.87 -82.195198 77.549797 1.8403113e-38
143.30099 3714.1201 71.216698 1.8403113e-38
157.62601 3710.54 75.722801 1.8403113e-38
169.832 3710.29 79.893303 1.8403113e-38
1489.89 -75.716003 85.551498 1.8403113e-38
183.254 3708.26 84.272301 1.8403113e-38
195.737 3706.8201 88.397003 1.8403113e-38
1509.55 -68.4058 93.183998 1.8403113e-38
207.606 3708.24 92.650703 1.8403113e-38
220.00301 3706.55 96.716202 1.8403113e-38
1529.16 -57.7477 101.198 1.8403113e-38
1547.35 -46.303501 108.812 1.8403113e-38
231.83099 3707.73 100.927 1.8403113e-38
254.946 3709.5601 109.098 1.8403113e-38
242.14 3711.4399 104.914 1.8403113e-38
