# .PCD v0.7 - Point Cloud Data file format
VERSION 0.7
FIELDS x y z rgb
SIZE 4 4 4 4
TYPE F F F F
COUNT 1 1 1 1
WIDTH 360
HEIGHT 1
VIEWPOINT 0 0 0 1 0 0 0
POINTS 360
DATA ascii
1827.78 -142.784 -301.77399 1.8403113e-38
1798.51 -139.87 -305.297 1.8403113e-38
1761.37 -120.706 -304.66101 1.8403113e-38
1513.71 4.5957499 -301.24399 1.8403113e-38
1425.88 48.098801 -300.34 1.8403113e-38
1395.95 62.237 -300.259 1.8403113e-38
1702.17 -74.621101 -298.51801 1.8403113e-38
1528.8 16.5772 -294.97601 1.8403113e-38
1549.14 15.9282 -292.073 1.8403113e-38
1479.8101 27.1891 -298.979 1.8403113e-38
1449.29 40.640598 -299.215 1.8403113e-38
1364.58 84.612701 -297.67899 1.8403113e-38
1339.75 91.844299 -299.09698 1.8403113e-38
1309.13 114.906 -296.17401 1.8403113e-38
1284.85 122.754 -297.30399 1.8403113e-38
1234.47 148.882 -296.39801 1.8403113e-38
1258.25 140.46201 -295.534 1.8403113e-38
1190.53 165.694 -297.582 1.8403113e-38
1209.85 164.564 -294.99301 1.8403113e-38
1165.99 182.752 -295.711 1.8403113e-38
1143.5601 191.345 -296.31 1.8403113e-38
1122.13 203.64301 -295.53299 1.8403113e-38
1080.01 223.705 -295.36499 1.8403113e-38
1096.48 220.67799 -293.84 1.8403113e-38
1057.3101 235.92799 -294.80801 1.8403113e-38
1037.63 247.33501 -294.05801 1.8403113e-38
1016.59 257.35699 -293.974 1.8403113e-38
997.35901 269.173 -293.01901 1.8403113e-38
959.43701 288.23999 -292.535 1.8403113e-38
975.70502 282.341 -291.98999 1.8403113e-38
938.96698 300.03201 -291.77899 1.8403113e-38
903.65302 316.64301 -291.70599 1.8403113e-38
920.98901 311.71301 -290.677 1.8403113e-38
888.64899 321.371 -292.44501 1.8403113e-38
868.74701 334.87 -291.03699 1.8403113e-38
836.97699 346.42999 -292.08899 1.8403113e-38
853.72699 340.82001 -291.375 1.8403113e-38
804.04901 364.13501 -291.29001 1.8403113e-38
7.8038998 737.60901 -290.00299 1.8403113e-38
1560.75 33.085999 -284.63 1.8403113e-38
819.61298 360.95801 -289.95401 1.8403113e-38
787.40997 378.06201 -289.242 1.8403113e-38
771.59003 383.40201 -289.90302 1.8403113e-38
755.40198 397.63901 -287.68399 1.8403113e-38
726.32397 409.43201 -288.246 1.8403113e-38
739.90997 403.289 -288.19199 1.8403113e-38
697.52197 422.69299 -288.28101 1.8403113e-38
709.02301 423.77499 -286.16199 1.8403113e-38
680.64099 437.341 -286.03201 1.8403113e-38
641.74402 449.82901 -287.87 1.8403113e-38
653.396 448.60101 -286.48999 1.8403113e-38
667.625 443.98401 -285.83301 1.8403113e-38
613.72998 469.32901 -285.72501 1.8403113e-38
626.25098 462.23001 -286.14999 1.8403113e-38
588.46002 477.04001 -287.05099 1.8403113e-38
599.64099 476.33801 -285.57001 1.8403113e-38
574.58899 484.289 -286.784 1.8403113e-38
548.961 499.302 -285.754 1.8403113e-38
561.724 497.49399 -284.39499 1.8403113e-38
537.42603 505.13501 -285.59601 1.8403113e-38
524.00702 513.80298 -284.79099 1.8403113e-38
499.686 527.77502 -283.905 1.8403113e-38
512.50201 521.73102 -283.936 1.8403113e-38
476.63599 532.64801 -285.828 1.8403113e-38
488.95499 530.19299 -284.75101 1.8403113e-38
453.35199 544.56097 -285.46301 1.8403113e-38
465.51501 541.89899 -284.478 1.8403113e-38
420.13901 559.79999 -285.521 1.8403113e-38
430.659 553.04999 -286.138 1.8403113e-38
442.64801 551.138 -284.93201 1.8403113e-38
408.06699 569.513 -284.16501 1.8403113e-38
386.108 578.73102 -284.48599 1.8403113e-38
397.879 571.67798 -285.01099 1.8403113e-38
364.44699 587.35199 -284.95901 1.8403113e-38
376.03 585.81 -283.69299 1.8403113e-38
343.09299 597.26801 -284.95801 1.8403113e-38
354.60999 597.435 -283.138 1.8403113e-38
333.54099 608.448 -282.73099 1.8403113e-38
312.672 616.95001 -283.121 1.8403113e-38
322.285 612.25201 -283.19901 1.8403113e-38
301.91501 626.60303 -281.58301 1.8403113e-38
292.41501 630.50201 -281.75201 1.8403113e-38
231.136 648.56403 -285.17899 1.8403113e-38
281.93701 640.31201 -280.11801 1.8403113e-38
241.948 657.34802 -280.62201 1.8403113e-38
252.492 651.922 -280.797 1.8403113e-38
212.91701 668.00098 -281.55301 1.8403113e-38
222.05901 664.46002 -281.32101 1.8403113e-38
193.614 677.43298 -281.397 1.8403113e-38
202.355 671.88702 -281.88901 1.8403113e-38
173.70799 682.52301 -282.767 1.8403113e-38
145.00101 698.771 -281.802 1.8403113e-38
155.606 696.24701 -281.01001 1.8403113e-38
164.614 693.216 -280.63101 1.8403113e-38
107.723 717.224 -281.422 1.8403113e-38
127.219 711.98102 -280.16599 1.8403113e-38
46.357899 724.11401 -288.55099 1.8403113e-38
99.910301 724.31598 -280.27802 1.8403113e-38
40.573799 736.96997 -285.19299 1.8403113e-38
61.693699 736.91302 -281.97501 1.8403113e-38
21.473301 743.64301 -285.91699 1.8403113e-38
30.618401 741.401 -285.25601 1.8403113e-38
8.6226702 767.40302 -280.04199 1.8403113e-38
1572.71 44.921501 -278.88901 1.8403113e-38
272.85901 647.18103 -279.242 1.8403113e-38
262.01501 650.55402 -279.79001 1.8403113e-38
184.326 687.98199 -279.33801 1.8403113e-38
137.498 708.383 -279.77899 1.8403113e-38
119.062 718.03101 -279.418 1.8403113e-38
71.910202 738.60199 -279.85199 1.8403113e-38
82.9347 738.15198 -278.311 1.8403113e-38
91.551804 734.58698 -278.168 1.8403113e-38
0.311874 775.612 -278.60501 1.8403113e-38
-16.720301 786.414 -277.64899 1.8403113e-38
-6.21137 784.224 -276.76199 1.8403113e-38
-34.9604 794.00098 -277.939 1.8403113e-38
-23.061399 795.11499 -275.74799 1.8403113e-38
-51.9338 804.46399 -277.086 1.8403113e-38
-41.890999 801.073 -276.66599 1.8403113e-38
-68.680901 815.17902 -276.11401 1.8403113e-38
-56.3922 816.771 -273.70599 1.8403113e-38
-84.3731 827.83301 -274.34201 1.8403113e-38
-74.107002 824.99402 -273.70599 1.8403113e-38
-111.727 837.30402 -275.40601 1.8403113e-38
-104.044 832.32898 -275.871 1.8403113e-38
-91.684303 833.505 -273.58899 1.8403113e-38
-118.406 847.138 -273.18301 1.8403113e-38
-138.36099 851.448 -274.81799 1.8403113e-38
-124.604 854.68597 -271.64099 1.8403113e-38
-152.185 866.69702 -271.90201 1.8403113e-38
-143.07201 861.56598 -272.20001 1.8403113e-38
-182.77499 871.51703 -274.99799 1.8403113e-38
-168.56799 877.28101 -270.918 1.8403113e-38
-159.069 872.815 -270.93701 1.8403113e-38
-197.026 885.758 -272.48099 1.8403113e-38
-189.79201 880.17798 -273.21399 1.8403113e-38
-227.716 894.26501 -274.375 1.8403113e-38
-217.259 890.80701 -273.914 1.8403113e-38
-206.444 890.57703 -272.33301 1.8403113e-38
-265.427 909.76898 -275.035 1.8403113e-38
-256.125 904.39801 -275.383 1.8403113e-38
-243.043 906.81799 -272.57901 1.8403113e-38
-233.73599 901.65698 -272.85699 1.8403113e-38
-283.32101 919.17102 -274.673 1.8403113e-38
-273.51801 914.38397 -274.75101 1.8403113e-38
-287.85699 928.37799 -272.328 1.8403113e-38
-304.29501 939.64502 -271.12799 1.8403113e-38
-298.147 932.573 -272.51999 1.8403113e-38
-342.44601 942.16602 -276.14099 1.8403113e-38
-325.43399 945.42999 -272.457 1.8403113e-38
-316.93799 941.11499 -272.57901 1.8403113e-38
-358.07401 955.06598 -274.27701 1.8403113e-38
-345.35699 953.08002 -272.98401 1.8403113e-38
-375.41 966.14203 -273.27701 1.8403113e-38
-360.78799 966.01898 -271.077 1.8403113e-38
-390.62399 979.57202 -271.17499 1.8403113e-38
-381.19501 973.71301 -271.664 1.8403113e-38
-422.60699 989.72302 -272.724 1.8403113e-38
-412.97299 985.89203 -272.513 1.8403113e-38
-398.26501 985.20898 -270.48401 1.8403113e-38
-436.72501 991.39899 -274.33401 1.8403113e-38
-452.216 1005.19 -272.15601 1.8403113e-38
-437.42499 1003.92 -270.30701 1.8403113e-38
-499.047 1019.29 -274.67599 1.8403113e-38
-464.64648 1014.33 -271.0415 1.8403113e-38
-507.17599 1025.2 -273.97 1.8403113e-38
-479.85001 1021.12 -271.13 1.8403113e-38
-515.57001 1032.92 -272.70801 1.8403113e-38
-531.89203 1046.86 -270.608 1.8403113e-38
-522.14099 1040.1801 -271.31699 1.8403113e-38
-556.29401 1054.7 -271.758 1.8403113e-38
-542.08899 1051.3 -270.70401 1.8403113e-38
-576.90302 1065.97 -271.19601 1.8403113e-38
-563.45502 1061.7 -270.54599 1.8403113e-38
-598.96899 1076.59 -271.07199 1.8403113e-38
-646.091 1097.24 -271.47601 1.8403113e-38
-633.44702 1091.49 -271.43399 1.8403113e-38
-667.97699 1109.4301 -270.802 1.8403113e-38
-693.84802 1119.65 -271.39499 1.8403113e-38
-678.82397 1114.8101 -270.689 1.8403113e-38
-731.33801 1135.97 -271.75 1.8403113e-38
-746.36603 1141.5601 -272.20901 1.8403113e-38
-752.10303 1150.5699 -270.112 1.8403113e-38
-778.64697 1162.5 -270.241 1.8403113e-38
-806.85699 1174.25 -270.685 1.8403113e-38
1577.1 71.876404 -269.319 1.8403113e-38
-583.987 1073.13 -269.91599 1.8403113e-38
-618.61499 1089.33 -269.87399 1.8403113e-38
-605.98199 1083.9301 -269.72198 1.8403113e-38
-652.16498 1105.49 -269.68201 1.8403113e-38
-698.10797 1129.25 -268.87799 1.8403113e-38
-713.92102 1133.91 -269.763 1.8403113e-38
-749.34998 1166.0601 -264.577 1.8403113e-38
-785.93402 1172.77 -267.96899 1.8403113e-38
-813.18701 1185.2 -268.04001 1.8403113e-38
-826.37299 1190.9399 -268.16599 1.8403113e-38
-873.65302 1209.4301 -269.30499 1.8403113e-38
-853.54102 1204.4301 -267.87601 1.8403113e-38
-834.289 1201.23 -265.98001 1.8403113e-38
-878.86102 1219.41 -266.80899 1.8403113e-38
-905.82898 1234.3 -266.02701 1.8403113e-38
-885.66602 1230.61 -264.15601 1.8403113e-38
-941.651 1246.3 -267.552 1.8403113e-38
-919.65802 1242.8101 -265.33499 1.8403113e-38
-955.44299 1255.27 -266.70401 1.8403113e-38
-967.52899 1263.12 -265.96701 1.8403113e-38
-982.13898 1272.11 -265.23499 1.8403113e-38
-1009.58 1289.35 -263.75201 1.8403113e-38
-986.85699 1282.91 -262.39499 1.8403113e-38
-1023.34 1297.22 -263.26199 1.8403113e-38
-1036.85 1307.3199 -261.99701 1.8403113e-38
-1050.54 1315.55 -261.375 1.8403113e-38
-1071.35 1323.72 -261.86801 1.8403113e-38
-1159.08 1367.5 -260.85901 1.8403113e-38
-1176.89 1378.15 -260.07001 1.8403113e-38
-1193.09 1387.38 -259.504 1.8403113e-38
-1212.6801 1398.11 -258.965 1.8403113e-38
-1224.98 1408.6899 -257.35699 1.8403113e-38
-1255.91 1417.45 -259.20401 1.8403113e-38
-1261.41 1429.92 -255.93201 1.8403113e-38
-1291.3 1439.64 -257.30399 1.8403113e-38
-1312.01 1449.4399 -257.23901 1.8403113e-38
-1326.4399 1462.87 -255.019 1.8403113e-38
-1353.79 1472.05 -256.177 1.8403113e-38
-1375.79 1484.74 -255.35899 1.8403113e-38
-1398.22 1495.47 -255.255 1.8403113e-38
-1423.97 1508.29 -254.968 1.8403113e-38
-1444.34 1519.98 -254.229 1.8403113e-38
-1467.02 1533.96 -253.089 1.8403113e-38
-1485.29 1546.51 -251.746 1.8403113e-38
-1514.62 1560.4 -251.655 1.8403113e-38
-1533.72 1573.47 -250.265 1.8403113e-38
-1591.6 1601.08 -250.019 1.8403113e-38
-1014.27 1353.76 -243.205 1.8403113e-38
-1562.88 1588.23 -249.86099 1.8403113e-38
-1610.76 1617.5699 -247.51199 1.8403113e-38
-1640.29 1631.16 -247.55099 1.8403113e-38
-1674.95 1647.38 -247.508 1.8403113e-38
-1695.45 1662.4 -245.69 1.8403113e-38
-1733.83 1679.47 -245.936 1.8403113e-38
-1762.98 1694.92 -245.30299 1.8403113e-38
-1799.15 1713.25 -244.79401 1.8403113e-38
-1820.1801 1729.8101 -242.54601 1.8403113e-38
-1865.95 1749.11 -243.19 1.8403113e-38
-1901.54 1766.46 -242.916 1.8403113e-38
-1937.14 1787.16 -241.536 1.8403113e-38
2596.1799 -284.45001 -230.797 1.8403113e-38
1616.76 162.569 -233.299 1.8403113e-38
-1015.38 1379.65 -234.825 1.8403113e-38
-1000.26 1371.95 -235.054 1.8403113e-38
-1030.12 1389.5601 -233.815 1.8403113e-38
-2141.04 1892.25 -238.088 1.8403113e-38
-2177.52 1916.9 -235.53999 1.8403113e-38
-2222.73 1939.62 -234.967 1.8403113e-38
-2274.5901 1966.74 -233.961 1.8403113e-38
-2318.4099 1990.87 -232.707 1.8403113e-38
1625.1801 181.62 -225.71899 1.8403113e-38
-2770.51 2239.1799 -220.009 1.8403113e-38
2581.3799 -234.5 -216.57401 1.8403113e-38
1667.23 183.843 -218.541 1.8403113e-38
1634.41 195.407 -219.75301 1.8403113e-38
1682 191.03799 -213.90401 1.8403113e-38
-1793.45 1803.27 -214.2 1.8403113e-38
-1930.21 1864.48 -214.94901 1.8403113e-38
-2254.1101 2009.39 -216.742 1.8403113e-38
-2835.0701 2277.9099 -217.11501 1.8403113e-38
-2910.52 2315.6399 -216.222 1.8403113e-38
-2979.1499 2357.5701 -212.894 1.8403113e-38
-3054.78 2397.8701 -211.17799 1.8403113e-38
1687.91 212.743 -205.832 1.8403113e-38
-1770.3 1822.27 -204.38 1.8403113e-38
-3139.1201 2445.4399 -208.396 1.8403113e-38
-3226.55 2490.79 -206.82201 1.8403113e-38
-3311.76 2541.75 -203.056 1.8403113e-38
-3403.04 2590.98 -200.791 1.8403113e-38
1696.05 227.66299 -199.659 1.8403113e-38
-1768.6801 1838.91 -198.63699 1.8403113e-38
-2097.9199 2014.73 -191.04401 1.8403113e-38
-3499.7 2647.8301 -196.83501 1.8403113e-38
-3603.45 2703.25 -194.436 1.8403113e-38
2407.23 -47.3423 -181.472 1.8403113e-38
2047.3199 118.212 -181.967 1.8403113e-38
1686.5 266.547 -188.285 1.8403113e-38
-2385.0801 2160.6201 -186.884 1.8403113e-38
2414.3101 -21.252501 -171.774 1.8403113e-38
2184.1299 71.853104 -176.308 1.8403113e-38
2086.55 134.806 -170.476 1.8403113e-38
1971.03 169.27299 -176.8 1.8403113e-38
2034.21 160.291 -170.08299 1.8403113e-38
1904.78 208.258 -174.08099 1.8403113e-38
1861.2 229.203 -173.84399 1.8403113e-38
1817.49 247.606 -174.466 1.8403113e-38
1679.7 297.73099 -179.032 1.8403113e-38
-2023.48 2029.14 -174.88 1.8403113e-38
-3524.25 2721.22 -176.368 1.8403113e-38
2423.3501 -1.46113 -163.855 1.8403113e-38
1728.95 319.06601 -164.442 1.8403113e-38
1675.61 328.746 -169.41901 1.8403113e-38
1697.9399 326.63699 -166.694 1.8403113e-38
-2011.3199 2046.49 -167.28799 1.8403113e-38
-2024.4301 2069.6799 -161.642 1.8403113e-38
-2139.1001 2103.45 -168.064 1.8403113e-38
2654.99 -74.009102 -152.31 1.8403113e-38
2567.21 -30.788099 -151.493 1.8403113e-38
2479.5701 9.9135904 -151.485 1.8403113e-38
2437.3999 18.177601 -155.218 1.8403113e-38
2665.6699 -49.283798 -142.50999 1.8403113e-38
-3271.8401 2689.5701 -148.13699 1.8403113e-38
2656.5801 -13.6562 -132.14101 1.8403113e-38
-3252.79 2718.95 -135.51801 1.8403113e-38
2671.3301 7.3562899 -122.944 1.8403113e-38
-3273.1001 2754.0601 -127.038 1.8403113e-38
-3358.3101 2812.3601 -120.85 1.8403113e-38
2673.3601 33.6292 -113.959 1.8403113e-38
2682.02 58.954601 -104.271 1.8403113e-38
-3321.1101 2832.5 -108.501 1.8403113e-38
2690.71 79.829597 -96.049103 1.8403113e-38
2696.3799 106.96 -86.222198 1.8403113e-38
2703.78 128.461 -77.990097 1.8403113e-38
-2848.79 2728.27 -70.535698 1.8403113e-38
2712.96 152.724 -68.573502 1.8403113e-38
2714.1299 178.21899 -59.977501 1.8403113e-38
2728.55 198.61 -51.035099 1.8403113e-38
2731.7 222.405 -42.697498 1.8403113e-38
2739.8101 246.76801 -33.4105 1.8403113e-38
-2409.01 2621.4299 -38.415298 1.8403113e-38
2744.97 268.91101 -25.309799 1.8403113e-38
-2366.6001 2635.04 -27.4249 1.8403113e-38
2705.95 322.39301 -13.6336 1.8403113e-38
-2354.6001 2654.21 -19.2586 1.8403113e-38
-2345.22 2677.74 -10.0532 1.8403113e-38
2718.9299 338.965 -6.1730599 1.8403113e-38
-2357.49 2704.99 -2.9335699 1.8403113e-38
2767.76 337.84201 0.93822801 1.8403113e-38
2771.1299 360.51999 8.9430103 1.8403113e-38
-2416.48 2752.6001 3.74194 1.8403113e-38
2777.7 385.00299 18.031799 1.8403113e-38
-2401.6899 2771.24 12.1639 1.8403113e-38
2781.47 407.15399 25.922501 1.8403113e-38
2794.5 427.75601 34.721401 1.8403113e-38
2796.0901 450.89899 42.6045 1.8403113e-38
-1756.26 2561.05 41.673698 1.8403113e-38
-1721.38 2566.3999 48.782799 1.8403113e-38
2806.9299 472.60901 51.4338 1.8403113e-38
2803.6299 498.048 59.326302 1.8403113e-38
-1748.99 2598.26 55.070801 1.8403113e-38
-2313.46 2868 57.6269 1.8403113e-38
2813.1201 520.28802 68.1222 1.8403113e-38
-1787.41 2632.1399 60.370499 1.8403113e-38
-2467.72 2955.98 63.034901 1.8403113e-38
2825.3601 537.45599 75.665901 1.8403113e-38
-2441.6899 2974.3501 73.088097 1.8403113e-38
2828.1599 562.98102 84.521896 1.8403113e-38
-2441.74 2999.78 81.477798 1.8403113e-38
2829.26 585.56097 92.145203 1.8403113e-38
-2404.4299 3012.77 91.4813 1.8403113e-38
2838.75 607.58002 100.869 1.8403113e-38
2848.48 625.90997 108.411 1.8403113e-38
-1796.1801 2785.0801 109.517 1.8403113e-38
-2141.8501 2918.9399 100.741 1.8403113e-38
