# .PCD v0.7 - Point Cloud Data file format
VERSION 0.7
FIELDS x y z rgb
SIZE 4 4 4 4
TYPE F F F F
COUNT 1 1 1 1
WIDTH 358
HEIGHT 1
VIEWPOINT 0 0 0 1 0 0 0
POINTS 358
DATA ascii
1849.99 185.836 -297.16199 1.8403113e-38
1817.22 191.58099 -297.15799 1.8403113e-38
1752.04 209.328 -294.883 1.8403113e-38
1782.92 204.07001 -294.83099 1.8403113e-38
1696.6899 219.59399 -294.673 1.8403113e-38
1723.0699 217.763 -293.67599 1.8403113e-38
1668.14 228.72301 -293.19199 1.8403113e-38
1594.17 237.728 -294.603 1.8403113e-38
1618.58 236.008 -293.68799 1.8403113e-38
1642.77 230.534 -294.133 1.8403113e-38
1565.79 248.896 -292.379 1.8403113e-38
1518.23 257.89899 -292.134 1.8403113e-38
1540.45 252.74001 -292.59 1.8403113e-38
1471.33 268.04999 -291.436 1.8403113e-38
1493.85 261.61401 -292.33099 1.8403113e-38
1425.11 279.32901 -290.29099 1.8403113e-38
1448.51 270.84799 -291.86401 1.8403113e-38
1402.63 282.69601 -290.49399 1.8403113e-38
1322.72 296.29999 -290.629 1.8403113e-38
1381.38 289.401 -289.423 1.8403113e-38
1340.61 297.38 -289.12 1.8403113e-38
1358.0601 294.86401 -288.927 1.8403113e-38
1265.16 309.746 -289.41901 1.8403113e-38
1281.0699 308.04401 -289.03101 1.8403113e-38
1302.08 303.927 -289.189 1.8403113e-38
1227.1 318.806 -288.55701 1.8403113e-38
1242.8 316.73499 -288.315 1.8403113e-38
1193.24 323.01099 -289.173 1.8403113e-38
1208.24 321.41699 -288.80499 1.8403113e-38
1108.5 337.383 -289.336 1.8403113e-38
1126.2 334.41599 -289.29001 1.8403113e-38
1141.34 331.35101 -289.439 1.8403113e-38
1157.76 331.237 -288.45001 1.8403113e-38
1172.05 330.12601 -287.952 1.8403113e-38
1073.3101 349.16901 -287.31799 1.8403113e-38
1027.83 358.935 -286.66901 1.8403113e-38
1040.53 358.32101 -286.09201 1.8403113e-38
1059.53 351.19299 -287.457 1.8403113e-38
1087.9 350.83899 -285.80399 1.8403113e-38
995.328 369.92001 -284.76901 1.8403113e-38
1009.58 365.59299 -285.427 1.8403113e-38
925.18701 378.04599 -286.255 1.8403113e-38
952.21002 375.07999 -285.62399 1.8403113e-38
966.26202 375.522 -284.58401 1.8403113e-38
980.729 370.04901 -285.638 1.8403113e-38
884.93201 386.927 -285.59601 1.8403113e-38
910.00299 386.703 -284.104 1.8403113e-38
937.95801 380.83301 -284.45499 1.8403113e-38
855.87701 398.29901 -283.341 1.8403113e-38
869.81897 390.85699 -285.13501 1.8403113e-38
894.00897 392.121 -283.164 1.8403113e-38
804.09601 409.26401 -282.65799 1.8403113e-38
816.60602 404.009 -283.75699 1.8403113e-38
829.99298 403.08701 -283.24799 1.8403113e-38
841.02301 402.53699 -282.754 1.8403113e-38
742.53699 417.453 -283.58301 1.8403113e-38
765.72498 416.45099 -282.48801 1.8403113e-38
778.539 415.92899 -281.871 1.8403113e-38
790.245 412.24799 -282.457 1.8403113e-38
684.24701 429.77301 -282.82199 1.8403113e-38
695.151 426.198 -283.42001 1.8403113e-38
706.461 429.57999 -281.49799 1.8403113e-38
718.724 421.612 -283.58499 1.8403113e-38
730.05701 425.202 -281.58701 1.8403113e-38
753.89001 421.25299 -281.508 1.8403113e-38
649.16602 434.76901 -283.23099 1.8403113e-38
672.047 430.28101 -283.405 1.8403113e-38
603.94098 445.871 -282.08701 1.8403113e-38
615.31799 447.51501 -280.784 1.8403113e-38
625.96503 442.44501 -281.93399 1.8403113e-38
637.37097 444.28699 -280.55899 1.8403113e-38
659.59198 441.44199 -280.185 1.8403113e-38
538.85797 459.328 -281.345 1.8403113e-38
550.612 456.64001 -281.57101 1.8403113e-38
560.17297 455.72101 -281.30099 1.8403113e-38
572.02802 453.23199 -281.45001 1.8403113e-38
508.27499 464.53201 -281.397 1.8403113e-38
517.61102 464.23099 -280.92001 1.8403113e-38
528.92999 464.16 -280.23499 1.8403113e-38
466.586 474.76801 -280.34201 1.8403113e-38
487.22198 470.88699 -280.439 1.8403113e-38
385.577 488.944 -280.341 1.8403113e-38
394.629 487.73099 -280.20801 1.8403113e-38
405.63901 485.60901 -280.27802 1.8403113e-38
434.96399 480.74799 -280.18201 1.8403113e-38
74.854797 528.17902 -285.763 1.8403113e-38
85.255302 524.159 -286.552 1.8403113e-38
55.167301 533.22198 -285.19 1.8403113e-38
66.083099 530.82098 -285.366 1.8403113e-38
98.845802 537.901 -280.77301 1.8403113e-38
1786.38 267.043 -272.03699 1.8403113e-38
580.90002 457.14401 -279.491 1.8403113e-38
592.80402 454.85199 -279.56601 1.8403113e-38
475.74701 475.09698 -279.64999 1.8403113e-38
496.41101 471.36899 -279.69 1.8403113e-38
414.70001 487.37 -279.07901 1.8403113e-38
425.74301 485.42899 -279.082 1.8403113e-38
445.991 481.81299 -279.108 1.8403113e-38
455.189 480.108 -279.14301 1.8403113e-38
354.79099 496.02301 -279.73401 1.8403113e-38
365.72 495.42499 -279.263 1.8403113e-38
374.729 495.00699 -278.84799 1.8403113e-38
295.836 508.517 -278.952 1.8403113e-38
315.57401 506.53299 -278.42499 1.8403113e-38
326.073 500.89401 -279.789 1.8403113e-38
335.04401 500.18201 -279.48099 1.8403113e-38
346.28201 505.98099 -276.69699 1.8403113e-38
267.59799 514.77002 -278.48199 1.8403113e-38
277.13 519.224 -276.28699 1.8403113e-38
287.23499 512.323 -278.12701 1.8403113e-38
307.159 513.00702 -276.63199 1.8403113e-38
229.52699 527.11902 -276.44199 1.8403113e-38
237.424 520.12201 -278.45499 1.8403113e-38
248.819 523.11798 -276.66599 1.8403113e-38
257.74701 522.76501 -276.233 1.8403113e-38
195.84299 536.5835 -275.1615 1.8403113e-38
215.2805 533.88403 -274.91 1.8403113e-38
161.485 542.40802 -275.228 1.8403113e-38
172.811 543.742 -274.04001 1.8403113e-38
182.636 547.409 -272.10901 1.8403113e-38
134.48801 551.77399 -273.564 1.8403113e-38
144.45799 555.11102 -271.742 1.8403113e-38
155.505 555.36401 -270.95801 1.8403113e-38
45.312199 566.09003 -274.02399 1.8403113e-38
55.6078 562.70898 -274.591 1.8403113e-38
116.827 561.23999 -271.27802 1.8403113e-38
125.83 560.79303 -270.87299 1.8403113e-38
-1.7357301 578.83698 -272.405 1.8403113e-38
18.5492 576.36298 -272.01999 1.8403113e-38
26.6182 572.492 -272.90201 1.8403113e-38
39.431801 576.02002 -270.83301 1.8403113e-38
-75.737602 586.95001 -274.138 1.8403113e-38
-52.503502 589.13898 -271.896 1.8403113e-38
-32.175701 585.75201 -271.83499 1.8403113e-38
-15.669 585.23547 -270.98499 1.8403113e-38
9.4295197 582.70001 -270.32001 1.8403113e-38
-81.522598 595.776 -271.336 1.8403113e-38
-40.093102 590.03802 -270.79501 1.8403113e-38
-134.41299 605.55298 -271.14899 1.8403113e-38
-121.769 605.54199 -270.35901 1.8403113e-38
-360.13599 646.21503 -270.728 1.8403113e-38
-59.169102 596.12799 -269.80801 1.8403113e-38
-111.367 605.685 -269.65601 1.8403113e-38
-100.13 603.41302 -269.76599 1.8403113e-38
-90.220299 602.91199 -269.32401 1.8403113e-38
-174.657 617.23199 -269.48599 1.8403113e-38
-160.974 618.39398 -268.211 1.8403113e-38
-152.416 614.89398 -268.92899 1.8403113e-38
-136.97301 619.61401 -266.26801 1.8403113e-38
-226.38699 629.62598 -268.28601 1.8403113e-38
-215.265 629.58197 -267.60501 1.8403113e-38
-204.526 625.45502 -268.41101 1.8403113e-38
-192.452 627.229 -267.017 1.8403113e-38
-182.718 621.71198 -268.38501 1.8403113e-38
-287.13599 635.61102 -269.95099 1.8403113e-38
-271.349 637.71997 -268.20499 1.8403113e-38
-260.65799 636.45801 -267.987 1.8403113e-38
-249.918 631.88702 -268.952 1.8403113e-38
-237.65199 633.18298 -267.71799 1.8403113e-38
-333.13 645.39801 -269.327 1.8403113e-38
-305.772 645.93903 -267.41699 1.8403113e-38
-295.05899 640.92499 -268.543 1.8403113e-38
-339.18201 653.276 -266.88199 1.8403113e-38
-313.026 652.14099 -265.64899 1.8403113e-38
-400.19699 666.13098 -266.10001 1.8403113e-38
-386.42401 663.78998 -266.07599 1.8403113e-38
-374.336 662.87903 -265.64401 1.8403113e-38
-360.01901 661.57599 -265.21301 1.8403113e-38
-465.25101 675.39502 -266.85901 1.8403113e-38
-452.96301 673.672 -266.70599 1.8403113e-38
-436.45599 673.50201 -265.73199 1.8403113e-38
-424.25 672.07098 -265.48001 1.8403113e-38
-409.798 670.14899 -265.26199 1.8403113e-38
-532.61798 689.79602 -265.922 1.8403113e-38
-522.74298 681.88397 -268.13901 1.8403113e-38
-502.776 686.95099 -265.07001 1.8403113e-38
-488.14099 684.05603 -265.19 1.8403113e-38
-474.48499 683.44897 -264.55099 1.8403113e-38
-590.68201 699.54303 -266.069 1.8403113e-38
-561.22803 694.65002 -265.97601 1.8403113e-38
-546.45502 691.04303 -266.34201 1.8403113e-38
-634.31299 707.36102 -266.00201 1.8403113e-38
-620.26703 705.138 -265.91901 1.8403113e-38
-603.93597 702.06598 -265.996 1.8403113e-38
-569.40997 701.349 -264.08701 1.8403113e-38
-698.48602 717.79401 -266.28699 1.8403113e-38
-682.03302 716.66302 -265.66101 1.8403113e-38
-661.81201 715.81 -264.698 1.8403113e-38
-643.995 716.323 -263.397 1.8403113e-38
-767.12903 728.58502 -266.724 1.8403113e-38
-712.70801 723.849 -265.008 1.8403113e-38
-796.51501 738.88098 -264.87601 1.8403113e-38
-776.66101 738.79199 -263.66199 1.8403113e-38
-745.80603 730.06702 -264.85501 1.8403113e-38
-722.27301 730.573 -263.19699 1.8403113e-38
-829.11798 747.72498 -263.74899 1.8403113e-38
-806.75897 748.81799 -261.95499 1.8403113e-38
-859.32898 758.96399 -261.61499 1.8403113e-38
-844.16699 754.78998 -262.16101 1.8403113e-38
-975.94702 782.10602 -260.633 1.8403113e-38
-865.31097 772.10999 -257.27701 1.8403113e-38
-938.79999 789.40997 -255.68401 1.8403113e-38
-1039.24 796.24902 -259.53201 1.8403113e-38
-1013.93 792.51703 -259.28201 1.8403113e-38
-991.82898 790.45502 -258.63501 1.8403113e-38
-1053.6899 803.02301 -258.01001 1.8403113e-38
-1091.77 815.47998 -255.93201 1.8403113e-38
-1069.53 812.32599 -255.668 1.8403113e-38
-1108.45 824.82098 -253.629 1.8403113e-38
1700.63 370.616 -240.28101 1.8403113e-38
-825.09003 810.89001 -240.851 1.8403113e-38
-1108.74 839.19299 -248.494 1.8403113e-38
1702.4399 387.38199 -234.157 1.8403113e-38
-843.61902 829.00403 -235.519 1.8403113e-38
-828.01703 825.18597 -235.909 1.8403113e-38
2622.3501 250.717 -225.45599 1.8403113e-38
1739.91 394.24799 -229.34599 1.8403113e-38
1711.9399 400.896 -228.716 1.8403113e-38
1747.8101 409.35101 -223.435 1.8403113e-38
-1030.61 893.63202 -224.076 1.8403113e-38
-2549.3899 1159.2 -224.125 1.8403113e-38
2635.21 270.54999 -217.539 1.8403113e-38
2643.9199 287.96899 -210.74699 1.8403113e-38
1757.26 419.20099 -219.311 1.8403113e-38
-993.84399 924.203 -210.81 1.8403113e-38
2648.6001 312.37299 -201.70399 1.8403113e-38
1711.22 479.17599 -200.696 1.8403113e-38
2649.99 333.702 -193.97 1.8403113e-38
2129.9199 422.772 -194.65601 1.8403113e-38
1709.45 497.51401 -194.23199 1.8403113e-38
-947.08698 961.203 -194.612 1.8403113e-38
-952.37701 971.36102 -191.302 1.8403113e-38
-3817.9099 1474.22 -190.746 1.8403113e-38
2663.75 352.85501 -186.24001 1.8403113e-38
2302.8999 421.35599 -184.314 1.8403113e-38
2110.47 458.19199 -183.177 1.8403113e-38
1986.13 479.68301 -183.271 1.8403113e-38
2026.3199 473.86401 -182.83701 1.8403113e-38
1917.23 489.215 -184.175 1.8403113e-38
1828.55 499.01199 -186.22501 1.8403113e-38
1857.86 494.20401 -186.11 1.8403113e-38
1886.8101 493.828 -184.429 1.8403113e-38
1944.84 490.80801 -181.87199 1.8403113e-38
1717.73 511 -188.87801 1.8403113e-38
1729.4301 518.18903 -185.56599 1.8403113e-38
1736.6801 532.427 -180.007 1.8403113e-38
-950.58197 987.23999 -185.496 1.8403113e-38
-961.07501 995.125 -183.327 1.8403113e-38
-975.31 1004.21 -180.963 1.8403113e-38
-1306.2 1063.3101 -180.528 1.8403113e-38
-2621.5601 1273.8 -187.56599 1.8403113e-38
-3933.02 1503.84 -187.345 1.8403113e-38
-4110.0098 1541.8199 -184.83 1.8403113e-38
-4256.5898 1575.5 -181.94901 1.8403113e-38
2665.5901 373.69501 -178.653 1.8403113e-38
2677.1899 393.93799 -170.668 1.8403113e-38
2121.1201 469.677 -178.392 1.8403113e-38
2175.1799 476.37799 -172.59801 1.8403113e-38
2134.3899 483.439 -172.625 1.8403113e-38
1760.76 530.21002 -179.29201 1.8403113e-38
-969.31403 1018.98 -175.293 1.8403113e-38
-1321.12 1073.1 -177.95399 1.8403113e-38
-1349.28 1082.4 -176.38699 1.8403113e-38
-1361.24 1093.45 -173.174 1.8403113e-38
-4441.9502 1619.36 -177.849 1.8403113e-38
-4594.9399 1658.02 -173.58701 1.8403113e-38
2677.73 415.20499 -163.00999 1.8403113e-38
-966.90802 1034.72 -169.496 1.8403113e-38
-1349.16 1113.99 -165.05099 1.8403113e-38
-1364.73 1124.2 -162.37 1.8403113e-38
-4793.5 1708.3199 -168.007 1.8403113e-38
2683.55 438.22101 -154.39301 1.8403113e-38
-938.54602 1057.6899 -159.48399 1.8403113e-38
-949.50299 1067.86 -156.52499 1.8403113e-38
-966.84399 1073.3 -155.662 1.8403113e-38
-1002.44 1087.1 -152.94501 1.8403113e-38
-984.18298 1081.51 -153.804 1.8403113e-38
-1022.52 1094.9 -151.41 1.8403113e-38
-1118.63 1103.8199 -154.23801 1.8403113e-38
-1089.02 1100.47 -153.582 1.8403113e-38
-1041.7 1100.7 -150.533 1.8403113e-38
-1394.6 1148.53 -155.52 1.8403113e-38
-1356.09 1143.54 -154.89301 1.8403113e-38
-1406.9 1163.11 -151.064 1.8403113e-38
-1834.05 1238.4399 -150.84801 1.8403113e-38
-2414.8401 1319.97 -158.045 1.8403113e-38
-2415.3401 1341.14 -150.48801 1.8403113e-38
2692.5801 455.035 -147.798 1.8403113e-38
-1409.6 1176.86 -146.304 1.8403113e-38
-1751.35 1234.22 -147.172 1.8403113e-38
-2505.55 1360.27 -149.28799 1.8403113e-38
-2576.3201 1377.46 -147.563 1.8403113e-38
-2677.26 1398.86 -146.222 1.8403113e-38
-2749.8201 1418.35 -143.783 1.8403113e-38
-2855.48 1442.73 -141.66901 1.8403113e-38
-2952.6899 1463.91 -140.174 1.8403113e-38
-5280.8501 1856.95 -145.285 1.8403113e-38
2703.3501 475.534 -139.77299 1.8403113e-38
2704.8501 495.87201 -132.38699 1.8403113e-38
-1405.16 1195.13 -139.474 1.8403113e-38
-1408.55 1208.65 -134.84 1.8403113e-38
-4443.71 1735.17 -136.439 1.8403113e-38
2717.9099 515.24902 -124.621 1.8403113e-38
-1403.76 1226.76 -128.045 1.8403113e-38
-1406.89 1240.27 -123.401 1.8403113e-38
-5230.9702 1905.35 -124.805 1.8403113e-38
2716.29 536.80298 -116.995 1.8403113e-38
-1411.51 1256.51 -117.867 1.8403113e-38
-1407.54 1271.2 -112.35 1.8403113e-38
-4413.8701 1777.64 -119.342 1.8403113e-38
-5315.6899 1952.97 -113.047 1.8403113e-38
2728.05 556.73199 -109.113 1.8403113e-38
2732.4099 575.461 -102.124 1.8403113e-38
2751.1399 592.50201 -94.8396 1.8403113e-38
-1469.17 1324.55 -97.088402 1.8403113e-38
-5327.6602 2005.62 -94.920998 1.8403113e-38
2751.48 612.854 -87.521202 1.8403113e-38
2757.8501 635.01599 -79.176201 1.8403113e-38
2750.3501 658.19702 -71.3358 1.8403113e-38
2731.98 689.49902 -61.2654 1.8403113e-38
-1231.14 1371.12 -65.463699 1.8403113e-38
-1230.08 1383.65 -60.904202 1.8403113e-38
2715.51 715.37 -53.0233 1.8403113e-38
-1220.37 1399.6899 -54.543499 1.8403113e-38
2705.79 742.54199 -43.891499 1.8403113e-38
2705.6699 761.88098 -36.965 1.8403113e-38
2699.1499 787.38702 -28.229401 1.8403113e-38
2704.3101 804.68103 -21.7057 1.8403113e-38
-5325.27 2195.1001 -26.8393 1.8403113e-38
2709.6201 825.95502 -13.745 1.8403113e-38
-5318.8501 2237.3401 -11.2897 1.8403113e-38
2720.1699 841.51398 -7.5051398 1.8403113e-38
2775.73 847.448 -1.89258 1.8403113e-38
2812.9299 855.61102 3.3670101 1.8403113e-38
-5322.9102 2290.0701 7.3584499 1.8403113e-38
2819.6001 877.26001 11.5469 1.8403113e-38
2824.9299 895.14502 18.293699 1.8403113e-38
2830.23 917.16803 26.5221 1.8403113e-38
-2017.01 1773.12 29.3741 1.8403113e-38
-5317.6802 2332.51 22.903099 1.8403113e-38
2840.0601 933.87299 33.127701 1.8403113e-38
-2007.39 1794.1801 37.526699 1.8403113e-38
2846.8999 955.534 41.322701 1.8403113e-38
2843.8 975.53101 48.297901 1.8403113e-38
-1995.91 1811.0699 44.301399 1.8403113e-38
-5317.79 2384.9399 41.694199 1.8403113e-38
2855.0901 996.10602 56.382401 1.8403113e-38
-5311.77 2427.3301 57.268299 1.8403113e-38
2857.47 1014.71 63.203201 1.8403113e-38
2869.3601 1035.3 71.329803 1.8403113e-38
2873.3501 1053.58 78.1334 1.8403113e-38
-5320.77 2481.3601 76.077103 1.8403113e-38
2878.98 1075.61 86.384201 1.8403113e-38
2884.6101 1093.58 93.181602 1.8403113e-38
-5312.96 2523.5901 91.705803 1.8403113e-38
2897.7 1114.29 101.427 1.8403113e-38
2894.1399 1134 108.271 1.8403113e-38
-5321.9199 2578.0601 110.673 1.8403113e-38
