# .PCD v0.7 - Point Cloud Data file format
VERSION 0.7
FIELDS x y z rgb
SIZE 4 4 4 4
TYPE F F F F
COUNT 1 1 1 1
WIDTH 358
HEIGHT 1
VIEWPOINT 0 0 0 1 0 0 0
POINTS 358
DATA ascii
2155.95 284.01401 -299.879 1.8403113e-38
2190.6799 281.36301 -299.69901 1.8403113e-38
1753 332.23801 -295.646 1.8403113e-38
1646.8199 349.681 -292.814 1.8403113e-38
1674.67 343.27399 -294.22101 1.8403113e-38
1695 344.673 -293.04501 1.8403113e-38
1718.9399 342.95999 -292.879 1.8403113e-38
1576.62 358.37799 -291.96899 1.8403113e-38
1604.62 350.29599 -293.978 1.8403113e-38
1622.6 352.98199 -292.414 1.8403113e-38
1494.08 363.836 -292.70401 1.8403113e-38
1510.3199 366.785 -291.10101 1.8403113e-38
1529.22 367.04999 -290.384 1.8403113e-38
1552.17 363.276 -290.99701 1.8403113e-38
1447.79 374.65399 -290.30499 1.8403113e-38
1301.15 387.26501 -290.55399 1.8403113e-38
1320.73 382.84 -291.51401 1.8403113e-38
1336.92 383.241 -290.83701 1.8403113e-38
1354.36 382.29501 -290.60599 1.8403113e-38
2143.21 338.15601 -280.673 1.8403113e-38
1751.33 354.93799 -287.47299 1.8403113e-38
1408.4 379.151 -289.97 1.8403113e-38
1426.79 378.26801 -289.685 1.8403113e-38
1465.75 374.948 -289.608 1.8403113e-38
1370.67 383.05801 -289.793 1.8403113e-38
1387.04 383.99899 -288.914 1.8403113e-38
1215.22 398.43201 -289.33099 1.8403113e-38
1232.53 395.34 -289.883 1.8403113e-38
1248.85 394.01999 -289.82501 1.8403113e-38
1264.12 394.448 -289.168 1.8403113e-38
1279.45 395.03699 -288.45001 1.8403113e-38
1165.04 407.241 -287.78799 1.8403113e-38
1184.1 400.358 -289.65601 1.8403113e-38
1198.5601 400.91501 -288.979 1.8403113e-38
1060.01 419.59399 -286.763 1.8403113e-38
1075.3 416.40601 -287.41599 1.8403113e-38
1088.78 416.70099 -286.86499 1.8403113e-38
1101.8199 417.95801 -285.98199 1.8403113e-38
1120.3101 410.29401 -288.15201 1.8403113e-38
1132.97 412.66699 -286.875 1.8403113e-38
1146.66 413.53101 -286.112 1.8403113e-38
1003.39 427.13599 -285.89099 1.8403113e-38
1017.43 425.034 -286.19101 1.8403113e-38
1032.89 420.54001 -287.31201 1.8403113e-38
1045.74 421.26199 -286.62701 1.8403113e-38
936.422 435.414 -285.091 1.8403113e-38
948.47302 436.09 -284.45001 1.8403113e-38
962.18201 433.42899 -284.96399 1.8403113e-38
973.47803 436.061 -283.63901 1.8403113e-38
988.15997 431.94699 -284.647 1.8403113e-38
825.72198 444.11899 -285.57501 1.8403113e-38
847.12701 448.88599 -283.14401 1.8403113e-38
861.93402 440.76999 -285.599 1.8403113e-38
873.39899 441.646 -284.90399 1.8403113e-38
884.159 444.38699 -283.55701 1.8403113e-38
897.47803 441.07401 -284.32001 1.8403113e-38
907.87903 444.89301 -282.59399 1.8403113e-38
921.70502 440.952 -283.56799 1.8403113e-38
720.263 459.15799 -283.591 1.8403113e-38
731.78198 456.961 -284.008 1.8403113e-38
753.92603 456.51599 -283.44199 1.8403113e-38
765.59198 454.62701 -283.74301 1.8403113e-38
775.88501 457.36401 -282.41199 1.8403113e-38
789.09497 451.17099 -284.22299 1.8403113e-38
799.11499 455 -282.50601 1.8403113e-38
810.95502 453.52899 -282.64999 1.8403113e-38
833.81201 453.59 -281.87601 1.8403113e-38
643.26501 468.125 -282.87201 1.8403113e-38
653.83502 468.01001 -282.56601 1.8403113e-38
675.23499 467.12799 -282.18201 1.8403113e-38
686.95502 462.686 -283.40701 1.8403113e-38
696.72998 466.61401 -281.66199 1.8403113e-38
707.39203 466.95401 -281.18799 1.8403113e-38
741.01501 463.06201 -281.49301 1.8403113e-38
548.81097 475.026 -283.47601 1.8403113e-38
568.69598 479.82901 -281.08099 1.8403113e-38
579.578 475.35199 -282.34601 1.8403113e-38
590.12799 473.767 -282.57401 1.8403113e-38
600.867 471.34 -283.10001 1.8403113e-38
610.711 474.586 -281.60001 1.8403113e-38
621.00702 475.12399 -281.06601 1.8403113e-38
632.35999 470.18399 -282.48401 1.8403113e-38
663.61603 471.67599 -280.91501 1.8403113e-38
456.73599 488.013 -281.79501 1.8403113e-38
497.384 480.87201 -283.047 1.8403113e-38
507.39899 482.34698 -282.18301 1.8403113e-38
517.30798 484.84201 -280.953 1.8403113e-38
537.68799 483.51599 -280.763 1.8403113e-38
558.25201 481.595 -280.784 1.8403113e-38
396.70099 494.15799 -281.54099 1.8403113e-38
426.63699 492.59698 -281.12299 1.8403113e-38
446.64899 490.71201 -281.14801 1.8403113e-38
84.704651 503.34552 -288.4675 1.8403113e-38
327.47601 504.08401 -280.21899 1.8403113e-38
337.36899 503.228 -280.20401 1.8403113e-38
72.526901 515.81097 -284.349 1.8403113e-38
105.07 517.12299 -282.80399 1.8403113e-38
2594.27 301.63 -279.08401 1.8403113e-38
2605.74 319.37 -272.27701 1.8403113e-38
527.17603 487.418 -279.69501 1.8403113e-38
406.754 498.56799 -279.612 1.8403113e-38
436.591 495.37399 -279.789 1.8403113e-38
466.46399 495.73599 -278.67499 1.8403113e-38
476.60001 492.26199 -279.60199 1.8403113e-38
486.58301 492.629 -279.14001 1.8403113e-38
317.87 507.827 -279.17801 1.8403113e-38
377.16901 504.37 -278.48199 1.8403113e-38
386.923 500.164 -279.685 1.8403113e-38
416.70099 500.242 -278.67801 1.8403113e-38
249.11501 516.63 -278.24701 1.8403113e-38
259.63101 519.77399 -276.76199 1.8403113e-38
278.77301 514.23602 -278.14001 1.8403113e-38
289.41599 519.50598 -275.88 1.8403113e-38
298.285 510.87201 -278.71799 1.8403113e-38
308.733 515.38098 -276.73999 1.8403113e-38
347.87701 510.888 -277.082 1.8403113e-38
357.94 513.95099 -275.64099 1.8403113e-38
367.58801 510.53 -276.564 1.8403113e-38
118.317 526.19 -279.082 1.8403113e-38
170.68401 528.75403 -276.431 1.8403113e-38
194.838 523.09753 -277.6875 1.8403113e-38
211.04601 528.03302 -275.36499 1.8403113e-38
220.733 526.22198 -275.703 1.8403113e-38
230.95 527.26398 -274.98999 1.8403113e-38
270.20901 523.94098 -274.90399 1.8403113e-38
68.561897 535.78003 -277.241 1.8403113e-38
132.396 539.01898 -273.96899 1.8403113e-38
140.75101 532.02197 -276.23001 1.8403113e-38
151.61 534.18597 -275.08899 1.8403113e-38
160.786 530.06299 -276.28201 1.8403113e-38
182.51199 535.77197 -273.49799 1.8403113e-38
241.944 533.02301 -272.54099 1.8403113e-38
19.415899 548.34399 -274.30301 1.8403113e-38
40.816898 547.841 -273.78201 1.8403113e-38
-31.229099 558.659 -272.229 1.8403113e-38
-9.3438702 558.08899 -271.716 1.8403113e-38
10.2778 552.67902 -273.03201 1.8403113e-38
31.659 552.00598 -272.573 1.8403113e-38
52.93 551.724 -271.97601 1.8403113e-38
63.049198 550.39398 -272.125 1.8403113e-38
-106.484 568.11603 -271.27499 1.8403113e-38
-95.380203 567.06598 -271.29001 1.8403113e-38
-83.443604 567.81201 -270.62701 1.8403113e-38
-74.5056 562.73798 -272.173 1.8403113e-38
-61.801701 565.401 -270.79001 1.8403113e-38
-45.512047 564.07996 -270.73352 1.8403113e-38
-19.1299 560.91901 -271.01199 1.8403113e-38
3.00859 561.44397 -270.09399 1.8403113e-38
-197.52699 577.948 -270.70401 1.8403113e-38
-173.03799 577.46997 -270.07199 1.8403113e-38
-161.827 575.78198 -270.315 1.8403113e-38
-150.157 575.02399 -270.20599 1.8403113e-38
-140.38901 571.07703 -271.31601 1.8403113e-38
-127.377 573.02399 -270.18201 1.8403113e-38
-116.705 570.94 -270.58701 1.8403113e-38
2607.55 342.534 -263.82101 1.8403113e-38
2104.5 387.28699 -264.13599 1.8403113e-38
2121.72 396.53601 -260.21799 1.8403113e-38
1715.1801 408.224 -269.34601 1.8403113e-38
1714.79 428.46399 -262.022 1.8403113e-38
-268.68201 587.10999 -269.72198 1.8403113e-38
-241.658 588.30902 -268.39899 1.8403113e-38
-231.41299 584.37097 -269.48999 1.8403113e-38
-216.985 586.90302 -268.09698 1.8403113e-38
-203.683 587.995 -267.26401 1.8403113e-38
-181.278 584.12598 -267.92999 1.8403113e-38
-342.33701 598.362 -268.065 1.8403113e-38
-328.54199 598.05798 -267.72101 1.8403113e-38
-318.85199 592.58197 -269.388 1.8403113e-38
-302.26199 596.37402 -267.46799 1.8403113e-38
-292.57501 591.12402 -269.052 1.8403113e-38
-278.39099 592.15503 -268.21201 1.8403113e-38
-250.255 594.69098 -266.36801 1.8403113e-38
-453.20099 607.79102 -268.29099 1.8403113e-38
-438.396 606.96503 -268.104 1.8403113e-38
-424.28 605.58899 -268.13901 1.8403113e-38
-408.953 605.82098 -267.55099 1.8403113e-38
-394.94 604.76898 -267.47198 1.8403113e-38
-380.35999 604.60901 -267.04999 1.8403113e-38
-365.84201 604.61499 -266.57101 1.8403113e-38
-351.98901 604.039 -266.32401 1.8403113e-38
-541.69299 617.70099 -267.608 1.8403113e-38
-506.86401 618.99103 -265.996 1.8403113e-38
-489.91699 619.60901 -265.215 1.8403113e-38
-477.681 615.54199 -266.28699 1.8403113e-38
-462.172 615.12299 -265.92899 1.8403113e-38
-600.96698 628.15698 -265.767 1.8403113e-38
-587.867 623.64001 -266.974 1.8403113e-38
-568.474 625.24597 -265.754 1.8403113e-38
-551.96198 624.41699 -265.51199 1.8403113e-38
-520.49402 621.98999 -265.35699 1.8403113e-38
-701.82703 639.763 -264.87601 1.8403113e-38
-686.38 636.07098 -265.70599 1.8403113e-38
-664.336 638.22101 -264.202 1.8403113e-38
-649.716 634.31097 -265.13901 1.8403113e-38
-632.216 633.133 -264.991 1.8403113e-38
-616.93201 630.229 -265.54099 1.8403113e-38
-773.784 648.67102 -264.01199 1.8403113e-38
-756.67499 645.35999 -264.64999 1.8403113e-38
-735.04901 645.883 -263.74899 1.8403113e-38
-718.79797 642.41699 -264.47198 1.8403113e-38
-850.41998 658.37201 -263.01501 1.8403113e-38
-827.64502 658.15503 -262.345 1.8403113e-38
-804.18799 658.82001 -261.33301 1.8403113e-38
-789.37299 653.36401 -262.82401 1.8403113e-38
-931.052 669.85602 -261.50299 1.8403113e-38
-907.18701 669.04797 -261.01199 1.8403113e-38
-890.63397 663.591 -262.44601 1.8403113e-38
-867.711 662.80798 -261.97601 1.8403113e-38
-953.37299 672.052 -261.44101 1.8403113e-38
2612.5701 363.72699 -255.974 1.8403113e-38
2114.4399 422.564 -251.022 1.8403113e-38
1708.95 453.10101 -253.283 1.8403113e-38
-970.82501 677.70001 -259.96701 1.8403113e-38
2621.71 382.561 -248.84599 1.8403113e-38
2630.6699 401.457 -241.702 1.8403113e-38
2113.3601 444.01801 -243.28101 1.8403113e-38
1707.97 473.11301 -246.062 1.8403113e-38
1879.27 470.017 -241.55299 1.8403113e-38
1715.71 485.47501 -241.326 1.8403113e-38
2635.9199 422.23801 -233.996 1.8403113e-38
2126.8701 455.66101 -238.616 1.8403113e-38
2123.6899 478.09601 -230.589 1.8403113e-38
1717.27 502.86801 -234.97 1.8403113e-38
1733.08 508.48499 -232.414 1.8403113e-38
-982.54901 736.83698 -238.91701 1.8403113e-38
-880.71899 751.00403 -230.43401 1.8403113e-38
2645.3799 440.776 -226.966 1.8403113e-38
2655.55 458.944 -220.04601 1.8403113e-38
2126.0701 496.71701 -223.761 1.8403113e-38
1735.0699 525.27502 -226.263 1.8403113e-38
1744.58 535.97498 -222.07201 1.8403113e-38
1771.88 532.995 -222.254 1.8403113e-38
2658.4099 480.67001 -212.076 1.8403113e-38
2139.98 508.02899 -219.203 1.8403113e-38
2215.1001 502.802 -218.62801 1.8403113e-38
2157.1899 517.44202 -215.22501 1.8403113e-38
-920.099 789.25702 -217.86301 1.8403113e-38
-850.75403 799.97998 -211.696 1.8403113e-38
-840.117 791.51599 -214.414 1.8403113e-38
2658.3501 503.64499 -203.75 1.8403113e-38
-874.64899 830.409 -201.452 1.8403113e-38
2669.73 521.08398 -197.05499 1.8403113e-38
-867.89001 848.802 -194.562 1.8403113e-38
2670.1201 543.57898 -188.888 1.8403113e-38
2678.4199 562.36102 -181.80701 1.8403113e-38
-862.60797 866.08502 -188.12399 1.8403113e-38
-875.25897 873.50299 -185.851 1.8403113e-38
-887.87097 881.07501 -183.521 1.8403113e-38
2686.55 581.20502 -174.709 1.8403113e-38
-885.60199 896.422 -177.883 1.8403113e-38
-899.81702 903.29401 -175.85899 1.8403113e-38
-914.00598 910.34698 -173.769 1.8403113e-38
2689.01 602.45001 -166.92799 1.8403113e-38
2699.5 620.21997 -160.14101 1.8403113e-38
-916.65503 923.12701 -169.224 1.8403113e-38
-919.16998 935.89801 -164.677 1.8403113e-38
-936.73999 941.65503 -163.168 1.8403113e-38
-1329 983.18903 -161.008 1.8403113e-38
2700.6299 641.84399 -152.26601 1.8403113e-38
-959.25403 959.44897 -157.45799 1.8403113e-38
-940.84698 953.72101 -158.929 1.8403113e-38
-978.56702 965.04199 -156.06599 1.8403113e-38
-1088 977.53198 -155.136 1.8403113e-38
-1047.5 979.03699 -153.259 1.8403113e-38
-1019.94 975.914 -153.485 1.8403113e-38
-996.97498 971.28699 -154.407 1.8403113e-38
-1333.6 997.966 -155.80299 1.8403113e-38
-1339.01 1012.47 -150.722 1.8403113e-38
-2694.4199 1130.59 -152.466 1.8403113e-38
2709.8501 660.10901 -145.342 1.8403113e-38
-1338.59 1028.76 -144.804 1.8403113e-38
-2492.8401 1134.34 -144.48 1.8403113e-38
2717.04 679.17999 -138.19299 1.8403113e-38
2725.9199 697.59698 -131.22501 1.8403113e-38
-974.56097 1035.4301 -130.418 1.8403113e-38
-1335.16 1045.85 -138.498 1.8403113e-38
-1338.22 1060.91 -133.138 1.8403113e-38
-4458.79 1329.24 -138.46201 1.8403113e-38
2732.76 716.78601 -124.044 1.8403113e-38
-977.74402 1047.6801 -126.085 1.8403113e-38
-978.01898 1060.9399 -121.287 1.8403113e-38
-1336.35 1077.3101 -127.131 1.8403113e-38
-1341.02 1091.83 -122.022 1.8403113e-38
-5286.2598 1429.58 -129.29601 1.8403113e-38
2731.9199 738.72198 -116.121 1.8403113e-38
-1002.48 1078.99 -115.546 1.8403113e-38
-988.41101 1070.54 -118.147 1.8403113e-38
-1345.55 1106.39 -116.895 1.8403113e-38
-1348.02 1121.46 -111.511 1.8403113e-38
2742.1299 756.63 -109.294 1.8403113e-38
2745.5801 776.89801 -101.834 1.8403113e-38
-1350.35 1136.54 -106.122 1.8403113e-38
-1397.02 1141.17 -105.98 1.8403113e-38
-1712.13 1178.08 -102.957 1.8403113e-38
-1654.46 1170.8199 -103.694 1.8403113e-38
-1564.66 1170.92 -100.706 1.8403113e-38
-2752.03 1255.36 -109.133 1.8403113e-38
-2847.5601 1273.11 -105.838 1.8403113e-38
-4991.1602 1481.28 -100.851 1.8403113e-38
2763.96 792.13898 -95.704399 1.8403113e-38
-1394.3199 1157.71 -99.894402 1.8403113e-38
-1451.67 1177.34 -94.664902 1.8403113e-38
-1387.5601 1175.02 -93.398499 1.8403113e-38
-1804.9399 1199.11 -98.388901 1.8403113e-38
-1747.27 1190.2 -99.721901 1.8403113e-38
-1894.11 1203.97 -99.556503 1.8403113e-38
-2898.24 1296.09 -99.176697 1.8403113e-38
-2933.8301 1320.97 -91.326897 1.8403113e-38
2779.3899 808.54498 -89.250504 1.8403113e-38
2775.6599 831.11902 -81.190498 1.8403113e-38
-2984.1499 1345.4301 -84.114601 1.8403113e-38
-5051.2598 1525.28 -86.8797 1.8403113e-38
2771.7 853.57703 -73.180099 1.8403113e-38
-3063.1899 1369.04 -78.156601 1.8403113e-38
-3397.3999 1412.85 -73.261002 1.8403113e-38
-5127.9502 1570.25 -73.100403 1.8403113e-38
2759.8401 878.18201 -64.650902 1.8403113e-38
-3399.0801 1444.25 -61.937099 1.8403113e-38
2739.0801 905.01801 -55.605801 1.8403113e-38
2728.5901 928.526 -47.429798 1.8403113e-38
-4631.5098 1611.64 -41.774899 1.8403113e-38
2711.0901 953.63 -38.905201 1.8403113e-38
2711.6599 973.625 -31.638599 1.8403113e-38
2716.8701 992.36902 -24.673 1.8403113e-38
-1217.35 1352.08 -23.619499 1.8403113e-38
-4617.4199 1652.91 -26.3545 1.8403113e-38
2720.9399 1011.39 -17.6437 1.8403113e-38
2723.8601 1030.67 -10.5601 1.8403113e-38
-1213.53 1366.3199 -18.3323 1.8403113e-38
-1208.5699 1380.6 -12.9962 1.8403113e-38
2749.98 1044.6801 -4.6215801 1.8403113e-38
2829.7 1047.4399 -0.99971998 1.8403113e-38
-1211.41 1393.92 -8.2605896 1.8403113e-38
-4492.02 1691.1801 -8.3589296 1.8403113e-38
2831.28 1067.77 6.4207702 1.8403113e-38
-4432.23 1729.5699 7.52318 1.8403113e-38
2835.6001 1087.5 13.7151 1.8403113e-38
-4829.6201 1785.86 14.8632 1.8403113e-38
2841.71 1106.9 20.945299 1.8403113e-38
2846.6499 1126.54 28.226801 1.8403113e-38
-5272.3301 1850.95 23.9027 1.8403113e-38
2852.3999 1146.05 35.490501 1.8403113e-38
2858.95 1165.47 42.744999 1.8403113e-38
2869.28 1184.35 49.926899 1.8403113e-38
-5271.0498 1897.73 40.902199 1.8403113e-38
2919.98 1197.33 56.298901 1.8403113e-38
-5310.25 1947.2 57.545799 1.8403113e-38
2971.6101 1210.98 62.943001 1.8403113e-38
2965.6599 1233.05 70.748001 1.8403113e-38
2967.4399 1254.02 78.4067 1.8403113e-38
-5295.1201 1993.34 74.766296 1.8403113e-38
2751.48 1300.13 88.022598 1.8403113e-38
2542.8701 1341.83 96.279503 1.8403113e-38
2523.8 1361.28 102.702 1.8403113e-38
2507.51 1380.13 109 1.8403113e-38
-1986.75 1767.8101 101.78 1.8403113e-38
-1984.05 1787.48 109 1.8403113e-38
