# .PCD v0.7 - Point Cloud Data file format
VERSION 0.7
FIELDS x y z rgb
SIZE 4 4 4 4
TYPE F F F F
COUNT 1 1 1 1
WIDTH 326
HEIGHT 1
VIEWPOINT 0 0 0 1 0 0 0
POINTS 326
DATA ascii
-2262.3 2209.99 -305.34399 1.8403113e-38
-2054.9299 2268.53 -306.64801 1.8403113e-38
-1853.87 2320.73 -306.30399 1.8403113e-38
-1669.16 2367.6499 -305.62799 1.8403113e-38
-1513.73 2411.3301 -306.534 1.8403113e-38
-1432.0601 2415.8401 -300.521 1.8403113e-38
-1374.71 2451.8201 -307.84799 1.8403113e-38
-1292.11 2454.3899 -301.064 1.8403113e-38
-1236.38 2487.99 -307.70099 1.8403113e-38
-1152.89 2488.5801 -300.14099 1.8403113e-38
-1101.79 2520.29 -306.543 1.8403113e-38
-1031.16 2520.9099 -300.19 1.8403113e-38
-974.92798 2549.55 -305.03299 1.8403113e-38
-866.53497 2578.05 -304.979 1.8403113e-38
-812.72101 2578.55 -300.14401 1.8403113e-38
-760.98798 2603.72 -304.18701 1.8403113e-38
-667.99597 2628.73 -304.33701 1.8403113e-38
-578.828 2651.74 -304.13599 1.8403113e-38
-495.418 2673.4099 -304 1.8403113e-38
-413.94501 2693.03 -303.32001 1.8403113e-38
-333.50101 2710.4099 -301.953 1.8403113e-38
-255.076 2725.9099 -300.108 1.8403113e-38
-197.383 2745.6299 -301.67899 1.8403113e-38
-134.09599 2761.76 -301.466 1.8403113e-38
-4268.7798 1660.03 -298.535 1.8403113e-38
-3771.95 1788.64 -297.55701 1.8403113e-38
-3595.28 1818.52 -291.633 1.8403113e-38
-2372.29 2143.8 -292.289 1.8403113e-38
-2353.6899 2158.9099 -295.87601 1.8403113e-38
-2156.95 2221.8501 -299.716 1.8403113e-38
-1929.64 2277 -297.96799 1.8403113e-38
-1739.49 2327.0801 -297.897 1.8403113e-38
-1581.54 2373.5801 -299.56299 1.8403113e-38
-912.24103 2549.8501 -299.306 1.8403113e-38
-704.38501 2602.3899 -298.453 1.8403113e-38
-620.21698 2628.04 -299.64801 1.8403113e-38
-522.53998 2647.95 -297.56299 1.8403113e-38
-449.82501 2671.0701 -298.93301 1.8403113e-38
-370.41101 2690.1799 -298.26901 1.8403113e-38
-298.63699 2709.05 -298.228 1.8403113e-38
-225.045 2725.1699 -297.052 1.8403113e-38
-160.922 2742.1001 -297.04199 1.8403113e-38
-97.801399 2757.4299 -296.56601 1.8403113e-38
-61.688702 2772.7 -298.577 1.8403113e-38
-35.713902 2771.24 -295.64499 1.8403113e-38
-9.6863899 2789.0901 -299.50601 1.8403113e-38
25.311199 2783.55 -294.29999 1.8403113e-38
53.180302 2799.6399 -297.36899 1.8403113e-38
79.809799 2796.6299 -293.83099 1.8403113e-38
99.595703 2815.1299 -298.5 1.8403113e-38
125.193 2811.9399 -294.99301 1.8403113e-38
171.451 2825.5801 -295.48801 1.8403113e-38
144.20599 2830.1001 -299.616 1.8403113e-38
197.646 2839.76 -298.04199 1.8403113e-38
218.526 2837.51 -295.30701 1.8403113e-38
272.48801 2844.72 -292.823 1.8403113e-38
244.731 2850.8401 -297.55899 1.8403113e-38
319.23199 2853.8999 -291.70401 1.8403113e-38
291.677 2860.6001 -296.62601 1.8403113e-38
357.21201 2866.3201 -292.539 1.8403113e-38
331.57199 2872.6599 -297.15799 1.8403113e-38
385.871 2875.74 -293.18701 1.8403113e-38
403.642 2873.04 -290.58401 1.8403113e-38
435.548 2886.6799 -292.414 1.8403113e-38
417.03699 2890.21 -295.38 1.8403113e-38
462.42099 2895.51 -293.02301 1.8403113e-38
494.35901 2907.6899 -294.336 1.8403113e-38
509.30301 2905.4099 -292.14301 1.8403113e-38
531.17798 2915.9399 -293.811 1.8403113e-38
549.25403 2911.23 -290.474 1.8403113e-38
568.66199 2922.6899 -292.69901 1.8403113e-38
601.20898 2931.75 -292.85901 1.8403113e-38
639.14801 2936.0601 -290.84601 1.8403113e-38
666.81702 2946.8601 -292.07101 1.8403113e-38
678.86298 2944.75 -290.20599 1.8403113e-38
699.05603 2953.48 -291.401 1.8403113e-38
709.48798 2952.29 -290.01001 1.8403113e-38
728.164 2961.71 -291.586 1.8403113e-38
755.73199 2970.47 -292.103 1.8403113e-38
780.36798 2981.0901 -293.54901 1.8403113e-38
816.45203 2980.96 -290.147 1.8403113e-38
820.16803 2984.6599 -291.103 1.8403113e-38
838.87 2992.27 -292.04099 1.8403113e-38
866.19702 2998.49 -291.68399 1.8403113e-38
920.55402 3009.04 -290.34 1.8403113e-38
941.69098 3027.1001 -294.72699 1.8403113e-38
966.14801 3026.3401 -292.18301 1.8403113e-38
971.29797 3028.0701 -292.31299 1.8403113e-38
1017.32 3035.21 -290.54199 1.8403113e-38
1040.95 3041.02 -290.39099 1.8403113e-38
1069.0601 3048.3899 -290.36801 1.8403113e-38
1083.51 3057.27 -292.146 1.8403113e-38
1128.9399 3067.99 -291.69101 1.8403113e-38
1152.37 3071.49 -290.742 1.8403113e-38
-3958.3301 1704.02 -285.12701 1.8403113e-38
481.60699 2891.0601 -289.67099 1.8403113e-38
588.177 2916.52 -288.71399 1.8403113e-38
618.96802 2926.3 -289.29001 1.8403113e-38
649.71503 2935.3201 -289.603 1.8403113e-38
739.26801 2959.6899 -289.84299 1.8403113e-38
772.62402 2963.29 -288.00601 1.8403113e-38
802.86298 2968.5701 -287.05099 1.8403113e-38
855.18799 2984.1399 -287.659 1.8403113e-38
876.83099 2995.3501 -289.59201 1.8403113e-38
896.80603 3000.7 -289.616 1.8403113e-38
901.93799 3002.76 -289.85999 1.8403113e-38
929.64801 3006.8601 -288.72501 1.8403113e-38
949.50201 3011.3101 -288.44299 1.8403113e-38
994.90198 3027.46 -289.90302 1.8403113e-38
1000.03 3029.0601 -289.98999 1.8403113e-38
1027.29 3030.8601 -288.08499 1.8403113e-38
1049.03 3038.71 -288.82599 1.8403113e-38
1065.11 3045.6001 -289.754 1.8403113e-38
1096.52 3047.8101 -287.60699 1.8403113e-38
1114.85 3054.9302 -288.40698 1.8403113e-38
1136.71 3065.0801 -289.94501 1.8403113e-38
1160.5699 3067.6399 -288.62601 1.8403113e-38
1175.2 3075.3101 -289.96301 1.8403113e-38
1181.78 3073.7 -288.78601 1.8403113e-38
1197.45 3079.48 -289.35999 1.8403113e-38
1205.4399 3075.3301 -287.15601 1.8403113e-38
1228.47 3077.29 -285.702 1.8403113e-38
1220.12 3082.3999 -288.28 1.8403113e-38
1244.965 3085.54 -287.07098 1.8403113e-38
1264.52 3092.9248 -287.84949 1.8403113e-38
1283.1801 3096.8799 -287.50601 1.8403113e-38
1290.74 3092.1599 -285.14099 1.8403113e-38
1312.16 3094.9399 -284.12601 1.8403113e-38
1301.39 3106.5601 -289.21701 1.8403113e-38
1326.59 3101.46 -285.07901 1.8403113e-38
1331.13 3102.4399 -285.00101 1.8403113e-38
1346.04 3107.8601 -285.521 1.8403113e-38
1349.83 3110.49 -286.091 1.8403113e-38
1366.9299 3116.51 -286.62 1.8403113e-38
1386.385 3122.655 -286.97299 1.8403113e-38
1403.8 3127.7 -287.12701 1.8403113e-38
1410.7 3122.22 -284.55499 1.8403113e-38
1424.83 3129.25 -285.715 1.8403113e-38
1430.97 3125.4099 -283.79199 1.8403113e-38
1445.9399 3136.8999 -286.4425 1.8403113e-38
1467.04 3137.2349 -284.59698 1.8403113e-38
1486.03 3136.1201 -282.436 1.8403113e-38
1491.09 3134.6599 -281.453 1.8403113e-38
1506.755 3144.4648 -283.44501 1.8403113e-38
1548.89 3149.95 -281.453 1.8403113e-38
1525.875 3150.5298 -283.79999 1.8403113e-38
1542.83 3156.22 -284.22501 1.8403113e-38
1564.59 3150.6899 -280.25299 1.8403113e-38
1566.9301 3160.8401 -283.60699 1.8403113e-38
1584.355 3164.5552 -283.293 1.8403113e-38
1605.1101 3162.4199 -280.61151 1.8403113e-38
1622.46 3166.04 -280.272 1.8403113e-38
1643.605 3174.76 -281.36951 1.8403113e-38
1660.92 3179.6899 -281.49399 1.8403113e-38
1664.5601 3186.8401 -283.67099 1.8403113e-38
1682.6 3186.79 -281.97501 1.8403113e-38
1702.405 3191.395 -281.75299 1.8403113e-38
1719.6801 3201.5901 -283.733 1.8403113e-38
1724.3101 3200.1101 -282.78101 1.8403113e-38
1739.99 3202.3101 -282.095 1.8403113e-38
1744.36 3205.45 -282.79501 1.8403113e-38
1759.98 3212.1001 -283.68201 1.8403113e-38
1764.52 3212.3501 -283.34799 1.8403113e-38
1782.615 3219.3101 -284.11298 1.8403113e-38
1800.83 3213.75 -280.461 1.8403113e-38
1805.46 3221.3999 -282.72198 1.8403113e-38
1823.9199 3228.71 -283.57599 1.8403113e-38
1842.28 3228.2 -281.689 1.8403113e-38
1865.61 3233.4351 -281.36047 1.8403113e-38
1887.465 3246.3599 -283.87399 1.8403113e-38
1905.96 3243.99 -281.31799 1.8403113e-38
1910.62 3243.7 -280.784 1.8403113e-38
1928.85 3259.51 -284.64999 1.8403113e-38
1950.29 3259.6101 -282.69 1.8403113e-38
1933.79 3261.03 -284.72299 1.8403113e-38
1956.4399 3269.49 -285.595 1.8403113e-38
1975.125 3265.645 -282.50299 1.8403113e-38
1996.4399 3277.4399 -284.668 1.8403113e-38
2001.39 3277.76 -284.32101 1.8403113e-38
2024.86 3285.04 -284.70001 1.8403113e-38
2044.05 3282.0698 -281.8685 1.8403113e-38
2021.12 3291.3401 -287.26401 1.8403113e-38
2066.79 3294.5901 -284.159 1.8403113e-38
2071.6399 3293.72 -283.40201 1.8403113e-38
2088.76 3291.47 -281.01501 1.8403113e-38
2093.5801 3290.52 -280.23099 1.8403113e-38
2112.6299 3295.3401 -280.15601 1.8403113e-38
2120.23 3304.4299 -282.647 1.8403113e-38
2138.8301 3306.1299 -281.51501 1.8403113e-38
2143.71 3305 -280.66199 1.8403113e-38
2170.3999 3315.1899 -281.76501 1.8403113e-38
2195.75 3319.4199 -280.896 1.8403113e-38
2191.1101 3321.6499 -282.11301 1.8403113e-38
2221.97 3324.99 -280.41699 1.8403113e-38
2218.26 3330.03 -282.534 1.8403113e-38
2243.8401 3332.49 -281.01801 1.8403113e-38
2252.1499 3339.96 -282.87299 1.8403113e-38
2274.71 3340.365 -280.918 1.8403113e-38
2300.27 3347.53 -281.061 1.8403113e-38
2309.3301 3355.5801 -283.04901 1.8403113e-38
2329.6299 3355.54 -281.14801 1.8403113e-38
2338.1299 3361.6499 -282.508 1.8403113e-38
2365.5151 3369.8901 -282.85748 1.8403113e-38
2396.4648 3377.9048 -282.79849 1.8403113e-38
2420.5701 3376.8701 -280.189 1.8403113e-38
2430.4399 3384.2 -281.85199 1.8403113e-38
1627.12 3164.9399 -279.448 1.8403113e-38
1846.62 3222.49 -279.276 1.8403113e-38
2162.6799 3307.29 -279.702 1.8403113e-38
2515.46 3393.3701 -277.168 1.8403113e-38
2524.9299 3398.45 -278.07101 1.8403113e-38
2547.97 3397.8401 -275.71301 1.8403113e-38
2558.5801 3404.3899 -277.03201 1.8403113e-38
2584.8501 3408.25 -275.944 1.8403113e-38
2594.6599 3412.9299 -276.67899 1.8403113e-38
2623.3401 3419.48 -276.314 1.8403113e-38
2634.3601 3425.5801 -277.43701 1.8403113e-38
2662.4399 3429.8301 -276.32001 1.8403113e-38
2673.6599 3435.71 -277.34201 1.8403113e-38
2704.8601 3443.3201 -277.12 1.8403113e-38
2714.0901 3445.74 -277.10999 1.8403113e-38
2744.6201 3451.05 -276.13699 1.8403113e-38
2756.24 3456.4299 -276.95001 1.8403113e-38
2786.05 3459.4399 -275.23499 1.8403113e-38
2794.96 3460.6399 -274.83099 1.8403113e-38
2823.3101 3460.6499 -272.19501 1.8403113e-38
2427.6799 3336.0901 -265.181 1.8403113e-38
2435.3201 3339.04 -265.50699 1.8403113e-38
2824.5901 3451.5901 -268.88699 1.8403113e-38
2446.27 3319.28 -257.534 1.8403113e-38
2450.25 3315.3101 -255.769 1.8403113e-38
2827.2549 3413.1499 -255.11499 1.8403113e-38
2835.0901 3382.51 -243.605 1.8403113e-38
-1933.0601 2091.78 -233.114 1.8403113e-38
2833.99 3371.27 -239.75 1.8403113e-38
2833.77 3327.7 -224.44 1.8403113e-38
2834.5601 3338.1101 -228.02901 1.8403113e-38
-3296.8701 1665.79 -210.121 1.8403113e-38
-2057.8799 2013.48 -217.175 1.8403113e-38
-1999.99 2028.8101 -217.18401 1.8403113e-38
-1825.86 2078.8501 -218.58701 1.8403113e-38
2841.99 3295.53 -212.354 1.8403113e-38
2838.51 3300.71 -214.50101 1.8403113e-38
-3400.02 1637.7 -209.839 1.8403113e-38
-2139.3501 1946.53 -201.19701 1.8403113e-38
-2055.8201 1964.0601 -199.59399 1.8403113e-38
2833.48 3246.02 -195.72501 1.8403113e-38
2830.23 3251.1499 -197.83501 1.8403113e-38
2833.3901 3211.8198 -183.6985 1.8403113e-38
-3362.6201 1555.38 -177.39301 1.8403113e-38
2834.5 3179.99 -172.397 1.8403113e-38
2849.75 3187.54 -173.634 1.8403113e-38
-3103.02 1601.1899 -169.354 1.8403113e-38
-3135.28 1515.78 -142.304 1.8403113e-38
2776.3301 3086.04 -144.74899 1.8403113e-38
2783.02 3085.3 -143.868 1.8403113e-38
-3122.51 1499.0601 -135.229 1.8403113e-38
2801.5701 3038.3101 -125.607 1.8403113e-38
2827.6101 3037.55 -122.918 1.8403113e-38
2854.0901 3054.26 -126.331 1.8403113e-38
-3116.4199 1436 -112.473 1.8403113e-38
2766.8799 3012.99 -119.925 1.8403113e-38
2854.47 3026.385 -116.489 1.8403113e-38
2853.9299 2991.74 -104.347 1.8403113e-38
2856.46 3000.6201 -107.238 1.8403113e-38
2608.8501 2891.6699 -91.941399 1.8403113e-38
2616.24 2892.8501 -91.668198 1.8403113e-38
2854 2965.2549 -95.022644 1.8403113e-38
2855.095 2937.0649 -84.999748 1.8403113e-38
2858.6499 2908.3601 -74.567902 1.8403113e-38
2855.48 2912.1699 -76.2062 1.8403113e-38
2857.5 2879.96 -64.685097 1.8403113e-38
2854.4399 2883.78 -66.312401 1.8403113e-38
2856.4399 2852.3999 -55.084301 1.8403113e-38
2860.77 2861.3799 -57.840199 1.8403113e-38
2861.26 2829.54 -46.591702 1.8403113e-38
2858.4099 2833.3799 -48.206902 1.8403113e-38
-2409.22 1391.03 -30.8452 1.8403113e-38
2861.6599 2784.6399 -30.754601 1.8403113e-38
2858.3799 2804.835 -38.1665 1.8403113e-38
-2333.8899 1388.3 -22.875299 1.8403113e-38
-1270.95 1676.0601 -25.222 1.8403113e-38
2859.03 2758.3999 -21.7668 1.8403113e-38
2860.73 2754.04 -20.0737 1.8403113e-38
2857.5801 2776.54 -28.283701 1.8403113e-38
-1274.6801 1635.5 -11.2966 1.8403113e-38
2864.7148 2735.0549 -13.023251 1.8403113e-38
-1293.83 1621.01 -7.9802499 1.8403113e-38
2860.29 2706.3401 -3.3318601 1.8403113e-38
2864.8701 2714.1299 -5.6457 1.8403113e-38
-2129.79 1357.2 7.06106 1.8403113e-38
-2116.6399 1374.5 2.19765 1.8403113e-38
2862.4951 2687.0698 3.6540949 1.8403113e-38
2859.73 2643.1899 18.8381 1.8403113e-38
2865.425 2665.925 11.36725 1.8403113e-38
2863.71 2618.4199 27.9245 1.8403113e-38
2861.73 2622.29 26.3773 1.8403113e-38
2861.8 2639.3301 20.3899 1.8403113e-38
-1713.8101 1390 34.228699 1.8403113e-38
2862.46 2596.3401 35.577202 1.8403113e-38
2862.3701 2601.05 33.9118 1.8403113e-38
-1537.02 1413.36 42.458 1.8403113e-38
2860.47 2558.1399 48.833801 1.8403113e-38
2863.4751 2577.98 42.130451 1.8403113e-38
2868.8 2536.3999 57.259102 1.8403113e-38
2867.1599 2540.3 55.733002 1.8403113e-38
2864.03 2555.04 50.256302 1.8403113e-38
-986.32703 1490.63 66.511002 1.8403113e-38
2868.25 2500.1799 69.951599 1.8403113e-38
2867.76 2517.885 63.67625 1.8403113e-38
-965.58197 1484.64 70.549301 1.8403113e-38
2859.6899 2477.29 77.208603 1.8403113e-38
2865.8101 2475.04 78.569397 1.8403113e-38
2866.9199 2495.25 71.563698 1.8403113e-38
-957.15002 1438.9399 87.413002 1.8403113e-38
-958.56097 1449.23 83.662399 1.8403113e-38
2862.6802 2456.615 84.764252 1.8403113e-38
2868.6599 2417.79 98.9813 1.8403113e-38
2864.6201 2420.8501 97.526299 1.8403113e-38
2869.04 2437.1201 92.216301 1.8403113e-38
2866.8401 2440.73 90.739601 1.8403113e-38
-942.05798 1394.9 104.317 1.8403113e-38
-947.53003 1404.15 100.553 1.8403113e-38
2862.1001 2396.97 105.696 1.8403113e-38
2861.02 2400.8701 104.225 1.8403113e-38
2857.03 2381.0701 110.818 1.8403113e-38
