# .PCD v0.7 - Point Cloud Data file format
VERSION 0.7
FIELDS x y z rgb
SIZE 4 4 4 4
TYPE F F F F
COUNT 1 1 1 1
WIDTH 360
HEIGHT 1
VIEWPOINT 0 0 0 1 0 0 0
POINTS 360
DATA ascii
818.04498 -682.02899 -295.32401 1.8403113e-38
748.03802 -673.93701 -292.064 1.8403113e-38
769.82202 -672.86401 -291.772 1.8403113e-38
780.29498 -670.83899 -291.08099 1.8403113e-38
791.96997 -672.30499 -291.66699 1.8403113e-38
827.32202 -676.04901 -293.189 1.8403113e-38
839.883 -678.84497 -294.263 1.8403113e-38
735.73297 -669.34497 -290.33801 1.8403113e-38
802.14203 -669.20001 -290.58301 1.8403113e-38
847.70099 -669.17603 -290.77899 1.8403113e-38
1689.48 -660.784 -291.50299 1.8403113e-38
1712.1801 -660.95697 -291.66699 1.8403113e-38
1832.5601 -661.59302 -292.439 1.8403113e-38
1856.63 -660.54303 -292.16501 1.8403113e-38
1910.55 -661.52899 -292.76599 1.8403113e-38
2054.25 -662.24597 -293.672 1.8403113e-38
2085.6399 -662.716 -293.98401 1.8403113e-38
2117.98 -663.28198 -294.33499 1.8403113e-38
2150.46 -663.40002 -294.52399 1.8403113e-38
2183.0801 -663.06598 -294.54901 1.8403113e-38
2223.3799 -666.854 -296.108 1.8403113e-38
2257.96 -666.55298 -296.15399 1.8403113e-38
2298.6299 -669.22699 -297.31 1.8403113e-38
2324.96 -663.02899 -295.172 1.8403113e-38
2365.9199 -664.65002 -295.94601 1.8403113e-38
2406.1899 -665.20697 -296.32901 1.8403113e-38
2445.75 -664.71802 -296.32901 1.8403113e-38
2488.0701 -665.03998 -296.63599 1.8403113e-38
2530.54 -664.75 -296.72101 1.8403113e-38
2581.0901 -667.84698 -298.07501 1.8403113e-38
2824.27 -666.34003 -298.61801 1.8403113e-38
2872.29 -663.40399 -297.76501 1.8403113e-38
1601.85 -659.185 -290.52802 1.8403113e-38
1729.74 -656.50201 -290.125 1.8403113e-38
1754.11 -657.36298 -290.548 1.8403113e-38
1777.08 -656.69 -290.40601 1.8403113e-38
1801.67 -656.92499 -290.60199 1.8403113e-38
1880 -658.59802 -291.56201 1.8403113e-38
1934.9 -659.48999 -292.133 1.8403113e-38
1960.14 -657.69598 -291.59399 1.8403113e-38
1991.09 -659.45898 -292.37399 1.8403113e-38
2015.7 -656.40399 -291.37299 1.8403113e-38
2741.4199 -652.36401 -293.16 1.8403113e-38
2883.24 -643.63397 -290.61899 1.8403113e-38
724.297 -667.36102 -289.565 1.8403113e-38
755.99902 -663.97498 -288.47501 1.8403113e-38
857.84198 -665.61499 -289.52802 1.8403113e-38
117.358 -651.02301 -280.89401 1.8403113e-38
159.896 -650.16302 -280.772 1.8403113e-38
169.237 -654.99701 -282.57401 1.8403113e-38
232.089 -651.86499 -281.716 1.8403113e-38
242.392 -651.49597 -281.62701 1.8403113e-38
252.52901 -651.96899 -281.845 1.8403113e-38
262.38901 -654.21997 -282.70901 1.8403113e-38
273.04401 -650.79797 -281.51099 1.8403113e-38
282.43399 -656.61603 -283.67099 1.8403113e-38
293.245 -651.15198 -281.73099 1.8403113e-38
323.487 -651.05603 -281.83099 1.8403113e-38
403.54599 -652.78699 -282.82101 1.8403113e-38
413.54599 -652.86798 -282.89499 1.8403113e-38
423.547 -652.86798 -282.94 1.8403113e-38
433.53601 -651.84601 -282.61301 1.8403113e-38
443.547 -652.62097 -282.94 1.8403113e-38
453.66 -656.13202 -284.263 1.8403113e-38
463.46399 -650.16901 -282.13699 1.8403113e-38
473.67001 -654.45203 -283.742 1.8403113e-38
483.51901 -651.14398 -282.582 1.8403113e-38
493.565 -651.508 -282.759 1.8403113e-38
503.914 -655.53699 -284.272 1.8403113e-38
514.18103 -657.60498 -285.07101 1.8403113e-38
524.04401 -654.90802 -284.133 1.8403113e-38
533.86298 -652.13098 -283.16699 1.8403113e-38
544.28302 -654.88098 -284.21399 1.8403113e-38
564.80402 -656.383 -284.853 1.8403113e-38
574.96698 -656.073 -284.78601 1.8403113e-38
584.70898 -652.88898 -283.67099 1.8403113e-38
595.00702 -653.34198 -283.88199 1.8403113e-38
604.84802 -650.92603 -283.047 1.8403113e-38
616.16901 -656.76599 -285.22299 1.8403113e-38
626.02399 -654.17999 -284.32599 1.8403113e-38
646.99103 -655.21997 -284.79901 1.8403113e-38
657.008 -653.30603 -284.147 1.8403113e-38
705.09045 -655.97498 -285.3345 1.8403113e-38
865.06201 -654.96399 -285.68399 1.8403113e-38
875.44 -652.133 -284.70099 1.8403113e-38
911.18103 -653.47498 -285.35001 1.8403113e-38
1257.02 -650.53998 -285.83301 1.8403113e-38
1287.74 -650.08801 -285.80701 1.8403113e-38
1303.8101 -650.349 -285.974 1.8403113e-38
1390.3 -654.63599 -287.922 1.8403113e-38
1410.0699 -657.30298 -288.98199 1.8403113e-38
1442 -653.49597 -287.73901 1.8403113e-38
1464.73 -658.27698 -289.582 1.8403113e-38
1480.85 -655.867 -288.77701 1.8403113e-38
1497.01 -653.27399 -287.90601 1.8403113e-38
1513.89 -651.17603 -287.21799 1.8403113e-38
1537.79 -655.61499 -288.94101 1.8403113e-38
1578.26 -656.27899 -289.36401 1.8403113e-38
1618.38 -655.28802 -289.18301 1.8403113e-38
1641.46 -656.99701 -289.909 1.8403113e-38
1659.54 -653.94299 -288.879 1.8403113e-38
139.036 -649.409 -280.40399 1.8403113e-38
180.90401 -649.64001 -280.67599 1.8403113e-38
212.14101 -648.64398 -280.45401 1.8403113e-38
303.84299 -646.52899 -280.09601 1.8403113e-38
333.62399 -649.91998 -281.46301 1.8403113e-38
353.69601 -649.27197 -281.31799 1.8403113e-38
363.76401 -647.88599 -280.858 1.8403113e-38
393.711 -646.047 -280.32401 1.8403113e-38
553.487 -647.276 -281.48801 1.8403113e-38
634.552 -645.05103 -281.04199 1.8403113e-38
665.953 -646.71698 -281.789 1.8403113e-38
675.89001 -644.64697 -281.08099 1.8403113e-38
686.94702 -647.07001 -282.01199 1.8403113e-38
885.04498 -647.47601 -283.04901 1.8403113e-38
896.526 -647.07599 -282.95499 1.8403113e-38
918.76599 -644.23401 -282.01999 1.8403113e-38
932.76801 -648.65802 -283.69299 1.8403113e-38
942.71698 -644.401 -282.18799 1.8403113e-38
953.901 -642.61102 -281.58701 1.8403113e-38
977.17102 -640.40997 -280.89099 1.8403113e-38
990.63202 -642.50201 -281.71301 1.8403113e-38
1005.09 -646.12402 -283.09601 1.8403113e-38
1015.94 -642.93597 -281.98401 1.8403113e-38
1030.55 -646.27399 -283.26501 1.8403113e-38
1056.6899 -646.73199 -283.548 1.8403113e-38
1081.52 -644.21997 -282.746 1.8403113e-38
1109.04 -645.23401 -283.23801 1.8403113e-38
1120 -641.12903 -281.79401 1.8403113e-38
1135.2 -643.28302 -282.646 1.8403113e-38
1148.87 -642.89801 -282.56699 1.8403113e-38
1179.13 -645.60199 -283.68701 1.8403113e-38
1192.97 -644.76099 -283.44299 1.8403113e-38
1207.4301 -644.547 -283.42999 1.8403113e-38
1223.09 -645.71002 -283.92401 1.8403113e-38
1238.25 -645.935 -284.07401 1.8403113e-38
1268.17 -645.12799 -283.914 1.8403113e-38
1318.71 -648.95203 -285.53201 1.8403113e-38
1334.9 -648.85699 -285.57101 1.8403113e-38
1351.15 -648.57898 -285.54199 1.8403113e-38
1368.75 -649.55902 -285.978 1.8403113e-38
1420.75 -649.83698 -286.31299 1.8403113e-38
1551.3 -649.73199 -286.85999 1.8403113e-38
964.22601 -639.026 -280.32901 1.8403113e-38
1039.52 -639.56702 -280.86401 1.8403113e-38
1065.13 -639.01001 -280.776 1.8403113e-38
1090.91 -637.935 -280.5 1.8403113e-38
1160.4 -639.22498 -281.28201 1.8403113e-38
2534.5801 -622.07098 -281.20599 1.8403113e-38
-33.8815 -641.68799 -276.81799 1.8403113e-38
-22.8822 -642.72998 -277.24701 1.8403113e-38
-14.0321 -648.94501 -279.548 1.8403113e-38
-0.58212698 -643.63501 -277.67599 1.8403113e-38
9.0036297 -647.91602 -279.27701 1.8403113e-38
21.6171 -644.13599 -277.95801 1.8403113e-38
31.869101 -646.46002 -278.85001 1.8403113e-38
43.077999 -646.02002 -278.73999 1.8403113e-38
54.555599 -644.58301 -278.26901 1.8403113e-38
65.382004 -644.83502 -278.409 1.8403113e-38
77.054398 -642.29102 -277.53601 1.8403113e-38
86.965103 -645.05103 -278.58401 1.8403113e-38
98.811302 -641.39801 -277.30801 1.8403113e-38
109.242 -642.16602 -277.634 1.8403113e-38
129.08299 -647.07599 -279.51001 1.8403113e-38
151.088 -643.427 -278.28101 1.8403113e-38
192.64999 -643.25299 -278.40399 1.8403113e-38
202.19 -646.91101 -279.77899 1.8403113e-38
222.791 -646.591 -279.755 1.8403113e-38
313.97299 -645.55701 -279.78699 1.8403113e-38
344 -644.94897 -279.70099 1.8403113e-38
373.883 -644.53802 -279.685 1.8403113e-38
383.83899 -643.92401 -279.50699 1.8403113e-38
-868.56403 -636.75598 -271.27701 1.8403113e-38
-843.74103 -634.755 -270.66 1.8403113e-38
-40.7145 -630.979 -272.89001 1.8403113e-38
2518.48 -592.20203 -270.263 1.8403113e-38
-43.114201 -610.70801 -265.50201 1.8403113e-38
2544.8201 -582.979 -267.02499 1.8403113e-38
-40.815701 -580.97998 -254.69299 1.8403113e-38
-41.638302 -559.11102 -246.73 1.8403113e-38
-43.738899 -540.73401 -240.032 1.8403113e-38
-757.35699 -511.65601 -226.24699 1.8403113e-38
-40.4935 -512.15601 -229.646 1.8403113e-38
-446.267 -502.94199 -224.472 1.8403113e-38
-384.737 -500.18201 -223.743 1.8403113e-38
-458.16501 -499.319 -223.10001 1.8403113e-38
-425.867 -497.186 -222.468 1.8403113e-38
-412.11301 -498.33899 -222.95 1.8403113e-38
-393.27802 -493.55801 -221.29401 1.8403113e-38
-364.22 -492.811 -221.153 1.8403113e-38
-351.965 -494.76901 -221.92 1.8403113e-38
-337.89301 -494.367 -221.83701 1.8403113e-38
-323.28101 -493.05701 -221.42599 1.8403113e-38
-296.67499 -492.96201 -221.511 1.8403113e-38
-270.30099 -492.27701 -221.38 1.8403113e-38
-245.864 -493.34 -221.877 1.8403113e-38
-160.996 -491.79999 -221.69701 1.8403113e-38
-148.437 -490.026 -221.108 1.8403113e-38
-137.44701 -490.56299 -221.35201 1.8403113e-38
-126 -490.17001 -221.261 1.8403113e-38
-115.086 -490.483 -221.424 1.8403113e-38
-107.53 -496.48199 -223.64101 1.8403113e-38
-83.4795 -492.44199 -222.278 1.8403113e-38
-42.744701 -495.60599 -223.61301 1.8403113e-38
-205.468 -488.03601 -220.127 1.8403113e-38
-170.511 -488.61801 -220.496 1.8403113e-38
-91.964203 -488.28799 -220.729 1.8403113e-38
-60.184799 -488.73999 -221.036 1.8403113e-38
-48.646099 -486.70801 -220.34801 1.8403113e-38
2548.6799 -477.50201 -228.655 1.8403113e-38
-4059.01 -528.24701 -217.467 1.8403113e-38
-4381.4399 -514.38098 -210.97301 1.8403113e-38
-4192.7402 -517.01703 -212.77901 1.8403113e-38
-755.97803 -494.16501 -219.88699 1.8403113e-38
-305.15399 -487.06 -219.325 1.8403113e-38
-277.604 -485.06601 -218.72301 1.8403113e-38
-253.778 -487.08301 -219.564 1.8403113e-38
-228.42 -486.254 -219.37601 1.8403113e-38
-216.104 -486.02499 -219.34801 1.8403113e-38
-191.634 -485.173 -219.147 1.8403113e-38
-181.06599 -486.94699 -219.841 1.8403113e-38
-68.636398 -484.77701 -219.556 1.8403113e-38
-684.922 -469.73801 -211.31599 1.8403113e-38
2533.22 -450.16199 -218.63499 1.8403113e-38
2533.02 -429.452 -211.097 1.8403113e-38
-4549.8198 -504.86899 -206.755 1.8403113e-38
-5273.7202 -495.34 -200.03799 1.8403113e-38
-743.92999 -452.995 -204.95799 1.8403113e-38
-421.57199 -445.487 -203.672 1.8403113e-38
2551.03 -416.07999 -206.311 1.8403113e-38
-734.71698 -430.62701 -196.85899 1.8403113e-38
-839.01898 -427.00101 -195.071 1.8403113e-38
-816.55298 -427.28201 -195.274 1.8403113e-38
-745.76001 -423.436 -194.192 1.8403113e-38
-417.36499 -426.14099 -196.64999 1.8403113e-38
-775.729 -414.327 -190.742 1.8403113e-38
-752.77301 -413.284 -190.466 1.8403113e-38
-672.17902 -413.741 -190.994 1.8403113e-38
2548.6101 -394.64999 -198.50101 1.8403113e-38
2581.22 -386.55499 -195.702 1.8403113e-38
2594.28 -370.836 -190.039 1.8403113e-38
2712.8501 -371.13901 -190.68201 1.8403113e-38
-412.17801 -406.246 -189.433 1.8403113e-38
-414.99701 -394.647 -185.19901 1.8403113e-38
2600.6699 -352.634 -183.444 1.8403113e-38
2723 -353.25 -184.217 1.8403113e-38
-5559.6499 -440.87601 -178.933 1.8403113e-38
-420.88599 -372.17001 -176.992 1.8403113e-38
-406.483 -372.29501 -177.10201 1.8403113e-38
-770.01202 -365.67099 -173.06 1.8403113e-38
-479.78201 -356.76099 -171.12 1.8403113e-38
-449.97699 -357.73599 -171.608 1.8403113e-38
-432.65302 -355.65201 -170.92799 1.8403113e-38
-416.85599 -354.66699 -170.64 1.8403113e-38
2721.6699 -331.539 -176.30901 1.8403113e-38
-489.95099 -351.88901 -169.30099 1.8403113e-38
-458.64999 -351.86801 -169.43401 1.8403113e-38
-736.98199 -329.64301 -160.09599 1.8403113e-38
2725.79 -311.72101 -169.11501 1.8403113e-38
2733.51 -293.07101 -162.362 1.8403113e-38
-748.88599 -323.30801 -157.737 1.8403113e-38
-739.12 -303.26001 -150.485 1.8403113e-38
2742.02 -274.638 -155.692 1.8403113e-38
-729.07202 -283.42999 -143.313 1.8403113e-38
2748.45 -255.562 -148.778 1.8403113e-38
2746.0901 -233.998 -140.92 1.8403113e-38
-5460.6699 -328.11899 -138.341 1.8403113e-38
-730.53198 -270.93701 -138.759 1.8403113e-38
-730.15399 -257.47101 -133.86 1.8403113e-38
-736.42297 -248.02 -130.39301 1.8403113e-38
2753.1001 -215.15401 -134.093 1.8403113e-38
-731.48102 -232.181 -124.65 1.8403113e-38
-5366.1499 -267.77499 -116.803 1.8403113e-38
-726.33301 -216.47301 -118.956 1.8403113e-38
-724.44098 -202.79401 -113.987 1.8403113e-38
-1722.8199 -201.08299 -108.883 1.8403113e-38
-1762.04 -192.97301 -105.755 1.8403113e-38
-726.72699 -191.526 -109.875 1.8403113e-38
-1781.11 -178.744 -100.491 1.8403113e-38
-725.39801 -178.43201 -105.116 1.8403113e-38
2564.6499 -144.472 -107.523 1.8403113e-38
-5298.7798 -212.131 -96.854301 1.8403113e-38
-719.52698 -163.146 -99.578903 1.8403113e-38
-725.80298 -154.229 -96.305603 1.8403113e-38
-728.45697 -143.504 -92.390297 1.8403113e-38
-741.67499 -137.942 -90.306999 1.8403113e-38
2497.55 -108.323 -94.065399 1.8403113e-38
-1737.49 -147.666 -89.376602 1.8403113e-38
-1765.85 -135.89101 -84.9636 1.8403113e-38
-738.79102 -124.593 -85.461601 1.8403113e-38
-787.11798 -110.748 -80.205902 1.8403113e-38
-764.09497 -112.456 -80.930901 1.8403113e-38
-751.00598 -118.4 -83.152802 1.8403113e-38
2498.5701 -90.303902 -87.512199 1.8403113e-38
2509.1101 -74.622101 -81.852203 1.8403113e-38
-1747.72 -112.207 -76.425499 1.8403113e-38
-1023.45 -89.733002 -71.496902 1.8403113e-38
-751.12701 -83.128998 -70.315598 1.8403113e-38
2515.6299 -57.9137 -75.800598 1.8403113e-38
2774.6001 -56.423 -76.420403 1.8403113e-38
2536.6001 -44.367001 -70.9645 1.8403113e-38
-1279.61 -87.116402 -69.394897 1.8403113e-38
-1116.5601 -80.0905 -67.569702 1.8403113e-38
-1035.66 -80.483498 -68.075798 1.8403113e-38
-1065.6899 -77.106201 -66.7118 1.8403113e-38
-958.96301 -79.746498 -68.151802 1.8403113e-38
-765.81299 -77.756401 -68.294403 1.8403113e-38
-1156.05 -64.240898 -61.6241 1.8403113e-38
-885.47803 -65.260902 -63.209702 1.8403113e-38
-781.35498 -60.8382 -62.067402 1.8403113e-38
-765.83197 -66.125198 -64.061203 1.8403113e-38
2575.02 -34.245701 -67.4534 1.8403113e-38
2779.01 -37.091702 -69.404701 1.8403113e-38
2794.02 -19.7416 -63.1576 1.8403113e-38
-787.64099 -51.699299 -58.7131 1.8403113e-38
-1051.05 -45.120998 -55.136799 1.8403113e-38
-803.10999 -46.052299 -56.588501 1.8403113e-38
2798.0801 -0.25304201 -56.083099 1.8403113e-38
-1460.74 -24.781799 -45.895699 1.8403113e-38
2799.01 19.7694 -48.800301 1.8403113e-38
2804.6699 38.978699 -41.834599 1.8403113e-38
2808.1899 58.551601 -34.727001 1.8403113e-38
-1770.22 33.2589 -23.383301 1.8403113e-38
-1258.8101 38.011902 -23.9487 1.8403113e-38
2812.51 78.009499 -27.6649 1.8403113e-38
2824.5701 96.431396 -21.0144 1.8403113e-38
-1760.9399 53.405602 -16.092699 1.8403113e-38
-1261.34 52.006001 -18.8444 1.8403113e-38
2826.5601 116.291 -13.7955 1.8403113e-38
2833.3301 135.56599 -6.8111901 1.8403113e-38
-1563.0699 120.498 7.43712 1.8403113e-38
2832.97 155.7 0.51813298 1.8403113e-38
2844.3501 174.578 7.33777 1.8403113e-38
-1619.83 146.05 16.991301 1.8403113e-38
2847.6001 194.37601 14.5282 1.8403113e-38
2848.6799 214.37801 21.803301 1.8403113e-38
2851.5601 234.22501 29.0135 1.8403113e-38
-1681.49 207.687 39.700199 1.8403113e-38
2861.24 253.616 36.0271 1.8403113e-38
-1668.47 226.34 46.4305 1.8403113e-38
2870.74 273.14999 43.0938 1.8403113e-38
-1666.21 243.81799 52.7812 1.8403113e-38
2864.1001 293.67899 50.594898 1.8403113e-38
2875.24 313.276 57.676899 1.8403113e-38
2885.2 333.08099 64.840401 1.8403113e-38
-1197.34 297.67499 70.278 1.8403113e-38
-1183.47 311.98901 75.425003 1.8403113e-38
2885.98 353.29901 72.195099 1.8403113e-38
2895.5701 373.33899 79.445198 1.8403113e-38
-1192.41 324.651 80.073402 1.8403113e-38
-1469.67 338.66 86.4161 1.8403113e-38
-1189.26 338.091 84.950798 1.8403113e-38
2895.98 393.64001 86.831802 1.8403113e-38
-1325.47 359.51401 93.358704 1.8403113e-38
-1274 375.32501 98.882103 1.8403113e-38
2903.2 413.91501 94.178299 1.8403113e-38
-1275.37 389.20001 103.938 1.8403113e-38
-1275.6 403.10501 109 1.8403113e-38
2905.24 434.285 101.583 1.8403113e-38
2918.0801 454.82199 109 1.8403113e-38
