# .PCD v0.7 - Point Cloud Data file format
VERSION 0.7
FIELDS x y z rgb
SIZE 4 4 4 4
TYPE F F F F
COUNT 1 1 1 1
WIDTH 356
HEIGHT 1
VIEWPOINT 0 0 0 1 0 0 0
POINTS 356
DATA ascii
-1269.16 1381.6801 -290.73499 1.8403113e-38
-1225.4301 1425.6899 -290.73099 1.8403113e-38
-1182.04 1471.25 -291.21399 1.8403113e-38
-1140.05 1512.58 -290.97101 1.8403113e-38
-1107.5699 1551.79 -292.642 1.8403113e-38
-1070.21 1589.5601 -292.67999 1.8403113e-38
-1029.4301 1630.25 -292.58899 1.8403113e-38
-993.99799 1665.63 -292.51401 1.8403113e-38
-956.03497 1703.52 -292.42801 1.8403113e-38
-922.61902 1736.64 -292.293 1.8403113e-38
-894.11401 1769.67 -293.405 1.8403113e-38
-856.245 1802.86 -292.14099 1.8403113e-38
-827.95099 1834.4301 -292.92999 1.8403113e-38
-796.92102 1864.03 -292.51001 1.8403113e-38
-758.51703 1897.33 -291.134 1.8403113e-38
-730.63702 1924.67 -290.948 1.8403113e-38
-701.01703 1953.98 -290.81601 1.8403113e-38
-594.99298 2057.9199 -290.09698 1.8403113e-38
-421.38901 2233.6699 -290.349 1.8403113e-38
428.57999 3097.7 -292.48099 1.8403113e-38
432.776 3106.8601 -293.74799 1.8403113e-38
-1370.91 1251.42 -283.599 1.8403113e-38
-1357.71 1287.3 -289.39499 1.8403113e-38
-1311.4301 1334.49 -289.54599 1.8403113e-38
-663.08301 1982.9 -288.44 1.8403113e-38
-640.453 2009.03 -289.297 1.8403113e-38
-610.52197 2034.58 -288.121 1.8403113e-38
-563.61902 2082.76 -288.36801 1.8403113e-38
-540.91803 2106.8899 -288.694 1.8403113e-38
-516.73499 2129.04 -288.13101 1.8403113e-38
-494.526 2152.1101 -288.31299 1.8403113e-38
-480.495 2171.3101 -289.61499 1.8403113e-38
-458.82199 2193.45 -289.698 1.8403113e-38
-434.79901 2213.8501 -288.728 1.8403113e-38
-396.03799 2253.5 -288.88699 1.8403113e-38
-380.328 2273.01 -289.83701 1.8403113e-38
-363.327 2290.76 -289.99799 1.8403113e-38
-341.465 2310.5 -289.41599 1.8403113e-38
-325.11801 2327.5 -289.55399 1.8403113e-38
-307.75601 2345.9199 -289.79599 1.8403113e-38
-292.08499 2362.24 -289.935 1.8403113e-38
-272.46899 2380.25 -289.491 1.8403113e-38
-255.55099 2396.1101 -289.18799 1.8403113e-38
-239.51401 2413.1101 -289.409 1.8403113e-38
-222.33501 2428.3999 -288.89499 1.8403113e-38
-206.987 2444.77 -289.129 1.8403113e-38
-186.64999 2459.6799 -287.70099 1.8403113e-38
-178.798 2475.0601 -289.62 1.8403113e-38
-162.10899 2489.23 -288.944 1.8403113e-38
-149.15401 2504.4299 -289.49799 1.8403113e-38
-131.276 2518.1001 -288.388 1.8403113e-38
-122.928 2532.74 -289.98599 1.8403113e-38
-102.907 2545.9199 -288.19601 1.8403113e-38
-92.391899 2560.1699 -289.13599 1.8403113e-38
-75.084099 2572.79 -287.90601 1.8403113e-38
-55.648399 2586.47 -286.396 1.8403113e-38
-51.693802 2598.8799 -288.55701 1.8403113e-38
-34.957802 2612.1399 -287.63699 1.8403113e-38
-25.018999 2624.0801 -288.133 1.8403113e-38
-7.1328602 2636.79 -286.77399 1.8403113e-38
-4.7240701 2648.8401 -289.242 1.8403113e-38
12.3799 2661.1499 -287.98401 1.8403113e-38
26.503201 2672.1101 -287.14801 1.8403113e-38
36.090401 2684.5701 -287.867 1.8403113e-38
46.530102 2695.5 -287.974 1.8403113e-38
54.385502 2707.8501 -289.11401 1.8403113e-38
74.533897 2717.3799 -286.35699 1.8403113e-38
77.787903 2729.98 -288.74799 1.8403113e-38
89.479797 2740.1599 -288.33899 1.8403113e-38
100.533 2751.53 -288.401 1.8403113e-38
110.459 2761.6499 -288.43301 1.8403113e-38
120.718 2772.8401 -288.655 1.8403113e-38
137.395 2781.54 -286.57999 1.8403113e-38
149.67599 2792.02 -286.09698 1.8403113e-38
160.78999 2801.3101 -285.60901 1.8403113e-38
163.80901 2813.28 -287.89899 1.8403113e-38
174.118 2822.5 -287.603 1.8403113e-38
182.929 2833.1399 -288.05801 1.8403113e-38
196.151 2841.45 -286.77499 1.8403113e-38
206.955 2851.3601 -286.52701 1.8403113e-38
217.48 2859.98 -286.01999 1.8403113e-38
232.099 2868.6299 -284.46399 1.8403113e-38
243.63499 2876.6799 -283.548 1.8403113e-38
247.29601 2887.9299 -285.48801 1.8403113e-38
251.60001 2897.78 -286.905 1.8403113e-38
266.41599 2905.75 -285.12201 1.8403113e-38
276.319 2913.78 -284.62601 1.8403113e-38
286.65601 2922.76 -284.258 1.8403113e-38
291.216 2932.27 -285.521 1.8403113e-38
302.57401 2940.71 -284.75201 1.8403113e-38
307.26801 2950.0801 -285.94501 1.8403113e-38
316.04199 2959.2 -286.017 1.8403113e-38
324.44501 2967.1599 -285.88901 1.8403113e-38
334.22101 2975.72 -285.55899 1.8403113e-38
338.289 2985.1499 -286.92999 1.8403113e-38
349.94501 2992.8 -285.88101 1.8403113e-38
355.02399 3001.76 -286.867 1.8403113e-38
368.51401 3008.3999 -285.08801 1.8403113e-38
375.44699 3016.46 -285.36401 1.8403113e-38
385.51599 3024.29 -284.772 1.8403113e-38
387.367 3034.49 -286.91 1.8403113e-38
403.70001 3044.7998 -285.33752 1.8403113e-38
408.14899 3060.54 -288.22601 1.8403113e-38
416.26999 3067.73 -287.974 1.8403113e-38
421.58099 3077.49 -289.10599 1.8403113e-38
428.96301 3084.96 -289.11401 1.8403113e-38
452.48099 3108.73 -289.13901 1.8403113e-38
460.87399 3115.3999 -288.68201 1.8403113e-38
479.67001 3117.23 -284.29901 1.8403113e-38
487.26901 3124.1001 -284.09799 1.8403113e-38
497.90201 3130.3201 -282.948 1.8403113e-38
499.948 3140.45 -285.017 1.8403113e-38
507.47299 3148.48 -285.133 1.8403113e-38
518.43298 3153.01 -283.465 1.8403113e-38
525.25403 3161.3601 -283.84601 1.8403113e-38
535.45898 3166.1699 -282.44501 1.8403113e-38
540.82397 3175.4199 -283.431 1.8403113e-38
546.43298 3183.24 -283.98901 1.8403113e-38
555.2085 3195.9951 -284.99451 1.8403113e-38
570.20697 3204.21 -283.23001 1.8403113e-38
575.28601 3212.3701 -284.01001 1.8403113e-38
583.323 3219.6001 -283.789 1.8403113e-38
589.27502 3227.0901 -284.173 1.8403113e-38
594.47198 3236.51 -285.24799 1.8403113e-38
602.75201 3242.1499 -284.55499 1.8403113e-38
609.552 3250.28 -284.88599 1.8403113e-38
617.18402 3256.3601 -284.474 1.8403113e-38
623.39099 3264.98 -285.08301 1.8403113e-38
635.36499 3267.22 -282.565 1.8403113e-38
643.078 3274.45 -282.427 1.8403113e-38
643.87799 3286.51 -285.315 1.8403113e-38
655.20398 3290.47 -283.40601 1.8403113e-38
661.703 3297.3999 -283.504 1.8403113e-38
667.61798 3306.3201 -284.26599 1.8403113e-38
679.625 3307.9099 -281.57199 1.8403113e-38
685.64899 3316.7 -282.271 1.8403113e-38
691.02899 3324.72 -282.94 1.8403113e-38
699.84198 3330.74 -282.20801 1.8403113e-38
705.35498 3338.6799 -282.82101 1.8403113e-38
712.33801 3346.6101 -283.052 1.8403113e-38
721.81299 3350.3201 -281.55701 1.8403113e-38
722.62 3365.1101 -285.14099 1.8403113e-38
733.43597 3367.29 -282.90701 1.8403113e-38
740.07501 3375.71 -283.35199 1.8403113e-38
747.84399 3381.26 -282.76999 1.8403113e-38
757.64099 3385.97 -281.448 1.8403113e-38
764.28003 3392.8201 -281.491 1.8403113e-38
764.70801 3409.0801 -285.55099 1.8403113e-38
773.87903 3412.9399 -284.173 1.8403113e-38
783.29498 3418.1101 -283.06699 1.8403113e-38
789.07501 3426.28 -283.67099 1.8403113e-38
794.64398 3436.5801 -284.87299 1.8403113e-38
805.05402 3438.6201 -282.70901 1.8403113e-38
812.98798 3445.76 -282.49301 1.8403113e-38
819.60602 3453 -282.63901 1.8403113e-38
825.008 3463.9099 -284.04199 1.8403113e-38
831.271 3471.8501 -284.46301 1.8403113e-38
841.60101 3475.6499 -282.76999 1.8403113e-38
847.995 3483.49 -283.13 1.8403113e-38
855.85199 3491.0901 -283.04999 1.8403113e-38
857.42603 3506.8501 -286.68701 1.8403113e-38
870.42798 3506.3501 -283.19901 1.8403113e-38
873.27802 3520.5 -286.09299 1.8403113e-38
882.46997 3526.29 -285.20599 1.8403113e-38
894.98352 3535.095 -284.23199 1.8403113e-38
905.76703 3547.0701 -284.51999 1.8403113e-38
913.39801 3555.9099 -284.81601 1.8403113e-38
925.42151 3566.03 -284.30652 1.8403113e-38
936.73199 3577.72 -284.38599 1.8403113e-38
947.24298 3581.27 -282.57999 1.8403113e-38
954.35797 3589.3201 -282.81 1.8403113e-38
961.33002 3600.4099 -283.853 1.8403113e-38
967.47803 3610.98 -284.97601 1.8403113e-38
976.67401 3617.6799 -284.32101 1.8403113e-38
985.70898 3622.1001 -283.121 1.8403113e-38
993.17999 3633.03 -283.99399 1.8403113e-38
999.43799 3644.3301 -285.276 1.8403113e-38
1009.34 3649.9099 -284.151 1.8403113e-38
1018.28 3654.95 -283.138 1.8403113e-38
1026.59 3664.8101 -283.51901 1.8403113e-38
1032.6801 3677.74 -285.26199 1.8403113e-38
1043.87 3680.3601 -283.047 1.8403113e-38
1052.13 3687.8401 -282.832 1.8403113e-38
1060.3 3699.28 -283.65601 1.8403113e-38
1069.96 3703.05 -282.12601 1.8403113e-38
1078.11 3715.29 -283.16299 1.8403113e-38
1087.89 3718.9099 -281.565 1.8403113e-38
1096.59 3730.1299 -282.19901 1.8403113e-38
1104.63 3740.02 -282.65799 1.8403113e-38
1111.3199 3759.4099 -285.90302 1.8403113e-38
1122.95 3757.25 -282.34601 1.8403113e-38
1132.24 3768.26 -282.772 1.8403113e-38
1140.34 3779.8 -283.63901 1.8403113e-38
1149.96 3790.7 -283.952 1.8403113e-38
1160.11 3794.6899 -282.354 1.8403113e-38
1169.78 3806.3899 -282.85999 1.8403113e-38
1178.67 3816.79 -283.229 1.8403113e-38
1188.67 3828.3701 -283.616 1.8403113e-38
1197.87 3838.6499 -283.87799 1.8403113e-38
1209.61 3842.5701 -281.85101 1.8403113e-38
1219.05 3852.71 -282.017 1.8403113e-38
1229.8199 3863.0701 -281.89301 1.8403113e-38
1240.4399 3867.3999 -280.259 1.8403113e-38
1250.34 3885.1899 -282.26901 1.8403113e-38
1259.84 3898.8899 -283.327 1.8403113e-38
1270.52 3914.6699 -284.61499 1.8403113e-38
1281.28 3921.5601 -283.60699 1.8403113e-38
1292.39 3937.2 -284.74701 1.8403113e-38
1303.9 3939.1499 -282.276 1.8403113e-38
1315.6801 3951.75 -282.46799 1.8403113e-38
1326.47 3963.1201 -282.59799 1.8403113e-38
1338.86 3972.6699 -281.84799 1.8403113e-38
1349.38 3992.54 -284.228 1.8403113e-38
1362.33 3999.02 -282.54599 1.8403113e-38
1374.02 4006.21 -281.371 1.8403113e-38
1386.72 4023.1001 -282.423 1.8403113e-38
1398.53 4034.9399 -282.409 1.8403113e-38
1411.9 4045.8501 -281.755 1.8403113e-38
1424.12 4054.6001 -280.845 1.8403113e-38
1450.33 4077.73 -280.009 1.8403113e-38
1437.83 4063.3601 -279.54999 1.8403113e-38
1464.36 4085.29 -278.32599 1.8403113e-38
1477.24 4098.5 -278.38599 1.8403113e-38
1491.84 4115.5298 -278.98599 1.8403113e-38
1505.15 4127.5601 -278.63501 1.8403113e-38
1520.15 4141.4502 -278.32401 1.8403113e-38
1534.17 4159.0801 -279.22601 1.8403113e-38
1549.5 4169.8101 -278.01999 1.8403113e-38
1563.83 4184.2998 -278.035 1.8403113e-38
1580.11 4201.5601 -278.259 1.8403113e-38
1595.2 4218.7202 -278.763 1.8403113e-38
1611.41 4228.9102 -277.19101 1.8403113e-38
1627.12 4246.7798 -277.71799 1.8403113e-38
1644.53 4263.4702 -277.50201 1.8403113e-38
1660.59 4279.1299 -277.37201 1.8403113e-38
1679.1 4299.3799 -277.78601 1.8403113e-38
1694.63 4307.0098 -275.733 1.8403113e-38
1714.61 4332.73 -277.17001 1.8403113e-38
1732.85 4354.5601 -278.06 1.8403113e-38
1752.1 4370.2598 -277.117 1.8403113e-38
1769.66 4384.04 -276.11499 1.8403113e-38
1789.46 4399.3799 -274.93799 1.8403113e-38
1810.87 4430.1401 -277.30099 1.8403113e-38
1830.78 4442.21 -275.255 1.8403113e-38
1850.04 4458.1802 -274.37701 1.8403113e-38
1872.97 4481.3599 -274.401 1.8403113e-38
1893.72 4500.77 -274.022 1.8403113e-38
1917.01 4521.5898 -273.34799 1.8403113e-38
1939.16 4543.4502 -273.23599 1.8403113e-38
1961.51 4557.1299 -270.97299 1.8403113e-38
1984.86 4580.46 -270.927 1.8403113e-38
2011.73 4607.9102 -271.03 1.8403113e-38
2036.46 4632.6401 -270.98499 1.8403113e-38
2065.4299 4663.3101 -271.371 1.8403113e-38
2091.6499 4689.3901 -271.29001 1.8403113e-38
2111.1399 4685.54 -265.271 1.8403113e-38
2126.8899 4676.3701 -258.84799 1.8403113e-38
-1136.28 1335.34 -244.537 1.8403113e-38
2140.3701 4654.3701 -249.72701 1.8403113e-38
-1477.22 927.96399 -228.08701 1.8403113e-38
-1361.74 1021.16 -222.16901 1.8403113e-38
-1121.21 1261.66 -221.74699 1.8403113e-38
-1469.54 868.33099 -210.80701 1.8403113e-38
-1475.03 895.65601 -219.233 1.8403113e-38
-1100.21 1246.98 -212.55701 1.8403113e-38
-1467.55 835.435 -201.855 1.8403113e-38
-1085.98 1226.1899 -203.55099 1.8403113e-38
-923.20001 1387.53 -202.89799 1.8403113e-38
-921.77502 1411.39 -208.651 1.8403113e-38
-1466.62 805.008 -193.81 1.8403113e-38
-1095.4399 1195.5699 -198.13901 1.8403113e-38
-1461.38 773.539 -184.386 1.8403113e-38
2057.9299 4305.6499 -181.571 1.8403113e-38
-1527.91 664.36798 -173.565 1.8403113e-38
-1452.21 747.74799 -175.40199 1.8403113e-38
2059.74 4267.0098 -171.19 1.8403113e-38
2090.9399 4263.46 -162.22301 1.8403113e-38
2081.22 4278.9902 -168.716 1.8403113e-38
-1416.5699 703.59198 -154.873 1.8403113e-38
2115.9299 4243.6802 -150.69701 1.8403113e-38
2108.71 4264.8999 -158.00301 1.8403113e-38
-1467.98 601.297 -141.91 1.8403113e-38
-1376.9 694.30902 -142.24699 1.8403113e-38
2136.23 4251.27 -147.40199 1.8403113e-38
-1493.53 546.94897 -134.567 1.8403113e-38
-1522.51 492.88901 -128.18401 1.8403113e-38
-1480.66 484.13699 -115.133 1.8403113e-38
-1940.16 -12.8662 -106.309 1.8403113e-38
-1451.1 470.901 -104.105 1.8403113e-38
2047.92 4001.23 -106.072 1.8403113e-38
-1467.26 420.71301 -95.404602 1.8403113e-38
2051.8 3944.8201 -90.600403 1.8403113e-38
2046.4301 3962.74 -96.583801 1.8403113e-38
-1416.51 423.36899 -82.982201 1.8403113e-38
2053.6699 3916.45 -82.842003 1.8403113e-38
-1642.0699 175.189 -77.570801 1.8403113e-38
2071.6101 3896.3301 -73.046097 1.8403113e-38
2066.6399 3916.5901 -79.527702 1.8403113e-38
-1632.8 139.58701 -66.044197 1.8403113e-38
2089.8701 3877.74 -63.562099 1.8403113e-38
2104.4299 3881.0601 -60.6548 1.8403113e-38
2082.3601 3891.8 -69.110001 1.8403113e-38
2124.45 3866.3999 -51.725101 1.8403113e-38
2116.6299 3876.6101 -56.3619 1.8403113e-38
-1485.37 218.181 -48.132599 1.8403113e-38
2145.99 3854.9099 -43.214401 1.8403113e-38
2139.3 3867.02 -48.0485 1.8403113e-38
2730.04 4460.6401 -47.764198 1.8403113e-38
-1433.61 218.46001 -34.837101 1.8403113e-38
2183.6001 3845.74 -31.152599 1.8403113e-38
2158.9199 3851.79 -39.0769 1.8403113e-38
2173.6201 3854.3301 -35.931499 1.8403113e-38
2730.8401 4395.7998 -30.9272 1.8403113e-38
2726.3999 4420.2402 -38.342098 1.8403113e-38
2194.3601 3841.1201 -27.1875 1.8403113e-38
2211.29 3844.3601 -23.646999 1.8403113e-38
2226.1599 3846.3201 -20.309 1.8403113e-38
2726.1001 4355.6899 -21.859699 1.8403113e-38
-1312.3101 281.073 -19.5739 1.8403113e-38
2236.47 3838.1399 -15.5496 1.8403113e-38
2254.5901 3844.8799 -12.6011 1.8403113e-38
2449.28 4069.47 -19.9328 1.8403113e-38
2729.77 4331.3799 -14.6814 1.8403113e-38
-1333.62 185.65401 -0.60431898 1.8403113e-38
-1267.5699 278.28799 -7.3082099 1.8403113e-38
2253.5601 3818.8201 -6.1813402 1.8403113e-38
2282.05 3841.1699 -4.5571799 1.8403113e-38
2729.29 4298.8198 -6.45258 1.8403113e-38
-1441.61 50.1133 6.2765298 1.8403113e-38
2736.9199 4250.2202 7.9846001 1.8403113e-38
2732.23 4274.6401 0.51122701 1.8403113e-38
2739.22 4226.1299 14.7592 1.8403113e-38
-1217.52 208.041 23.636499 1.8403113e-38
2736.78 4167.6602 29.124901 1.8403113e-38
2732.73 4188.4502 22.744801 1.8403113e-38
-1208.48 174.946 34.458401 1.8403113e-38
2733.73 4135.7402 36.523399 1.8403113e-38
-1144.1899 195.98 45.665798 1.8403113e-38
2735.22 4085.6799 49.748402 1.8403113e-38
2736.53 4114.29 42.748901 1.8403113e-38
-1071.79 221.858 57.723801 1.8403113e-38
2736.1101 4062.8301 55.840302 1.8403113e-38
-1032.52 222.123 67.7948 1.8403113e-38
2744.8999 4023.74 68.137802 1.8403113e-38
2734.04 4034.45 62.586899 1.8403113e-38
-1001.53 211.116 78.621696 1.8403113e-38
2735.49 3988.0701 74.856598 1.8403113e-38
-983.25098 192.08701 88.222801 1.8403113e-38
2555.6101 3769.3101 84.518097 1.8403113e-38
-935.78497 197.91299 98.985901 1.8403113e-38
2544.76 3698.8 99.800697 1.8403113e-38
2531.4299 3704.5601 94.880798 1.8403113e-38
2521.0901 3711.46 90.442902 1.8403113e-38
-920.185 176.60001 108.481 1.8403113e-38
2561.3 3698.1201 104.245 1.8403113e-38
2585.1899 3702.6699 109.249 1.8403113e-38
