# .PCD v0.7 - Point Cloud Data file format
VERSION 0.7
FIELDS x y z rgb
SIZE 4 4 4 4
TYPE F F F F
COUNT 1 1 1 1
WIDTH 324
HEIGHT 1
VIEWPOINT 0 0 0 1 0 0 0
POINTS 324
DATA ascii
-1220.1801 428.409 -294.271 1.8403113e-38
-1144.87 556.60901 -296.01901 1.8403113e-38
-1055.83 689.36902 -294.42599 1.8403113e-38
-988.22498 800.698 -295.26801 1.8403113e-38
-914.48901 911.492 -294.117 1.8403113e-38
-861.76398 1003.41 -295.76199 1.8403113e-38
-795.93201 1100.0601 -294.293 1.8403113e-38
-753.69397 1177.95 -296.43799 1.8403113e-38
-692.62402 1264.12 -294.39899 1.8403113e-38
-650.80798 1335.61 -295.42801 1.8403113e-38
-600.39801 1409.14 -294.211 1.8403113e-38
-556.06097 1476.49 -293.66101 1.8403113e-38
-513.65503 1540.26 -293.009 1.8403113e-38
-474.19501 1600.16 -292.51099 1.8403113e-38
-431.59601 1659.28 -290.897 1.8403113e-38
-395.72 1713.12 -290.323 1.8403113e-38
-277.43799 1900.3 -290.31601 1.8403113e-38
-141.33 2126.48 -292.40302 1.8403113e-38
272.44199 2769.3701 -290.06 1.8403113e-38
282.64401 2788.8701 -290.711 1.8403113e-38
-1161.64 481.14099 -286.50699 1.8403113e-38
-1085.38 608.16699 -287.73599 1.8403113e-38
-1010.55 728.52502 -288.10699 1.8403113e-38
-933.36499 845.25299 -287.048 1.8403113e-38
-871.88397 945.96399 -287.70801 1.8403113e-38
-814.42798 1039.76 -288.263 1.8403113e-38
-762.10303 1126.39 -289.004 1.8403113e-38
-709.31403 1209.8199 -288.97699 1.8403113e-38
-657.01801 1289.5601 -288.38699 1.8403113e-38
-613.04999 1361.3101 -288.80499 1.8403113e-38
-570.828 1429.33 -289.03799 1.8403113e-38
-525.26599 1496.54 -288.08301 1.8403113e-38
-488.65601 1556.58 -288.48901 1.8403113e-38
-444.491 1618.09 -286.858 1.8403113e-38
-408.707 1673.3101 -286.58099 1.8403113e-38
-366.31601 1729.45 -284.45099 1.8403113e-38
-359.55801 1765.12 -289.306 1.8403113e-38
-345.215 1774.39 -286.694 1.8403113e-38
-329.51599 1812.75 -289.32001 1.8403113e-38
-306.84399 1824.98 -284.72299 1.8403113e-38
-300.28699 1858.45 -289.211 1.8403113e-38
-285.62601 1867.09 -286.379 1.8403113e-38
-255.29201 1911.3 -285.63901 1.8403113e-38
-246.366 1943.76 -289.202 1.8403113e-38
-229.573 1952.4 -285.715 1.8403113e-38
-220.883 1983.88 -289.16 1.8403113e-38
-203.94901 1992.17 -285.56201 1.8403113e-38
-191.80901 2023.84 -287.983 1.8403113e-38
-183.11301 2029.22 -286.353 1.8403113e-38
-174.08099 2059.1699 -289.396 1.8403113e-38
-156.886 2066.77 -285.58301 1.8403113e-38
-145.368 2096.5601 -287.82901 1.8403113e-38
-136.492 2101.54 -286.06699 1.8403113e-38
-123.907 2133.3999 -288.388 1.8403113e-38
-109.392 2162.55 -289.58701 1.8403113e-38
-85.253998 2170.6299 -283.73099 1.8403113e-38
-82.449898 2196.2 -287.83801 1.8403113e-38
-62.927299 2202.8 -283.11499 1.8403113e-38
-57.733601 2228.28 -286.47 1.8403113e-38
-48.5527 2232.47 -284.45901 1.8403113e-38
-36.239799 2258.77 -285.78299 1.8403113e-38
-27.9445 2262.5801 -283.97198 1.8403113e-38
-28.4935 2286.1699 -288.72699 1.8403113e-38
-13.472 2290.8799 -285.01901 1.8403113e-38
-2.1452799 2315.8401 -286.38599 1.8403113e-38
5.3092098 2319.1699 -284.73901 1.8403113e-38
11.3401 2342.8899 -287.496 1.8403113e-38
27.443001 2347.1101 -283.362 1.8403113e-38
26.2418 2369.5601 -288.095 1.8403113e-38
43.355701 2373.5701 -283.60699 1.8403113e-38
54.957352 2397.9448 -284.77698 1.8403113e-38
58.331001 2421.3401 -288.28601 1.8403113e-38
75.537804 2424.6799 -283.642 1.8403113e-38
78.361 2446.55 -287.02399 1.8403113e-38
88.904297 2449.22 -284.29901 1.8403113e-38
102.621 2471.1899 -284.35001 1.8403113e-38
110.325 2473.54 -282.436 1.8403113e-38
109.085 2494.7 -286.92999 1.8403113e-38
119.69 2496.95 -284.104 1.8403113e-38
134.09599 2517.97 -283.759 1.8403113e-38
143.769 2520 -281.17499 1.8403113e-38
151.88501 2541.5552 -282.86951 1.8403113e-38
158.425 2562.95 -285.01599 1.8403113e-38
170.04601 2564.52 -281.745 1.8403113e-38
176.4565 2585.5601 -283.862 1.8403113e-38
192.336 2606.7451 -283.095 1.8403113e-38
206.968 2626.5901 -282.45001 1.8403113e-38
211.98 2628.0901 -281.20001 1.8403113e-38
216.04199 2648.595 -283.93649 1.8403113e-38
219.48801 2669.1599 -286.87299 1.8403113e-38
230.186 2669.73 -283.69299 1.8403113e-38
240.9995 2689.02 -284.116 1.8403113e-38
245.543 2709.1101 -286.62299 1.8403113e-38
254.358 2709.5901 -284.004 1.8403113e-38
266.6705 2728.0698 -283.80701 1.8403113e-38
266.25299 2748.8701 -287.979 1.8403113e-38
263.92999 2751.3 -289.16699 1.8403113e-38
281.23801 2769.3501 -287.35001 1.8403113e-38
291.427 2788.6899 -287.974 1.8403113e-38
303.466 2806.385 -287.71002 1.8403113e-38
332.10101 2819.1699 -281.383 1.8403113e-38
330.845 2821.45 -282.21301 1.8403113e-38
344.20151 2837.9849 -281.31799 1.8403113e-38
349.69101 2856.79 -283.284 1.8403113e-38
356.58801 2856.49 -281.10501 1.8403113e-38
365.04498 2874.1951 -281.94348 1.8403113e-38
377.64398 2891.3 -281.39148 1.8403113e-38
387.49899 2908.27 -281.65799 1.8403113e-38
397.008 2927.2349 -282.41901 1.8403113e-38
407.32452 2944.8149 -282.66299 1.8403113e-38
416.23901 2961.95 -283.25 1.8403113e-38
422.15399 2961.27 -281.297 1.8403113e-38
429.21399 2978.1299 -282.40399 1.8403113e-38
430.858 2979.3501 -282.13501 1.8403113e-38
443.25299 2993.6001 -281.091 1.8403113e-38
457.49701 3010.75 -280.04199 1.8403113e-38
464.92001 3028.3599 -281.18048 1.8403113e-38
468.547 3048.2 -283.92099 1.8403113e-38
474.34698 3046.97 -281.89899 1.8403113e-38
476.25101 3066.96 -285.19699 1.8403113e-38
486.875 3062.75 -281.11099 1.8403113e-38
498.832 3078.77 -280.54599 1.8403113e-38
483.49399 3086.1299 -286.69601 1.8403113e-38
508.48401 3094.0801 -280.55099 1.8403113e-38
521.12097 3111.6799 -280.08499 1.8403113e-38
529.96198 3129.73 -280.87299 1.8403113e-38
530.48901 3127.1899 -280.216 1.8403113e-38
563.62097 3179.1799 -280.129 1.8403113e-38
581.20203 3216.51 -281.97501 1.8403113e-38
595.02698 3228.71 -280.09299 1.8403113e-38
605.54901 3247.4448 -280.4975 1.8403113e-38
615.83655 3265.385 -280.81952 1.8403113e-38
627.81604 3281.895 -280.34351 1.8403113e-38
649.099 3318.165 -280.845 1.8403113e-38
659.78101 3335.3201 -280.89301 1.8403113e-38
668.966 3355.8201 -282.052 1.8403113e-38
681.66199 3372.6799 -281.42401 1.8403113e-38
704.776 3413.0601 -282.16101 1.8403113e-38
718.82501 3426.01 -280.35501 1.8403113e-38
730.63702 3445.28 -280.466 1.8403113e-38
727.66199 3452.5801 -282.80099 1.8403113e-38
742.53845 3466.5649 -280.9415 1.8403113e-38
755.77002 3484.825 -280.41998 1.8403113e-38
768.36151 3504.5249 -280.37549 1.8403113e-38
776.68402 3533.54 -283.45499 1.8403113e-38
793.586 3543.8301 -280.255 1.8403113e-38
790.34198 3553.0801 -283.052 1.8403113e-38
890.77002 3697.52 -280.228 1.8403113e-38
907.091 3723.76 -280.306 1.8403113e-38
919.41901 3756.0801 -282.79599 1.8403113e-38
935.70203 3780.29 -282.492 1.8403113e-38
952.30798 3805.24 -282.233 1.8403113e-38
969.284 3830.9399 -282.005 1.8403113e-38
986.96301 3856.47 -281.52701 1.8403113e-38
1002.34 3891.98 -283.70001 1.8403113e-38
1059.95 3976.27 -282.358 1.8403113e-38
1081.45 4000.77 -280.505 1.8403113e-38
1101.53 4035.45 -281.07001 1.8403113e-38
1145.12 4102.23 -280.63901 1.8403113e-38
1167.5601 4141 -281.26999 1.8403113e-38
1216.59 4212.8999 -280.16199 1.8403113e-38
393.46201 2907.9199 -279.755 1.8403113e-38
449.12299 2992.6899 -279.108 1.8403113e-38
456.65799 3009.1699 -279.99301 1.8403113e-38
511.819 3094.05 -279.51999 1.8403113e-38
526.38098 3106.02 -277.366 1.8403113e-38
546.59802 3141.155 -277.97501 1.8403113e-38
553.565 3159.55 -279.40701 1.8403113e-38
554.62598 3160.99 -279.35999 1.8403113e-38
569.198 3172.54 -277.12299 1.8403113e-38
584.25098 3185.79 -275.06601 1.8403113e-38
578.78998 3192.53 -278.05701 1.8403113e-38
585.80902 3210.25 -279.34201 1.8403113e-38
597.604 3228.8401 -279.32599 1.8403113e-38
642.07452 3296.22 -278.73999 1.8403113e-38
666.82001 3330.3201 -277.755 1.8403113e-38
677.16803 3349.28 -278.258 1.8403113e-38
687.30798 3368.8799 -278.948 1.8403113e-38
698.07001 3386.6948 -279.099 1.8403113e-38
708.02301 3405.8999 -279.76999 1.8403113e-38
724.27301 3421.9199 -277.883 1.8403113e-38
781.60699 3521.9399 -279.686 1.8403113e-38
808.58447 3563.28 -279.42102 1.8403113e-38
881.01501 3663.4199 -276.60001 1.8403113e-38
879.63098 3671.3201 -278.56299 1.8403113e-38
893.00702 3697.5801 -279.55099 1.8403113e-38
908.89099 3713.99 -277.854 1.8403113e-38
923.84399 3739.1299 -278.13901 1.8403113e-38
939.13501 3765.03 -278.46899 1.8403113e-38
954.80902 3791.71 -278.83301 1.8403113e-38
972.13898 3815.52 -278.12799 1.8403113e-38
987.492 3847.3999 -279.60199 1.8403113e-38
1006.52 3869.9399 -278.129 1.8403113e-38
1024.125 3903.77 -279.28949 1.8403113e-38
1042.865 3932.415 -279.09149 1.8403113e-38
1063.8 3950.1699 -276.10199 1.8403113e-38
1081.25 3990.6599 -278.60001 1.8403113e-38
1101.5 4023.4199 -278.73801 1.8403113e-38
1123.79 4050.23 -277.09299 1.8403113e-38
1124.4 4060.3701 -278.875 1.8403113e-38
1144.6 4090.1599 -278.452 1.8403113e-38
1167.66 4123.1499 -277.771 1.8403113e-38
1191.71 4155.8501 -276.72501 1.8403113e-38
1192.97 4166 -278.31 1.8403113e-38
1215.87 4195.98 -277.09299 1.8403113e-38
1241.75 4230.9502 -275.92599 1.8403113e-38
1242.8 4247.8799 -278.89401 1.8403113e-38
1268.33 4270.4302 -275.42401 1.8403113e-38
1269.8 4286.3901 -278.07501 1.8403113e-38
1296.33 4306.6201 -273.84299 1.8403113e-38
1298.1801 4321.6001 -276.186 1.8403113e-38
1325.55 4340.4399 -271.42599 1.8403113e-38
1327.5699 4358.3398 -274.284 1.8403113e-38
1355.5 4385.5698 -270.98401 1.8403113e-38
1357.86 4404.4399 -273.92401 1.8403113e-38
1389.65 4449.1001 -272.827 1.8403113e-38
1422.9301 4501.1299 -272.70001 1.8403113e-38
1457.6801 4542.8198 -270.112 1.8403113e-38
879.29102 3614.76 -267.672 1.8403113e-38
877.71198 3622.6001 -269.68201 1.8403113e-38
1386.9399 4427.3198 -269.42599 1.8403113e-38
1419.76 4476.4302 -268.87299 1.8403113e-38
1454.01 4517.1699 -266.255 1.8403113e-38
1490.12 4571.1001 -265.62799 1.8403113e-38
1494.38 4598.6802 -269.67599 1.8403113e-38
1528.0601 4625.4199 -264.51199 1.8403113e-38
1532.65 4649.0098 -267.68701 1.8403113e-38
1567.59 4676.1499 -262.20999 1.8403113e-38
1573.6801 4713.4302 -267.58499 1.8403113e-38
1609.6 4735.0298 -260.728 1.8403113e-38
1616.59 4774.1899 -266.19199 1.8403113e-38
1663.24 4849.8901 -266.55099 1.8403113e-38
1703.78 4884.79 -260.862 1.8403113e-38
1713.0601 4929.6201 -266.72299 1.8403113e-38
1755.83 4966.6499 -260.76199 1.8403113e-38
1765.85 5010.3701 -266.177 1.8403113e-38
1811.27 5051.4199 -260.18201 1.8403113e-38
1822.78 5098.8901 -265.866 1.8403113e-38
1871.98 5148.7402 -260.41699 1.8403113e-38
1886.7 5208.7002 -267.54599 1.8403113e-38
1939.02 5260.3799 -261.49399 1.8403113e-38
1953.97 5315.2402 -267.55801 1.8403113e-38
2009.45 5368.6699 -260.87201 1.8403113e-38
2026.72 5429.0898 -267.30301 1.8403113e-38
2102.48 5537.5 -265.06699 1.8403113e-38
2188.8701 5672.2202 -264.67401 1.8403113e-38
853.24304 3527.3198 -258.68903 1.8403113e-38
877.08649 3526.7451 -251.24001 1.8403113e-38
1654.3199 4800.02 -259.604 1.8403113e-38
2083.8 5476.3999 -258.93701 1.8403113e-38
2164.9299 5595.0498 -257.04001 1.8403113e-38
894.95502 3534.97 -247.34 1.8403113e-38
893.98901 3541 -248.81 1.8403113e-38
-919.302 609.12097 -236.817 1.8403113e-38
2209.9099 5540.71 -232.636 1.8403113e-38
2208.1299 5552.3101 -235.436 1.8403113e-38
-1026.85 303.20901 -210.44099 1.8403113e-38
-1018.95 316.966 -210.685 1.8403113e-38
-793.74701 706.427 -217.099 1.8403113e-38
-790.45801 583.41901 -192.175 1.8403113e-38
-914.25897 334.242 -181.82899 1.8403113e-38
-914.47803 340.522 -183.118 1.8403113e-38
-673.104 746.81403 -187.828 1.8403113e-38
-675.62299 750.01801 -189.226 1.8403113e-38
2164.74 5205.3301 -181.33501 1.8403113e-38
-680.974 685.104 -178.25301 1.8403113e-38
2168.79 5204.3501 -179.899 1.8403113e-38
-889.784 284.59698 -164.647 1.8403113e-38
-880.10199 300.582 -164.776 1.8403113e-38
-917.68298 185.15201 -153.89999 1.8403113e-38
-991.54401 -49.097099 -131.09 1.8403113e-38
-922.224 105.836 -139.87801 1.8403113e-38
-917.35699 103.727 -137.97099 1.8403113e-38
-1299.0601 -584.87299 -121.561 1.8403113e-38
-1295.67 -571.763 -123.065 1.8403113e-38
-990.55402 -55.657398 -129.50999 1.8403113e-38
2095.5149 4805.9351 -124.994 1.8403113e-38
-949.21503 -88.546303 -110.396 1.8403113e-38
-1276.36 -653.39301 -101.254 1.8403113e-38
-952.79498 -100.266 -109.219 1.8403113e-38
2111.6899 4720.54 -103.416 1.8403113e-38
2117.4099 4749.9502 -107.374 1.8403113e-38
-1279.48 -666.59601 -99.648003 1.8403113e-38
2122.6499 4638.48 -84.091248 1.8403113e-38
-944.12598 -355.716 -56.892399 1.8403113e-38
-820.47198 -213.03999 -46.579498 1.8403113e-38
-693.64899 -137.828 -22.176399 1.8403113e-38
2057.98 4249.9902 -28.4678 1.8403113e-38
2056.78 4254.6201 -29.7381 1.8403113e-38
-683.58002 -133.14101 -19.9891 1.8403113e-38
2078.3701 4225.8501 -17.5014 1.8403113e-38
2080.9299 4224.9199 -16.5341 1.8403113e-38
-614.37201 -125.757 -0.12909301 1.8403113e-38
2090.24 4168.1401 -2.6301 1.8403113e-38
2100.6599 4200.48 -5.7114501 1.8403113e-38
-612.32898 -131.16701 1.55136 1.8403113e-38
-538.68402 -123.435 22.7094 1.8403113e-38
-541.95099 -119.719 20.982 1.8403113e-38
2023.03 3938.1899 21.389999 1.8403113e-38
2022.09 3941.8101 20.3983 1.8403113e-38
2028.47 3888.29 32.764599 1.8403113e-38
2033.39 3904.6599 31.0965 1.8403113e-38
-477.19601 -121.669 41.286098 1.8403113e-38
-465.202 -113.078 43.306999 1.8403113e-38
2045.71 3871.99 41.2384 1.8403113e-38
2055.8201 3888.25 41.187698 1.8403113e-38
2084.3401 3839.3899 59.4604 1.8403113e-38
2068.1948 3859.415 50.601448 1.8403113e-38
-404.38452 -113.986 62.197548 1.8403113e-38
2096.26 3809.8201 68.876503 1.8403113e-38
2104.29 3820.3 69.311401 1.8403113e-38
2085.3899 3836.6399 60.319698 1.8403113e-38
2119.9199 3802.9299 77.498199 1.8403113e-38
2123.77 3805.3999 78.202003 1.8403113e-38
-343.40302 -116.9235 81.532745 1.8403113e-38
2141.9199 3788.4299 87.084198 1.8403113e-38
2142.52 3793.8401 86.219902 1.8403113e-38
-286.04999 -119.329 99.648499 1.8403113e-38
2170.45 3789.2 95.713402 1.8403113e-38
2168.5601 3790.3201 94.9179 1.8403113e-38
-283.24799 -123.512 101.324 1.8403113e-38
2219.3799 3826.22 103.574 1.8403113e-38
2329.8999 4000.0801 103.785 1.8403113e-38
2438.3201 4120.8599 113.669 1.8403113e-38
