# .PCD v0.7 - Point Cloud Data file format
VERSION 0.7
FIELDS x y z rgb
SIZE 4 4 4 4
TYPE F F F F
COUNT 1 1 1 1
WIDTH 353
HEIGHT 1
VIEWPOINT 0 0 0 1 0 0 0
POINTS 353
DATA ascii
-250.52 531.84302 -340.52301 1.8403113e-38
-237.936 506.228 -339.24701 1.8403113e-38
493.905 -1404.25 -315.11801 1.8403113e-38
-197.047 582.98901 -316.04001 1.8403113e-38
-214.866 663.90302 -312.53101 1.8403113e-38
-224.495 691.77698 -312.522 1.8403113e-38
374.38101 -1015.47 -309.91501 1.8403113e-38
354.784 -901.07501 -303.02802 1.8403113e-38
322.996 -859.14203 -308.966 1.8403113e-38
304.22699 -799.047 -308.263 1.8403113e-38
275.396 -729.92798 -309.94501 1.8403113e-38
258.754 -663.68201 -307.77802 1.8403113e-38
232.19 -597.19598 -308.99399 1.8403113e-38
216.698 -541.65698 -307.707 1.8403113e-38
191.524 -485.73199 -309.703 1.8403113e-38
177.89799 -427.091 -307.405 1.8403113e-38
155.032 -367.957 -308.22501 1.8403113e-38
142.48 -315.121 -306.24799 1.8403113e-38
121.201 -259.71399 -306.96701 1.8403113e-38
109.823 -209.745 -304.92801 1.8403113e-38
88.505898 -168.84801 -307.388 1.8403113e-38
78.089203 -121.746 -305.35999 1.8403113e-38
59.278301 -73.826599 -306.121 1.8403113e-38
49.750599 -29.6122 -304.13101 1.8403113e-38
30.6315 6.7665901 -306.37399 1.8403113e-38
21.7992 48.101601 -304.48801 1.8403113e-38
4.33392 86.571198 -305.91199 1.8403113e-38
-3.5371301 126.954 -303.80899 1.8403113e-38
-20.0522 163.604 -305.12299 1.8403113e-38
-29.226 192.43401 -304.84399 1.8403113e-38
-43.516602 233.998 -304.80801 1.8403113e-38
-50.950199 266.69101 -303.47 1.8403113e-38
-64.583099 305.42499 -303.54501 1.8403113e-38
-73.4077 328.57599 -303.82199 1.8403113e-38
-85.635101 368.315 -303.29401 1.8403113e-38
-90.496399 403.82001 -300.737 1.8403113e-38
-104.517 432.19501 -302.17899 1.8403113e-38
-110.298 461.043 -300.73099 1.8403113e-38
-124.207 486.668 -302.46201 1.8403113e-38
-128.384 518.30603 -300.13 1.8403113e-38
-140.823 545.85602 -301.12601 1.8403113e-38
-163.789 619.823 -300.215 1.8403113e-38
-222.239 730.37097 -307.14899 1.8403113e-38
-262.41 903.00702 -300.401 1.8403113e-38
531.08197 -1373.99 -298.72699 1.8403113e-38
-143.866 578.35602 -298.302 1.8403113e-38
-155.664 604.98999 -299.18701 1.8403113e-38
-219.826 785.13898 -299.79501 1.8403113e-38
-222.37801 809.04797 -297.82501 1.8403113e-38
-231.403 833.04498 -298.07101 1.8403113e-38
-235.66299 851.52698 -297.33401 1.8403113e-38
-246.77901 869.31897 -299.03799 1.8403113e-38
-252.19701 884.25702 -299.12201 1.8403113e-38
-260.74701 931.93402 -296.383 1.8403113e-38
-272.01401 947.18402 -298.44199 1.8403113e-38
-273.57101 968.15399 -296.479 1.8403113e-38
-285.138 993.495 -297.43851 1.8403113e-38
-296.18399 1018.86 -298.21701 1.8403113e-38
-298.60699 1036.27 -296.97601 1.8403113e-38
-304.23999 1059.26 -296.17499 1.8403113e-38
-312.401 1065.7 -298.215 1.8403113e-38
-317.98401 1087.84 -297.49799 1.8403113e-38
-320.54599 1103.47 -296.517 1.8403113e-38
-330.022 1118.12 -298.03 1.8403113e-38
-332.22101 1133.72 -296.92899 1.8403113e-38
-336.67401 1155.74 -295.83801 1.8403113e-38
-344.173 1162.35 -297.629 1.8403113e-38
-347.59201 1185.13 -296.09201 1.8403113e-38
-350.62601 1198.1899 -295.57901 1.8403113e-38
-357.78101 1214.51 -296.09601 1.8403113e-38
-362.14301 1225.1801 -296.32599 1.8403113e-38
-366.69101 1244.64 -295.57101 1.8403113e-38
-365.17999 1263.08 -292.85501 1.8403113e-38
-372.01099 1278.5699 -293.35999 1.8403113e-38
-374.08099 1291.49 -292.53201 1.8403113e-38
-385.17001 1300.89 -295.22601 1.8403113e-38
-381.70499 1320.61 -291.686 1.8403113e-38
-392.50299 1330.08 -294.271 1.8403113e-38
-394.009 1342.9399 -293.258 1.8403113e-38
-399.12399 1359.17 -293.08301 1.8403113e-38
-405.22101 1366.1 -294.35501 1.8403113e-38
-411.23099 1380.89 -294.66 1.8403113e-38
-412.80801 1392.9301 -293.76801 1.8403113e-38
-422.314 1416.87 -294.186 1.8403113e-38
-415.936 1410.5699 -292.74301 1.8403113e-38
-425.71201 1433.77 -293.34201 1.8403113e-38
-434.07651 1464.33 -292.57849 1.8403113e-38
-439.758 1484.3199 -292.15201 1.8403113e-38
-439.61099 1496.8101 -290.61301 1.8403113e-38
-447.966 1507.51 -292.21201 1.8403113e-38
-450.98499 1516.65 -292.16199 1.8403113e-38
-452.91599 1533.3101 -290.841 1.8403113e-38
-460.79199 1555.8 -290.871 1.8403113e-38
-466.77399 1579.55 -290.099 1.8403113e-38
-480.29401 1607.47 -291.42401 1.8403113e-38
-475.14001 1600.8 -290.44601 1.8403113e-38
-486.754 1619.1 -292.26001 1.8403113e-38
-485.14801 1631.17 -290.26999 1.8403113e-38
-492.491 1652.48 -290.25699 1.8403113e-38
408.901 -941.75702 -289.26199 1.8403113e-38
-421.564 1451.28 -289.82901 1.8403113e-38
-452.24799 1545.65 -289.142 1.8403113e-38
-459.173 1568.71 -288.77701 1.8403113e-38
-467.04401 1590.5 -288.888 1.8403113e-38
-487.62701 1645.73 -289.388 1.8403113e-38
-493.177 1668.15 -288.62601 1.8403113e-38
-493.34601 1678.3101 -287.474 1.8403113e-38
-500.54001 1698.98 -287.48599 1.8403113e-38
-497.505 1691.08 -287.383 1.8403113e-38
-504.453 1711.76 -287.30899 1.8403113e-38
-506.55801 1720.21 -287.02701 1.8403113e-38
-515.90454 1734.085 -288.58899 1.8403113e-38
-522.70801 1749.62 -289.07901 1.8403113e-38
-522.92401 1759.11 -288.022 1.8403113e-38
-533.39801 1776.96 -289.49799 1.8403113e-38
-523.72302 1773.42 -286.59201 1.8403113e-38
-535.11096 1795.275 -287.90601 1.8403113e-38
-543.90399 1809.3101 -289.258 1.8403113e-38
-536.21198 1822.84 -285.00101 1.8403113e-38
-550.612 1838.22 -288.121 1.8403113e-38
-541.97998 1833.8 -285.67899 1.8403113e-38
-555.078 1854.4351 -287.72601 1.8403113e-38
-558.07849 1875.7051 -286.22351 1.8403113e-38
-568.81201 1888.6801 -288.36899 1.8403113e-38
-568.703 1897.53 -287.27802 1.8403113e-38
-573.72699 1908.8199 -287.66101 1.8403113e-38
-571.742 1918.39 -285.83801 1.8403113e-38
-582.60101 1927.11 -288.535 1.8403113e-38
-578.72498 1937.38 -285.979 1.8403113e-38
-582.479 1949.11 -285.87201 1.8403113e-38
-587.13599 1955.76 -286.68201 1.8403113e-38
-591.57703 1967.23 -286.84299 1.8403113e-38
-588.21899 1976.95 -284.53 1.8403113e-38
-598.625 1986.17 -287.01099 1.8403113e-38
-594.21899 1996.14 -284.30801 1.8403113e-38
-600.91901 2006.75 -285.34799 1.8403113e-38
-598.11499 2016 -283.28201 1.8403113e-38
-610.89099 2024.67 -286.64301 1.8403113e-38
-606.14801 2034.46 -283.84601 1.8403113e-38
-616.09497 2044.1899 -286.10699 1.8403113e-38
-612.987 2053.3401 -283.94901 1.8403113e-38
-622.78003 2063.27 -286.13501 1.8403113e-38
-620.427 2072.1101 -284.272 1.8403113e-38
-628.24701 2082.7 -285.70001 1.8403113e-38
-627.56702 2091.03 -284.474 1.8403113e-38
-626.99902 2103.77 -282.76099 1.8403113e-38
-629.82898 2111.1699 -282.853 1.8403113e-38
-635.46503 2122.4299 -283.45001 1.8403113e-38
-635.422 2130.5 -282.474 1.8403113e-38
-651.77698 2147.75 -286.04501 1.8403113e-38
-646.40601 2140.73 -285.03299 1.8403113e-38
-656.14801 2159.51 -286.147 1.8403113e-38
-658.63397 2167.1499 -286.091 1.8403113e-38
-657.24597 2179.9399 -284.091 1.8403113e-38
-661.46198 2187.3101 -284.66299 1.8403113e-38
-667.31201 2198.95 -285.28799 1.8403113e-38
-669.54999 2206.7 -285.13501 1.8403113e-38
-667.742 2219.45 -282.995 1.8403113e-38
-670.78497 2227.1001 -283.13 1.8403113e-38
-680.00299 2238.55 -284.936 1.8403113e-38
-676.36499 2246.99 -282.67999 1.8403113e-38
-687.27899 2258.47 -285.06601 1.8403113e-38
-688.20203 2266.47 -284.42999 1.8403113e-38
-690.474 2278.8501 -283.737 1.8403113e-38
-694.09003 2286.6899 -284.04599 1.8403113e-38
-702.75897 2298.79 -285.586 1.8403113e-38
-703.422 2306.8999 -284.849 1.8403113e-38
-703.40601 2319.54 -283.33801 1.8403113e-38
-704.87903 2327.6101 -282.883 1.8403113e-38
-721.11603 2348.1899 -286.01599 1.8403113e-38
-714.10199 2340.0801 -284.57001 1.8403113e-38
-720.94897 2369.1799 -283.45801 1.8403113e-38
-714.06598 2360.96 -282.07101 1.8403113e-38
-729.76801 2382.1201 -284.95001 1.8403113e-38
-728.94897 2390.3701 -283.686 1.8403113e-38
-743.23602 2403.76 -287.004 1.8403113e-38
-734.70898 2411.74 -283.121 1.8403113e-38
-735.53198 2424.6899 -281.86099 1.8403113e-38
-745.79102 2433.6599 -284.32199 1.8403113e-38
-745.45099 2446.6799 -282.65399 1.8403113e-38
-745.16199 2455.04 -281.55801 1.8403113e-38
-753.11102 2468.8401 -282.64899 1.8403113e-38
-757.40302 2477.73 -283.06601 1.8403113e-38
-759.16553 2495.395 -281.5675 1.8403113e-38
-765.41699 2513.74 -281.53299 1.8403113e-38
-766.58099 2522.49 -280.89099 1.8403113e-38
-775.703 2537.23 -282.272 1.8403113e-38
-781.82202 2560.49 -281.60599 1.8403113e-38
-792.92102 2593.8899 -281.444 1.8403113e-38
430.24399 -868.17401 -273.15701 1.8403113e-38
-771.07001 2545.2 -279.729 1.8403113e-38
-778.92401 2568.76 -279.62399 1.8403113e-38
-783.789 2583.3 -279.565 1.8403113e-38
-789.10498 2606.98 -278.573 1.8403113e-38
-796.18903 2617.3899 -279.76901 1.8403113e-38
-801.46503 2632.55 -279.77802 1.8403113e-38
-799.979 2641.27 -278.229 1.8403113e-38
-796.62598 2654.5701 -275.491 1.8403113e-38
-806.133 2666.02 -277.397 1.8403113e-38
-811.797 2681.78 -277.46701 1.8403113e-38
-816.466 2692.29 -277.82101 1.8403113e-38
-813.53198 2705.98 -275.181 1.8403113e-38
-828.151 2719.53 -278.595 1.8403113e-38
-831.37598 2735.26 -277.82999 1.8403113e-38
-836.56598 2746.4199 -278.28601 1.8403113e-38
-841.323 2762.9299 -277.95499 1.8403113e-38
-847.21399 2774.5801 -278.59399 1.8403113e-38
-877.48401 2878.6101 -276.61301 1.8403113e-38
-881.56097 2890.71 -276.57401 1.8403113e-38
-885.54199 2908.76 -275.79199 1.8403113e-38
-890.26801 2921.4199 -275.91 1.8403113e-38
-893.88202 2939.72 -274.97299 1.8403113e-38
-906.29303 2956.1399 -277.28601 1.8403113e-38
-908.62402 2974.3501 -275.918 1.8403113e-38
-914.57202 2988.27 -276.306 1.8403113e-38
-914.78003 3005.8601 -274.28201 1.8403113e-38
-916.10699 3017.8501 -273.311 1.8403113e-38
463.30899 -902.01898 -265.81601 1.8403113e-38
-1040.39 3411.27 -269.19 1.8403113e-38
-1049.71 3433.01 -269.80801 1.8403113e-38
-1053.51 3459.49 -267.95801 1.8403113e-38
-1057.64 3478.05 -267.17099 1.8403113e-38
-1053.05 3498.8601 -263.11401 1.8403113e-38
-1177.09 3877.6001 -260.659 1.8403113e-38
-1193.91 3913.96 -262.112 1.8403113e-38
-774.28003 2765.1399 -254.63499 1.8403113e-38
-762.84003 2770.47 -250.065 1.8403113e-38
-1047.53 3510.3401 -259.84698 1.8403113e-38
-1030.27 3521.3201 -252.601 1.8403113e-38
-1031.4399 3538.23 -250.991 1.8403113e-38
-1106.92 3734.03 -253.62601 1.8403113e-38
-1131.3101 3785.1001 -255.92999 1.8403113e-38
-1197.0601 3949.26 -258.991 1.8403113e-38
-1206.01 3979.24 -258.49701 1.8403113e-38
-1221.39 4028.3401 -257.939 1.8403113e-38
-1254.97 4143.9102 -255.722 1.8403113e-38
-1279.08 4206.9302 -256.505 1.8403113e-38
-1291.4301 4244.9902 -256.22101 1.8403113e-38
-1309.84 4304.6602 -255.446 1.8403113e-38
-1315.91 4337.3799 -253.63499 1.8403113e-38
-1323.67 4387.4102 -250.34399 1.8403113e-38
540.45203 -951.784 -245.213 1.8403113e-38
-763.62402 2785.1499 -248.58701 1.8403113e-38
-743.966 2787.25 -241.575 1.8403113e-38
-751.75403 2804.52 -242.196 1.8403113e-38
-772.50098 2821.8701 -247.26601 1.8403113e-38
-1027.59 3560.1799 -247.05099 1.8403113e-38
-1025.39 3574.6799 -244.56799 1.8403113e-38
-1152.35 3979.45 -240.01601 1.8403113e-38
-1317.5 4449.79 -240.793 1.8403113e-38
573.77802 -948.66602 -233.379 1.8403113e-38
-1008.37 3585.8101 -237.38901 1.8403113e-38
-998.49799 3593.8 -233.04201 1.8403113e-38
-1023.34 3641.75 -235.87399 1.8403113e-38
-1037.1899 3716.6799 -231.711 1.8403113e-38
-1318.17 4478.5601 -237.595 1.8403113e-38
-1317.25 4521.75 -232.133 1.8403113e-38
635.01898 -1049.95 -224.381 1.8403113e-38
595.16901 -946.39398 -225.752 1.8403113e-38
-1320.26 4554.6201 -229.25301 1.8403113e-38
652.664 -983.698 -210.422 1.8403113e-38
-1295.6 4569.1401 -219.043 1.8403113e-38
-1285.86 4586.3701 -213.64101 1.8403113e-38
-692.71002 2922.8401 -207.79601 1.8403113e-38
-670.328 2920.95 -200.32401 1.8403113e-38
-1013.71 3867.4399 -205.67799 1.8403113e-38
-1256.16 4594.0801 -202.506 1.8403113e-38
684.99103 -964.45001 -197.011 1.8403113e-38
-1077.14 4124.4399 -196.879 1.8403113e-38
-1224.84 4582.3501 -193.133 1.8403113e-38
706.04901 -957.41498 -188.92999 1.8403113e-38
-1202.33 4598.9102 -183.42 1.8403113e-38
739.77399 -958.40698 -177.45 1.8403113e-38
-1180.03 4598.6099 -175.785 1.8403113e-38
761.284 -956.93201 -169.87601 1.8403113e-38
-1140.79 4591.0298 -163.194 1.8403113e-38
817.21899 -961.37299 -151.16701 1.8403113e-38
795.02802 -957.30402 -158.315 1.8403113e-38
-517.35999 2855.0901 -155.55901 1.8403113e-38
-522.06 2865.8201 -155.896 1.8403113e-38
-497.68201 2865.3899 -147.564 1.8403113e-38
-502.245 2876.1201 -147.855 1.8403113e-38
-509.15799 2892.97 -148.22501 1.8403113e-38
-509.271 2901.47 -147.252 1.8403113e-38
-504.112 2911.6299 -144.267 1.8403113e-38
-507.405 2922.1699 -144.145 1.8403113e-38
-514.466 2939.99 -144.45 1.8403113e-38
-510.91 2946.5601 -142.44501 1.8403113e-38
-543.83398 3039.27 -142.724 1.8403113e-38
-1039.48 4475.54 -142.105 1.8403113e-38
876.271 -986.52002 -133.853 1.8403113e-38
850.01202 -953.20398 -138.916 1.8403113e-38
-504.474 2956.1899 -139.084 1.8403113e-38
-501.62701 2963.21 -137.26801 1.8403113e-38
-503.14999 2978.1399 -136.01401 1.8403113e-38
-493.681 2980.78 -132.44299 1.8403113e-38
-492.535 2994.0701 -130.466 1.8403113e-38
919.40997 -1047.8101 -126.317 1.8403113e-38
933.948 -995.73999 -115.115 1.8403113e-38
968.31097 -995.16699 -103.228 1.8403113e-38
-828.32703 4209.7002 -101.152 1.8403113e-38
999.14398 -1046.1899 -98.702003 1.8403113e-38
-808.28998 4205.73 -94.732903 1.8403113e-38
1044.1 -1100.92 -89.759598 1.8403113e-38
-789.48901 4217.7798 -86.830704 1.8403113e-38
-781.99298 4232.6602 -82.480103 1.8403113e-38
1049.1 -1004.03 -76.497101 1.8403113e-38
-777.78802 4268.02 -76.822403 1.8403113e-38
-758.81702 4265.0898 -70.647102 1.8403113e-38
1079.39 -980.59302 -63.287899 1.8403113e-38
-760.10999 4310.6499 -65.6651 1.8403113e-38
-782.48499 4376.79 -65.4813 1.8403113e-38
-837.46698 4517.6499 -67.612999 1.8403113e-38
-865.02802 4597.8501 -67.538696 1.8403113e-38
1100.95 -976.68597 -55.408298 1.8403113e-38
-836.953 4600.75 -57.5369 1.8403113e-38
-818.79199 4602.1699 -51.121601 1.8403113e-38
1135.45 -975.18597 -43.3657 1.8403113e-38
1158.89 -979.65601 -35.836601 1.8403113e-38
-739.05902 4508.75 -34.827202 1.8403113e-38
1194.36 -981.38898 -23.841299 1.8403113e-38
-685.44897 4441.5801 -24.3908 1.8403113e-38
1215.89 -976.65698 -15.8729 1.8403113e-38
-660.15601 4444.1299 -15.3882 1.8403113e-38
1251.22 -976.75 -3.7350399 1.8403113e-38
-642.74799 4443.3101 -9.4984503 1.8403113e-38
-618.45898 4447.0898 -0.69452602 1.8403113e-38
1274.6801 -979.35602 4.0223899 1.8403113e-38
-601.59302 4446.7998 5.0716901 1.8403113e-38
1309.1 -974.89801 16.3932 1.8403113e-38
-573.91998 4442.8501 14.1188 1.8403113e-38
-558.46503 4444.8999 19.6777 1.8403113e-38
1332.66 -977.05701 24.238001 1.8403113e-38
1367.37 -972.896 36.6717 1.8403113e-38
1391.86 -977.48102 44.5481 1.8403113e-38
1428.9301 -980.297 56.962898 1.8403113e-38
-195.601 3709.1101 56.831902 1.8403113e-38
1453.63 -984.39203 64.967903 1.8403113e-38
-182.85201 3704.0601 60.6147 1.8403113e-38
-166.239 3702.8799 66.188004 1.8403113e-38
-154.86099 3700.3101 69.794403 1.8403113e-38
1487.3 -975.026 77.663696 1.8403113e-38
-134.87 3702.4399 76.923248 1.8403113e-38
1515.21 -988.15399 85.7006 1.8403113e-38
-113.436 3700.54 84.069603 1.8403113e-38
-105.197 3704.9399 87.427299 1.8403113e-38
1551.46 -985.67798 98.463501 1.8403113e-38
-88.554604 3701.8101 92.778 1.8403113e-38
-79.936401 3705.1001 96.134201 1.8403113e-38
1575.52 -985.94702 106.706 1.8403113e-38
-51.4482 3695.3301 104.768 1.8403113e-38
-63.421299 3701.6399 101.401 1.8403113e-38
-38.417099 3700.95 109.919 1.8403113e-38
