# .PCD v0.7 - Point Cloud Data file format
VERSION 0.7
FIELDS x y z rgb
SIZE 4 4 4 4
TYPE F F F F
COUNT 1 1 1 1
WIDTH 360
HEIGHT 1
VIEWPOINT 0 0 0 1 0 0 0
POINTS 360
DATA ascii
1403.22 307.686 -300.19501 1.8403113e-38
1450.03 302.59399 -300.05499 1.8403113e-38
1422.87 308.87701 -298.93301 1.8403113e-38
1333.0601 318.54599 -299.23801 1.8403113e-38
1354.99 316.08301 -299.20001 1.8403113e-38
1379.6801 311.01901 -299.98599 1.8403113e-38
1229.66 329.49899 -299.65399 1.8403113e-38
1269.29 326.021 -299.23401 1.8403113e-38
1287.05 327.20801 -298.05301 1.8403113e-38
1308.7 324.20001 -298.224 1.8403113e-38
1205.47 337.259 -297.87201 1.8403113e-38
1242.9301 335.48999 -296.92599 1.8403113e-38
1111.75 347.69601 -298.064 1.8403113e-38
1129.36 346.42599 -297.77899 1.8403113e-38
1145.89 346.89401 -296.91 1.8403113e-38
1166.61 342.173 -297.73999 1.8403113e-38
1185.08 340.74701 -297.474 1.8403113e-38
1074.04 354.76801 -297.104 1.8403113e-38
1089.74 355.44299 -296.19501 1.8403113e-38
971.237 369.63199 -296.08099 1.8403113e-38
988.53998 366.01099 -296.65701 1.8403113e-38
1004.91 364.19601 -296.621 1.8403113e-38
1020.84 363.35999 -296.24899 1.8403113e-38
1035.76 364.29099 -295.28101 1.8403113e-38
1054 360.61099 -295.84 1.8403113e-38
940.46802 371.67999 -296.642 1.8403113e-38
956.06897 370.16599 -296.52899 1.8403113e-38
906.151 381.01501 -294.72 1.8403113e-38
919.58301 382.45801 -293.63 1.8403113e-38
800.52399 399.35199 -292.561 1.8403113e-38
815.70001 395.534 -293.29901 1.8403113e-38
830.10498 393.57501 -293.397 1.8403113e-38
841.89301 396.83899 -291.71899 1.8403113e-38
858.23401 391.78299 -292.85501 1.8403113e-38
871.45898 392.776 -291.936 1.8403113e-38
886.12799 391.392 -291.81601 1.8403113e-38
783.789 406.76599 -290.58899 1.8403113e-38
678.42798 417.61099 -291.12601 1.8403113e-38
704.211 414.57999 -291.13101 1.8403113e-38
730.23297 412.04401 -290.94699 1.8403113e-38
743.724 410.095 -291.08099 1.8403113e-38
769.28198 410.047 -290.01599 1.8403113e-38
591.112 429.30499 -290.59399 1.8403113e-38
602.62097 429.60199 -290 1.8403113e-38
627.302 426.02499 -290.24799 1.8403113e-38
651.88397 423.79999 -290.01199 1.8403113e-38
-70.642303 489.33499 -296.896 1.8403113e-38
-78.797203 499.117 -293.70401 1.8403113e-38
-59.576401 490.54901 -295.98901 1.8403113e-38
-48.115601 493.689 -294.36801 1.8403113e-38
1669.9 313.42099 -286.83701 1.8403113e-38
1441.14 333.47101 -289.26901 1.8403113e-38
714.92499 418.504 -289.259 1.8403113e-38
755.67999 411.74301 -289.979 1.8403113e-38
614.46301 429.10199 -289.67899 1.8403113e-38
639.23901 425.74799 -289.84299 1.8403113e-38
662.521 427.29501 -288.29901 1.8403113e-38
688.39502 423.08701 -288.72501 1.8403113e-38
554.82202 435.38599 -289.931 1.8403113e-38
564.80902 439.89801 -287.87799 1.8403113e-38
578.18701 433.633 -289.57599 1.8403113e-38
474.185 445.68399 -289.621 1.8403113e-38
484.42801 448.64099 -288.11801 1.8403113e-38
496.69101 443.41299 -289.48901 1.8403113e-38
507.646 443.80099 -288.88501 1.8403113e-38
519.59497 440.62299 -289.52899 1.8403113e-38
530.35199 442.12 -288.53299 1.8403113e-38
542.151 440.06299 -288.77701 1.8403113e-38
418.379 454.452 -288.81299 1.8403113e-38
428.771 456.03101 -287.802 1.8403113e-38
440.633 450.28299 -289.37799 1.8403113e-38
450.86499 452.97 -287.974 1.8403113e-38
462.077 451.12201 -288.16699 1.8403113e-38
301.23599 468.104 -288.83401 1.8403113e-38
321.978 467.54901 -288.15701 1.8403113e-38
332.862 462.71399 -289.444 1.8403113e-38
342.64899 468.27399 -287.021 1.8403113e-38
353.392 465.48999 -287.57199 1.8403113e-38
374.65201 462.99799 -287.573 1.8403113e-38
384.54199 467.017 -285.702 1.8403113e-38
395.42899 464.59299 -286.11801 1.8403113e-38
406.371 462.263 -286.49701 1.8403113e-38
228.929 479.315 -287.841 1.8403113e-38
259.65302 475.88 -287.78299 1.8403113e-38
280.14301 475.57901 -287.02499 1.8403113e-38
290.23099 477.90302 -285.758 1.8403113e-38
310.944 475.29001 -285.82599 1.8403113e-38
363.19 470.27499 -285.42801 1.8403113e-38
198.472 488.20401 -285.91699 1.8403113e-38
208.59599 489.85999 -284.89001 1.8403113e-38
218.717 484.07599 -286.552 1.8403113e-38
238.908 488.745 -284.01001 1.8403113e-38
249.19099 483.20999 -285.57599 1.8403113e-38
269.54001 482.737 -284.88599 1.8403113e-38
148.33299 497.138 -284.80899 1.8403113e-38
158.228 493.686 -285.638 1.8403113e-38
168.33701 494.07101 -285.07101 1.8403113e-38
178.371 492.66 -285.15601 1.8403113e-38
188.403 490.39099 -285.552 1.8403113e-38
68.892097 509.83801 -283.57901 1.8403113e-38
78.827103 508.55099 -283.62399 1.8403113e-38
88.444702 504.54501 -284.66501 1.8403113e-38
98.827904 507.15601 -283.28201 1.8403113e-38
108.875 507.04999 -282.89499 1.8403113e-38
119.079 508.89899 -281.79501 1.8403113e-38
128.567 502.40302 -283.742 1.8403113e-38
138.627 502.543 -283.26501 1.8403113e-38
-85.010696 515.289 -288.121 1.8403113e-38
39.918701 518.82397 -281.55701 1.8403113e-38
59.103298 512.13599 -283.16299 1.8403113e-38
-30.150299 525.33398 -282.168 1.8403113e-38
-19.527 526.90601 -281.14999 1.8403113e-38
0.25938499 523.88397 -281.40601 1.8403113e-38
10.7885 525.72601 -280.29401 1.8403113e-38
20.2463 522.11401 -281.20001 1.8403113e-38
-110.119 537.81 -281.04199 1.8403113e-38
-95.146194 535.07001 -281.39899 1.8403113e-38
1431.76 364.11099 -278.58899 1.8403113e-38
1434.46 382.20801 -271.93301 1.8403113e-38
30.880899 525.05798 -279.685 1.8403113e-38
50.4944 521.94299 -279.98199 1.8403113e-38
-8.36796 531.33197 -279.078 1.8403113e-38
-148.998 548.73199 -278.73901 1.8403113e-38
-139.08299 546.54999 -279.108 1.8403113e-38
-127.97 548.02802 -278.104 1.8403113e-38
-118.934 543.33398 -279.418 1.8403113e-38
-244.601 556.62402 -279.93201 1.8403113e-38
-222.867 555.06403 -279.57599 1.8403113e-38
-211.853 554.86902 -279.17999 1.8403113e-38
-200.16299 556.52698 -278.086 1.8403113e-38
-179.011 554.901 -277.77899 1.8403113e-38
-168.79401 553.34802 -277.90799 1.8403113e-38
-158.58 551.88397 -278.005 1.8403113e-38
-272.63501 569.51599 -276.457 1.8403113e-38
-261.586 568.849 -276.23099 1.8403113e-38
-251.75 565.711 -276.94901 1.8403113e-38
-228.98801 566.60699 -275.66199 1.8403113e-38
-187.15401 561.80798 -275.62601 1.8403113e-38
-350.19299 577.966 -276.68399 1.8403113e-38
-326.90601 576.92999 -276.07401 1.8403113e-38
-314.431 578.25897 -275.065 1.8403113e-38
-305.50201 572.98798 -276.59299 1.8403113e-38
-295.23801 570.32001 -277.12299 1.8403113e-38
-282.87299 571.98401 -275.99799 1.8403113e-38
-418.79099 587.06897 -276.297 1.8403113e-38
-405.46201 588.22498 -275.315 1.8403113e-38
-392.20599 589.52502 -274.284 1.8403113e-38
-381.957 586.08398 -275.09399 1.8403113e-38
-368.32599 588.46002 -273.65799 1.8403113e-38
-356.20901 588.51898 -273.12399 1.8403113e-38
-335.784 582.36902 -274.483 1.8403113e-38
-489.10101 598.68298 -275.073 1.8403113e-38
-476.061 598.271 -274.67001 1.8403113e-38
-461.98801 599.56598 -273.60699 1.8403113e-38
-438.29501 596.28302 -273.79099 1.8403113e-38
-429.07901 590.83698 -275.37 1.8403113e-38
-549.66803 609.60498 -273.68799 1.8403113e-38
-522.15503 609.11902 -272.69901 1.8403113e-38
-512.474 603.75 -274.23099 1.8403113e-38
-499.93799 602.31201 -274.22 1.8403113e-38
-448.52899 600.22803 -272.798 1.8403113e-38
-587.66803 615.89398 -273.022 1.8403113e-38
-573.76703 615.14398 -272.70499 1.8403113e-38
-558.72101 616.03802 -271.745 1.8403113e-38
-534.13098 611.55103 -272.327 1.8403113e-38
-717.45599 626.98102 -274.50601 1.8403113e-38
-699.82397 628.245 -273.30301 1.8403113e-38
-668.77802 627.20099 -272.367 1.8403113e-38
-655.93402 624.117 -272.93799 1.8403113e-38
-641.18701 623.31201 -272.60501 1.8403113e-38
-626.49402 622.677 -272.21301 1.8403113e-38
-611.23401 622.93402 -271.47501 1.8403113e-38
-597.28497 621.909 -271.255 1.8403113e-38
-738.62201 639.29401 -270.95099 1.8403113e-38
-724.32703 636.83398 -271.23499 1.8403113e-38
-678.33698 633.91199 -270.345 1.8403113e-38
-817.65802 647.591 -271.29599 1.8403113e-38
-799.625 647.51099 -270.56201 1.8403113e-38
-788.71399 641.07599 -272.42599 1.8403113e-38
-768.69397 643.37701 -270.74701 1.8403113e-38
-754.33002 640.578 -271.151 1.8403113e-38
-902.98901 656.33099 -271.74701 1.8403113e-38
-847.40503 654.138 -270.18799 1.8403113e-38
-832.88098 650.45801 -270.90399 1.8403113e-38
-916.901 661.39203 -270.50601 1.8403113e-38
1431.3 405.68201 -263.58099 1.8403113e-38
-880.19397 658.89001 -269.858 1.8403113e-38
-860.47498 659.24103 -268.896 1.8403113e-38
-932.32098 665.40399 -269.70801 1.8403113e-38
-982.534 675.61902 -268.14099 1.8403113e-38
-966.27899 671.61499 -268.89999 1.8403113e-38
-943.17902 673.18103 -267.35699 1.8403113e-38
-1040.89 682.04102 -268.28799 1.8403113e-38
-1020.59 680.22101 -268.08801 1.8403113e-38
-997.24902 680.97601 -266.827 1.8403113e-38
-1047.72 693.61401 -264.39401 1.8403113e-38
-1147.47 709.06 -263.03101 1.8403113e-38
-1186.17 717.98798 -261.44101 1.8403113e-38
-1170.52 711.06799 -263.28 1.8403113e-38
-1233.37 722.953 -261.64401 1.8403113e-38
-1210.15 720.05701 -261.70801 1.8403113e-38
1439.85 417.59399 -258.91299 1.8403113e-38
1443.97 433.55701 -252.967 1.8403113e-38
1480.72 439.24899 -249.355 1.8403113e-38
1456.5601 441.57901 -249.535 1.8403113e-38
1486.6801 453.44601 -243.97099 1.8403113e-38
-1077.96 737.65002 -249.754 1.8403113e-38
-1194.1 762.42499 -245.71201 1.8403113e-38
1493.62 485.70001 -232.017 1.8403113e-38
-967.94 764.78998 -235.28799 1.8403113e-38
-973.17297 776.26898 -231.35899 1.8403113e-38
-986.396 782.38702 -229.707 1.8403113e-38
-1121.9 819.52899 -222.01401 1.8403113e-38
1445.72 544.66901 -212.72701 1.8403113e-38
2508.1499 434.49899 -207.59599 1.8403113e-38
2518.3799 453.24399 -200.38699 1.8403113e-38
1436.95 569.68201 -204.05499 1.8403113e-38
1478.97 570.69702 -201.91 1.8403113e-38
-1093.16 850.61798 -209.55901 1.8403113e-38
2520.3799 475.92999 -192.101 1.8403113e-38
1434.67 588.91302 -197.2 1.8403113e-38
1486.5699 582.211 -197.427 1.8403113e-38
1497.16 591.37701 -193.66499 1.8403113e-38
-1048.49 889.60797 -193.57401 1.8403113e-38
-1067.9399 893.16803 -193.11 1.8403113e-38
-1080.49 900.63098 -190.94299 1.8403113e-38
2522.1299 498.569 -183.843 1.8403113e-38
1493.55 611.32098 -186.608 1.8403113e-38
-1074.6801 917.64001 -184.549 1.8403113e-38
-1087.0601 925.255 -182.319 1.8403113e-38
-1473.91 952.51099 -188.836 1.8403113e-38
-1491 962.45502 -185.965 1.8403113e-38
-1498.73 975.90802 -181.42799 1.8403113e-38
2531.77 517.435 -176.61501 1.8403113e-38
-1091.47 936.91699 -178.28999 1.8403113e-38
-1097.53 947.74799 -174.632 1.8403113e-38
-1105.28 957.79102 -171.32899 1.8403113e-38
-1346.17 984.89398 -171.724 1.8403113e-38
-1486.71 996.16101 -173.599 1.8403113e-38
-4782.9302 1381.5601 -173.757 1.8403113e-38
2541.23 536.38098 -169.366 1.8403113e-38
2542.3201 558.99701 -161.144 1.8403113e-38
1438.34 669.276 -167.993 1.8403113e-38
1447.37 678.67297 -164.214 1.8403113e-38
1455.51 688.72498 -160.23599 1.8403113e-38
-1111.15 968.73199 -167.62199 1.8403113e-38
-1124.99 976.08801 -165.548 1.8403113e-38
-1122.59 990.75201 -160.146 1.8403113e-38
-1498.83 1008.04 -169.81599 1.8403113e-38
-1495.8 1024.95 -163.576 1.8403113e-38
-4956.8701 1417.28 -168.20399 1.8403113e-38
-5138.54 1455.65 -162.02 1.8403113e-38
2553.22 577.25 -154.084 1.8403113e-38
1820.9399 674.19 -150.02699 1.8403113e-38
1571.59 689.68903 -154.97501 1.8403113e-38
1592.9 692.21698 -153.159 1.8403113e-38
1453.09 706.21997 -154.01401 1.8403113e-38
1462.6 715.20001 -150.36501 1.8403113e-38
-1123.64 1003.77 -155.48399 1.8403113e-38
-1137.26 1011.43 -153.29201 1.8403113e-38
-1492.6 1041.76 -157.364 1.8403113e-38
-1497.72 1055.87 -152.48 1.8403113e-38
-2696.4199 1197.86 -151.873 1.8403113e-38
-5264.9902 1497.8 -152.134 1.8403113e-38
2562.1201 596.37799 -146.793 1.8403113e-38
2018.5699 659.86798 -146.841 1.8403113e-38
1852.48 674.383 -148.62199 1.8403113e-38
1846.65 695.31 -141.304 1.8403113e-38
1600.0601 703.99298 -148.60001 1.8403113e-38
1628.95 702.289 -147.993 1.8403113e-38
1652.05 704.58899 -146.18401 1.8403113e-38
1682.01 703.15002 -145.437 1.8403113e-38
1712.9399 701.63599 -144.675 1.8403113e-38
1735.4301 705.49402 -142.32899 1.8403113e-38
1502.73 719.20001 -147.22099 1.8403113e-38
1476.11 721.50098 -147.515 1.8403113e-38
-1138.08 1024.49 -148.605 1.8403113e-38
-1152.49 1032.03 -146.489 1.8403113e-38
-1161.35 1041.91 -143.291 1.8403113e-38
-1496.08 1071.99 -146.584 1.8403113e-38
-1498.0699 1086.9399 -141.263 1.8403113e-38
-2708.1201 1220.87 -144.052 1.8403113e-38
-5396.0898 1541.97 -141.714 1.8403113e-38
2563.48 618.59198 -138.705 1.8403113e-38
2572.9199 637.43903 -131.492 1.8403113e-38
1865.96 702.604 -137.85001 1.8403113e-38
1896.6899 704.203 -135.97099 1.8403113e-38
-1508.51 1099.49 -137.166 1.8403113e-38
-1548.51 1104.1899 -137.161 1.8403113e-38
-1550.1899 1119.5 -131.698 1.8403113e-38
-2085.1299 1180.5 -132.28 1.8403113e-38
-2728.52 1243.01 -136.91 1.8403113e-38
-2784.4299 1261.6801 -132.526 1.8403113e-38
2582.1899 656.37201 -124.255 1.8403113e-38
-1553.64 1134.3101 -126.49 1.8403113e-38
-1550.2 1150.77 -120.392 1.8403113e-38
-1913.76 1191.99 -120.876 1.8403113e-38
-2814.4299 1283.76 -125.815 1.8403113e-38
-2868.0901 1304.17 -120.705 1.8403113e-38
-3543.6001 1368.49 -126.04 1.8403113e-38
-3753.27 1389.5 -127.318 1.8403113e-38
-5454.8701 1588.16 -127.503 1.8403113e-38
2582.9099 678.57501 -116.199 1.8403113e-38
-1554.3199 1165.34 -115.302 1.8403113e-38
-1558.3101 1179.9301 -110.194 1.8403113e-38
-1786.78 1197.9 -113.367 1.8403113e-38
-2929.5601 1324.8 -115.85 1.8403113e-38
-3005.8201 1345.33 -111.656 1.8403113e-38
2593.6699 696.91699 -109.113 1.8403113e-38
2598.6499 717.40302 -101.496 1.8403113e-38
-1553.4301 1196.45 -104.017 1.8403113e-38
-1662.0601 1205.48 -105.351 1.8403113e-38
-3097.8899 1366.0601 -108.057 1.8403113e-38
2613.77 734.26801 -94.759697 1.8403113e-38
-1560.05 1210.4301 -99.243797 1.8403113e-38
2616.49 755.52301 -86.960899 1.8403113e-38
-4747.8398 1627.75 -83.2733 1.8403113e-38
2602.9199 782.12701 -77.917801 1.8403113e-38
2590.9399 807.836 -69.130898 1.8403113e-38
2575.8101 834.19299 -60.242599 1.8403113e-38
-4589.9502 1665.65 -62.8908 1.8403113e-38
2562.29 859.66498 -51.606499 1.8403113e-38
-1374.3 1317.17 -52.7953 1.8403113e-38
2560.9199 881.16699 -43.891499 1.8403113e-38
-1369 1331.49 -47.393902 1.8403113e-38
-1369.46 1344.83 -42.591999 1.8403113e-38
-4582.5698 1704.92 -48.383202 1.8403113e-38
2558.3701 902.87402 -36.152401 1.8403113e-38
-1372.75 1357.74 -38.064301 1.8403113e-38
-4623.7798 1745.75 -35.365898 1.8403113e-38
2564.26 922.07202 -28.9632 1.8403113e-38
2569 941.58099 -21.709999 1.8403113e-38
-4678.5801 1787.86 -22.463499 1.8403113e-38
2572.5901 961.37598 -14.4022 1.8403113e-38
-4888.73 1838.8 -12.9397 1.8403113e-38
2601.1699 974.815 -8.3343897 1.8403113e-38
2671.3999 978.487 -4.03543 1.8403113e-38
2675.5901 998.849 3.5030401 1.8403113e-38
2681.54 1018.8 10.9662 1.8403113e-38
2687.3101 1038.8 18.442699 1.8403113e-38
2688.97 1059.6899 26.0632 1.8403113e-38
2694.3601 1079.78 33.552898 1.8403113e-38
2698.5801 1100.11 41.0812 1.8403113e-38
2705.5601 1119.9301 48.543098 1.8403113e-38
-5476.3999 2056.3301 40.830601 1.8403113e-38
2710.3999 1140.1899 56.069199 1.8403113e-38
-2162.1299 1719.4301 59.284698 1.8403113e-38
-5468.4902 2102.6399 57.9039 1.8403113e-38
2714.0601 1160.65 63.623199 1.8403113e-38
-2155.05 1738.53 66.487198 1.8403113e-38
2725.4199 1179.9 71.061302 1.8403113e-38
2807.8201 1188.59 77.690498 1.8403113e-38
-2149.79 1757.66 73.627296 1.8403113e-38
-5471.0898 2149.9299 74.891701 1.8403113e-38
2801.1101 1211.27 85.605202 1.8403113e-38
2804.0901 1232.49 93.402298 1.8403113e-38
-5466.29 2196.54 91.944603 1.8403113e-38
2628.28 1276.13 101.738 1.8403113e-38
2381.3899 1325.11 109 1.8403113e-38
-5470 2244.1599 108.999 1.8403113e-38
