# .PCD v0.7 - Point Cloud Data file format
VERSION 0.7
FIELDS x y z rgb
SIZE 4 4 4 4
TYPE F F F F
COUNT 1 1 1 1
WIDTH 359
HEIGHT 1
VIEWPOINT 0 0 0 1 0 0 0
POINTS 359
DATA ascii
1692.55 86.465797 -291.89401 1.8403113e-38
1723.4301 83.7127 -291.79901 1.8403113e-38
1606.1 96.880203 -291.177 1.8403113e-38
1629.45 96.931602 -290.33301 1.8403113e-38
1660.7 92.696602 -290.76199 1.8403113e-38
1550.64 103.784 -290.63699 1.8403113e-38
1574.46 102.547 -290.24301 1.8403113e-38
1402.13 119.147 -290.32101 1.8403113e-38
1450.83 113.006 -290.82401 1.8403113e-38
-75.770103 260.63501 -291.31 1.8403113e-38
1465.71 118.683 -288.242 1.8403113e-38
1490.88 116.807 -288.03201 1.8403113e-38
1519.39 110.243 -289.40201 1.8403113e-38
1331 128.769 -289.35001 1.8403113e-38
1372.04 127.798 -288.25101 1.8403113e-38
1417.58 123.688 -288.13 1.8403113e-38
1244.99 139.45799 -288.51801 1.8403113e-38
1283.8199 137.911 -287.70599 1.8403113e-38
1307.2 134.342 -288.172 1.8403113e-38
1349.3199 131.427 -287.73901 1.8403113e-38
1165.41 149.00101 -287.87399 1.8403113e-38
1183.65 149.07201 -287.20401 1.8403113e-38
1204.03 144.87 -288.00601 1.8403113e-38
1223.08 144.649 -287.41199 1.8403113e-38
1263.6 140.438 -287.505 1.8403113e-38
1075.16 158.52901 -287.61301 1.8403113e-38
1090.72 158.39999 -287.10999 1.8403113e-38
1110.9301 154.554 -287.789 1.8403113e-38
1125.45 156.31 -286.63901 1.8403113e-38
1144.0699 155.173 -286.39301 1.8403113e-38
989.22803 168.47301 -287.04901 1.8403113e-38
1004.88 168.88699 -286.345 1.8403113e-38
1020.65 167.255 -286.379 1.8403113e-38
1036.99 167.228 -285.811 1.8403113e-38
1056.33 161.26401 -287.28799 1.8403113e-38
909.45001 179.612 -285.83301 1.8403113e-38
938.48499 179.129 -284.98199 1.8403113e-38
956.513 172.77699 -286.646 1.8403113e-38
973.07501 171.23801 -286.61801 1.8403113e-38
821.97498 187.97099 -285.897 1.8403113e-38
833.91602 189.444 -284.94199 1.8403113e-38
847.83899 189.86099 -284.29901 1.8403113e-38
863.185 185.757 -285.24301 1.8403113e-38
880.16199 181.517 -286.17899 1.8403113e-38
893.26501 181.86099 -285.591 1.8403113e-38
917.54901 188.373 -282.37399 1.8403113e-38
763.79199 199.362 -283.828 1.8403113e-38
778.11902 195.21201 -284.82501 1.8403113e-38
790.92401 196.758 -283.81201 1.8403113e-38
804.078 195.424 -283.82999 1.8403113e-38
636.54401 209.66 -284.595 1.8403113e-38
660.23901 209.799 -283.70801 1.8403113e-38
698.97601 202.789 -284.87799 1.8403113e-38
710.34497 206.17799 -283.24799 1.8403113e-38
723.09497 204.073 -283.56 1.8403113e-38
736.92798 202.505 -283.63901 1.8403113e-38
746.89099 206.664 -281.78 1.8403113e-38
609.67902 218.867 -282.20999 1.8403113e-38
646.10303 213.918 -282.715 1.8403113e-38
668.66803 216.868 -280.849 1.8403113e-38
683.29602 212.12199 -282.05099 1.8403113e-38
472.89301 227.873 -283.78299 1.8403113e-38
505.685 225.504 -283.48199 1.8403113e-38
544.80298 225.10849 -282.24249 1.8403113e-38
562.99402 221.733 -282.82199 1.8403113e-38
572.20203 226.332 -280.83099 1.8403113e-38
586.099 220.536 -282.439 1.8403113e-38
596.565 221.729 -281.63699 1.8403113e-38
620.18903 220.255 -281.336 1.8403113e-38
427.90201 237.463 -281.89899 1.8403113e-38
438.61499 234.59399 -282.56 1.8403113e-38
449.95599 233.85001 -282.42801 1.8403113e-38
461.00299 230.25101 -283.34201 1.8403113e-38
482.19299 231.802 -282.03101 1.8403113e-38
493.90302 230.53999 -282.07401 1.8403113e-38
515.67902 230.83 -281.19901 1.8403113e-38
525.69299 232.353 -280.29401 1.8403113e-38
311.548 249.011 -281.82901 1.8403113e-38
322.241 249.002 -281.45401 1.8403113e-38
332.20099 247.118 -281.785 1.8403113e-38
343.05301 246.353 -281.67801 1.8403113e-38
353.354 242.771 -282.612 1.8403113e-38
363.992 244.05701 -281.76999 1.8403113e-38
373.94299 243.442 -281.64099 1.8403113e-38
384.89301 243.045 -281.397 1.8403113e-38
394.71399 243.52699 -280.87601 1.8403113e-38
406.05099 241.46001 -281.224 1.8403113e-38
416.08701 241.183 -280.96899 1.8403113e-38
189.985 259.021 -282.5 1.8403113e-38
200.49001 258.90201 -282.172 1.8403113e-38
230.216 254.351 -282.76901 1.8403113e-38
240.564 259.27802 -280.61899 1.8403113e-38
250.522 251.104 -283.228 1.8403113e-38
260.81 256.202 -281.01801 1.8403113e-38
270.754 251.00999 -282.547 1.8403113e-38
291.08099 250.311 -282.082 1.8403113e-38
301.655 251.061 -281.436 1.8403113e-38
-63.036598 267.37399 -288.418 1.8403113e-38
170.054 264.198 -281.32901 1.8403113e-38
180.53799 265.78699 -280.383 1.8403113e-38
209.976 262.633 -280.48499 1.8403113e-38
220.465 261.746 -280.435 1.8403113e-38
-83.174301 271.09299 -287.78299 1.8403113e-38
-51.2033 275.36499 -285.10501 1.8403113e-38
-39.804001 277.763 -283.83401 1.8403113e-38
280.879 257.216 -279.94101 1.8403113e-38
160.713 269.23599 -279.83401 1.8403113e-38
81.924698 279.67999 -278.836 1.8403113e-38
121.35 276.159 -278.71799 1.8403113e-38
130.85899 277.388 -277.936 1.8403113e-38
141.242 277.70001 -277.45599 1.8403113e-38
150.464 273.452 -278.66901 1.8403113e-38
72.158897 285.48401 -277.07901 1.8403113e-38
91.661301 282.466 -277.483 1.8403113e-38
101.871 280.56601 -277.81 1.8403113e-38
111.379 281.64099 -277.08499 1.8403113e-38
-25.5205 298.854 -275.689 1.8403113e-38
-16.115101 293.19601 -277.40601 1.8403113e-38
-5.2487102 299.784 -274.63501 1.8403113e-38
4.2132101 294.28799 -276.29099 1.8403113e-38
14.269 297.358 -274.82401 1.8403113e-38
24.731501 297.58401 -274.37201 1.8403113e-38
33.951099 296.18301 -274.55399 1.8403113e-38
43.4454 290.073 -276.431 1.8403113e-38
53.2341 292.543 -275.19101 1.8403113e-38
63.551201 292.18201 -274.957 1.8403113e-38
-125.78 307.61801 -276.05801 1.8403113e-38
-114.886 307.48999 -275.71899 1.8403113e-38
-94.615601 305.96301 -275.556 1.8403113e-38
-85.454002 303.63 -276.077 1.8403113e-38
-217.05299 319.54999 -274.96201 1.8403113e-38
-195.623 318.88901 -274.444 1.8403113e-38
-185.903 317.535 -274.591 1.8403113e-38
-176.873 311.52499 -276.44901 1.8403113e-38
-164.304 318.332 -273.53799 1.8403113e-38
-154.32201 315.16699 -274.332 1.8403113e-38
-143.45399 317.73599 -273.017 1.8403113e-38
-134.33299 312.05899 -274.75101 1.8403113e-38
-103.631 312.23099 -273.604 1.8403113e-38
-291.832 328.17599 -274.48099 1.8403113e-38
-259.44 323.785 -274.92599 1.8403113e-38
-247.006 327.95801 -272.97501 1.8403113e-38
-236.735 324.952 -273.70099 1.8403113e-38
-225.185 327.61401 -272.328 1.8403113e-38
-205.918 321.53 -273.85101 1.8403113e-38
-382.11801 335.48199 -275.02499 1.8403113e-38
-368.08301 337.88599 -273.65799 1.8403113e-38
-356.42001 338.40201 -273.05899 1.8403113e-38
-333.672 336.82901 -272.82501 1.8403113e-38
-320.37201 338.944 -271.58801 1.8403113e-38
-310.61801 336.54001 -272.11401 1.8403113e-38
-300.79099 332.11801 -273.36899 1.8403113e-38
-278.30499 331.61899 -272.755 1.8403113e-38
-266.18799 334.72699 -271.20099 1.8403113e-38
-461.41599 347.98099 -273.30099 1.8403113e-38
-449.46301 347.57101 -273.02701 1.8403113e-38
-438.70099 343.55899 -274.10001 1.8403113e-38
-422.77301 349.82901 -271.26501 1.8403113e-38
-414.54501 342.01001 -273.80701 1.8403113e-38
-402.23901 342.883 -273.056 1.8403113e-38
-387.65399 345.862 -271.461 1.8403113e-38
-343.00601 340.26199 -271.91101 1.8403113e-38
-522.72498 355.86899 -272.60999 1.8403113e-38
-508.05801 356.603 -271.82599 1.8403113e-38
-470.56601 354.57199 -271.237 1.8403113e-38
-625.44501 369.65201 -271.24899 1.8403113e-38
-611.60999 367.67801 -271.47501 1.8403113e-38
-584.32501 365.573 -271.27301 1.8403113e-38
-570.30298 366.17999 -270.55701 1.8403113e-38
-560.14099 360.28201 -272.33499 1.8403113e-38
-546.203 361.16501 -271.522 1.8403113e-38
-531.45398 361.612 -270.83899 1.8403113e-38
-637.81097 371.83801 -270.89401 1.8403113e-38
-800.172 389.689 -270.16699 1.8403113e-38
-784.56799 387.10001 -270.55301 1.8403113e-38
-884.85101 395.26999 -271.138 1.8403113e-38
-479.84299 359.12299 -269.91599 1.8403113e-38
-491.065 362.742 -269.00201 1.8403113e-38
-593.24103 373.172 -268.83499 1.8403113e-38
-750.94897 386.66199 -269.52301 1.8403113e-38
-863.37402 398.32101 -269.27399 1.8403113e-38
-846.19 396.27399 -269.40799 1.8403113e-38
-829.20502 395.91901 -268.936 1.8403113e-38
-814.24902 392.31699 -269.71201 1.8403113e-38
-765.07098 390.21201 -268.73599 1.8403113e-38
-933.87903 404.41199 -269.56 1.8403113e-38
-914.26099 403.36499 -269.246 1.8403113e-38
-894.83801 404.07999 -268.29999 1.8403113e-38
-999.08899 418.75699 -266.668 1.8403113e-38
-983.09198 413.80499 -267.897 1.8403113e-38
-965.67603 411.797 -268.009 1.8403113e-38
-945.96301 410.30301 -267.853 1.8403113e-38
-1076.48 427.76401 -266.14099 1.8403113e-38
-1060.36 421.91699 -267.69 1.8403113e-38
-1037.28 423.05499 -266.461 1.8403113e-38
-1014.26 422.93701 -265.69 1.8403113e-38
-1140.9 432.366 -266.75201 1.8403113e-38
-1117.5 432.37799 -265.92001 1.8403113e-38
-1093.36 431.66199 -265.32599 1.8403113e-38
-1218.9 449.095 -263.448 1.8403113e-38
-1196.88 446.936 -263.452 1.8403113e-38
-1172.49 445.03101 -263.28 1.8403113e-38
-1149.8101 444.00299 -262.85101 1.8403113e-38
-1259.73 457.95901 -261.681 1.8403113e-38
-1244.27 451.147 -263.60199 1.8403113e-38
-1306.59 464.44699 -260.987 1.8403113e-38
-1283.53 461.63501 -261.19101 1.8403113e-38
-636.63898 407.34 -257.992 1.8403113e-38
-627.034 402.22 -259.50699 1.8403113e-38
-649.633 410.38101 -257.35001 1.8403113e-38
-664.93701 426.689 -251.983 1.8403113e-38
-646.80103 429.09299 -250.47099 1.8403113e-38
-675.04602 431.45099 -250.61501 1.8403113e-38
-1377.66 477.19699 -258.88101 1.8403113e-38
-1351.95 473.16501 -259.43201 1.8403113e-38
-1327.1 470.71701 -259.44101 1.8403113e-38
-1455.29 487.98599 -257.716 1.8403113e-38
-1421.51 488.728 -256.254 1.8403113e-38
-1401.78 480.78699 -258.43201 1.8403113e-38
-1466.3101 500.99399 -253.394 1.8403113e-38
1582.54 218.215 -248.056 1.8403113e-38
-669.81702 453.53201 -242.43201 1.8403113e-38
-1472.05 514.96198 -248.537 1.8403113e-38
-1472.22 533.28497 -241.905 1.8403113e-38
-1475 548.52698 -236.483 1.8403113e-38
-1477.45 565.49902 -230.42101 1.8403113e-38
-1476.33 582.32703 -224.285 1.8403113e-38
-1477.5 599.61603 -218.064 1.8403113e-38
-1477.8101 615.52399 -212.312 1.8403113e-38
1445.67 347.15399 -206.186 1.8403113e-38
-1474.98 634.24799 -205.429 1.8403113e-38
1432.6 373.767 -197.008 1.8403113e-38
1436.34 388.53101 -191.528 1.8403113e-38
1457.91 388.117 -190.91499 1.8403113e-38
-1474.9301 650.02698 -199.71201 1.8403113e-38
-1481.75 664.50598 -194.707 1.8403113e-38
1474.87 393.07501 -188.519 1.8403113e-38
1495.78 393.76001 -187.532 1.8403113e-38
-1479.55 680.95001 -188.673 1.8403113e-38
-1482.38 696.87598 -183.004 1.8403113e-38
1481.55 421.46201 -178 1.8403113e-38
1488.67 432.01801 -173.924 1.8403113e-38
-1481.6899 712.492 -177.32201 1.8403113e-38
-1479.54 730.05902 -170.883 1.8403113e-38
1466.47 464.306 -163.013 1.8403113e-38
-1480.37 744.88098 -165.543 1.8403113e-38
1449.54 490.74399 -154.034 1.8403113e-38
-1475.98 762.93799 -158.847 1.8403113e-38
-1481.1801 776.07501 -154.271 1.8403113e-38
1450.21 506.38699 -148.34399 1.8403113e-38
1454.09 518.29401 -143.894 1.8403113e-38
-1478.3 793.35101 -147.912 1.8403113e-38
-1483.23 806.50299 -143.32201 1.8403113e-38
1539.88 525.51599 -138.245 1.8403113e-38
1459.39 530.66699 -139.224 1.8403113e-38
1481.4 531.039 -138.311 1.8403113e-38
1479.8199 547.75201 -132.313 1.8403113e-38
1534.83 544.59601 -131.511 1.8403113e-38
-1481.9 823.06897 -137.274 1.8403113e-38
-1486.5699 836.24402 -132.666 1.8403113e-38
1540.8199 555.51001 -127.346 1.8403113e-38
1540.5 571.44897 -121.583 1.8403113e-38
1522.0601 595.93597 -113.365 1.8403113e-38
1477.89 635.40198 -100.63 1.8403113e-38
-1313.5601 902.34302 -102.606 1.8403113e-38
-3047.6101 1069.49 -103.354 1.8403113e-38
-3159.6799 1086.62 -101.109 1.8403113e-38
2586.04 549.20203 -92.6838 1.8403113e-38
1461.26 657.58502 -93.1819 1.8403113e-38
-1494.0601 954.45099 -90.110298 1.8403113e-38
-2743.47 1069.22 -92.700104 1.8403113e-38
-3205.2 1112.6801 -93.277702 1.8403113e-38
2577.51 572.71802 -84.4664 1.8403113e-38
1467.7 668.43402 -89.0242 1.8403113e-38
1459.37 685.61603 -83.094498 1.8403113e-38
-1390.88 964.73199 -82.738602 1.8403113e-38
-1491.12 970.53497 -84.180099 1.8403113e-38
-2208.2 1038.1899 -85.018799 1.8403113e-38
-2095.5601 1034 -82.555298 1.8403113e-38
-2523.3301 1067.9301 -85.384697 1.8403113e-38
-2367.5901 1061.09 -82.359398 1.8403113e-38
-3187.49 1140.46 -82.5905 1.8403113e-38
2611.8601 605.41498 -71.407501 1.8403113e-38
1471.72 693.31799 -79.867798 1.8403113e-38
1466.59 708.53998 -74.535202 1.8403113e-38
1537.88 700.82397 -74.809998 1.8403113e-38
1481.46 715.10699 -71.6306 1.8403113e-38
1545.6899 711.49902 -70.667099 1.8403113e-38
-1145.72 962.46399 -74.894203 1.8403113e-38
-1495.46 983.55798 -79.615898 1.8403113e-38
-1499.04 998.16302 -74.451401 1.8403113e-38
-2229.1101 1056.85 -79.000504 1.8403113e-38
-3194.6399 1169.35 -72.376198 1.8403113e-38
2604.28 630.38898 -62.6292 1.8403113e-38
1549.24 722.83398 -66.4356 1.8403113e-38
1549.58 736.867 -61.339802 1.8403113e-38
-1137.03 977.44098 -69.1614 1.8403113e-38
-1134.5601 989.41602 -64.736298 1.8403113e-38
-1152.48 997.25201 -62.530998 1.8403113e-38
-1492.39 1013.34 -68.720596 1.8403113e-38
-1495.6801 1027.91 -63.556999 1.8403113e-38
-3191.3701 1196.08 -62.580101 1.8403113e-38
2589.1001 655.19897 -54.178101 1.8403113e-38
2308.54 679.37 -55.3396 1.8403113e-38
1549.25 749.79102 -56.669899 1.8403113e-38
1560.27 759.07098 -52.9188 1.8403113e-38
1582.65 762.44702 -50.9048 1.8403113e-38
-1154.62 1008.07 -58.689301 1.8403113e-38
-1499.52 1040.99 -58.953499 1.8403113e-38
-1501.55 1055.79 -53.6656 1.8403113e-38
-1734.1801 1065.14 -58.5023 1.8403113e-38
-1652.6899 1061.87 -56.805199 1.8403113e-38
2575.1899 681.34003 -45.200401 1.8403113e-38
2000.16 725.43597 -49.553299 1.8403113e-38
1586.21 775.09601 -46.196999 1.8403113e-38
1589.15 786.66199 -41.903198 1.8403113e-38
-1505.15 1068.9301 -49.032398 1.8403113e-38
2561.3899 705.06299 -37.094398 1.8403113e-38
1605.45 794.31598 -38.554298 1.8403113e-38
1626.84 798.97198 -36.111401 1.8403113e-38
1702.91 798.57501 -33.5662 1.8403113e-38
1634.6801 810.22601 -31.757601 1.8403113e-38
2558.5 727.63599 -29.0196 1.8403113e-38
2557.77 747.51801 -21.842899 1.8403113e-38
1698.53 814.79602 -27.8449 1.8403113e-38
-3545.3601 1336.35 -24.2799 1.8403113e-38
-4836.54 1457.28 -26.113001 1.8403113e-38
2561.23 768.28003 -14.2 1.8403113e-38
-3552.6299 1365.63 -13.93 1.8403113e-38
2573.73 784.91699 -7.7310901 1.8403113e-38
2577.79 805.56799 -0.106865 1.8403113e-38
-4764.79 1498.3 -8.7193499 1.8403113e-38
2602.6899 819.72498 5.90168 1.8403113e-38
-4735.7402 1535.92 5.9362998 1.8403113e-38
2667.0601 828.065 11.1985 1.8403113e-38
2671.24 847.34698 18.3312 1.8403113e-38
2682.53 867.31897 25.964899 1.8403113e-38
-4766.1201 1579.88 20.786699 1.8403113e-38
2679.47 887.97498 33.3396 1.8403113e-38
-1367.09 1286.6801 34.729 1.8403113e-38
-1354.67 1299.23 39.7145 1.8403113e-38
-4658.5 1612.66 36.464401 1.8403113e-38
2685.45 908.98499 41.161701 1.8403113e-38
2688.9199 928.41602 48.323002 1.8403113e-38
-1351.17 1312.65 44.697701 1.8403113e-38
-1349.51 1324.76 49.142101 1.8403113e-38
2700.4399 948.61798 56.048302 1.8403113e-38
-4588.3198 1649.98 52.4664 1.8403113e-38
2711.46 966.99799 63.096199 1.8403113e-38
-5108.4902 1725.37 61.3867 1.8403113e-38
2712.72 988.90399 71.076202 1.8403113e-38
2725.3899 1007.25 78.1707 1.8403113e-38
-5433 1797.66 76.104797 1.8403113e-38
2727.24 1029.13 86.160301 1.8403113e-38
2729.6399 1048.89 93.405098 1.8403113e-38
-5440.2798 1842.5601 92.111801 1.8403113e-38
2735.0601 1070.37 101.377 1.8403113e-38
2747.04 1089.22 108.63 1.8403113e-38
-5018.77 1850.13 109.754 1.8403113e-38
