# .PCD v0.7 - Point Cloud Data file format
VERSION 0.7
FIELDS x y z rgb
SIZE 4 4 4 4
TYPE F F F F
COUNT 1 1 1 1
WIDTH 360
HEIGHT 1
VIEWPOINT 0 0 0 1 0 0 0
POINTS 360
DATA ascii
2053.22 97.756599 -293.539 1.8403113e-38
2072.6899 106.276 -292.383 1.8403113e-38
1429.92 -31.201099 -280.02701 1.8403113e-38
1534.45 -5.6663499 -280.92001 1.8403113e-38
1566.41 1.9484299 -281.26001 1.8403113e-38
1579.63 7.9552302 -280.396 1.8403113e-38
1595.24 12.511 -280.26901 1.8403113e-38
1618.9399 11.9777 -282.694 1.8403113e-38
1632.1899 18.559 -281.63101 1.8403113e-38
1661.91 30.1574 -280.35999 1.8403113e-38
1680.0699 34.228699 -280.64301 1.8403113e-38
1699.9301 37.5522 -281.349 1.8403113e-38
1722.34 39.683899 -282.716 1.8403113e-38
1738.09 45.9659 -281.99399 1.8403113e-38
1759.75 49.138802 -282.92401 1.8403113e-38
1783.16 51.680401 -284.241 1.8403113e-38
1791.25 62.801102 -281.09601 1.8403113e-38
1813.86 66.323898 -281.992 1.8403113e-38
1839.11 68.831596 -283.49399 1.8403113e-38
1860.97 73.446701 -283.935 1.8403113e-38
1882.85 78.365501 -284.272 1.8403113e-38
1906.52 82.745201 -284.96701 1.8403113e-38
1922.3101 91.190102 -283.48801 1.8403113e-38
1946.91 95.766296 -284.202 1.8403113e-38
1977.77 97.896004 -286.367 1.8403113e-38
1996.23 105.973 -285.271 1.8403113e-38
2083.1101 118.755 -288.979 1.8403113e-38
2101.5901 128.089 -287.44299 1.8403113e-38
2123.6899 136.255 -286.65799 1.8403113e-38
2143.9399 145.425 -285.34698 1.8403113e-38
2179.77 149.11099 -287.43399 1.8403113e-38
2210.1599 155.327 -288.11801 1.8403113e-38
2230.4099 165.55299 -286.435 1.8403113e-38
2264.53 171.321 -287.62799 1.8403113e-38
2294.98 178.836 -287.86099 1.8403113e-38
2325.4399 186.80299 -287.93701 1.8403113e-38
2365.29 192.298 -289.767 1.8403113e-38
2388.28 203.526 -287.991 1.8403113e-38
2430.0901 209.548 -289.82001 1.8403113e-38
2463.4399 218.633 -289.77499 1.8403113e-38
2480.6699 232.657 -286.47198 1.8403113e-38
2498.76 246.662 -283.258 1.8403113e-38
214.437 -340.40601 -273.97 1.8403113e-38
203.802 -339.97501 -272.815 1.8403113e-38
302.79901 -305.793 -270.14499 1.8403113e-38
313.233 -303.52301 -270.332 1.8403113e-38
354.61301 -291.69299 -270.07999 1.8403113e-38
384.95499 -286.17999 -271.00699 1.8403113e-38
395.01901 -283.233 -270.92099 1.8403113e-38
434.758 -270.63199 -270.24301 1.8403113e-38
454.42001 -266.67899 -270.70999 1.8403113e-38
473.85501 -260.52701 -270.38199 1.8403113e-38
483.78699 -261.56299 -271.68399 1.8403113e-38
663.29901 -209.25301 -270.242 1.8403113e-38
757.328 -185.418 -270.741 1.8403113e-38
766.50702 -182.252 -270.495 1.8403113e-38
775.659 -179.01199 -270.22 1.8403113e-38
794.90997 -174.933 -270.603 1.8403113e-38
834.099 -167.498 -271.689 1.8403113e-38
841.97998 -161.125 -270.19299 1.8403113e-38
861.495 -156.744 -270.496 1.8403113e-38
873.69702 -159.515 -272.62201 1.8403113e-38
892.867 -153.726 -272.396 1.8403113e-38
900.49103 -146.936 -270.729 1.8403113e-38
910.66699 -145.099 -271.04401 1.8403113e-38
922.63898 -146.487 -272.66199 1.8403113e-38
934.68201 -147.74699 -274.242 1.8403113e-38
942.16803 -140.66 -272.45801 1.8403113e-38
965.47998 -140.991 -274.77499 1.8403113e-38
951.448 -136.797 -271.97601 1.8403113e-38
973.81299 -135.308 -273.564 1.8403113e-38
986.52502 -136.80901 -275.29099 1.8403113e-38
992.30701 -126.957 -272.37399 1.8403113e-38
1005.07 -128.237 -274.02899 1.8403113e-38
1015.84 -126.208 -274.332 1.8403113e-38
1029.76 -128.797 -276.55701 1.8403113e-38
1034.24 -117.132 -272.879 1.8403113e-38
1047.6899 -118.702 -274.70099 1.8403113e-38
1057.42 -114.702 -274.21301 1.8403113e-38
1080.71 -111.785 -275.38699 1.8403113e-38
1066.01 -109.075 -273.047 1.8403113e-38
1089.29 -105.966 -274.151 1.8403113e-38
1101.83 -105.359 -275.12201 1.8403113e-38
1113.84 -103.864 -275.73001 1.8403113e-38
1127.64 -104.473 -277.24701 1.8403113e-38
1136.16 -98.269096 -275.87 1.8403113e-38
1146.4301 -94.198502 -275.409 1.8403113e-38
1158.51 -92.215103 -275.85199 1.8403113e-38
1173.08 -92.995201 -277.50201 1.8403113e-38
1182.75 -87.855202 -276.608 1.8403113e-38
1205.8101 -81.552696 -276.569 1.8403113e-38
1189.87 -79.774498 -274.44 1.8403113e-38
1214.78 -75.411003 -275.25699 1.8403113e-38
1232.78 -78.941704 -278.198 1.8403113e-38
1241.09 -71.875603 -276.49899 1.8403113e-38
1255.3 -70.910004 -277.5 1.8403113e-38
1264.21 -64.339699 -276.03201 1.8403113e-38
1277.12 -61.7346 -276.33499 1.8403113e-38
1293.45 -62.323101 -278.08401 1.8403113e-38
1305.0601 -58.070999 -277.685 1.8403113e-38
1320.14 -56.976002 -278.72299 1.8403113e-38
1328.96 -49.844299 -277.04999 1.8403113e-38
1344.09 -48.4347 -277.98199 1.8403113e-38
1355.71 -43.648602 -277.397 1.8403113e-38
1370.9 -41.8983 -278.216 1.8403113e-38
1386.87 -40.587399 -279.263 1.8403113e-38
1400.71 -37.217201 -279.384 1.8403113e-38
1409.41 -29.388399 -277.45401 1.8403113e-38
1438.58 -23.1199 -278.004 1.8403113e-38
1453.21 -19.7202 -278.19 1.8403113e-38
1468.62 -16.7309 -278.59399 1.8403113e-38
1483.29 -12.9688 -278.65701 1.8403113e-38
1501.0699 -11.3288 -279.758 1.8403113e-38
1515.02 -6.6136098 -279.418 1.8403113e-38
1545.3 1.651 -279.37201 1.8403113e-38
1641.33 27.869801 -279.22101 1.8403113e-38
2499.6001 265.32599 -276.776 1.8403113e-38
-161.68401 -415.70599 -264.93201 1.8403113e-38
-170.634 -406.90399 -260.99301 1.8403113e-38
-145.76801 -409.57401 -264.27899 1.8403113e-38
-130.395 -404.15399 -263.82501 1.8403113e-38
-116.702 -402.099 -264.39499 1.8403113e-38
-86.570297 -390.49701 -263.16199 1.8403113e-38
-98.1605 -388.42099 -261.33801 1.8403113e-38
-73.162399 -388.02301 -263.55801 1.8403113e-38
-59.830898 -385.42099 -263.90201 1.8403113e-38
-45.884899 -380.89999 -263.629 1.8403113e-38
-31.712799 -375.345 -263.01401 1.8403113e-38
-18.659901 -372.349 -263.19299 1.8403113e-38
-8.2617102 -376.448 -265.616 1.8403113e-38
4.3783698 -374.129 -265.99399 1.8403113e-38
28.562901 -371.866 -267.48099 1.8403113e-38
18.170799 -368.06299 -265.164 1.8403113e-38
43.905201 -360.08801 -264.79001 1.8403113e-38
54.806801 -361.85699 -266.44101 1.8403113e-38
68.165199 -355.29199 -265.39401 1.8403113e-38
78.221199 -359.61099 -267.862 1.8403113e-38
91.141701 -353.73401 -267.01599 1.8403113e-38
125.461 -350.17899 -269.00601 1.8403113e-38
104.182 -346.815 -265.815 1.8403113e-38
114.933 -348.07999 -267.27399 1.8403113e-38
138.002 -343.853 -267.966 1.8403113e-38
148.496 -345.76199 -269.62799 1.8403113e-38
160.644 -340.14801 -268.80099 1.8403113e-38
171.696 -339.07901 -269.46899 1.8403113e-38
183.278 -335.11801 -269.17001 1.8403113e-38
195.31 -328.255 -267.89301 1.8403113e-38
228.13 -322.01199 -268.797 1.8403113e-38
239.599 -315.681 -267.655 1.8403113e-38
249.722 -317.69699 -269.319 1.8403113e-38
271.121 -313.01599 -269.694 1.8403113e-38
281.69199 -311.01099 -269.987 1.8403113e-38
261.27301 -309.29599 -267.45599 1.8403113e-38
292.423 -307.034 -269.60199 1.8403113e-38
324.45099 -290.79401 -266.91699 1.8403113e-38
334.49899 -291.177 -268 1.8403113e-38
344.55399 -291.47699 -269.05499 1.8403113e-38
364.88101 -287.108 -269.43799 1.8403113e-38
375 -284.32599 -269.41501 1.8403113e-38
405.07901 -272.655 -268.15201 1.8403113e-38
414.98499 -274.26401 -269.65302 1.8403113e-38
424.83301 -268.245 -268.46701 1.8403113e-38
444.41501 -262.57199 -268.32101 1.8403113e-38
464.04599 -261.29001 -269.724 1.8403113e-38
492.953 -252.187 -269.25299 1.8403113e-38
502.44199 -248.375 -268.80899 1.8403113e-38
512.14203 -247.299 -269.34601 1.8403113e-38
521.73499 -245.20599 -269.517 1.8403113e-38
530.875 -239.297 -268.302 1.8403113e-38
540.26703 -236.121 -268.073 1.8403113e-38
554.64648 -234.00549 -268.686 1.8403113e-38
568.59698 -228.939 -268.22198 1.8403113e-38
578.43298 -229.17799 -269.23499 1.8403113e-38
587.17999 -222.84599 -267.83499 1.8403113e-38
596.664 -221.076 -268.108 1.8403113e-38
606.66101 -221.99899 -269.37601 1.8403113e-38
614.85199 -213.617 -267.203 1.8403113e-38
624.836 -214.381 -268.414 1.8403113e-38
634.04999 -211.38499 -268.23099 1.8403113e-38
653.68402 -210.657 -269.828 1.8403113e-38
641.96997 -202.819 -265.96701 1.8403113e-38
681.05701 -200.756 -268.93201 1.8403113e-38
670.79303 -199.57899 -267.54999 1.8403113e-38
689.35101 -194.595 -267.54999 1.8403113e-38
698.85901 -192.892 -267.849 1.8403113e-38
709.16901 -193.81 -269.14499 1.8403113e-38
716.19598 -183.85699 -266.30899 1.8403113e-38
727.63599 -188.19501 -268.914 1.8403113e-38
736.53998 -184.381 -268.414 1.8403113e-38
746.00702 -182.278 -268.569 1.8403113e-38
784.784 -175.69701 -269.91599 1.8403113e-38
803.29797 -169.715 -269.561 1.8403113e-38
811.26398 -163.567 -268.15201 1.8403113e-38
822.09302 -164.29201 -269.42899 1.8403113e-38
848.604 -152.132 -267.65701 1.8403113e-38
878.92297 -147.789 -268.99301 1.8403113e-38
2495.48 285.13699 -269.423 1.8403113e-38
2509.3501 300.47501 -265.341 1.8403113e-38
-1056.86 -616.05402 -250.849 1.8403113e-38
-347.98401 -425.72198 -250.86501 1.8403113e-38
-332.32199 -424.164 -251.79601 1.8403113e-38
-317.729 -424.10901 -253.15401 1.8403113e-38
-301.23401 -420.55801 -253.463 1.8403113e-38
-284.37201 -415.98999 -253.44901 1.8403113e-38
-267.63901 -411.23901 -253.35899 1.8403113e-38
-252.89799 -409.70001 -254.21001 1.8403113e-38
-236.858 -405.45499 -254.23199 1.8403113e-38
-224.985 -408.737 -256.50601 1.8403113e-38
-210.44299 -406.76001 -257.18399 1.8403113e-38
-197.28101 -407.22299 -258.59 1.8403113e-38
-181.166 -401.504 -258.10001 1.8403113e-38
2515.4199 317.76401 -259.83701 1.8403113e-38
2519.4099 335.53101 -253.968 1.8403113e-38
-453.47299 -423.16901 -240.009 1.8403113e-38
-439.05899 -425.147 -242.065 1.8403113e-38
-420.28799 -420.54501 -242.21899 1.8403113e-38
-389.561 -420.45401 -245.088 1.8403113e-38
-379.01001 -427.521 -248.569 1.8403113e-38
-363.72299 -427.11301 -249.868 1.8403113e-38
-400.03601 -413.302 -241.586 1.8403113e-38
2522.28 353.52399 -247.914 1.8403113e-38
2521.1001 372.30701 -241.201 1.8403113e-38
-553.61499 -425.10101 -231.23399 1.8403113e-38
-517.80701 -422.33801 -233.644 1.8403113e-38
-500.91199 -421.82901 -235.05901 1.8403113e-38
-532.383 -419.57101 -231.295 1.8403113e-38
-479.48001 -414.84 -234.62601 1.8403113e-38
-464.49301 -416.298 -236.554 1.8403113e-38
2533.3101 388.38 -236.703 1.8403113e-38
2533.73 406.784 -230.274 1.8403113e-38
-570.73199 -425.03201 -229.59399 1.8403113e-38
2541.76 423.771 -225.06 1.8403113e-38
-851.70697 -459.96899 -215.35001 1.8403113e-38
2541.8501 442.17001 -218.601 1.8403113e-38
2544.6799 460.061 -212.58 1.8403113e-38
-918.70502 -461.095 -209.42101 1.8403113e-38
-831.33899 -418.77301 -202.79201 1.8403113e-38
-532.92499 -357.29001 -209.351 1.8403113e-38
-537.06702 -342.21301 -203.66 1.8403113e-38
2551.27 477.36899 -207.118 1.8403113e-38
2553.78 495.311 -201.048 1.8403113e-38
-537.21399 -322.65701 -196.772 1.8403113e-38
-538.987 -305.40701 -190.541 1.8403113e-38
2565.9399 511.93799 -196.351 1.8403113e-38
2569.1201 529.85101 -190.355 1.8403113e-38
-857.87598 -383.12 -187.754 1.8403113e-38
-861.13599 -366.22501 -181.507 1.8403113e-38
-536.64697 -283.776 -183.158 1.8403113e-38
2573.1201 547.66803 -184.46899 1.8403113e-38
-940.26703 -357.46799 -170.959 1.8403113e-38
-861.25098 -346.71399 -174.638 1.8403113e-38
-873.65601 -338.41599 -170.55 1.8403113e-38
-651.35101 -277.98901 -170.29601 1.8403113e-38
-541.146 -270.319 -178.004 1.8403113e-38
-552.70502 -264.87 -174.99699 1.8403113e-38
2574.98 565.737 -178.29401 1.8403113e-38
2575.6899 583.90601 -171.974 1.8403113e-38
-902.36798 -344.276 -169.89999 1.8403113e-38
-602.00201 -245.479 -163.52699 1.8403113e-38
-585.138 -245.711 -165.201 1.8403113e-38
-569.01001 -246.46201 -166.987 1.8403113e-38
-555.59198 -249.916 -169.468 1.8403113e-38
2585.1201 601.23798 -166.772 1.8403113e-38
2589.46 619.11499 -160.897 1.8403113e-38
-915.02002 -316.612 -158.981 1.8403113e-38
2590.6599 637.26398 -154.632 1.8403113e-38
-855.64697 -248.48 -140.63699 1.8403113e-38
2603.5901 654.60901 -149.755 1.8403113e-38
2605.46 672.78802 -143.541 1.8403113e-38
-857.26501 -231.992 -134.688 1.8403113e-38
2610.1499 690.82703 -137.642 1.8403113e-38
2610.6899 709.09198 -131.274 1.8403113e-38
-848.63599 -207.507 -126.896 1.8403113e-38
-844.32501 -186.90601 -120.061 1.8403113e-38
2619.02 727.07703 -125.738 1.8403113e-38
-851.48102 -175.533 -115.388 1.8403113e-38
-854.57703 -161.11301 -110.027 1.8403113e-38
2620.23 745.362 -119.424 1.8403113e-38
2631.22 763.47803 -114.094 1.8403113e-38
-837.65802 -131.87399 -101.346 1.8403113e-38
2634.0801 781.83502 -107.912 1.8403113e-38
2645.74 800.21802 -102.55 1.8403113e-38
-835.48901 -114.126 -95.312302 1.8403113e-38
-841.935 -102.861 -90.743896 1.8403113e-38
2647.27 818.70898 -96.195297 1.8403113e-38
2655.6101 837.32397 -90.438797 1.8403113e-38
-836.935 -83.517601 -84.416397 1.8403113e-38
-848.77899 -76.231102 -80.737 1.8403113e-38
2669.76 856.21198 -85.134804 1.8403113e-38
-5258.8198 -1231.95 -70.660004 1.8403113e-38
-850.745 -62.0825 -75.578003 1.8403113e-38
-857.49103 -51.285702 -71.145897 1.8403113e-38
2679.75 875.198 -79.404198 1.8403113e-38
2681.6001 894.02002 -72.962502 1.8403113e-38
-884.005 -38.1894 -64.039398 1.8403113e-38
-863.302 -39.8899 -66.591599 1.8403113e-38
-894.69897 -29.801701 -60.081501 1.8403113e-38
2675.3101 912.479 -65.879898 1.8403113e-38
-885.09399 -8.6454096 -53.551399 1.8403113e-38
2662.8701 930.49103 -58.374699 1.8403113e-38
2653.26 948.48999 -51.139999 1.8403113e-38
-5159.73 -1144.9399 -49.4324 1.8403113e-38
-1035.41 -21.3381 -43.822498 1.8403113e-38
-1014.38 -25.063801 -47.117199 1.8403113e-38
-981.39398 -21.4126 -48.9482 1.8403113e-38
-1058.21 -18.2957 -40.6012 1.8403113e-38
-915.323 2.7400701 -46.695499 1.8403113e-38
-885.37903 6.0561099 -48.3568 1.8403113e-38
2640.49 966.11102 -43.7411 1.8403113e-38
-1541.87 -144.709 -39.377102 1.8403113e-38
-1541.87 -124.917 -32.419899 1.8403113e-38
-1132.11 -10.048 -30.7255 1.8403113e-38
-1109.1801 -14.0869 -34.309601 1.8403113e-38
-1078.42 -13.5015 -37.0079 1.8403113e-38
2628.5601 983.60303 -36.466 1.8403113e-38
-4859.8398 -991.74103 -23.890699 1.8403113e-38
-1540.76 -104.767 -25.442301 1.8403113e-38
-1182.49 -3.2576001 -23.5821 1.8403113e-38
-1159.49 -7.9735699 -27.4109 1.8403113e-38
2616.47 1000.9 -29.244301 1.8403113e-38
2616.1499 1019.18 -22.789301 1.8403113e-38
-1208.1899 0.453228 -19.8515 1.8403113e-38
2620.6201 1037.99 -16.6007 1.8403113e-38
2623.9299 1056.76 -10.3137 1.8403113e-38
-4915.54 -962.06201 -8.19946 1.8403113e-38
-1394.01 -18.6117 -9.0105495 1.8403113e-38
-1405.58 -5.89221 -3.4479101 1.8403113e-38
2642.9099 1077.55 -4.7969398 1.8403113e-38
2722.1001 1106.63 -2.0511701 1.8403113e-38
-1402.38 13.3336 3.0088 1.8403113e-38
-1395.3 34.017799 9.61094 1.8403113e-38
2720.8301 1125.79 4.8038402 1.8403113e-38
-1412.89 44.190399 14.8469 1.8403113e-38
2728.27 1146.26 11.2976 1.8403113e-38
2734.52 1166.71 17.8967 1.8403113e-38
-5208.6602 -957.35199 21.1278 1.8403113e-38
-1407.27 63.991699 21.277 1.8403113e-38
-1403.29 82.916603 27.553499 1.8403113e-38
2742.55 1187.61 24.4846 1.8403113e-38
2876.4199 1230.5699 26.948299 1.8403113e-38
-5336.9702 -945.88 37.273499 1.8403113e-38
-1361.8199 116.147 35.319801 1.8403113e-38
2873.05 1250.83 34.3876 1.8403113e-38
-1373.2 128.543 40.751301 1.8403113e-38
-1396.67 136.595 45.7976 1.8403113e-38
2869.49 1271.05 41.8326 1.8403113e-38
2865.74 1291.24 49.2827 1.8403113e-38
2870.6201 1313.23 56.5494 1.8403113e-38
-4826.6802 -743.90399 60.0975 1.8403113e-38
2874.3 1335.1 63.891701 1.8403113e-38
-1519.26 180.14999 72.680603 1.8403113e-38
2869.97 1355.3101 71.404404 1.8403113e-38
2764.1799 1351.8101 80.1614 1.8403113e-38
-1911.91 136.976 94.572304 1.8403113e-38
2116.79 1230.13 98.505997 1.8403113e-38
2252.3701 1248.16 92.042603 1.8403113e-38
-1732.3101 207.36301 102.359 1.8403113e-38
-1671.45 242.599 109 1.8403113e-38
1802.5601 1163.39 104.711 1.8403113e-38
1848.8101 1188.02 109 1.8403113e-38
