# .PCD v0.7 - Point Cloud Data file format
VERSION 0.7
FIELDS x y z rgb
SIZE 4 4 4 4
TYPE F F F F
COUNT 1 1 1 1
WIDTH 358
HEIGHT 1
VIEWPOINT 0 0 0 1 0 0 0
POINTS 358
DATA ascii
1978.01 -58.320202 -294.931 1.8403113e-38
2000.25 -52.492401 -294.854 1.8403113e-38
2016.33 -43.464401 -293.099 1.8403113e-38
2076.8401 -20.6266 -290.42499 1.8403113e-38
2100.8899 -14.1268 -290.271 1.8403113e-38
2192.1899 -0.15956201 -293.46701 1.8403113e-38
2226.3799 3.97983 -295.04999 1.8403113e-38
2239.5801 16.574699 -291.78 1.8403113e-38
2265.5601 24.600201 -291.26001 1.8403113e-38
2296.1599 31.349501 -291.60101 1.8403113e-38
2327.71 38.228298 -291.98099 1.8403113e-38
2362.0801 44.631302 -292.78 1.8403113e-38
2392.76 52.777 -292.63599 1.8403113e-38
2423.45 61.376499 -292.33301 1.8403113e-38
2456.96 69.5569 -292.42801 1.8403113e-38
2489.55 78.522598 -292.164 1.8403113e-38
1044.6 -252.73801 -280.47101 1.8403113e-38
1086.91 -241.129 -280.14001 1.8403113e-38
1115.22 -235.62 -280.715 1.8403113e-38
1134.3101 -234.715 -282.09399 1.8403113e-38
1142.48 -227.90401 -280.418 1.8403113e-38
1169.24 -227.48 -282.64999 1.8403113e-38
1178.52 -221.875 -281.49799 1.8403113e-38
1187.16 -215.45599 -280.00101 1.8403113e-38
1198.8 -212.60699 -280.03101 1.8403113e-38
1224.6 -209.411 -281.20001 1.8403113e-38
1247.98 -202.814 -280.953 1.8403113e-38
1274.65 -199.201 -282.05099 1.8403113e-38
1283.75 -192.68401 -280.56201 1.8403113e-38
1298.79 -192.245 -281.745 1.8403113e-38
1322.28 -184.09599 -280.95999 1.8403113e-38
1334.7 -180.50101 -280.797 1.8403113e-38
1349.9 -179.414 -281.76501 1.8403113e-38
1364.45 -177.487 -282.38 1.8403113e-38
1378.33 -174.73801 -282.646 1.8403113e-38
1388 -167.968 -281.117 1.8403113e-38
1406.1899 -168.75301 -283.013 1.8403113e-38
1417.99 -163.623 -282.25299 1.8403113e-38
1432.6899 -160.866 -282.58701 1.8403113e-38
1445.95 -156.69501 -282.29599 1.8403113e-38
1460.6899 -153.597 -282.51401 1.8403113e-38
1474.71 -149.715 -282.39301 1.8403113e-38
1494 -149.867 -284.16299 1.8403113e-38
1504.3101 -142.642 -282.53101 1.8403113e-38
1524.47 -142.946 -284.43201 1.8403113e-38
1533.23 -134.272 -282.14999 1.8403113e-38
1551.95 -132.98399 -283.362 1.8403113e-38
1568.41 -129.74699 -283.68399 1.8403113e-38
1583.33 -125.181 -283.401 1.8403113e-38
1605.36 -125.421 -285.44699 1.8403113e-38
1619.5601 -119.883 -284.755 1.8403113e-38
1636.14 -115.798 -284.79001 1.8403113e-38
1657.58 -114.707 -286.31299 1.8403113e-38
1672.62 -109.106 -285.67401 1.8403113e-38
1694.99 -108.004 -287.276 1.8403113e-38
1710.88 -102.485 -286.74301 1.8403113e-38
1727.61 -97.273903 -286.39301 1.8403113e-38
1742.6801 -90.850197 -285.46701 1.8403113e-38
1758.5699 -84.733498 -284.72299 1.8403113e-38
1781.17 -82.301498 -285.87601 1.8403113e-38
1798.78 -76.684998 -285.461 1.8403113e-38
1820.63 -73.196198 -286.17401 1.8403113e-38
1843.38 -69.870499 -287.026 1.8403113e-38
1866.1899 -66.228401 -287.771 1.8403113e-38
1888.1899 -61.819099 -288.172 1.8403113e-38
1911.09 -57.5485 -288.703 1.8403113e-38
1930.5601 -51.217602 -288.202 1.8403113e-38
2019.96 -28.550501 -288.15799 1.8403113e-38
2046.59 -23.9984 -288.922 1.8403113e-38
2124.04 -6.91116 -289.785 1.8403113e-38
2148.1101 0.26163501 -289.396 1.8403113e-38
2495.7 95.6884 -286.65399 1.8403113e-38
2499.8101 113.435 -280.75601 1.8403113e-38
3.88796 -488.06299 -270.89801 1.8403113e-38
28.6952 -485.349 -272.147 1.8403113e-38
41.929199 -481.10001 -271.82599 1.8403113e-38
55.060501 -476.72501 -271.45099 1.8403113e-38
67.516197 -474.04901 -271.61499 1.8403113e-38
78.234901 -476.73801 -273.51801 1.8403113e-38
89.519096 -477.50699 -274.793 1.8403113e-38
104.968 -463.5 -271.22501 1.8403113e-38
115.85 -464.96399 -272.70999 1.8403113e-38
127.959 -461.73001 -272.646 1.8403113e-38
140.69701 -455.617 -271.62299 1.8403113e-38
151.716 -455.858 -272.689 1.8403113e-38
162.504 -456.931 -274.02701 1.8403113e-38
172.875 -459.76801 -275.952 1.8403113e-38
186.71001 -446.72501 -272.57999 1.8403113e-38
197.396 -447.50699 -273.80701 1.8403113e-38
208.08299 -448.19901 -275.00201 1.8403113e-38
220.17799 -441.336 -273.65701 1.8403113e-38
230.62801 -442.77301 -275.09399 1.8403113e-38
241.25301 -443.189 -276.186 1.8403113e-38
264.33499 -431.56601 -274.13901 1.8403113e-38
274.04099 -437.33301 -277.03799 1.8403113e-38
285.33701 -431.75201 -276.07401 1.8403113e-38
254.12801 -429.46799 -272.48999 1.8403113e-38
296.63901 -425.13501 -274.74399 1.8403113e-38
307.064 -425.005 -275.62601 1.8403113e-38
317.875 -421.02301 -275.18301 1.8403113e-38
328.33899 -419.776 -275.67401 1.8403113e-38
339.26401 -412.78799 -274.17999 1.8403113e-38
349.405 -414.19199 -275.578 1.8403113e-38
359.82501 -411.741 -275.64099 1.8403113e-38
370.36401 -406.37399 -274.685 1.8403113e-38
380.61801 -404.694 -275.004 1.8403113e-38
390.80301 -403.87299 -275.621 1.8403113e-38
411.13199 -401.979 -276.76199 1.8403113e-38
401.207 -395.42001 -273.564 1.8403113e-38
421.354 -394.30301 -274.96301 1.8403113e-38
431.40399 -397.86401 -277.11401 1.8403113e-38
441.48199 -394.73999 -276.90799 1.8403113e-38
451.552 -394.362 -277.67099 1.8403113e-38
461.319 -381.65399 -274.05499 1.8403113e-38
471.46301 -386.76501 -276.76199 1.8403113e-38
491.31699 -382.61401 -277.064 1.8403113e-38
511.18301 -380.021 -277.91699 1.8403113e-38
480.939 -373.90799 -273.06799 1.8403113e-38
501.05399 -378.069 -276.327 1.8403113e-38
550.32898 -370.11899 -277.90601 1.8403113e-38
520.078 -365.936 -273.73801 1.8403113e-38
534.93201 -365.77301 -275.00201 1.8403113e-38
558.547 -354.836 -273.24399 1.8403113e-38
567.79999 -349.76999 -272.28 1.8403113e-38
576.974 -344.634 -271.284 1.8403113e-38
587.42603 -348.733 -273.66101 1.8403113e-38
606.76801 -345.513 -274.245 1.8403113e-38
616.09601 -341.931 -273.81201 1.8403113e-38
595.80298 -338.802 -270.901 1.8403113e-38
625.03699 -336.42801 -272.66501 1.8403113e-38
634.25098 -332.70401 -272.17099 1.8403113e-38
645.10199 -337.198 -274.72299 1.8403113e-38
654.29401 -333.31601 -274.17099 1.8403113e-38
664.45697 -333.94901 -275.29901 1.8403113e-38
672.31201 -324.42401 -272.63599 1.8403113e-38
681.56201 -321.245 -272.33801 1.8403113e-38
690.77698 -317.99399 -272.01001 1.8403113e-38
701.146 -319.21399 -273.36401 1.8403113e-38
710.823 -317.61899 -273.66199 1.8403113e-38
725.32098 -315.065 -274.05099 1.8403113e-38
739.55298 -311.44299 -274.04001 1.8403113e-38
748.91998 -308.62601 -273.879 1.8403113e-38
757.68597 -303.94299 -273.00699 1.8403113e-38
766.69 -300.08701 -272.44699 1.8403113e-38
779.01001 -305.94 -275.60901 1.8403113e-38
787.39398 -300.14001 -274.30801 1.8403113e-38
800.20599 -306.64899 -277.746 1.8403113e-38
806.90302 -296.28799 -274.685 1.8403113e-38
816.48199 -293.79599 -274.65799 1.8403113e-38
827.08801 -293.84698 -275.62 1.8403113e-38
837.375 -292.92599 -276.211 1.8403113e-38
848.40503 -293.647 -277.44699 1.8403113e-38
858.00201 -290.80099 -277.297 1.8403113e-38
865.31201 -282.702 -275.08899 1.8403113e-38
875.60101 -281.42899 -275.556 1.8403113e-38
897.42999 -281.15201 -277.401 1.8403113e-38
884.72101 -277.49701 -274.979 1.8403113e-38
904.49902 -272.79999 -275.082 1.8403113e-38
916.47498 -274.54001 -276.76199 1.8403113e-38
927.24597 -273.633 -277.401 1.8403113e-38
937.60797 -271.78601 -277.67099 1.8403113e-38
946.65302 -267.34399 -276.90799 1.8403113e-38
957.45697 -266.14401 -277.44601 1.8403113e-38
967.36902 -263.189 -277.28601 1.8403113e-38
989.05499 -260.28 -278.189 1.8403113e-38
976.80603 -259.32401 -276.76199 1.8403113e-38
999.44702 -257.854 -278.258 1.8403113e-38
1006.91 -250.479 -276.319 1.8403113e-38
1020.73 -253.51199 -278.62 1.8403113e-38
1031.14 -250.78799 -278.58401 1.8403113e-38
1049.87 -241.88 -277.108 1.8403113e-38
1059.71 -238.092 -276.647 1.8403113e-38
1070.61 -235.778 -276.79999 1.8403113e-38
1094.0601 -233.144 -277.95801 1.8403113e-38
1150.58 -221.034 -278.71399 1.8403113e-38
1209.21 -208.19 -279.39899 1.8403113e-38
1233.13 -202.61501 -279.561 1.8403113e-38
1257.75 -197.228 -279.85101 1.8403113e-38
1305.17 -182.806 -278.98099 1.8403113e-38
2505.6399 130.675 -275.19101 1.8403113e-38
-162.31599 -522.17499 -268.14401 1.8403113e-38
-147.461 -518.93201 -268.32199 1.8403113e-38
-133.11099 -516.41199 -268.70901 1.8403113e-38
-104.665 -510.94299 -269.311 1.8403113e-38
-168.203 -507.16299 -262.32199 1.8403113e-38
-114.845 -504.99899 -266.30701 1.8403113e-38
-87.499496 -500.95001 -267.31201 1.8403113e-38
-75.438698 -502.26199 -268.84799 1.8403113e-38
-59.707901 -494.59799 -267.54401 1.8403113e-38
-46.308701 -492.10699 -267.85699 1.8403113e-38
-33.6898 -491.271 -268.685 1.8403113e-38
-20.0858 -487.634 -268.612 1.8403113e-38
-7.9194498 -487.45401 -269.63199 1.8403113e-38
19.8255 -476.83801 -268.354 1.8403113e-38
2507.51 148.966 -268.90201 1.8403113e-38
2515.8799 165.528 -263.802 1.8403113e-38
-1165.24 -726.94397 -251.14999 1.8403113e-38
-167.26401 -479.26099 -252.558 1.8403113e-38
2519.3301 183.35699 -257.81601 1.8403113e-38
2524.52 200.73801 -252.144 1.8403113e-38
-162.72701 -445.46701 -241.035 1.8403113e-38
2521.8601 219.916 -245.14 1.8403113e-38
-163.076 -422.04199 -232.737 1.8403113e-38
2524.79 237.731 -239.11301 1.8403113e-38
2529.49 255.14101 -233.38699 1.8403113e-38
-263.51099 -414.97101 -221.30299 1.8403113e-38
-248.326 -412.16 -221.66299 1.8403113e-38
-239.24899 -419.13699 -224.933 1.8403113e-38
-224.66499 -416.88 -225.43401 1.8403113e-38
-210.65199 -415.30499 -226.12601 1.8403113e-38
-199.58 -418.63 -228.284 1.8403113e-38
-182.375 -410.87701 -227.07899 1.8403113e-38
-172.756 -416.49799 -229.91901 1.8403113e-38
2534.02 272.58401 -227.634 1.8403113e-38
2548.1001 288.18301 -223.382 1.8403113e-38
-1016.78 -573.05402 -210.052 1.8403113e-38
-375.633 -414.05499 -211.00101 1.8403113e-38
-347.04001 -414.772 -213.798 1.8403113e-38
-333.64401 -416.104 -215.461 1.8403113e-38
-317.55099 -413.27499 -215.895 1.8403113e-38
-305.32599 -415.92999 -217.92 1.8403113e-38
-288.858 -411.96201 -217.985 1.8403113e-38
-357.629 -409.345 -210.94099 1.8403113e-38
-273.55899 -409.44299 -218.45799 1.8403113e-38
2552.3301 305.771 -217.552 1.8403113e-38
2555.4299 323.56 -211.549 1.8403113e-38
-878.61603 -512.19501 -200.87 1.8403113e-38
-541.573 -424.81 -200.02699 1.8403113e-38
-526.35303 -426.599 -202.013 1.8403113e-38
-489.16901 -421.388 -203.48399 1.8403113e-38
-503.61499 -419.237 -201.439 1.8403113e-38
-470.436 -418.07401 -203.981 1.8403113e-38
-454.871 -418.35501 -205.466 1.8403113e-38
-433.944 -411.54999 -204.927 1.8403113e-38
-420.341 -413.76501 -206.91901 1.8403113e-38
-403.228 -411.172 -207.52699 1.8403113e-38
-389.125 -412.29401 -209.179 1.8403113e-38
2565.2 340.21701 -206.53999 1.8403113e-38
-901.07202 -512.18903 -198.87 1.8403113e-38
-577.35498 -426.55399 -197.459 1.8403113e-38
-557.47498 -423.58701 -198.181 1.8403113e-38
2564.0701 358.70801 -199.91299 1.8403113e-38
2567.6599 376.40701 -193.98599 1.8403113e-38
2576.97 393.29501 -188.855 1.8403113e-38
2580.24 411.091 -182.86501 1.8403113e-38
-527.79303 -353.37201 -176.04201 1.8403113e-38
-538.53302 -347.08099 -172.866 1.8403113e-38
2584.3301 428.785 -176.985 1.8403113e-38
2588.26 446.51599 -171.077 1.8403113e-38
-857.45697 -414.578 -168.302 1.8403113e-38
-857.52399 -395.85199 -161.688 1.8403113e-38
-530.31403 -320.74701 -164.304 1.8403113e-38
2592.03 464.28201 -165.142 1.8403113e-38
-847.46997 -368.98999 -153.10201 1.8403113e-38
-531.23297 -304.51199 -158.492 1.8403113e-38
-535.367 -291.83801 -153.651 1.8403113e-38
2591.6899 482.47601 -158.69099 1.8403113e-38
2603.04 499.556 -153.673 1.8403113e-38
-850.034 -352.99701 -147.23 1.8403113e-38
-882.51501 -343.17401 -140.87199 1.8403113e-38
-863.96198 -346.32401 -143.63499 1.8403113e-38
-595.19397 -283.94699 -145.54201 1.8403113e-38
-575.77399 -281.901 -146.548 1.8403113e-38
-606.81201 -278.34201 -142.53 1.8403113e-38
-555.75897 -278.92099 -147.278 1.8403113e-38
-538.64502 -278.47 -148.642 1.8403113e-38
2604.3401 517.617 -147.416 1.8403113e-38
2607.47 535.52802 -141.37199 1.8403113e-38
-934.66302 -347.59201 -137.78999 1.8403113e-38
-893.28101 -333.728 -136.58 1.8403113e-38
2609.4299 553.534 -135.19299 1.8403113e-38
2621.1599 570.97803 -130.08 1.8403113e-38
-901.104 -304.427 -125.543 1.8403113e-38
2624.79 588.98798 -124.047 1.8403113e-38
-857.30298 -254.825 -111.936 1.8403113e-38
2626.26 607.12 -117.779 1.8403113e-38
2637.52 624.93402 -112.494 1.8403113e-38
-848.841 -232.151 -104.687 1.8403113e-38
2638.6699 643.16101 -106.163 1.8403113e-38
2650.6001 661.216 -100.853 1.8403113e-38
-852.98999 -218.873 -99.6315 1.8403113e-38
-849.67401 -200.47701 -93.434502 1.8403113e-38
2654.3999 679.51703 -94.732903 1.8403113e-38
-839.57599 -177.70599 -86.2967 1.8403113e-38
-841.50598 -163.481 -81.104797 1.8403113e-38
2663.02 697.87 -89.022499 1.8403113e-38
2672.47 716.36401 -83.336502 1.8403113e-38
-839.95801 -147.091 -75.458199 1.8403113e-38
-844.03601 -134.575 -70.678001 1.8403113e-38
2675.77 734.90399 -77.087402 1.8403113e-38
2681.8899 753.565 -71.046303 1.8403113e-38
-843.78998 -119.376 -65.335701 1.8403113e-38
2673.8899 771.85498 -63.879501 1.8403113e-38
-845.29498 -90.721802 -55.089298 1.8403113e-38
-829.04901 -95.262703 -58.137798 1.8403113e-38
-846.22198 -76.7155 -50.063702 1.8403113e-38
2667.71 790.09003 -56.894199 1.8403113e-38
-859.82397 -70.355103 -46.608299 1.8403113e-38
-856.19702 -53.820202 -41.095699 1.8403113e-38
2653.3999 807.82202 -49.362202 1.8403113e-38
2649.8799 825.95203 -42.650101 1.8403113e-38
-869.65503 -47.260601 -37.582901 1.8403113e-38
-902.59003 -36.9884 -31.0264 1.8403113e-38
-881.34601 -39.5597 -33.8246 1.8403113e-38
2640.21 843.62701 -35.552399 1.8403113e-38
-1005.72 -32.7328 -20.3459 1.8403113e-38
-975.40302 -32.065399 -22.8085 1.8403113e-38
-955.771 -36.532299 -26.1322 1.8403113e-38
-923.875 -34.120098 -28.119699 1.8403113e-38
2628.3999 860.99298 -28.3717 1.8403113e-38
2622.3899 878.66199 -21.6015 1.8403113e-38
-1073.84 -20.906099 -10.1095 1.8403113e-38
-1052.3 -25.752001 -13.7365 1.8403113e-38
-1020.06 -24.9758 -16.3319 1.8403113e-38
2612.25 895.87201 -14.625 1.8403113e-38
-1126.9301 -14.8544 -3.2483399 1.8403113e-38
-1095.39 -15.7562 -6.3740802 1.8403113e-38
2615.8601 914.30603 -8.4410295 1.8403113e-38
2623.27 933.23297 -2.4209001 1.8403113e-38
-1208.25 -3.45803 8.0113897 1.8403113e-38
-1171.96 -3.6629 4.7088399 1.8403113e-38
-1150.35 -9.8257399 0.61097598 1.8403113e-38
2629.51 952.17401 3.7084501 1.8403113e-38
2656.3899 973.82001 8.9556103 1.8403113e-38
-1402.16 -33.125099 14.7993 1.8403113e-38
-1227.13 4.5915999 12.5325 1.8403113e-38
-1240.42 15.1636 17.4468 1.8403113e-38
2729.6001 1002.11 12.423 1.8403113e-38
2735.2 1022.1 18.980801 1.8403113e-38
-5146.73 -956.64099 22.1422 1.8403113e-38
-1412.0699 -19.547899 20.4734 1.8403113e-38
-1404.12 0.86584002 26.969999 1.8403113e-38
2732.71 1041.02 25.878901 1.8403113e-38
-5320.8198 -956.99298 37.512199 1.8403113e-38
-1406.25 17.296499 32.958 1.8403113e-38
-1408.21 33.717701 38.928001 1.8403113e-38
2738.9299 1061.3101 32.4883 1.8403113e-38
2744.95 1081.73 39.157101 1.8403113e-38
-1399.63 53.765999 45.240299 1.8403113e-38
2750.77 1102.26 45.884602 1.8403113e-38
-5150.3799 -858.53998 57.089199 1.8403113e-38
-1395.5699 72.016899 51.319199 1.8403113e-38
-1406.48 85.116501 56.9137 1.8403113e-38
2757.3799 1123.09 52.646702 1.8403113e-38
2762.79 1143.85 59.4935 1.8403113e-38
-1369.72 113.73 63.740799 1.8403113e-38
-1376.48 127.918 69.3489 1.8403113e-38
2768.99 1164.9301 66.379799 1.8403113e-38
-4865.71 -732.51703 76.228798 1.8403113e-38
-1388.84 140.42799 74.864502 1.8403113e-38
2829.78 1197.58 72.4935 1.8403113e-38
2871.6101 1227.22 79.230301 1.8403113e-38
2876.04 1249.1899 86.590103 1.8403113e-38
2871.48 1269.2 94.058899 1.8403113e-38
-4835.2002 -631.97101 108.999 1.8403113e-38
-1516.85 187.811 102.98 1.8403113e-38
2866.74 1289.17 101.529 1.8403113e-38
2870.54 1311.3 109 1.8403113e-38
