# .PCD v0.7 - Point Cloud Data file format
VERSION 0.7
FIELDS x y z rgb
SIZE 4 4 4 4
TYPE F F F F
COUNT 1 1 1 1
WIDTH 354
HEIGHT 1
VIEWPOINT 0 0 0 1 0 0 0
POINTS 354
DATA ascii
2141.55 -477.88501 -286.83499 1.8403113e-38
2179.5601 -473.836 -284.88101 1.8403113e-38
2209.26 -477.776 -285.93799 1.8403113e-38
2253.4299 -476.17499 -284.797 1.8403113e-38
2282.5601 -478.82599 -285.39301 1.8403113e-38
2327.0701 -475.93399 -283.77802 1.8403113e-38
1932.4301 -460.23401 -283.06 1.8403113e-38
1995.78 -464.12799 -283.67499 1.8403113e-38
2033.0601 -462.43799 -282.58899 1.8403113e-38
2061.3501 -467.375 -284.02701 1.8403113e-38
2104.71 -468.35699 -283.83499 1.8403113e-38
1795.29 -451.07401 -281.46399 1.8403113e-38
1815.46 -453.29401 -282.01599 1.8403113e-38
1850.15 -453.508 -281.655 1.8403113e-38
1870.52 -455.20499 -282.01401 1.8403113e-38
1905.52 -454.47501 -281.306 1.8403113e-38
1966.98 -457.918 -281.78 1.8403113e-38
1658.78 -443.358 -280.384 1.8403113e-38
1690.22 -444.39401 -280.36301 1.8403113e-38
1738.7 -445.345 -280.09601 1.8403113e-38
1760.16 -449.31699 -281.26901 1.8403113e-38
1596.11 -440.08401 -279.98599 1.8403113e-38
1704.71 -443.25299 -279.76501 1.8403113e-38
1389.77 -430.052 -278.948 1.8403113e-38
1482.84 -435.72601 -279.83401 1.8403113e-38
1504.67 -431.694 -278.091 1.8403113e-38
1522.83 -436.09201 -279.461 1.8403113e-38
1549.78 -436.138 -279.13699 1.8403113e-38
1563.87 -436.138 -278.95901 1.8403113e-38
1609.62 -439.06 -279.44299 1.8403113e-38
1637.0601 -437.71701 -278.60699 1.8403113e-38
1256.9301 -420.35599 -277.10199 1.8403113e-38
1313.55 -422.72101 -277.246 1.8403113e-38
1325.52 -423.24899 -277.28601 1.8403113e-38
1345.3 -420.009 -275.85699 1.8403113e-38
1359.3101 -422.423 -276.55801 1.8403113e-38
1397.35 -425.04901 -277.03201 1.8403113e-38
1422.79 -426.39999 -277.202 1.8403113e-38
1436.45 -427.44901 -277.41 1.8403113e-38
1463.52 -429.55099 -277.832 1.8403113e-38
1118.4 -411.05899 -275.47299 1.8403113e-38
1217.48 -410.54599 -274.03201 1.8403113e-38
1245.2 -419.285 -276.86099 1.8403113e-38
1276.42 -418.06699 -276.022 1.8403113e-38
1288.87 -419.62 -276.42999 1.8403113e-38
1065.91 -402.134 -272.89001 1.8403113e-38
1088.08 -408.05399 -274.763 1.8403113e-38
1095.9399 -405.61401 -273.776 1.8403113e-38
1125.2 -406.862 -273.85999 1.8403113e-38
1144.54 -407.164 -273.72501 1.8403113e-38
1156.4301 -409.802 -274.535 1.8403113e-38
1175.38 -408.89401 -273.96399 1.8403113e-38
1185.66 -408.978 -273.86499 1.8403113e-38
1204.74 -407.65701 -273.14301 1.8403113e-38
781.23401 -390.811 -272.37399 1.8403113e-38
804.14502 -391.77701 -272.435 1.8403113e-38
854.383 -392.354 -272.01001 1.8403113e-38
882.15302 -392.66199 -271.76999 1.8403113e-38
922.66803 -393.43201 -271.53799 1.8403113e-38
930.263 -392.01001 -270.92401 1.8403113e-38
946.45502 -391.71701 -270.61301 1.8403113e-38
957.315 -395.98901 -272.02899 1.8403113e-38
971.29102 -391.202 -270.11099 1.8403113e-38
981.32703 -393.61301 -270.86099 1.8403113e-38
1005.28 -397.86499 -272.10449 1.8403113e-38
1026.96 -397.63501 -271.74701 1.8403113e-38
1033.6801 -393.948 -270.32101 1.8403113e-38
1054.46 -398.75299 -271.806 1.8403113e-38
388.96301 -380.20599 -273.48001 1.8403113e-38
428.30899 -383.591 -274.21301 1.8403113e-38
435.03 -384.17801 -274.34201 1.8403113e-38
448.04901 -384.32599 -274.23099 1.8403113e-38
468.017 -386.60699 -274.80801 1.8403113e-38
474.202 -381.35699 -272.82001 1.8403113e-38
487.76401 -385.75101 -274.24701 1.8403113e-38
507.63501 -385.50101 -273.90399 1.8403113e-38
514.03601 -382.84399 -272.85699 1.8403113e-38
534.04303 -383.08801 -272.69199 1.8403113e-38
548.414 -389.57999 -274.87201 1.8403113e-38
554.10101 -382.996 -272.405 1.8403113e-38
567.90997 -385.54401 -273.15701 1.8403113e-38
574.75897 -385.34 -272.996 1.8403113e-38
588.48401 -386.72699 -273.327 1.8403113e-38
594.75098 -383.64099 -272.125 1.8403113e-38
608.09601 -382.95999 -271.70901 1.8403113e-38
614.52301 -380.689 -270.80099 1.8403113e-38
629.013 -384.36499 -271.95499 1.8403113e-38
649.80499 -384.492 -271.73801 1.8403113e-38
669.88898 -381.534 -270.40799 1.8403113e-38
678.67902 -387.086 -272.31601 1.8403113e-38
694.81598 -382.29651 -270.37 1.8403113e-38
717.013 -384.867 -271.02448 1.8403113e-38
735.29401 -385.82401 -271.14099 1.8403113e-38
742.27301 -384.65399 -270.62701 1.8403113e-38
758.159 -388.53299 -271.83701 1.8403113e-38
787.56897 -387.61301 -271.13 1.8403113e-38
810.83801 -389.33099 -271.461 1.8403113e-38
896.42999 -389.58499 -270.47 1.8403113e-38
153.582 -371.332 -273.23001 1.8403113e-38
272.20099 -371.758 -271.884 1.8403113e-38
295.02698 -371.50952 -271.505 1.8403113e-38
330.51001 -374.129 -272.009 1.8403113e-38
349.95999 -373.655 -271.59 1.8403113e-38
356.55801 -373.73999 -271.53799 1.8403113e-38
369.388 -374.741 -271.73999 1.8403113e-38
376.03699 -378.47699 -273.01401 1.8403113e-38
395.45901 -375.37701 -271.64099 1.8403113e-38
408.29999 -375.017 -271.34698 1.8403113e-38
414.81299 -372.89899 -270.495 1.8403113e-38
453.90399 -374.495 -270.58099 1.8403113e-38
526.37799 -377.478 -270.74899 1.8403113e-38
54.284401 -360.59201 -270.57999 1.8403113e-38
60.813301 -362.32501 -271.12799 1.8403113e-38
73.532898 -365.58899 -272.15399 1.8403113e-38
81.581703 -361.759 -270.659 1.8403113e-38
121.475 -365.039 -271.34698 1.8403113e-38
133.815 -369.48499 -272.80801 1.8403113e-38
161.255 -366.96899 -271.54599 1.8403113e-38
194.612 -364.75201 -270.31699 1.8403113e-38
214.308 -364.655 -270.03299 1.8403113e-38
220.856 -365.496 -270.25601 1.8403113e-38
233.245 -369.82599 -271.67401 1.8403113e-38
337.23199 -369.62601 -270.28601 1.8403113e-38
12.7297 -359.48901 -270.70401 1.8403113e-38
-333.83899 -345.81299 -270.11499 1.8403113e-38
-258.19601 -349.65201 -270.55399 1.8403113e-38
2254.8301 -419.181 -264.048 1.8403113e-38
762.81897 -381.02499 -269.047 1.8403113e-38
823.802 -384.47198 -269.52899 1.8403113e-38
831.987 -385.39301 -269.76099 1.8403113e-38
870.91498 -386.064 -269.51199 1.8403113e-38
903.97101 -388.323 -269.91599 1.8403113e-38
492.81699 -371.99301 -269.17801 1.8403113e-38
634.25299 -377.41 -269.35901 1.8403113e-38
655.19702 -378.35501 -269.43799 1.8403113e-38
142.368 -361.57001 -269.82101 1.8403113e-38
175.201 -362.66599 -269.80399 1.8403113e-38
182.226 -360.94601 -269.09 1.8403113e-38
201.597 -362.91599 -269.561 1.8403113e-38
253.321 -365.34399 -269.79001 1.8403113e-38
260.33899 -361.29199 -268.22699 1.8403113e-38
279.55399 -362.909 -268.57199 1.8403113e-38
314.8085 -364.57898 -268.73401 1.8403113e-38
-92.933899 -351.51199 -269.14001 1.8403113e-38
-70.491203 -351.08099 -268.69901 1.8403113e-38
-48.915298 -351.98199 -268.754 1.8403113e-38
-24.71035 -354.90802 -269.51199 1.8403113e-38
-7.3632598 -356.16199 -269.74799 1.8403113e-38
1.6617399 -351.11401 -267.798 1.8403113e-38
21.0448 -356.07901 -269.35901 1.8403113e-38
35.7052 -353.48199 -268.229 1.8403113e-38
41.6264 -357.11899 -269.47699 1.8403113e-38
96.662201 -355.67801 -268.25601 1.8403113e-38
103.158 -357.17499 -268.71799 1.8403113e-38
115.81 -359.98001 -269.57901 1.8403113e-38
241.15601 -359.35999 -267.767 1.8403113e-38
-304.79001 -342.02899 -268.371 1.8403113e-38
-294.71899 -340.16101 -267.564 1.8403113e-38
-277.633 -340.02301 -267.298 1.8403113e-38
-229.952 -344.15302 -268.19699 1.8403113e-38
-219.23801 -340.04501 -266.56699 1.8403113e-38
-205.364 -343.853 -267.776 1.8403113e-38
-196.631 -342.86899 -267.30801 1.8403113e-38
-184.12 -348.922 -269.35101 1.8403113e-38
-172.76801 -342.742 -266.95999 1.8403113e-38
-157.22501 -342.621 -266.71899 1.8403113e-38
-114.321 -348.94 -268.47501 1.8403113e-38
-105.478 -346.44699 -267.45599 1.8403113e-38
-60.372799 -344.772 -266.276 1.8403113e-38
-39.303398 -346.37399 -266.59201 1.8403113e-38
-496.70901 -333.35501 -267.64401 1.8403113e-38
-464.996 -331.832 -266.689 1.8403113e-38
-454.98401 -331.99301 -266.621 1.8403113e-38
-438.392 -335.58701 -267.71799 1.8403113e-38
-408.98999 -334.97501 -267.12399 1.8403113e-38
-397.39301 -332.41501 -266.04501 1.8403113e-38
-384.41699 -339.87201 -268.59399 1.8403113e-38
-371.22601 -334.76901 -266.57101 1.8403113e-38
-356.57401 -339.595 -268.14099 1.8403113e-38
-341.35901 -331.09601 -264.85699 1.8403113e-38
-317.21399 -334.67001 -265.85101 1.8403113e-38
-267.681 -337.94501 -266.41599 1.8403113e-38
-242.894 -338.42099 -266.27499 1.8403113e-38
-146.51601 -337.05899 -264.561 1.8403113e-38
-131.57401 -337.457 -264.51599 1.8403113e-38
-123.945 -337.66299 -264.495 1.8403113e-38
-79.985703 -339.31799 -264.54099 1.8403113e-38
-555.828 -328.496 -266.625 1.8403113e-38
-538.46399 -321.50201 -263.86099 1.8403113e-38
-524.25897 -329.09698 -266.444 1.8403113e-38
-507.121 -321.74701 -263.55399 1.8403113e-38
-479.77499 -325.677 -264.63699 1.8403113e-38
-421.91901 -327.24301 -264.47501 1.8403113e-38
-756.39502 -314.95999 -264.23901 1.8403113e-38
-737.81403 -310.237 -262.28601 1.8403113e-38
-575.66998 -314.582 -261.815 1.8403113e-38
-560.81299 -310.69199 -260.21201 1.8403113e-38
-910.854 -302.746 -261.75101 1.8403113e-38
-868.052 -304.23199 -261.74899 1.8403113e-38
-854.24902 -305.01599 -261.85999 1.8403113e-38
-950.05103 -297.25299 -260.24799 1.8403113e-38
2267.99 -398.68201 -256.42499 1.8403113e-38
2270.3501 -385.686 -251.668 1.8403113e-38
-767.74402 -302.07901 -259.69699 1.8403113e-38
-990.22699 -291.332 -258.603 1.8403113e-38
-929.03601 -293.496 -258.616 1.8403113e-38
-890.01501 -298.52899 -259.953 1.8403113e-38
-775.37903 -296.98999 -257.94299 1.8403113e-38
-585.104 -290.00699 -252.995 1.8403113e-38
-576.297 -292.53601 -253.80299 1.8403113e-38
-1135.6899 -282.638 -257.28101 1.8403113e-38
-1089.05 -288.27499 -258.741 1.8403113e-38
-1037.84 -289.36099 -258.48801 1.8403113e-38
-1008.44 -281.01501 -255.08 1.8403113e-38
-962.70697 -283.48099 -255.399 1.8403113e-38
-1110.67 -278.79599 -255.567 1.8403113e-38
-1056.11 -278.422 -254.741 1.8403113e-38
-791.78601 -276.85001 -250.82401 1.8403113e-38
2295.26 -371.59 -246.22501 1.8403113e-38
2313.96 -367.33701 -244.44099 1.8403113e-38
-770.05298 -270.25201 -248.149 1.8403113e-38
-579.71899 -262.60999 -242.961 1.8403113e-38
-650.48297 -253.556 -240.563 1.8403113e-38
2340.51 -353.479 -239.065 1.8403113e-38
2358.3301 -348.32401 -236.964 1.8403113e-38
2383.8899 -333.314 -231.181 1.8403113e-38
-628.94299 -244.755 -237.089 1.8403113e-38
-608.43903 -246.847 -237.591 1.8403113e-38
-594.90698 -244.914 -236.716 1.8403113e-38
-576.64099 -248.517 -237.79601 1.8403113e-38
2401.6899 -327.729 -228.924 1.8403113e-38
2425.3301 -311.17999 -222.605 1.8403113e-38
2535.9099 -319.66101 -224.291 1.8403113e-38
2443.0901 -305.17401 -220.196 1.8403113e-38
2533.9399 -303.90799 -218.58501 1.8403113e-38
-980.01801 -162.36 -211.56 1.8403113e-38
2532.04 -274.439 -207.89 1.8403113e-38
2535.1799 -261.19 -203.03101 1.8403113e-38
2540.8799 -235.367 -193.56599 1.8403113e-38
2552.02 -225.502 -189.83701 1.8403113e-38
2560 -200.687 -180.709 1.8403113e-38
-898.36401 -101.547 -188.40601 1.8403113e-38
-894.35602 -79.734497 -180.42101 1.8403113e-38
2559.8701 -186.287 -175.47301 1.8403113e-38
-886.42999 -65.212402 -175.039 1.8403113e-38
-897.15399 -52.564999 -170.57401 1.8403113e-38
2564.5601 -160.38 -165.99001 1.8403113e-38
-1731.45 -8.4552402 -165.08501 1.8403113e-38
-847.90198 -14.9782 -156.278 1.8403113e-38
-1852.2 32.971401 -151.54401 1.8403113e-38
2445.8799 -102.07 -146.28101 1.8403113e-38
-846.84302 3.4528401 -149.561 1.8403113e-38
-845.89099 13.0509 -146.05701 1.8403113e-38
-1580.15 28.5112 -149.724 1.8403113e-38
-848.737 28.995199 -140.29401 1.8403113e-38
-850.18799 37.148499 -137.34599 1.8403113e-38
-977.91699 45.401901 -135.96001 1.8403113e-38
-985.46802 51.2556 -133.92599 1.8403113e-38
-869.81201 53.229401 -131.745 1.8403113e-38
-857.95502 50.370201 -132.63499 1.8403113e-38
-1089.9301 61.527401 -131.51199 1.8403113e-38
2355.99 -43.873699 -126.25 1.8403113e-38
2361.3501 -33.1087 -122.266 1.8403113e-38
-1121.22 67.646698 -129.68201 1.8403113e-38
-908.75897 60.360199 -129.644 1.8403113e-38
-887.12598 61.9077 -128.80701 1.8403113e-38
-1025.12 79.4123 -124.186 1.8403113e-38
-990.565 76.3125 -124.876 1.8403113e-38
-978.63397 72.385597 -126.154 1.8403113e-38
-1248.05 88.458504 -123.716 1.8403113e-38
-1232.22 83.925301 -125.165 1.8403113e-38
-1106.67 83.304298 -123.802 1.8403113e-38
2367.8899 -10.8208 -114.076 1.8403113e-38
-1124.9399 95.004799 -119.777 1.8403113e-38
-1439.39 108.252 -118.938 1.8403113e-38
-1135.0699 100.857 -117.777 1.8403113e-38
-1270.96 110.843 -115.864 1.8403113e-38
-1242.08 110.565 -115.6 1.8403113e-38
2582.23 -2.72857 -108.421 1.8403113e-38
2372.1101 0.34174901 -109.962 1.8403113e-38
2602.6201 4.7925501 -105.427 1.8403113e-38
2396.21 16.9132 -103.63 1.8403113e-38
2405.95 26.4335 -100.043 1.8403113e-38
-1397.39 132.29401 -109.661 1.8403113e-38
-1440.2 140.76401 -107.121 1.8403113e-38
2601.9199 31.518299 -95.714104 1.8403113e-38
2604.9099 44.2542 -91.043701 1.8403113e-38
-1448.97 170.74001 -96.328697 1.8403113e-38
-1435.83 185.278 -90.874298 1.8403113e-38
-2833.3899 229.231 -92.569901 1.8403113e-38
2611.3799 68.795303 -82.034897 1.8403113e-38
-1528.65 193.69 -88.988701 1.8403113e-38
-1485.1 193.60899 -88.4673 1.8403113e-38
-1757.7 209.89999 -85.990601 1.8403113e-38
-1703.1801 209.60001 -85.410004 1.8403113e-38
-1633.3199 202.269 -87.192703 1.8403113e-38
-1578.99 203.506 -86.055298 1.8403113e-38
-1792.6 226.886 -80.253601 1.8403113e-38
2617.98 80.556396 -77.673302 1.8403113e-38
-1771 243.823 -73.819504 1.8403113e-38
-2656.1201 270.98999 -75.137199 1.8403113e-38
2625.9399 104.738 -68.776703 1.8403113e-38
2635.24 115.916 -64.592903 1.8403113e-38
-1757.61 270.517 -63.9403 1.8403113e-38
2635.96 141.886 -55.137001 1.8403113e-38
2646.02 152.995 -50.969002 1.8403113e-38
-1760.16 282.35599 -59.6661 1.8403113e-38
2653.1001 177.50999 -41.962002 1.8403113e-38
2648.3101 191.90601 -36.785999 1.8403113e-38
-1485.8 353.492 -30.318501 1.8403113e-38
2662.74 214.90401 -28.238001 1.8403113e-38
2664.55 227.901 -23.4876 1.8403113e-38
2670.71 252.64799 -14.4079 1.8403113e-38
-1359.92 385.112 -17.224001 1.8403113e-38
-1362.4301 403.96701 -10.3972 1.8403113e-38
2672.27 265.673 -9.6501198 1.8403113e-38
2677.97 290.51901 -0.54019701 1.8403113e-38
-1356.24 414.78 -6.3858299 1.8403113e-38
2679.29 303.569 4.2234802 1.8403113e-38
-1435.02 453.06601 6.5437002 1.8403113e-38
-1444.36 462.17801 9.7401505 1.8403113e-38
2691.45 327.483 13.0757 1.8403113e-38
2693.53 340.45099 17.8193 1.8403113e-38
-1437.96 482.72501 17.295099 1.8403113e-38
2697.3201 365.689 27.047501 1.8403113e-38
-1439.17 492.77399 20.934999 1.8403113e-38
-1442.34 512.23297 27.9734 1.8403113e-38
2700.1499 378.565 31.7672 1.8403113e-38
-1443.36 522.30499 31.6241 1.8403113e-38
-1437.1899 542.46899 39.036701 1.8403113e-38
2711.4199 402.96301 40.7845 1.8403113e-38
2713.02 416.043 45.562599 1.8403113e-38
-1440.02 552.37799 42.6054 1.8403113e-38
-1439.46 572.039 49.764099 1.8403113e-38
2716.8799 441.39301 54.8325 1.8403113e-38
2725.2 453.85999 59.472599 1.8403113e-38
-1442.11 581.992 53.351299 1.8403113e-38
2726.6101 479.51999 68.824303 1.8403113e-38
-1443.1801 601.56201 60.455898 1.8403113e-38
-1443.64 611.63397 64.113998 1.8403113e-38
2738.6899 491.853 73.463203 1.8403113e-38
-1434.36 631.44299 71.436897 1.8403113e-38
-1434.63 641.46503 75.079002 1.8403113e-38
2739.6201 517.64203 82.855904 1.8403113e-38
2751.48 530.22803 87.5839 1.8403113e-38
-1434.98 660.94598 82.160896 1.8403113e-38
-1435.0601 670.97101 85.806198 1.8403113e-38
2752.9399 556.09003 97.009697 1.8403113e-38
-1435.05 690.453 92.893097 1.8403113e-38
-1434.95 700.47699 96.540497 1.8403113e-38
2763.5601 568.97302 101.83 1.8403113e-38
-1434.5699 719.95398 103.63 1.8403113e-38
-1434.28 729.974 107.279 1.8403113e-38
2772.54 594.70898 111.305 1.8403113e-38
