# .PCD v0.7 - Point Cloud Data file format
VERSION 0.7
FIELDS x y z rgb
SIZE 4 4 4 4
TYPE F F F F
COUNT 1 1 1 1
WIDTH 345
HEIGHT 1
VIEWPOINT 0 0 0 1 0 0 0
POINTS 345
DATA ascii
2130.48 -1259.22 -284.49701 1.8403113e-38
2135.04 -1249.58 -284.52301 1.8403113e-38
2139.8201 -1239.54 -284.56201 1.8403113e-38
2144.1899 -1229.87 -284.51999 1.8403113e-38
2148.0701 -1219.17 -284.15799 1.8403113e-38
2149.3601 -1207.03 -282.72198 1.8403113e-38
2158.0701 -1200.58 -284.60699 1.8403113e-38
2160.6001 -1189.65 -283.76501 1.8403113e-38
2162.5801 -1177.75 -282.59299 1.8403113e-38
2168.5801 -1169.78 -283.34799 1.8403113e-38
2175.55 -1161.9301 -284.444 1.8403113e-38
2176.9099 -1150.4301 -283.13 1.8403113e-38
2186.75 -1144.75 -285.50601 1.8403113e-38
2181.8301 -1128.8101 -281.436 1.8403113e-38
2191.54 -1123.02 -283.75101 1.8403113e-38
2197.1001 -1114.8101 -284.32599 1.8403113e-38
2203.6399 -1106.6801 -285.23599 1.8403113e-38
2202.04 -1093.64 -282.70901 1.8403113e-38
2206.05 -1083.9 -282.539 1.8403113e-38
2212.0801 -1076.09 -283.332 1.8403113e-38
2315.9399 -847.13397 -282.478 1.8403113e-38
2329.0601 -841.32397 -285.91699 1.8403113e-38
2330.74 -830.961 -284.88101 1.8403113e-38
2341.1101 -823.974 -287.23199 1.8403113e-38
2344.4299 -814.104 -286.81299 1.8403113e-38
2342.1201 -803.02899 -284.349 1.8403113e-38
2351.5701 -795.021 -286.241 1.8403113e-38
2353.6001 -785.28003 -285.41501 1.8403113e-38
2353.8701 -774.56403 -283.85901 1.8403113e-38
2363 -766.75598 -285.67499 1.8403113e-38
2365.8301 -756.71002 -285.069 1.8403113e-38
2375.77 -748.90997 -287.15302 1.8403113e-38
2373.8701 -737.67499 -284.802 1.8403113e-38
2385.53 -730.09302 -287.487 1.8403113e-38
2383.46 -718.85901 -285.078 1.8403113e-38
2390.3899 -710.07898 -286.01901 1.8403113e-38
2396.6099 -695.4245 -285.82349 1.8403113e-38
2401.75 -680.51202 -285.23001 1.8403113e-38
2404.6899 -670.78998 -284.70901 1.8403113e-38
2405.78 -660.25201 -283.453 1.8403113e-38
2411.3601 -650.90399 -283.85999 1.8403113e-38
2422.5701 -641.76801 -286.159 1.8403113e-38
2427.0801 -632.08801 -286.16199 1.8403113e-38
2432.54 -621.961 -286.409 1.8403113e-38
2435.02 -611.94098 -285.69 1.8403113e-38
2436.55 -601.29498 -284.56201 1.8403113e-38
2438.8701 -591.23102 -283.78299 1.8403113e-38
2447.77 -581.19202 -285.17899 1.8403113e-38
2456.53 -571.51501 -286.58801 1.8403113e-38
2459.6201 -560.81201 -285.96301 1.8403113e-38
2460.6699 -550.47302 -284.72299 1.8403113e-38
2469.25 -539.97498 -285.94601 1.8403113e-38
2475.8201 -529.776 -286.54901 1.8403113e-38
2476.6599 -518.789 -285.14099 1.8403113e-38
2482.1201 -508.41199 -285.35001 1.8403113e-38
2487.53 -497.427 -285.448 1.8403113e-38
2492.8201 -486.87701 -285.57501 1.8403113e-38
2497.0901 -475.72299 -285.276 1.8403113e-38
2487.01 -465.26001 -280.34201 1.8403113e-38
2551.28 -350.435 -283.936 1.8403113e-38
2554.4099 -338.38699 -283.11899 1.8403113e-38
2566.95 -325.64001 -285.30099 1.8403113e-38
2565.1201 -314.02701 -282.91699 1.8403113e-38
2573.6599 -301.5 -283.81201 1.8403113e-38
2587.71 -287.392 -286.285 1.8403113e-38
2580.8999 -276.95499 -282.436 1.8403113e-38
2592.8301 -262.841 -284.207 1.8403113e-38
2600.9199 -249.75 -284.86899 1.8403113e-38
2600.3401 -237.549 -282.80701 1.8403113e-38
2609.1499 -224.04601 -283.642 1.8403113e-38
2608.3601 -211.763 -281.49399 1.8403113e-38
2622.5601 -196.789 -283.884 1.8403113e-38
2629.96 -182.463 -284.13101 1.8403113e-38
2633.5901 -169.45399 -283.33301 1.8403113e-38
2645.4099 -153.722 -284.819 1.8403113e-38
2654.3899 -139.061 -285.53201 1.8403113e-38
2658.46 -124.868 -284.69699 1.8403113e-38
2664.3799 -110.667 -284.47198 1.8403113e-38
2669.1101 -96.014999 -283.785 1.8403113e-38
2667.3601 -83.750801 -281.32501 1.8403113e-38
2115.8899 -1260.11 -279.819 1.8403113e-38
2531.8899 -363.465 -279.534 1.8403113e-38
2660.74 -72.305801 -277.38599 1.8403113e-38
2456.8899 -454.979 -268.823 1.8403113e-38
2439.96 -445.302 -261.75101 1.8403113e-38
2442.9099 -434.56299 -261.078 1.8403113e-38
2450.53 -424.02701 -261.97601 1.8403113e-38
2451.3999 -413.26599 -260.61301 1.8403113e-38
2464.29 -391.29901 -261.495 1.8403113e-38
2479.1599 -379.64099 -264.612 1.8403113e-38
2446.49 -403.401 -257.478 1.8403113e-38
2668.96 65.132004 -259.01001 1.8403113e-38
2671.25 79.636398 -257.54001 1.8403113e-38
2674.98 95.555603 -256.32901 1.8403113e-38
2675.2 109.442 -254.27 1.8403113e-38
2668.8501 121.202 -250.368 1.8403113e-38
2034.35 -1195.4 -242.97701 1.8403113e-38
2675.03 137.908 -249.845 1.8403113e-38
2673.74 152.075 -247.246 1.8403113e-38
2676.95 167.75 -245.90199 1.8403113e-38
2679.77 184.10699 -244.321 1.8403113e-38
2683.54 200.394 -243.067 1.8403113e-38
2683.4099 215.617 -240.688 1.8403113e-38
2006.99 -1181.96 -231.88699 1.8403113e-38
2686.8601 232.076 -239.3 1.8403113e-38
2689.8701 249.23 -237.662 1.8403113e-38
2683.51 260.79199 -233.789 1.8403113e-38
2684.49 277.112 -231.608 1.8403113e-38
1976.04 -1176.39 -220.81799 1.8403113e-38
1991.61 -1179.14 -226.37601 1.8403113e-38
2499.3301 -109.878 -229.877 1.8403113e-38
2485.5901 -91.141197 -222.468 1.8403113e-38
2495.6499 -99.163101 -227.01801 1.8403113e-38
2485.4099 -79.329498 -220.597 1.8403113e-38
2528.53 -3.9042499 -223.254 1.8403113e-38
2685.5901 292.90302 -229.547 1.8403113e-38
2687.0801 309.83499 -227.44299 1.8403113e-38
2687.8501 325.754 -225.254 1.8403113e-38
2690.6799 343.828 -223.41499 1.8403113e-38
2698.6599 364.45801 -222.881 1.8403113e-38
2699.3999 381.746 -220.474 1.8403113e-38
1968.76 -1181.3 -219.168 1.8403113e-38
1947.5 -1171.97 -210.72 1.8403113e-38
2480.7 -69.614998 -217.552 1.8403113e-38
2489.4299 -54.520802 -218.116 1.8403113e-38
2487.25 -43.803699 -215.75301 1.8403113e-38
2480.3 -34.316799 -212.002 1.8403113e-38
2701.1201 399.026 -218.39101 1.8403113e-38
2700.6699 415.923 -215.64999 1.8403113e-38
2701.21 432.80701 -213.237 1.8403113e-38
2702.8601 451.44 -210.92101 1.8403113e-38
2710.3501 473.42499 -210.02 1.8403113e-38
1915.41 -1174.61 -200.53101 1.8403113e-38
1937.0699 -1173.13 -207.455 1.8403113e-38
1920.65 -1168.12 -201.26601 1.8403113e-38
2044.3199 -957.53601 -209.771 1.8403113e-38
2703.47 486.689 -205.713 1.8403113e-38
2709.71 508.35501 -204.44901 1.8403113e-38
2715.3201 530.78497 -202.858 1.8403113e-38
1891.4399 -1172.64 -192.32001 1.8403113e-38
1903.5601 -1174.2 -196.558 1.8403113e-38
2089.0701 -774.83197 -196.505 1.8403113e-38
2713.0901 546.97302 -199.64 1.8403113e-38
2711.8899 564.95502 -196.48399 1.8403113e-38
2717.1799 587.13702 -194.828 1.8403113e-38
2717.1201 606.466 -191.839 1.8403113e-38
1868.38 -1170.74 -184.41901 1.8403113e-38
1872.99 -1163.9301 -184.89301 1.8403113e-38
2721.1299 628.29999 -189.815 1.8403113e-38
2726.01 652.09998 -187.774 1.8403113e-38
2723.3701 669.23901 -184.271 1.8403113e-38
2733.8201 698.30902 -183.25999 1.8403113e-38
1836.54 -1169.84 -173.771 1.8403113e-38
1840.26 -1161.54 -173.72501 1.8403113e-38
1855.02 -1167.48 -179.506 1.8403113e-38
2729.2 714.33398 -179.278 1.8403113e-38
2736 741.21503 -177.396 1.8403113e-38
2733.22 759.26398 -173.70799 1.8403113e-38
2735.6899 783.17603 -170.855 1.8403113e-38
1796.05 -1167.8 -160.09399 1.8403113e-38
1805.52 -1167.4301 -163.164 1.8403113e-38
1815.9 -1168.7 -166.783 1.8403113e-38
1822.5601 -1164.3199 -168.308 1.8403113e-38
2745 812.55402 -169.41901 1.8403113e-38
2747.5701 837.43701 -166.451 1.8403113e-38
2747.45 859.14502 -163.07899 1.8403113e-38
3048.0601 1497.34 -164.369 1.8403113e-38
1773.6899 -1162.48 -151.897 1.8403113e-38
1783.03 -1162.39 -154.965 1.8403113e-38
1928.63 -876.26801 -159.119 1.8403113e-38
1920.99 -863.375 -154.619 1.8403113e-38
1969.37 -737.83502 -151.32201 1.8403113e-38
2747.27 882.216 -159.479 1.8403113e-38
2749.49 906.82202 -156.436 1.8403113e-38
2757.96 939.08002 -154.284 1.8403113e-38
2758.8201 963.27899 -150.85201 1.8403113e-38
1743.245 -1163.4399 -141.9955 1.8403113e-38
1759.1801 -1167.63 -147.897 1.8403113e-38
1764.6801 -1162.23 -148.88699 1.8403113e-38
1892.02 -838.43201 -141.22701 1.8403113e-38
1949.36 -737.38098 -144.647 1.8403113e-38
2763.7 993.12097 -147.88699 1.8403113e-38
2765.3101 1018.97 -144.45 1.8403113e-38
2766.01 1045.5601 -140.603 1.8403113e-38
2877.5701 1275.3101 -142.168 1.8403113e-38
1729.59 -1162.16 -137.293 1.8403113e-38
1714.9 -1159.09 -131.9735 1.8403113e-38
1879.04 -823.26801 -134.618 1.8403113e-38
1891.29 -773.75299 -131.062 1.8403113e-38
1896.54 -762.685 -131.09801 1.8403113e-38
1897.33 -756.47699 -130.405 1.8403113e-38
1909.35 -754.953 -134.138 1.8403113e-38
1917.83 -752.01703 -136.48599 1.8403113e-38
1927.1851 -745.66003 -138.5995 1.8403113e-38
1928.66 -735.94501 -137.597 1.8403113e-38
2767.6599 1072.35 -137.034 1.8403113e-38
2776.47 1108.63 -134.37601 1.8403113e-38
2776.7 1134.99 -130.405 1.8403113e-38
2895.3999 1355.66 -135.724 1.8403113e-38
1680.64 -1163.05 -121.273 1.8403113e-38
1703.33 -1160.67 -128.39999 1.8403113e-38
1684.9 -1156.87 -121.731 1.8403113e-38
1692.28 -1155.4301 -123.948 1.8403113e-38
1865.975 -805.22748 -127.538 1.8403113e-38
1875.46 -796.60498 -129.345 1.8403113e-38
1878 -787.70898 -128.819 1.8403113e-38
1880.83 -782.16998 -128.903 1.8403113e-38
1882.64 -776.44897 -128.62199 1.8403113e-38
1887.09 -765.13098 -128.353 1.8403113e-38
1670.92 -1160.15 -117.622 1.8403113e-38
1652.48 -1154.65 -110.692 1.8403113e-38
1661.12 -1156.11 -113.765 1.8403113e-38
2800.78 1275.16 -116.848 1.8403113e-38
1291.08 -1863.92 -100.245 1.8403113e-38
1302.3199 -1844.6 -100.99 1.8403113e-38
1313.9399 -1838 -103.813 1.8403113e-38
1629.64 -1153.63 -102.998 1.8403113e-38
1643.4299 -1158.9351 -108.362 1.8403113e-38
2751.3401 1275.41 -100.491 1.8403113e-38
2776 1276.13 -108.518 1.8403113e-38
1613.97 -1151.41 -97.482803 1.8403113e-38
1598.1 -1147.9399 -91.712898 1.8403113e-38
1604.45 -1146.73 -93.624496 1.8403113e-38
1619.54 -1148.3101 -98.848602 1.8403113e-38
2732.3799 1282.71 -93.112602 1.8403113e-38
1322.67 -1717.8 -88.251297 1.8403113e-38
1591.87 -1150.1 -89.988998 1.8403113e-38
1566.5649 -1147.075 -81.1744 1.8403113e-38
1574.8 -1142.54 -83.194801 1.8403113e-38
1584 -1147.64 -87.012604 1.8403113e-38
2702.8899 1275.1899 -84.5354 1.8403113e-38
1330.8199 -1630.1801 -77.494202 1.8403113e-38
1558.29 -1151.51 -79.121803 1.8403113e-38
1535.04 -1142.86 -70.122902 1.8403113e-38
1549 -1145.15 -75.079498 1.8403113e-38
1540.46 -1139.4399 -71.384697 1.8403113e-38
2683.3899 1281.17 -77.178299 1.8403113e-38
1336.24 -1520.9301 -62.521099 1.8403113e-38
1505.12 -1148.74 -61.149502 1.8403113e-38
1513.365 -1145.015 -63.299301 1.8403113e-38
1525.5649 -1143.1949 -67.045105 1.8403113e-38
2659.0801 1279.27 -69.449402 1.8403113e-38
2642.6399 1288.74 -62.568802 1.8403113e-38
1282.6899 -1614.16 -59.1521 1.8403113e-38
1341.77 -1445.23 -52.730701 1.8403113e-38
1479.79 -1147.58 -52.610199 1.8403113e-38
1493.91 -1143.0901 -56.582253 1.8403113e-38
1482.64 -1136.3101 -51.821602 1.8403113e-38
2628.6101 1299.88 -56.227901 1.8403113e-38
2617.9099 1317.08 -50.0578 1.8403113e-38
1346.5 -1385.36 -45.103199 1.8403113e-38
1351.9301 -1347.12 -41.030602 1.8403113e-38
1447.83 -1141.38 -41.1106 1.8403113e-38
1453.98 -1141.58 -43.171799 1.8403113e-38
1466.8 -1144.72 -47.8834 1.8403113e-38
1471.77 -1141.05 -48.960701 1.8403113e-38
1458.95 -1138.02 -44.2658 1.8403113e-38
2600.72 1323.9399 -43.332001 1.8403113e-38
1356.45 -1309.92 -36.814201 1.8403113e-38
1361.16 -1278.5699 -33.558102 1.8403113e-38
1418.73 -1142.15 -31.6231 1.8403113e-38
1425.8101 -1149.4301 -35.080399 1.8403113e-38
1434.125 -1146.24 -37.3335 1.8403113e-38
1440.92 -1136.27 -38.047298 1.8403113e-38
2588.5601 1339.3 -36.9603 1.8403113e-38
2572.3799 1347.49 -30.366199 1.8403113e-38
1364.86 -1245.3199 -29.6751 1.8403113e-38
1368.59 -1214.98 -26.252899 1.8403113e-38
1372.45 -1193.5 -24.2313 1.8403113e-38
1375.7 -1167.1 -21.2502 1.8403113e-38
1379.77 -1153.4399 -20.498699 1.8403113e-38
1389.5601 -1140.61 -21.7626 1.8403113e-38
1396.38 -1147.22 -25.027599 1.8403113e-38
1404.86 -1146.385 -27.6978 1.8403113e-38
1413.02 -1143.52 -29.9505 1.8403113e-38
2561.0601 1364.27 -24.0557 1.8403113e-38
1271.58 -1358.38 -16.239 1.8403113e-38
1279.34 -1346.35 -16.9547 1.8403113e-38
1383.64 -1137.77 -19.372299 1.8403113e-38
2528.1399 1381.25 -10.5825 1.8403113e-38
2551.3899 1382.12 -18.1248 1.8403113e-38
1245.36 -1310.84 -0.289417 1.8403113e-38
1256.175 -1304.04 -2.816355 1.8403113e-38
1267.47 -1280.3 -2.8991001 1.8403113e-38
2521.99 1404.75 -4.9485998 1.8403113e-38
3048.3701 2533.76 -5.4396701 1.8403113e-38
1214.37 -1344.37 4.7930698 1.8403113e-38
1222.08 -1340.8 2.7969 1.8403113e-38
2507.8301 1417.8 1.7273901 1.8403113e-38
2512.27 1459.05 6.58955 1.8403113e-38
3049.28 2594.71 3.6104801 1.8403113e-38
1202.28 -1323.6801 11.9565 1.8403113e-38
1196.42 -1315.25 15.1852 1.8403113e-38
1210.71 -1312.34 10.9158 1.8403113e-38
1190.88 -1302.79 18.9245 1.8403113e-38
1237.22 -1240.23 13.2319 1.8403113e-38
1244.48 -1229.5601 12.473 1.8403113e-38
2507 1487.34 12.6718 1.8403113e-38
2518.6001 1542.5699 17.315901 1.8403113e-38
2610.3999 1737.14 16.875799 1.8403113e-38
3046.6299 2648.1699 12.69 1.8403113e-38
1150.04 -1382.23 20.214899 1.8403113e-38
1143.4 -1355.7051 26.478149 1.8403113e-38
1161.85 -1356.66 20.241501 1.8403113e-38
1178.42 -1293.52 24.459299 1.8403113e-38
1184.64 -1299.1899 21.5376 1.8403113e-38
3046.28 2710.3501 22.3459 1.8403113e-38
1119.1 -1347.26 35.794102 1.8403113e-38
1134.95 -1341.85 31.3943 1.8403113e-38
1128.04 -1338.7 34.1549 1.8403113e-38
3050.0701 2779.0701 31.639601 1.8403113e-38
1127.8 -1271.89 44.486698 1.8403113e-38
1127.5601 -1243.4301 48.933701 1.8403113e-38
3048.76 2843.4199 41.948101 1.8403113e-38
728.87903 -2030.4301 59.756199 1.8403113e-38
748.76501 -2014.11 55.697498 1.8403113e-38
768.29999 -1999.65 51.468899 1.8403113e-38
1122.03 -1238.25 51.555199 1.8403113e-38
1124.86 -1200.12 56.4687 1.8403113e-38
3049.1799 2909.9199 52.0098 1.8403113e-38
659.82001 -2133.9299 66.667603 1.8403113e-38
674.85999 -2134.2 61.663502 1.8403113e-38
1130.96 -1150.41 62.0867 1.8403113e-38
1124.245 -1121.63 68.718506 1.8403113e-38
1131.35 -1126.95 65.554703 1.8403113e-38
3052.6899 2988.01 62.835098 1.8403113e-38
629.75403 -2130.8501 77.063698 1.8403113e-38
645.94098 -2128.6201 72.063301 1.8403113e-38
1042.63 -1234.74 78.2967 1.8403113e-38
1092.78 -1121.72 79.089401 1.8403113e-38
1116.14 -1120.0699 71.630302 1.8403113e-38
1099.37 -1119.52 77.250801 1.8403113e-38
1105.66 -1117.1801 75.533302 1.8403113e-38
1111.02 -1118.6801 73.533302 1.8403113e-38
3055.96 3064.78 73.536301 1.8403113e-38
645.05103 -2020.4301 88.957802 1.8403113e-38
665.453 -2006.17 84.413696 1.8403113e-38
1087.02 -1122.02 80.941704 1.8403113e-38
3007.8 3041.7 85.888603 1.8403113e-38
615.03699 -2020.5601 98.844597 1.8403113e-38
637.34302 -2003.02 94.1735 1.8403113e-38
2967.1101 3029.1201 97.389 1.8403113e-38
533.46002 -2130.7 108.869 1.8403113e-38
559.08398 -2109.45 103.672 1.8403113e-38
2943.02 3054.8101 109.28 1.8403113e-38
