# .PCD v0.7 - Point Cloud Data file format
VERSION 0.7
FIELDS x y z rgb
SIZE 4 4 4 4
TYPE F F F F
COUNT 1 1 1 1
WIDTH 355
HEIGHT 1
VIEWPOINT 0 0 0 1 0 0 0
POINTS 355
DATA ascii
2403.47 1060.16 -302.095 1.8403113e-38
2397.9399 1073.92 -302.76501 1.8403113e-38
2385.29 1076.27 -299.15201 1.8403113e-38
2365.01 1088.71 -294.89401 1.8403113e-38
2376.78 1084.91 -297.96899 1.8403113e-38
1371.1801 2855.95 -290.642 1.8403113e-38
2458.3301 838.70898 -280.45099 1.8403113e-38
2388.0601 966.23401 -280.60501 1.8403113e-38
2390.4299 1014.01 -289.797 1.8403113e-38
2265.8201 1187.9399 -280.84601 1.8403113e-38
2257.76 1201.34 -280.64801 1.8403113e-38
2241.6399 1227.8 -280.189 1.8403113e-38
2227.0801 1260.46 -281.32501 1.8403113e-38
2201.23 1301.4 -280.32501 1.8403113e-38
1863.13 1918.4 -281.66501 1.8403113e-38
1847.01 1945.85 -281.384 1.8403113e-38
1831.29 1973.11 -281.19199 1.8403113e-38
1814.67 2012.12 -282.79199 1.8403113e-38
1797.96 2038.17 -282.073 1.8403113e-38
1780.0601 2070.0701 -282.00699 1.8403113e-38
1762.51 2100.79 -281.845 1.8403113e-38
1743.5601 2136.3601 -282.095 1.8403113e-38
1724.9 2174.6899 -282.927 1.8403113e-38
1704.84 2205.04 -281.89999 1.8403113e-38
1684.8 2250.97 -283.63199 1.8403113e-38
1663.49 2283.96 -282.67499 1.8403113e-38
1642.3101 2323.6499 -282.94299 1.8403113e-38
1619.4399 2364.1699 -282.81799 1.8403113e-38
1596.54 2410.4099 -283.69501 1.8403113e-38
1571.85 2456.45 -283.96701 1.8403113e-38
1548.26 2491.46 -282.64099 1.8403113e-38
1521.87 2540.02 -282.815 1.8403113e-38
1494.9 2597.26 -284.33701 1.8403113e-38
1465.47 2658.1299 -285.72299 1.8403113e-38
1437.34 2707.98 -285.57001 1.8403113e-38
1405.36 2773.22 -286.91199 1.8403113e-38
1340.58 2893.05 -287.452 1.8403113e-38
1307 2954.51 -287.61899 1.8403113e-38
1270.5601 3019.4299 -287.48499 1.8403113e-38
1232.54 3094.9099 -288.70999 1.8403113e-38
1192.62 3165.9099 -288.543 1.8403113e-38
1150.54 3249.3899 -289.89099 1.8403113e-38
1107.17 3324.4199 -289.33499 1.8403113e-38
1061.79 3409.9299 -289.992 1.8403113e-38
1015.16 3486.9199 -288.74301 1.8403113e-38
965.12201 3580.1799 -289.28699 1.8403113e-38
909.65698 3683.3 -289.84299 1.8403113e-38
864.461 3740.51 -285.56 1.8403113e-38
537.64301 4314.8101 -282.952 1.8403113e-38
465.258 4435.4199 -281.211 1.8403113e-38
2752.74 252.181 -270.58701 1.8403113e-38
2749.3201 261.64001 -271.17001 1.8403113e-38
2753.1001 273.133 -274.401 1.8403113e-38
2745.97 281.31699 -273.57599 1.8403113e-38
2748.6499 292.58899 -276.42001 1.8403113e-38
2727.23 305.45999 -271.87601 1.8403113e-38
2744.8899 302.02701 -276.88901 1.8403113e-38
2723.3701 314.70499 -272.28 1.8403113e-38
2723.96 325.29501 -274.33701 1.8403113e-38
2714.74 332.298 -272.63901 1.8403113e-38
2704.97 349.34698 -272.54099 1.8403113e-38
2714.29 342.521 -274.30099 1.8403113e-38
2700.0901 357.586 -272.44101 1.8403113e-38
2700.04 368.61099 -274.37201 1.8403113e-38
2693.3101 375.98001 -273.53299 1.8403113e-38
2688.8601 384.94199 -273.698 1.8403113e-38
2674.1001 399.306 -271.53799 1.8403113e-38
2682.8701 392.59698 -273.14301 1.8403113e-38
2673.8301 409.88901 -273.319 1.8403113e-38
2663.3101 415.547 -270.97 1.8403113e-38
2666.1499 427.94101 -274.06201 1.8403113e-38
2661.26 436.67499 -274.048 1.8403113e-38
2654.0901 443.54501 -272.98001 1.8403113e-38
2653.1101 454.56699 -274.61499 1.8403113e-38
2645.02 460.84201 -273.14801 1.8403113e-38
2637.25 479.004 -273.883 1.8403113e-38
2647.8501 474.32999 -276.431 1.8403113e-38
2633.3101 494.0755 -275.289 1.8403113e-38
2622.1299 504.45999 -273.564 1.8403113e-38
2622.29 516.138 -275.67801 1.8403113e-38
2617.4299 525.04102 -275.703 1.8403113e-38
2608.1599 530.25201 -273.673 1.8403113e-38
2609.27 543.46002 -276.358 1.8403113e-38
2594 556.70801 -273.83701 1.8403113e-38
2606.71 553.565 -277.328 1.8403113e-38
2592.79 567.88599 -275.42599 1.8403113e-38
2586.73 576.00098 -274.92899 1.8403113e-38
2580.8799 583.685 -274.42599 1.8403113e-38
2574.6899 591.69702 -273.86899 1.8403113e-38
2575.25 604.68701 -276.341 1.8403113e-38
2571.75 615.086 -277.064 1.8403113e-38
2555.53 627.43701 -274.08099 1.8403113e-38
2564.1699 621.42603 -275.76901 1.8403113e-38
2548.9299 648.31799 -275.668 1.8403113e-38
2555.6001 640.51501 -276.414 1.8403113e-38
2542.51 655.69897 -274.927 1.8403113e-38
2539.8201 667.271 -276.116 1.8403113e-38
2537.3301 678.50201 -277.306 1.8403113e-38
2528.98 684.83099 -275.76801 1.8403113e-38
2522.27 692.052 -274.90701 1.8403113e-38
2519.1399 703.60602 -275.95099 1.8403113e-38
2512.28 710.74701 -275.02701 1.8403113e-38
2505.415 725.82153 -275.50348 1.8403113e-38
2494.49 736.69598 -273.94699 1.8403113e-38
2491.79 748.55902 -275.18201 1.8403113e-38
2485.5498 764.94647 -276.09052 1.8403113e-38
2474.3901 783.66846 -275.84399 1.8403113e-38
2468.45 801.12201 -277.035 1.8403113e-38
2466.1399 814.50598 -278.66501 1.8403113e-38
2460.9399 825.27899 -278.91199 1.8403113e-38
2449.98 845.698 -279.03 1.8403113e-38
2434.0901 859.89801 -276.479 1.8403113e-38
2444.25 855.33301 -278.90701 1.8403113e-38
2427.6399 868.66998 -275.97601 1.8403113e-38
2420.1499 876.94299 -275.052 1.8403113e-38
2415.1399 887.979 -275.40701 1.8403113e-38
2416.52 909.56 -279.65601 1.8403113e-38
2407.48 915.08899 -277.75601 1.8403113e-38
2403.1799 928.82397 -278.81 1.8403113e-38
2395.02 935.83899 -277.45401 1.8403113e-38
2389.9099 948.75 -278.10699 1.8403113e-38
2380.6101 975.89899 -279.94199 1.8403113e-38
2322.9199 1058.08 -276.09 1.8403113e-38
2335.24 1056.41 -279.71701 1.8403113e-38
2318.75 1074.8 -277.716 1.8403113e-38
2311.3601 1086.64 -277.45401 1.8403113e-38
2305.54 1100.77 -278.09698 1.8403113e-38
2299.03 1115.17 -278.56799 1.8403113e-38
2292.04 1127.54 -278.52701 1.8403113e-38
2286.7 1145.42 -279.98599 1.8403113e-38
2277.8201 1154.23 -278.716 1.8403113e-38
2270.1899 1167.66 -278.659 1.8403113e-38
2246.9099 1206.39 -278.08801 1.8403113e-38
2230.9199 1233.62 -277.80399 1.8403113e-38
2216.72 1267.99 -279.35599 1.8403113e-38
2207.5701 1281.16 -278.771 1.8403113e-38
2191.6599 1314.5 -279.59201 1.8403113e-38
2182.78 1328.24 -279.19199 1.8403113e-38
2172.8401 1341.24 -278.323 1.8403113e-38
2165.48 1361.39 -279.54001 1.8403113e-38
2154.6001 1372.4301 -278.02399 1.8403113e-38
2145.95 1389.73 -278.328 1.8403113e-38
2137.1799 1410.01 -279.11801 1.8403113e-38
2127.77 1426.3101 -279.00101 1.8403113e-38
2118.6499 1447.47 -279.83401 1.8403113e-38
2107.1699 1457.0601 -277.87601 1.8403113e-38
2097.9299 1480.03 -278.98999 1.8403113e-38
2088.3601 1499.9399 -279.461 1.8403113e-38
2076.46 1513.3199 -278.035 1.8403113e-38
2066.73 1535.04 -278.77301 1.8403113e-38
2055.6399 1554.97 -278.763 1.8403113e-38
2045.09 1575.64 -279.056 1.8403113e-38
2033.05 1593.54 -278.38501 1.8403113e-38
2021.12 1609.28 -277.367 1.8403113e-38
2009.15 1630.89 -277.37201 1.8403113e-38
1998.95 1661.95 -279.60999 1.8403113e-38
1985.5601 1678.6 -278.28799 1.8403113e-38
1973.51 1701.8 -278.55099 1.8403113e-38
1960.71 1727.99 -279.10101 1.8403113e-38
1947.38 1746.2 -278.07401 1.8403113e-38
1933.72 1771.26 -278.14899 1.8403113e-38
1920.87 1800.99 -279.31 1.8403113e-38
1906.1899 1823.9301 -278.69101 1.8403113e-38
1892.24 1850.58 -278.95401 1.8403113e-38
1877.39 1882.13 -279.80099 1.8403113e-38
825.08398 3762.0801 -276.836 1.8403113e-38
713.46002 3933.5901 -271.59399 1.8403113e-38
3105.1399 -427.75601 -262.685 1.8403113e-38
3104.51 -415.228 -264.698 1.8403113e-38
3098.24 -400.814 -265.24701 1.8403113e-38
3097.3899 -388.38599 -267.16901 1.8403113e-38
3099.3401 -376.017 -269.97601 1.8403113e-38
3085.0601 -360.87399 -268.10501 1.8403113e-38
2761.1001 193.537 -262.89301 1.8403113e-38
2759.1001 203.30299 -263.98099 1.8403113e-38
2756.25 212.35201 -264.67099 1.8403113e-38
2753.1799 221.825 -265.367 1.8403113e-38
2758.27 233.354 -269.02301 1.8403113e-38
2755.02 242.855 -269.66599 1.8403113e-38
791.89001 3763.29 -266.48499 1.8403113e-38
450.302 4345.1699 -260.51401 1.8403113e-38
337.01199 4592.3799 -268.10901 1.8403113e-38
3101.46 -465.32901 -254.879 1.8403113e-38
3095.6799 -450.664 -255.629 1.8403113e-38
3101.8 -439.905 -259.47699 1.8403113e-38
285.71399 4618.5098 -256.396 1.8403113e-38
3090.49 -474.64999 -249.742 1.8403113e-38
2777.0801 40.340099 -240.92799 1.8403113e-38
2783.95 51.018902 -244.99899 1.8403113e-38
2705.4199 169.14799 -240.864 1.8403113e-38
715.091 3797.1499 -248.022 1.8403113e-38
243.383 4620.8901 -243.34399 1.8403113e-38
3028.28 -468.98599 -230.942 1.8403113e-38
2786.6699 -34.864201 -230.7 1.8403113e-38
2784.77 -25.2684 -231.791 1.8403113e-38
2784.74 -16.027 -233.414 1.8403113e-38
2782.6899 -6.4580798 -234.45 1.8403113e-38
2781.5601 2.7121201 -235.709 1.8403113e-38
2780.29 12.3291 -237.004 1.8403113e-38
2779.95 21.580799 -238.52901 1.8403113e-38
2778.52 31.191099 -239.771 1.8403113e-38
3004.25 -485.81201 -220.323 1.8403113e-38
3027.47 -480.677 -228.621 1.8403113e-38
2800.72 -110.555 -221.80701 1.8403113e-38
2790.8899 -100.643 -220.42799 1.8403113e-38
2799.1101 -91.513496 -224.657 1.8403113e-38
2790.0701 -81.780403 -223.5 1.8403113e-38
2789.5601 -72.576202 -224.96201 1.8403113e-38
2787.99 -62.9356 -226.164 1.8403113e-38
2788.27 -53.715801 -227.882 1.8403113e-38
2786.54 -44.096199 -229.02901 1.8403113e-38
199.37 4621.3501 -229.41701 1.8403113e-38
3100.98 -705.94202 -212.241 1.8403113e-38
3082.52 -683.263 -210.369 1.8403113e-38
2998.6699 -495.79501 -216.786 1.8403113e-38
2808.72 -187.38901 -210.785 1.8403113e-38
2808.1299 -177.51801 -212.341 1.8403113e-38
2800.76 -167.578 -211.75301 1.8403113e-38
2801.9199 -157.925 -213.823 1.8403113e-38
2801.0701 -148.589 -215.203 1.8403113e-38
2801.1001 -138.856 -216.93201 1.8403113e-38
2801.0601 -129.57899 -218.55499 1.8403113e-38
2791.3799 -119.5 -217.256 1.8403113e-38
155.56 4626.6802 -216.41499 1.8403113e-38
3095.48 -745.61298 -203.48599 1.8403113e-38
3091.48 -729.75 -205.013 1.8403113e-38
3096.3999 -717.58301 -208.726 1.8403113e-38
3058.22 -659.159 -206.89101 1.8403113e-38
2975.6899 -524.35797 -204.427 1.8403113e-38
2976.1299 -512.21198 -206.713 1.8403113e-38
2975.3999 -500.29599 -208.58501 1.8403113e-38
2648.1899 41.761799 -200.157 1.8403113e-38
2623.8501 138.929 -209.569 1.8403113e-38
114.612 4616.8398 -201.645 1.8403113e-38
3084.4399 -768.83197 -195.87 1.8403113e-38
3089.45 -757.31799 -199.498 1.8403113e-38
3004.23 -622.25897 -196.22501 1.8403113e-38
2944.5801 -536.78302 -192.33299 1.8403113e-38
2959.77 -530.26898 -198.317 1.8403113e-38
2753.02 -190.76199 -192.46201 1.8403113e-38
2603.5901 67.82 -190.563 1.8403113e-38
2597.79 95.294449 -193.56851 1.8403113e-38
2585.99 112.996 -192.937 1.8403113e-38
2592.1201 122.853 -196.629 1.8403113e-38
2928.98 -566.01001 -182.205 1.8403113e-38
2942.3501 -559.75299 -187.56599 1.8403113e-38
2934.97 -544.65802 -187.88499 1.8403113e-38
2603.5701 43.821499 -186.32001 1.8403113e-38
2595.8501 58.638 -186.479 1.8403113e-38
2605.8501 52.0186 -188.494 1.8403113e-38
2593.48 74.272598 -188.48599 1.8403113e-38
2591.78 81.808701 -189.274 1.8403113e-38
2567.6699 100.972 -184.98599 1.8403113e-38
74.282097 4610.9902 -187.776 1.8403113e-38
2922.6001 -575.57501 -178.487 1.8403113e-38
2698.6499 -202.142 -173.14999 1.8403113e-38
2699.1699 -193.793 -174.791 1.8403113e-38
32.7785 4602.25 -173.02299 1.8403113e-38
2714.4299 -274.702 -165.35899 1.8403113e-38
2682.53 -242.862 -160.82899 1.8403113e-38
2674.74 -224.612 -161.571 1.8403113e-38
2692.6101 -218.541 -168.33 1.8403113e-38
2679.95 -208.45599 -166.08299 1.8403113e-38
2683.3799 -260.14801 -158.04601 1.8403113e-38
2675.9099 -250.01601 -157.459 1.8403113e-38
2670.1499 -232.116 -158.787 1.8403113e-38
3094.6599 -1092.9 -141.903 1.8403113e-38
3092.79 -1074.39 -144.575 1.8403113e-38
3090.45 -1143.9301 -131.55 1.8403113e-38
3091.9099 -1126.49 -135.095 1.8403113e-38
3091.22 -1108.46 -138.05901 1.8403113e-38
3028.6201 -1010.24 -135.479 1.8403113e-38
3009.0801 -980.42902 -134.524 1.8403113e-38
3092.5901 -1201.05 -122.144 1.8403113e-38
3094.25 -1184 -125.685 1.8403113e-38
3088.4199 -1160.22 -128.02901 1.8403113e-38
3090.3 -1218.7 -118.3 1.8403113e-38
2730.75 -598.40802 -113.395 1.8403113e-38
2685.3701 -584.64099 -101.382 1.8403113e-38
2643.51 -572.38599 -90.2258 1.8403113e-38
2620.97 -569.55402 -83.549103 1.8403113e-38
2845.9299 -1027.64 -74.263 1.8403113e-38
2582.95 -557.98901 -73.492798 1.8403113e-38
2541.6799 -552.59302 -61.3111 1.8403113e-38
2564.9099 -556.763 -67.967903 1.8403113e-38
2517.5701 -556.16498 -53.004398 1.8403113e-38
2520.4299 -548.724 -55.23 1.8403113e-38
2553.8501 -646.44202 -48.6115 1.8403113e-38
2515.78 -610.52502 -42.837898 1.8403113e-38
2498.6799 -589.30603 -41.142101 1.8403113e-38
2509.8999 -587.776 -44.983398 1.8403113e-38
2506.4399 -576.09698 -45.945301 1.8403113e-38
2508.49 -568.53802 -47.93 1.8403113e-38
2502.29 -555.42902 -48.271099 1.8403113e-38
2637.8301 -875.04797 -34.973202 1.8403113e-38
2654.3999 -876.65698 -39.962299 1.8403113e-38
801.65399 2436.6001 -35.3311 1.8403113e-38
3082.6001 -1739.1801 -23.9464 1.8403113e-38
3084.23 -1714.1899 -28.876801 1.8403113e-38
2598.8899 -879.70801 -21.757401 1.8403113e-38
2606.0901 -872.83398 -25.262501 1.8403113e-38
2620.3 -872.90399 -29.7724 1.8403113e-38
787.13202 2411.24 -26.2318 1.8403113e-38
2567.6499 -889.42603 -10.0975 1.8403113e-38
2574.6201 -883.20599 -13.4155 1.8403113e-38
2580.4099 -875.20203 -16.6716 1.8403113e-38
775.435 2382.45 -17.4247 1.8403113e-38
747.85901 2391.21 -10.1961 1.8403113e-38
2550.6399 -913.32501 -0.46553701 1.8403113e-38
2556.73 -905.53003 -3.7784801 1.8403113e-38
2563.8301 -899.427 -7.1166401 1.8403113e-38
721.83197 2398.22 -3.1496401 1.8403113e-38
2534.6201 -937.92999 8.9781704 1.8403113e-38
2538.5701 -928.42401 6.0419998 1.8403113e-38
2546.1799 -922.177 2.5178001 1.8403113e-38
712.54401 2362.21 6.1651502 1.8403113e-38
2591.4099 -1095.85 18.7873 1.8403113e-38
2508.3101 -951.98602 19.833401 1.8403113e-38
2524.74 -955.72302 15.2641 1.8403113e-38
2524.8799 -941.83502 12.7693 1.8403113e-38
741.23401 2242.1899 18.2255 1.8403113e-38
2503.8701 -976.23499 25.5284 1.8403113e-38
2504.0601 -961.30402 22.8328 1.8403113e-38
658.57098 2376.51 20.818199 1.8403113e-38
683.24902 2269.5601 31.8475 1.8403113e-38
590.90802 2417.75 35.070202 1.8403113e-38
2442.95 -961.53699 42.323898 1.8403113e-38
653.99701 2232.29 47.738899 1.8403113e-38
2324.21 -823.98401 55.824299 1.8403113e-38
644.49402 2202.48 56.027401 1.8403113e-38
2220.73 -712.42297 69.062401 1.8403113e-38
2222.05 -703.74298 67.108704 1.8403113e-38
634.55902 2176.6699 63.746399 1.8403113e-38
2189.0801 -712.50702 79.148499 1.8403113e-38
2205.1399 -713.05902 74.134003 1.8403113e-38
2213.6899 -714.086 71.594803 1.8403113e-38
2194.0601 -708.85999 76.918297 1.8403113e-38
644.51501 2066.6799 79.999496 1.8403113e-38
620.052 2158.4399 71.583397 1.8403113e-38
2168.8701 -727.81 88.2836 1.8403113e-38
2173.99 -724.34802 86.042702 1.8403113e-38
2178.77 -719.83801 83.725601 1.8403113e-38
2184.95 -717.92902 81.4198 1.8403113e-38
624.61298 2060.97 87.342102 1.8403113e-38
2157.75 -733.91498 92.901497 1.8403113e-38
2163.46 -731.39398 90.636902 1.8403113e-38
2076.8799 -615.91602 97.803902 1.8403113e-38
2065.8401 -607.47601 99.824898 1.8403113e-38
575.94397 2111.0901 93.9814 1.8403113e-38
2039.13 -611.53101 109.043 1.8403113e-38
2047.5 -616.01001 107.17 1.8403113e-38
2053.2251 -610.97302 104.459 1.8403113e-38
2058.3601 -605.02002 101.774 1.8403113e-38
543.68597 2126.6899 101.493 1.8403113e-38
499.36801 2165.1101 108.814 1.8403113e-38
