# .PCD v0.7 - Point Cloud Data file format
VERSION 0.7
FIELDS x y z rgb
SIZE 4 4 4 4
TYPE F F F F
COUNT 1 1 1 1
WIDTH 298
HEIGHT 1
VIEWPOINT 0 0 0 1 0 0 0
POINTS 298
DATA ascii
1247.4 2757.75 -291.246 1.8403113e-38
1174.77 2859.0601 -291.26801 1.8403113e-38
1093.92 2977.03 -292.396 1.8403113e-38
1005.3 3106.5701 -293.67999 1.8403113e-38
907.15002 3251.22 -295.354 1.8403113e-38
802.21997 3399.25 -295.73999 1.8403113e-38
680.60199 3579.6899 -298.07101 1.8403113e-38
589.177 3672.6699 -290.76801 1.8403113e-38
553.73199 3754.3201 -297.61499 1.8403113e-38
411.85999 3950.1001 -297.20999 1.8403113e-38
269.306 4126.5 -292.492 1.8403113e-38
2380.1101 1127.26 -280.173 1.8403113e-38
2351.49 1166.65 -280.06699 1.8403113e-38
2350.5601 1170.3 -280.56699 1.8403113e-38
2341.6001 1204.8101 -285.24103 1.8403113e-38
2320.9399 1211.76 -280.604 1.8403113e-38
2326.3899 1232.35 -286.58801 1.8403113e-38
2251.8401 1305.41 -280.048 1.8403113e-38
2138.52 1467.91 -281.026 1.8403113e-38
2117.3999 1497.0601 -280.96399 1.8403113e-38
2049.4099 1587.66 -280.08701 1.8403113e-38
2000.58 1658.79 -280.742 1.8403113e-38
1974.6899 1696.77 -281.14899 1.8403113e-38
1919.25 1769.6899 -280.228 1.8403113e-38
1890.02 1819.21 -282.095 1.8403113e-38
1859.1801 1866.35 -282.979 1.8403113e-38
1826.78 1914 -283.509 1.8403113e-38
1796.88 1939.5 -280.08099 1.8403113e-38
1792.65 1966.04 -284.45999 1.8403113e-38
1761.52 1992.02 -280.76901 1.8403113e-38
1757.04 2012.63 -283.81799 1.8403113e-38
1724.34 2044.9399 -281.00601 1.8403113e-38
1719.09 2070.3799 -284.853 1.8403113e-38
1685.3199 2098.2 -280.771 1.8403113e-38
1679.46 2124.55 -284.63 1.8403113e-38
1643.63 2159.5901 -281.47101 1.8403113e-38
1637.3199 2184.8799 -284.97 1.8403113e-38
1598.95 2228.0601 -282.789 1.8403113e-38
1591.97 2254.23 -286.27802 1.8403113e-38
1553.66 2283.01 -281.05801 1.8403113e-38
1543.88 2325.6699 -287.21799 1.8403113e-38
1503.25 2358.5701 -282.186 1.8403113e-38
1493.96 2392.3 -286.59698 1.8403113e-38
1449.4301 2438.02 -283.134 1.8403113e-38
1439.77 2469.6499 -286.987 1.8403113e-38
1393.99 2510.5701 -282.13599 1.8403113e-38
1381.83 2551.75 -287.27899 1.8403113e-38
1332.7 2598.48 -282.668 1.8403113e-38
1317.49 2650.1201 -289.12799 1.8403113e-38
1264.53 2702.52 -284.58801 1.8403113e-38
1189.79 2817.6101 -286.91199 1.8403113e-38
1111.58 2929.1299 -287.452 1.8403113e-38
1029.25 3039.8701 -286.60699 1.8403113e-38
934.15997 3179.23 -288.064 1.8403113e-38
833.95203 3317.3201 -287.73599 1.8403113e-38
718.07599 3486.0801 -289.28601 1.8403113e-38
465.116 3825.21 -286.453 1.8403113e-38
298.85699 4070.4099 -289.32599 1.8403113e-38
2715.3599 624.836 -272.6825 1.8403113e-38
2698.1001 637.55798 -270.27899 1.8403113e-38
2702.3 638.18597 -271.65399 1.8403113e-38
2693.1099 656.84998 -272.89648 1.8403113e-38
2678.3999 671.323 -271.61801 1.8403113e-38
2682.5701 672.09399 -273.01401 1.8403113e-38
2669.7 686.76898 -272.32401 1.8403113e-38
2670.6299 690.10602 -273.306 1.8403113e-38
2662.7651 707.77551 -274.72949 1.8403113e-38
2647.52 719.164 -272.63901 1.8403113e-38
2645.51 720.04602 -272.233 1.8403113e-38
2637.0649 737.46002 -273.42999 1.8403113e-38
2618.0801 747.83197 -270.01801 1.8403113e-38
2625.55 752.21698 -273.159 1.8403113e-38
2612.78 767.20398 -272.561 1.8403113e-38
2615.3999 772.63202 -274.48801 1.8403113e-38
2601.9902 785.7395 -273.30548 1.8403113e-38
2589.53 802.78497 -273.23801 1.8403113e-38
2590.97 801.37299 -273.36499 1.8403113e-38
2576.52 817.91199 -272.60199 1.8403113e-38
2580.52 819.31799 -274.08099 1.8403113e-38
2567.0801 835.71899 -273.58801 1.8403113e-38
2554.24 849.84302 -272.79001 1.8403113e-38
2558.77 858.42999 -275.95099 1.8403113e-38
2542.77 867.38501 -273.11899 1.8403113e-38
2542.99 870.92102 -273.936 1.8403113e-38
2528.76 885.37 -272.79501 1.8403113e-38
2534.3999 889.27502 -275.29099 1.8403113e-38
2518.72 902.09497 -273.37299 1.8403113e-38
2522.1899 910.20099 -276.121 1.8403113e-38
2506.98 922.18396 -274.16602 1.8403113e-38
2495.0649 940.76599 -274.58649 1.8403113e-38
2482.9951 959.62854 -275.02148 1.8403113e-38
2472.3899 979.367 -276.07401 1.8403113e-38
2470.6499 980.58197 -275.81699 1.8403113e-38
2458.5698 998.62048 -276.07202 1.8403113e-38
2443.98 1015.09 -275.25348 1.8403113e-38
2433 1036.17 -276.479 1.8403113e-38
2434.4299 1043.11 -278.375 1.8403113e-38
2418.99 1054.83 -276.297 1.8403113e-38
2420.74 1062.64 -278.47101 1.8403113e-38
2407.095 1080.6399 -278.2565 1.8403113e-38
2390.0901 1092.52 -275.74899 1.8403113e-38
2391.95 1101.28 -278.16 1.8403113e-38
2378.8401 1119.3101 -278.10699 1.8403113e-38
2362.53 1136.51 -276.936 1.8403113e-38
2364.4399 1146.24 -279.565 1.8403113e-38
2300.8799 1226.905 -277.88953 1.8403113e-38
2285.8052 1253.52 -279.07849 1.8403113e-38
2267.2949 1271.8 -277.48547 1.8403113e-38
2251.3 1295.38 -277.759 1.8403113e-38
2233.4302 1323.3101 -278.40302 1.8403113e-38
2215.3301 1343.76 -277.392 1.8403113e-38
2215.23 1352.92 -279.30301 1.8403113e-38
2197.25 1376.4351 -278.97699 1.8403113e-38
2177.6299 1401.0549 -278.40051 1.8403113e-38
2158.25 1423.67 -277.47 1.8403113e-38
2157.77 1433.8101 -279.479 1.8403113e-38
2139.04 1456.8199 -278.823 1.8403113e-38
2118.48 1487.85 -279.332 1.8403113e-38
2094.71 1504.3 -275.79199 1.8403113e-38
2094.95 1523.0699 -279.84698 1.8403113e-38
2072.6599 1535.75 -275.94699 1.8403113e-38
2072.28 1552.62 -279.41299 1.8403113e-38
2049.6599 1566.91 -275.759 1.8403113e-38
2026.73 1607.4399 -277.578 1.8403113e-38
2025.15 1619.51 -279.673 1.8403113e-38
2001.91 1640.91 -277.341 1.8403113e-38
1975.84 1671.12 -276.043 1.8403113e-38
1949.72 1717.51 -278.16299 1.8403113e-38
1947.25 1727.59 -279.57199 1.8403113e-38
1921.7 1752.8101 -277.37201 1.8403113e-38
1892.85 1802.35 -279.353 1.8403113e-38
1862.35 1840.72 -278.47601 1.8403113e-38
1830.4 1892.3199 -279.98001 1.8403113e-38
2716.5801 578.00897 -263.10501 1.8403113e-38
2721.02 583.22101 -265.526 1.8403113e-38
2713.8 599.06897 -266.75101 1.8403113e-38
2715.8 602.79498 -268.13599 1.8403113e-38
2720.46 516.75098 -251.252 1.8403113e-38
2716.2651 534.65851 -253.8125 1.8403113e-38
2718.395 557.88098 -259.371 1.8403113e-38
2738.0601 441.42899 -240.47301 1.8403113e-38
2734.4302 460.83752 -243.51651 1.8403113e-38
2732.1201 479.09601 -246.71001 1.8403113e-38
2731.23 480.73199 -246.79201 1.8403113e-38
2727.71 498.612 -249.548 1.8403113e-38
2718.1499 513.26099 -249.82899 1.8403113e-38
2742.1699 386.608 -230.05499 1.8403113e-38
2743.8701 405.63202 -234.59451 1.8403113e-38
2745.6499 426.06952 -239.45651 1.8403113e-38
2735.54 442.255 -239.90199 1.8403113e-38
2749.1399 333.01901 -220.743 1.8403113e-38
2756.9099 333.854 -223.218 1.8403113e-38
2749.5901 349.827 -224.444 1.8403113e-38
2748.04 351.15201 -224.265 1.8403113e-38
2743.77 366.354 -226.231 1.8403113e-38
2749.22 370.41199 -228.702 1.8403113e-38
2742.8999 384.96301 -229.92101 1.8403113e-38
2763.625 264.28949 -210.44 1.8403113e-38
2758.1899 279.68701 -212.10201 1.8403113e-38
2756.74 281.086 -211.968 1.8403113e-38
2752.6899 295.96301 -213.92799 1.8403113e-38
2760.24 300.13599 -217.04601 1.8403113e-38
2755.135 315.78448 -218.858 1.8403113e-38
2758.0449 227.84149 -201.056 1.8403113e-38
2760.7852 245.90601 -205.69849 1.8403113e-38
2769.3101 178.63651 -193.9445 1.8403113e-38
2765.99 195.112 -196.459 1.8403113e-38
2762.385 211.55051 -198.883 1.8403113e-38
2799.5901 -21.4554 -160.436 1.8403113e-38
2799.5701 -19.749001 -160.791 1.8403113e-38
2798.21 -3.8257399 -163.7695 1.8403113e-38
2798.4751 12.906651 -167.39899 1.8403113e-38
2761.98 30.143101 -160.265 1.8403113e-38
2803.8799 -71.224457 -151.14249 1.8403113e-38
2806.2549 -54.593597 -155.37451 1.8403113e-38
2806.4248 -37.753601 -158.9975 1.8403113e-38
2753.47 28.4235 -157.382 1.8403113e-38
2815.51 -139.901 -140.008 1.8403113e-38
2808.3701 -123.394 -141.399 1.8403113e-38
2810.4299 -121.968 -142.311 1.8403113e-38
2811.6899 -105.973 -146.0775 1.8403113e-38
2809.8101 -89.609497 -148.994 1.8403113e-38
2810.8601 -88.0009 -149.645 1.8403113e-38
2626.3401 138.78101 -143.21001 1.8403113e-38
2627.9299 140.48199 -144.041 1.8403113e-38
2819.72 -177.08 -133.362 1.8403113e-38
2821.8601 -175.741 -134.28101 1.8403113e-38
2816.355 -158.1745 -136.38 1.8403113e-38
2816.29 -141.785 -139.83701 1.8403113e-38
2604.385 122.308 -133.22101 1.8403113e-38
2807.96 -190.168 -127.108 1.8403113e-38
2590.8201 80.987503 -120.443 1.8403113e-38
2585.7 93.108101 -121.5005 1.8403113e-38
2585.49 106.362 -124.2515 1.8403113e-38
2757.4199 -180.62601 -114.189 1.8403113e-38
2602.96 40.405499 -115.419 1.8403113e-38
2610.5 41.9795 -117.984 1.8403113e-38
2589.2451 53.814552 -114.21049 1.8403113e-38
2582.0901 66.514954 -114.79 1.8403113e-38
2575.78 78.420898 -115.45 1.8403113e-38
890.27399 2404.0901 -110.589 1.8403113e-38
890.97699 2413.9099 -112.881 1.8403113e-38
2677.22 -177.659 -91.102699 1.8403113e-38
2683.1599 -177.554 -92.879799 1.8403113e-38
862.66602 2360.48 -93.1707 1.8403113e-38
863.151 2370.3 -95.398499 1.8403113e-38
2674.6951 -221.6525 -81.018501 1.8403113e-38
2675.3701 -207.383 -84.248199 1.8403113e-38
2684.1399 -208.26401 -86.653503 1.8403113e-38
2679.54 -191.787 -88.790703 1.8403113e-38
2683.03 -194.239 -89.300697 1.8403113e-38
3055.3599 -786.10748 -73.796852 1.8403113e-38
2669.8501 -265.633 -70.254501 1.8403113e-38
2674.5349 -252.44699 -74.43605 1.8403113e-38
2668.75 -235.91499 -76.233902 1.8403113e-38
2670.97 -235.054 -77.0746 1.8403113e-38
826.883 2348.23 -79.990501 1.8403113e-38
820.90002 2351.1499 -78.841202 1.8403113e-38
3056.8198 -846.44299 -61.423798 1.8403113e-38
3056.425 -816.16504 -67.732498 1.8403113e-38
2671.8701 -282.88348 -67.189598 1.8403113e-38
2665.75 -265.76901 -69.0112 1.8403113e-38
756.52002 2389.8799 -68.022903 1.8403113e-38
763.479 2385.29 -69.107002 1.8403113e-38
3056.54 -876.92249 -54.872452 1.8403113e-38
2681.4099 -369.78 -51.569302 1.8403113e-38
2639.8799 -316.54901 -50.586498 1.8403113e-38
2644.95 -303.78998 -54.791847 1.8403113e-38
2649.8 -290.92801 -58.957298 1.8403113e-38
2652.0901 -290.23599 -59.780102 1.8403113e-38
740.742 2333.6899 -51.433201 1.8403113e-38
2673.0549 -399.18451 -42.8591 1.8403113e-38
2677.21 -384.87299 -47.124298 1.8403113e-38
2680.48 -384.733 -48.121601 1.8403113e-38
2655.29 -355.71301 -46.830502 1.8403113e-38
2638.74 -333.495 -46.6521 1.8403113e-38
2632.1001 -328.875 -45.6698 1.8403113e-38
2637.5701 -317.151 -49.775002 1.8403113e-38
736.82098 2331.8999 -49.893398 1.8403113e-38
2668.48 -431.94049 -34.55505 1.8403113e-38
2668.3149 -414.15302 -38.281448 1.8403113e-38
720.159 2271.1599 -32.076401 1.8403113e-38
718.58398 2283.6899 -34.269501 1.8403113e-38
2637.6699 -450.595 -21.486799 1.8403113e-38
2637.5701 -448.71701 -21.8535 1.8403113e-38
2653.7349 -441.38501 -28.191401 1.8403113e-38
2777.8601 -691.06897 -11.9068 1.8403113e-38
2781.4199 -696.32501 -11.8459 1.8403113e-38
2623.0549 -476.46399 -11.6731 1.8403113e-38
2610.1399 -451.29999 -13.1967 1.8403113e-38
2609.21 -448.93201 -13.4225 1.8403113e-38
700.14697 2220.1399 -15.3312 1.8403113e-38
695.05701 2238.8101 -17.789301 1.8403113e-38
659.97803 2208.4199 -0.96684402 1.8403113e-38
661.76202 2213.8701 -2.6515 1.8403113e-38
2576.1299 -554.23401 18.7047 1.8403113e-38
616.48102 2202 13.2589 1.8403113e-38
614.24799 2214.45 11.2759 1.8403113e-38
2569 -550.48999 20.020599 1.8403113e-38
2523.0701 -531.94 29.6639 1.8403113e-38
2522.4299 -529.51898 29.339199 1.8403113e-38
608.54901 2142.52 28.226801 1.8403113e-38
2491.9551 -523.11499 36.991348 1.8403113e-38
626.84802 2103.47 31.1024 1.8403113e-38
3039.9099 -1346.66 49.7313 1.8403113e-38
3042.1699 -1344.65 48.6367 1.8403113e-38
2449.55 -522.53101 49.408401 1.8403113e-38
2470.22 -521.34003 43.043701 1.8403113e-38
2445.28 -516.79901 49.452801 1.8403113e-38
2462.6299 -516.435 44.2472 1.8403113e-38
605.15198 2062.8799 46.130798 1.8403113e-38
610.15302 2062.3899 44.757599 1.8403113e-38
3041.7651 -1392.72 58.9576 1.8403113e-38
2421.1101 -531.68402 59.760601 1.8403113e-38
2430.5701 -539.091 58.5331 1.8403113e-38
2436.1401 -527.12952 54.348198 1.8403113e-38
551.23102 2074.3799 59.6357 1.8403113e-38
511.319 2144.9299 56.4659 1.8403113e-38
3041.8201 -1438.35 68.625702 1.8403113e-38
2567.9399 -771.15997 67.161102 1.8403113e-38
2399.55 -546.66901 69.315201 1.8403113e-38
2403.24 -548.63 68.638298 1.8403113e-38
2416.5701 -543.66803 63.645599 1.8403113e-38
2408.6299 -537.51398 64.686897 1.8403113e-38
3040.6899 -1486.85 79.251099 1.8403113e-38
3029.96 -1428.6899 70.079697 1.8403113e-38
2517.3701 -717.22198 70.669197 1.8403113e-38
2396.54 -561.4325 73.336899 1.8403113e-38
518.23999 2059.27 72.5979 1.8403113e-38
503.26001 2074.5701 73.780296 1.8403113e-38
-282.314 3163.6699 74.950897 1.8403113e-38
3043.1001 -1495.14 80.296097 1.8403113e-38
3036.04 -1535.4299 90.934357 1.8403113e-38
-443.742 3284.3301 97.078598 1.8403113e-38
2678.5601 -1102.89 104.848 1.8403113e-38
2615.4199 -1012.78 104.397 1.8403113e-38
-318.62799 3096.02 100.045 1.8403113e-38
2534.25 -934.46399 111.78 1.8403113e-38
