# .PCD v0.7 - Point Cloud Data file format
VERSION 0.7
FIELDS x y z rgb
SIZE 4 4 4 4
TYPE F F F F
COUNT 1 1 1 1
WIDTH 355
HEIGHT 1
VIEWPOINT 0 0 0 1 0 0 0
POINTS 355
DATA ascii
-315.73199 1789.83 -291.651 1.8403113e-38
-222.75999 1785.64 -290.48901 1.8403113e-38
-182.175 1785.65 -290.651 1.8403113e-38
-142.604 1785.5601 -290.77399 1.8403113e-38
-101.485 1783.9301 -290.34 1.8403113e-38
-26.543301 1782.96 -290.27899 1.8403113e-38
41.0965 1784.04 -290.93799 1.8403113e-38
103.26 1786.47 -292.06201 1.8403113e-38
205.319 1780.28 -290.20999 1.8403113e-38
234.983 1780.09 -290.254 1.8403113e-38
-523.45697 1799.46 -294.345 1.8403113e-38
-463.23099 1794.27 -292.694 1.8403113e-38
-412.10599 1792.63 -292.293 1.8403113e-38
-367.336 1793.38 -292.74301 1.8403113e-38
-273.061 1790.16 -291.94 1.8403113e-38
118.621 1797.3199 -296.073 1.8403113e-38
-2107.53 1807.5601 -291.116 1.8403113e-38
-1310.01 1807.09 -294.05301 1.8403113e-38
-949.03699 1809.09 -296.19 1.8403113e-38
-883.56897 1808.75 -296.32199 1.8403113e-38
-818.32098 1807.42 -296.095 1.8403113e-38
-753.30701 1805.12 -295.509 1.8403113e-38
-696.65802 1805.5 -295.86801 1.8403113e-38
-635.71002 1802.96 -295.18399 1.8403113e-38
-579.47601 1801.63 -294.91599 1.8403113e-38
-1240.75 1810.9301 -295.72299 1.8403113e-38
-1162.38 1810.1899 -295.758 1.8403113e-38
-1092.59 1811.5 -296.51001 1.8403113e-38
-1021.15 1811.03 -296.61401 1.8403113e-38
2421.01 1728.91 -280.15601 1.8403113e-38
1460.5601 1739.36 -280.215 1.8403113e-38
1504.2 1739.02 -280.26001 1.8403113e-38
1578.36 1739.09 -280.57401 1.8403113e-38
1588.95 1738.34 -280.34201 1.8403113e-38
1630.29 1738.13 -280.427 1.8403113e-38
1671.33 1736.52 -280.00299 1.8403113e-38
1701.64 1736.28 -280.03299 1.8403113e-38
1721.73 1736.3199 -280.12701 1.8403113e-38
2235.28 1736.78 -282.297 1.8403113e-38
2244.8701 1732.52 -280.784 1.8403113e-38
2255.8201 1731.7 -280.52899 1.8403113e-38
2269.3 1736.92 -282.48099 1.8403113e-38
778.151 1748.74 -280.965 1.8403113e-38
831.56201 1749.3199 -281.38501 1.8403113e-38
867.85498 1747.47 -280.85101 1.8403113e-38
885.54401 1746.58 -280.59799 1.8403113e-38
951.72998 1745.46 -280.45001 1.8403113e-38
983.76599 1744.54 -280.23801 1.8403113e-38
1013.76 1745.1899 -280.59399 1.8403113e-38
1044.65 1743.65 -280.151 1.8403113e-38
1071.37 1746.92 -281.44501 1.8403113e-38
1128.63 1745.4 -281.117 1.8403113e-38
1143.8101 1743.03 -280.31299 1.8403113e-38
1157.37 1742.92 -280.328 1.8403113e-38
1182.87 1744.75 -281.09299 1.8403113e-38
1196.29 1744.24 -280.95999 1.8403113e-38
1210.6 1741.9399 -280.17801 1.8403113e-38
1221.55 1745.3 -281.444 1.8403113e-38
1235.27 1743.5601 -280.86401 1.8403113e-38
1245.29 1748.38 -282.65799 1.8403113e-38
1259.8101 1744.7 -281.375 1.8403113e-38
1273.34 1742.5601 -280.647 1.8403113e-38
1283.78 1746.22 -282.01999 1.8403113e-38
1298.04 1742.12 -280.582 1.8403113e-38
1310.9399 1740.4301 -280.01901 1.8403113e-38
1320.9301 1744.63 -281.58701 1.8403113e-38
1331.76 1747.03 -282.50101 1.8403113e-38
1345.3199 1743.26 -281.18399 1.8403113e-38
1354.95 1748.05 -282.965 1.8403113e-38
1367.25 1746.66 -282.50601 1.8403113e-38
1379.49 1745.15 -282.00299 1.8403113e-38
1404.48 1740.01 -280.23099 1.8403113e-38
1415.49 1740.79 -280.55899 1.8403113e-38
1426.47 1741.48 -280.85101 1.8403113e-38
1437.77 1741.17 -280.784 1.8403113e-38
1448.08 1743.4399 -281.651 1.8403113e-38
1482 1740.73 -280.797 1.8403113e-38
1492.27 1742.63 -281.52802 1.8403113e-38
1512.5699 1747.0699 -283.224 1.8403113e-38
1535.6801 1741.16 -281.16199 1.8403113e-38
1545.92 1742.61 -281.729 1.8403113e-38
1557.08 1740.3101 -280.936 1.8403113e-38
1567.29 1741.58 -281.43701 1.8403113e-38
1619.26 1742.01 -281.797 1.8403113e-38
1640.09 1740.64 -281.379 1.8403113e-38
630.11401 1759.13 -284.17001 1.8403113e-38
652.40601 1757.6899 -283.73199 1.8403113e-38
674.58002 1755.96 -283.19 1.8403113e-38
698.03101 1752.62 -282.06299 1.8403113e-38
716.47601 1753.71 -282.53299 1.8403113e-38
732.10602 1757.3199 -283.90799 1.8403113e-38
755.20898 1753.1801 -282.48999 1.8403113e-38
792.90997 1752.41 -282.358 1.8403113e-38
810.966 1752.39 -282.423 1.8403113e-38
931.91602 1750.11 -282.06299 1.8403113e-38
487.28601 1767.35 -286.603 1.8403113e-38
510.26599 1767.6899 -286.81601 1.8403113e-38
534.63397 1766.47 -286.46799 1.8403113e-38
558.87903 1764.9399 -286.00601 1.8403113e-38
582.99597 1763.1 -285.42899 1.8403113e-38
605.53302 1762.24 -285.20499 1.8403113e-38
-1885.1899 1776.53 -280.689 1.8403113e-38
15.7199 1778.6 -288.85599 1.8403113e-38
183.66499 1774.6 -288.05801 1.8403113e-38
265.31699 1778.92 -289.94901 1.8403113e-38
297.09201 1776.2 -289.08099 1.8403113e-38
327.909 1773.62 -288.26199 1.8403113e-38
351.52399 1775.9 -289.185 1.8403113e-38
377.396 1776.1 -289.35901 1.8403113e-38
404.70099 1774.76 -288.979 1.8403113e-38
431.104 1773.67 -288.68399 1.8403113e-38
459.65601 1770.39 -287.603 1.8403113e-38
-1815.84 1788.79 -285.42001 1.8403113e-38
-60.548901 1781.71 -289.69101 1.8403113e-38
79.688004 1780.72 -289.879 1.8403113e-38
-2221.4399 1804.33 -289.495 1.8403113e-38
1821.5699 1719.37 -274.34601 1.8403113e-38
1831.35 1719.38 -274.39001 1.8403113e-38
1870.51 1719.58 -274.61499 1.8403113e-38
1889.91 1715.92 -273.35599 1.8403113e-38
1899.84 1718.1899 -274.22101 1.8403113e-38
1928.6 1710.45 -271.51801 1.8403113e-38
1939.17 1718 -274.30801 1.8403113e-38
1949.26 1719.86 -275.022 1.8403113e-38
1968.08 1712.12 -272.28 1.8403113e-38
2009.0601 1719.89 -275.267 1.8403113e-38
2142.1399 1718.3199 -275.216 1.8403113e-38
2173.71 1717.4301 -275.013 1.8403113e-38
2195.99 1719.64 -275.905 1.8403113e-38
2296.3101 1719.64 -276.29501 1.8403113e-38
2319.02 1718.6899 -276.03799 1.8403113e-38
2342.6599 1719.02 -276.25201 1.8403113e-38
2366.8999 1719.74 -276.60901 1.8403113e-38
2390.4299 1718.3101 -276.17899 1.8403113e-38
2427.5701 1718.21 -276.28699 1.8403113e-38
2439.24 1716.55 -275.73001 1.8403113e-38
2450.4399 1713.96 -274.832 1.8403113e-38
1791.96 1726.36 -276.77301 1.8403113e-38
1801.78 1727.55 -277.24701 1.8403113e-38
1811.77 1720.21 -274.61499 1.8403113e-38
1841.22 1727.78 -277.483 1.8403113e-38
1851.08 1727.63 -277.46799 1.8403113e-38
1860.75 1720.83 -275.03 1.8403113e-38
1880.51 1723.89 -276.22198 1.8403113e-38
1909.9 1721.3101 -275.396 1.8403113e-38
1919.78 1721.54 -275.51801 1.8403113e-38
1959.38 1721.63 -275.70599 1.8403113e-38
1979.63 1723.97 -276.63901 1.8403113e-38
1989.73 1724.55 -276.88901 1.8403113e-38
1999.26 1721.33 -275.754 1.8403113e-38
2019.34 1721.15 -275.76501 1.8403113e-38
2030.36 1726.02 -277.57999 1.8403113e-38
2040.38 1725.24 -277.33701 1.8403113e-38
2050.21 1723.46 -276.728 1.8403113e-38
2061.4299 1728.05 -278.44 1.8403113e-38
2070.45 1722.42 -276.427 1.8403113e-38
2081.1299 1724.0601 -277.06601 1.8403113e-38
2090.95 1721.95 -276.33499 1.8403113e-38
2101.45 1722.49 -276.57501 1.8403113e-38
2111.98 1722.95 -276.78101 1.8403113e-38
2121.79 1720.58 -275.95801 1.8403113e-38
2132.3601 1720.86 -276.099 1.8403113e-38
2154.95 1725.64 -277.92801 1.8403113e-38
2165.9299 1726.52 -278.29199 1.8403113e-38
2186.1899 1722.61 -276.94901 1.8403113e-38
2207.99 1722.8199 -277.108 1.8403113e-38
2219.4299 1724.1 -277.62 1.8403113e-38
2275.55 1724.53 -277.996 1.8403113e-38
2288.76 1728.66 -279.548 1.8403113e-38
2308.8201 1721.8101 -277.134 1.8403113e-38
2332.8601 1723.2 -277.73401 1.8403113e-38
2355.8201 1721.5699 -277.23001 1.8403113e-38
2379.75 1721.1899 -277.18701 1.8403113e-38
2404.29 1721.1801 -277.28 1.8403113e-38
1064.16 1736.77 -277.72198 1.8403113e-38
1104.95 1739.3199 -278.811 1.8403113e-38
1118.64 1739.62 -278.974 1.8403113e-38
1175.37 1735.34 -277.63901 1.8403113e-38
1393.45 1739.13 -279.867 1.8403113e-38
1472.33 1736.96 -279.38501 1.8403113e-38
1526.49 1736 -279.246 1.8403113e-38
1600.11 1734.73 -279.073 1.8403113e-38
1610.6 1733.79 -278.77301 1.8403113e-38
1651.78 1731.9301 -278.254 1.8403113e-38
1661.54 1734.26 -279.14301 1.8403113e-38
1681.92 1733.11 -278.802 1.8403113e-38
1691.83 1734.27 -279.263 1.8403113e-38
1711.9 1734.47 -279.41599 1.8403113e-38
1732.1801 1731.54 -278.427 1.8403113e-38
1742.08 1732.29 -278.73801 1.8403113e-38
1751.92 1733.89 -279.35999 1.8403113e-38
1761.96 1732.6 -278.92899 1.8403113e-38
1772.02 1730.29 -278.12701 1.8403113e-38
1781.8199 1732.59 -279.00201 1.8403113e-38
854.617 1743.13 -279.22101 1.8403113e-38
905.02802 1743.29 -279.47699 1.8403113e-38
921.89301 1742.72 -279.33301 1.8403113e-38
969.58698 1742.84 -279.56299 1.8403113e-38
1000.26 1743.04 -279.758 1.8403113e-38
1032.39 1740.26 -278.87201 1.8403113e-38
1089.59 1741.24 -279.45001 1.8403113e-38
-1267.09 1762.41 -277.96301 1.8403113e-38
2456.29 1681.66 -263.099 1.8403113e-38
2452.75 1696.5699 -268.51199 1.8403113e-38
2471.8301 1646.67 -250.424 1.8403113e-38
2985.8301 1657.25 -256.28101 1.8403113e-38
3004.6799 1655.87 -255.85201 1.8403113e-38
2469.3999 1662.36 -256.12601 1.8403113e-38
2462.6599 1671.62 -259.47 1.8403113e-38
2480.26 1621.73 -241.38 1.8403113e-38
2494.5801 1624.21 -242.34 1.8403113e-38
2478.79 1638.1801 -247.36 1.8403113e-38
2997.3401 1632.53 -247.32899 1.8403113e-38
2490.1899 1599.9399 -233.49001 1.8403113e-38
2510.6101 1610.8101 -237.52499 1.8403113e-38
-1270.71 1649.11 -236.71201 1.8403113e-38
2506.23 1570.29 -222.758 1.8403113e-38
2504.6101 1585.08 -228.138 1.8403113e-38
-936.177 1619.46 -227.22701 1.8403113e-38
2504.72 1551.71 -215.993 1.8403113e-38
-931.70398 1592.33 -217.37 1.8403113e-38
2508.0901 1508.5601 -200.302 1.8403113e-38
2653.9099 1507.76 -200.58 1.8403113e-38
2503.21 1517.87 -203.67101 1.8403113e-38
2599.99 1510.08 -201.211 1.8403113e-38
2618.3201 1515.04 -203.089 1.8403113e-38
2800.0901 1512.7 -202.946 1.8403113e-38
2498.21 1527.17 -207.034 1.8403113e-38
-947.729 1572.13 -209.95399 1.8403113e-38
2693.1299 1488.21 -193.61501 1.8403113e-38
2521.8 1495.08 -195.44701 1.8403113e-38
2532.6001 1493.03 -194.744 1.8403113e-38
2548.45 1496.7 -196.14101 1.8403113e-38
2556.1499 1490.76 -194.011 1.8403113e-38
2615.5701 1497.3 -196.621 1.8403113e-38
2674.95 1499.54 -197.66901 1.8403113e-38
2686.1499 1495.9399 -196.40199 1.8403113e-38
2714.9099 1494.34 -195.933 1.8403113e-38
2735.4299 1498.87 -197.659 1.8403113e-38
2745.3 1493.35 -195.69099 1.8403113e-38
2518.9399 1506.6801 -199.659 1.8403113e-38
2636 1504.05 -199.158 1.8403113e-38
2661.71 1500.96 -198.13499 1.8403113e-38
2769.6699 1500.64 -198.438 1.8403113e-38
-1345.88 1530.03 -193.08 1.8403113e-38
2557.3501 1477.59 -189.22 1.8403113e-38
-1345.08 1501.6899 -182.767 1.8403113e-38
-1345.92 1473.91 -172.65401 1.8403113e-38
2728.6499 1371.64 -151.33 1.8403113e-38
2724.3401 1380.8199 -154.653 1.8403113e-38
2722.9399 1392.4399 -158.87601 1.8403113e-38
2735.4199 1352.0601 -144.23 1.8403113e-38
2731.3201 1361.26 -147.561 1.8403113e-38
2739.1599 1318.7 -132.101 1.8403113e-38
2735.5 1339.9399 -139.81799 1.8403113e-38
2741.73 1332.48 -137.127 1.8403113e-38
-982.59601 1356.8 -131.44901 1.8403113e-38
2743.9199 1298.66 -124.826 1.8403113e-38
2750.5801 1291.6801 -122.313 1.8403113e-38
2742 1308.95 -128.56599 1.8403113e-38
-1275.46 1347.71 -126.998 1.8403113e-38
2758.6599 1262.96 -111.893 1.8403113e-38
2748.22 1278.66 -117.566 1.8403113e-38
2754.71 1271.64 -115.034 1.8403113e-38
-939.52502 1297.9399 -110.196 1.8403113e-38
-930.67297 1319.9301 -118.234 1.8403113e-38
-1288.47 1323.67 -118.197 1.8403113e-38
2768.29 1235.8101 -102.049 1.8403113e-38
2761.28 1242.46 -104.441 1.8403113e-38
2759.2 1252.17 -107.969 1.8403113e-38
-1285.62 1296.3 -108.247 1.8403113e-38
2767.6599 1203.22 -90.186203 1.8403113e-38
2766.02 1212.88 -93.695396 1.8403113e-38
2769.3301 1225.5699 -98.326897 1.8403113e-38
-1282.5 1269.02 -98.333099 1.8403113e-38
2779.73 1178.55 -81.252899 1.8403113e-38
2778.3799 1188.22 -84.768799 1.8403113e-38
2770.05 1194.0601 -86.860802 1.8403113e-38
-1286.97 1243.3 -88.954903 1.8403113e-38
2801.77 1148.8199 -70.517799 1.8403113e-38
2792.8401 1154.54 -72.567101 1.8403113e-38
2786.51 1161.52 -75.081802 1.8403113e-38
2788.8201 1173.04 -79.282097 1.8403113e-38
-1284.3101 1216.34 -79.151703 1.8403113e-38
2805.0701 1120.14 -60.0933 1.8403113e-38
2804.4199 1134.87 -65.453003 1.8403113e-38
-1287.08 1164.09 -60.125801 1.8403113e-38
-1280.4 1189.3 -69.324799 1.8403113e-38
2813.79 1094.4 -50.759201 1.8403113e-38
2803.8701 1109.66 -56.2752 1.8403113e-38
2815.1899 1104.87 -54.5756 1.8403113e-38
-1281.6801 1137.02 -50.295502 1.8403113e-38
2806.0801 1071.73 -42.478199 1.8403113e-38
2810.46 1083.21 -46.673901 1.8403113e-38
-1277 1110.22 -40.5597 1.8403113e-38
2791.3899 1046.89 -33.381001 1.8403113e-38
2797.8999 1058.86 -37.763401 1.8403113e-38
-1255.23 1081.27 -30.1068 1.8403113e-38
2770.98 1011.8 -20.5324 1.8403113e-38
2778.8601 1023.71 -24.895901 1.8403113e-38
2791.2 1037.5601 -29.9835 1.8403113e-38
-1277.76 1058.34 -21.6728 1.8403113e-38
2755.73 988.79401 -12.0983 1.8403113e-38
2764.8301 1000.73 -16.4762 1.8403113e-38
-1272.3199 1031.79 -12.0323 1.8403113e-38
2749.3 961.03998 -1.97205 1.8403113e-38
2751.6799 974.5365 -6.893435 1.8403113e-38
-1275.5699 1006.34 -2.7576399 1.8403113e-38
2743.8799 934.388 7.7488399 1.8403113e-38
2741.3401 941.87701 5.03335 1.8403113e-38
2744.4299 951.11902 1.65766 1.8403113e-38
-1268.63 979.85999 6.8533301 1.8403113e-38
2752.3701 903.987 18.7801 1.8403113e-38
2747.03 914.79504 14.867451 1.8403113e-38
2745.3899 926.60699 10.5749 1.8403113e-38
-1271.39 954.44299 16.114599 1.8403113e-38
2749.98 879.17999 27.8179 1.8403113e-38
2756.6699 888.81598 24.285 1.8403113e-38
2754.5601 896.40997 21.5292 1.8403113e-38
-1265.9399 928.32898 25.597601 1.8403113e-38
2862.77 852.01099 37.266201 1.8403113e-38
2772.3401 868.02197 31.7917 1.8403113e-38
2820.0901 869.72699 30.9849 1.8403113e-38
2864.9648 865.64648 32.295101 1.8403113e-38
2751.9399 871.62402 30.560301 1.8403113e-38
-1268.23 902.935 34.8484 1.8403113e-38
2874.04 818.73602 49.3326 1.8403113e-38
2872.5701 827.29498 46.2234 1.8403113e-38
2866.1001 835.03802 43.430599 1.8403113e-38
2864.47 843.53101 40.345798 1.8403113e-38
-1270.27 877.52399 44.1049 1.8403113e-38
2884.9199 793.83301 58.353401 1.8403113e-38
2871.1401 805.21704 54.264099 1.8403113e-38
-1274.08 852.216 53.330601 1.8403113e-38
2896.1101 768.59802 67.4944 1.8403113e-38
2886.1599 776.40399 64.692101 1.8403113e-38
2886.0801 785.17499 61.500099 1.8403113e-38
-1273.66 826.65399 62.632099 1.8403113e-38
2901.6299 742.54401 76.955101 1.8403113e-38
2895.9648 755.33948 72.320297 1.8403113e-38
-1269 800.93903 71.9729 1.8403113e-38
2905.8701 707.42102 89.721603 1.8403113e-38
2911.4199 716.52301 86.387001 1.8403113e-38
2899.9199 724.78802 83.423897 1.8403113e-38
2901.3201 733.68799 80.179497 1.8403113e-38
-1269.1 775.48798 81.236 1.8403113e-38
2908.6899 680.96399 99.3395 1.8403113e-38
2913.5 689.92102 96.060799 1.8403113e-38
2904.23 698.534 92.962196 1.8403113e-38
-1282.59 724.87799 99.708199 1.8403113e-38
-1263.97 749.90997 90.525101 1.8403113e-38
2899.78 654.51599 109 1.8403113e-38
2908.8301 663.26801 105.779 1.8403113e-38
2914.8 672.15002 102.523 1.8403113e-38
-1182.99 698.28198 108.999 1.8403113e-38
