# .PCD v0.7 - Point Cloud Data file format
VERSION 0.7
FIELDS x y z rgb
SIZE 4 4 4 4
TYPE F F F F
COUNT 1 1 1 1
WIDTH 355
HEIGHT 1
VIEWPOINT 0 0 0 1 0 0 0
POINTS 355
DATA ascii
391.95401 1947.77 -290.254 1.8403113e-38
329.095 1957.29 -291 1.8403113e-38
361.73801 1951.78 -290.409 1.8403113e-38
236.088 1966.26 -290.25601 1.8403113e-38
263.95801 1966.37 -291.48901 1.8403113e-38
296.246 1962.36 -291.42401 1.8403113e-38
-68.225098 2006.28 -291.668 1.8403113e-38
-112.898 2012.79 -292.10599 1.8403113e-38
-249.23399 2029.05 -292.13599 1.8403113e-38
-198.87199 2021.2 -291.45901 1.8403113e-38
-162.744 2021.96 -293.28299 1.8403113e-38
-298.21399 2035.12 -292.228 1.8403113e-38
-403.689 2049.26 -292.81699 1.8403113e-38
-355.005 2045.1801 -293.42899 1.8403113e-38
-458.543 2056.2 -292.97501 1.8403113e-38
-523.06598 2067.8701 -294.422 1.8403113e-38
-586.245 2077.5801 -295.22601 1.8403113e-38
-649.76599 2086.3701 -295.677 1.8403113e-38
-715.34998 2095.1799 -296.04901 1.8403113e-38
-781.26703 2103.02 -296.05701 1.8403113e-38
-921.08398 2119.45 -295.99701 1.8403113e-38
-856.255 2114.55 -297.00699 1.8403113e-38
-1078.1801 2139.7 -296.58099 1.8403113e-38
-1003.86 2132.4199 -297.13699 1.8403113e-38
-1159.0699 2148.9399 -296.44901 1.8403113e-38
-1243.92 2158.6699 -296.328 1.8403113e-38
-1399.39 2167.23 -292.754 1.8403113e-38
-1316.5601 2161.2 -294.13 1.8403113e-38
-1507.9301 2183.4199 -293.952 1.8403113e-38
-1600.6 2190.74 -292.62299 1.8403113e-38
-1704.6 2201.3601 -292.00299 1.8403113e-38
-1828.29 2218.49 -292.888 1.8403113e-38
2429.3201 1678.17 -280.185 1.8403113e-38
2374.3799 1686.96 -281.004 1.8403113e-38
2418.49 1680.47 -280.54999 1.8403113e-38
2443.95 1682.34 -282.32001 1.8403113e-38
2455.8 1681.45 -282.50601 1.8403113e-38
2309.46 1695.34 -281.25101 1.8403113e-38
2248.79 1709.89 -283.90701 1.8403113e-38
2258.1299 1705.63 -282.767 1.8403113e-38
2268.1201 1703.05 -282.26401 1.8403113e-38
2113.1201 1716.38 -280.435 1.8403113e-38
2205.8799 1711 -282.46799 1.8403113e-38
2284.8601 1716.99 -288.01999 1.8403113e-38
1944.78 1736.04 -280.32401 1.8403113e-38
1855.46 1746.95 -280.435 1.8403113e-38
1905.29 1742.54 -280.97699 1.8403113e-38
1784.9301 1755.14 -280.36899 1.8403113e-38
1681.4399 1766.87 -280.17099 1.8403113e-38
1702.4399 1764.66 -280.272 1.8403113e-38
1722.62 1767.71 -282.23999 1.8403113e-38
1733.22 1764.89 -281.67801 1.8403113e-38
1605.48 1778.7 -281.18799 1.8403113e-38
1616.14 1778.74 -281.66199 1.8403113e-38
1626.8 1778.7 -282.10199 1.8403113e-38
1638.54 1773 -280.547 1.8403113e-38
1648.75 1774.62 -281.57101 1.8403113e-38
1670.34 1771.1 -281.224 1.8403113e-38
1526.67 1788.55 -281.36899 1.8403113e-38
1560.71 1784.92 -281.51999 1.8403113e-38
1571.74 1784.4301 -281.815 1.8403113e-38
1581.83 1787.52 -283.36401 1.8403113e-38
1593.7 1783.16 -282.297 1.8403113e-38
1490.47 1796.67 -282.75299 1.8403113e-38
1514.95 1790.46 -281.55801 1.8403113e-38
1535.1899 1797.47 -284.95801 1.8403113e-38
1548.15 1790.8 -283.104 1.8403113e-38
1368.35 1809.2 -282.04599 1.8403113e-38
1393.77 1806.2 -282.05099 1.8403113e-38
1405.6801 1806.29 -282.59399 1.8403113e-38
1417.9 1805.38 -282.789 1.8403113e-38
1428.39 1808.8101 -284.479 1.8403113e-38
1441.87 1804.12 -283.36099 1.8403113e-38
1454.59 1801.08 -282.80899 1.8403113e-38
1465.67 1802.42 -283.76599 1.8403113e-38
1476.45 1804.55 -285.00101 1.8403113e-38
1500.61 1800.41 -284.539 1.8403113e-38
1263.1 1818.78 -280.99399 1.8403113e-38
1305.47 1811.1 -280.034 1.8403113e-38
1316.41 1814.59 -281.76501 1.8403113e-38
1330.1899 1811.91 -281.38901 1.8403113e-38
1341.13 1815.1899 -283.043 1.8403113e-38
1354.79 1812.27 -282.57101 1.8403113e-38
1379.25 1812.16 -283.582 1.8403113e-38
1162.51 1829.61 -280.59399 1.8403113e-38
1193.05 1824.76 -280.151 1.8403113e-38
1204.65 1828.36 -281.95099 1.8403113e-38
1222.29 1820.95 -280.02701 1.8403113e-38
1233.37 1825.14 -282.017 1.8403113e-38
1247.62 1823.3101 -281.966 1.8403113e-38
1274.14 1822.63 -282.85699 1.8403113e-38
1287.76 1821.23 -282.93701 1.8403113e-38
1099.29 1838.95 -281.258 1.8403113e-38
1147.85 1830.5601 -280.30801 1.8403113e-38
1174.1801 1833.48 -282.492 1.8403113e-38
1001.79 1847.74 -280.254 1.8403113e-38
1036.28 1843.15 -280.07401 1.8403113e-38
1051.47 1843.35 -280.797 1.8403113e-38
1067.13 1842.59 -281.194 1.8403113e-38
1113.17 1840.12 -282.276 1.8403113e-38
911.729 1858.4301 -280.25699 1.8403113e-38
928.03802 1859.15 -281.215 1.8403113e-38
945.46997 1858.15 -281.60199 1.8403113e-38
965.72699 1853.1 -280.64301 1.8403113e-38
980.65002 1854.79 -281.897 1.8403113e-38
1014.32 1852.22 -282.41199 1.8403113e-38
851.263 1868.6 -281.33701 1.8403113e-38
867.84802 1869.9399 -282.53299 1.8403113e-38
888.65503 1865.83 -281.94 1.8403113e-38
827.69501 1875.1899 -282.711 1.8403113e-38
742.05798 1887.12 -283.349 1.8403113e-38
759.10797 1889.59 -284.97101 1.8403113e-38
781.91998 1885.3101 -284.405 1.8403113e-38
805.21002 1880.03 -283.49399 1.8403113e-38
653.737 1895.54 -282.60501 1.8403113e-38
694.45398 1895.76 -284.42899 1.8403113e-38
718.33698 1891.59 -283.94601 1.8403113e-38
665.677 1904.53 -286.367 1.8403113e-38
242.09801 1939.09 -280.69299 1.8403113e-38
422.72101 1942.71 -289.745 1.8403113e-38
-2182.1499 2250.3601 -289.23401 1.8403113e-38
2477.4099 1655.53 -274.065 1.8403113e-38
2392.8601 1677.22 -278.27899 1.8403113e-38
2404.0601 1676 -278.31601 1.8403113e-38
2462.79 1672.3101 -279.50201 1.8403113e-38
2474.6299 1671.22 -279.616 1.8403113e-38
2295.03 1687.86 -277.92801 1.8403113e-38
2316.6799 1686.3 -278.29199 1.8403113e-38
2328.1399 1686.65 -278.91101 1.8403113e-38
2338.8201 1685.1899 -278.84 1.8403113e-38
2348.7 1681.92 -278.08401 1.8403113e-38
2360.23 1681.96 -278.59299 1.8403113e-38
2383.4199 1681.71 -279.495 1.8403113e-38
2180.79 1698.85 -277 1.8403113e-38
2190.95 1697.8199 -277.064 1.8403113e-38
2212.51 1699.0601 -278.43799 1.8403113e-38
2223.03 1698.65 -278.73901 1.8403113e-38
2234.23 1699.91 -279.67401 1.8403113e-38
2286.24 1693.28 -279.51001 1.8403113e-38
2101.23 1709.41 -277.40601 1.8403113e-38
2130.8899 1705.4 -277.228 1.8403113e-38
2142.01 1708.4301 -278.802 1.8403113e-38
2151.6699 1705.9301 -278.311 1.8403113e-38
2162.1001 1706.0601 -278.80499 1.8403113e-38
2172.29 1705.1899 -278.92899 1.8403113e-38
2002.64 1719.26 -276.73999 1.8403113e-38
2011.5699 1712.33 -274.61499 1.8403113e-38
2022.5699 1719.25 -277.58899 1.8403113e-38
2041.73 1714.27 -276.61099 1.8403113e-38
2052.6299 1719.0601 -278.81 1.8403113e-38
2061.1299 1710.83 -276.20001 1.8403113e-38
2072.3101 1716.36 -278.67801 1.8403113e-38
2081.25 1710.75 -277.034 1.8403113e-38
2091.3401 1710.58 -277.40601 1.8403113e-38
2122.6201 1713.2 -279.694 1.8403113e-38
1963.83 1726.71 -277.76599 1.8403113e-38
1983 1720.8101 -276.457 1.8403113e-38
1992.88 1720.54 -276.784 1.8403113e-38
2033.09 1722.36 -279.16501 1.8403113e-38
1865.41 1739.27 -278.08701 1.8403113e-38
1885.27 1739.66 -279.078 1.8403113e-38
1895.14 1737.38 -278.67801 1.8403113e-38
1914.95 1736.34 -279.151 1.8403113e-38
1924.5 1730.0699 -277.29501 1.8403113e-38
1934.74 1734.98 -279.50699 1.8403113e-38
1954.26 1730.48 -278.71799 1.8403113e-38
1974.15 1730.34 -279.51999 1.8403113e-38
1795.38 1748.98 -278.59201 1.8403113e-38
1805.4301 1748.38 -278.80499 1.8403113e-38
1815.47 1747.6899 -278.98801 1.8403113e-38
1825.4301 1748.8101 -279.81799 1.8403113e-38
1835.48 1747.02 -279.60199 1.8403113e-38
1845.51 1744.2 -279.01501 1.8403113e-38
1875.36 1740.92 -279.108 1.8403113e-38
1744.45 1755.4301 -278.73901 1.8403113e-38
1754.51 1756.1899 -279.44299 1.8403113e-38
1764.74 1754.98 -279.44699 1.8403113e-38
1774.95 1753.6899 -279.418 1.8403113e-38
1660.3199 1768.72 -279.936 1.8403113e-38
1692.17 1764.41 -279.742 1.8403113e-38
1713.33 1760.15 -279.10901 1.8403113e-38
1086.4399 1836.03 -279.65399 1.8403113e-38
1133.63 1830.54 -279.69199 1.8403113e-38
636.35699 1871.09 -273.021 1.8403113e-38
509.95099 1886.1 -273.026 1.8403113e-38
638.42798 1889.9 -279.90799 1.8403113e-38
242.261 1916.92 -272.685 1.8403113e-38
-2145.8999 2198.1201 -271.90799 1.8403113e-38
-3779.8301 2405.5901 -276.82101 1.8403113e-38
-4029.28 2429.47 -274.75601 1.8403113e-38
-4304.4399 2456.6201 -272.767 1.8403113e-38
2913.75 1569.46 -261.66901 1.8403113e-38
2495.8999 1626.1 -264.22101 1.8403113e-38
2477.3899 1635.88 -266.95999 1.8403113e-38
2490.5701 1637 -267.92999 1.8403113e-38
628.73199 1837.67 -260.616 1.8403113e-38
632.43597 1854.37 -266.80899 1.8403113e-38
234.87601 1900.78 -266.53601 1.8403113e-38
-1803.78 2137.3301 -264.60599 1.8403113e-38
-4567.9702 2475.8601 -268.423 1.8403113e-38
2505.0349 1593.7351 -252.91449 1.8403113e-38
2495.74 1607.33 -257.427 1.8403113e-38
591.71503 1832.14 -257.03101 1.8403113e-38
615.24402 1830.34 -257.38901 1.8403113e-38
204.196 1859.1 -250.15401 1.8403113e-38
230.17101 1861.4399 -252.11501 1.8403113e-38
233.192 1880.5 -259.13199 1.8403113e-38
-1622.92 2098.3799 -258.28299 1.8403113e-38
2559.04 1555.48 -241.40199 1.8403113e-38
2519.1799 1569.96 -244.927 1.8403113e-38
2528.74 1565.91 -243.873 1.8403113e-38
2550.1201 1560.5601 -242.85699 1.8403113e-38
2510.1699 1574.7 -246.25301 1.8403113e-38
2545.21 1570.88 -246.375 1.8403113e-38
178.149 1856.42 -248.069 1.8403113e-38
-4535.48 2410.1101 -246.052 1.8403113e-38
-5378.25 2512.3401 -246.85899 1.8403113e-38
2831.5901 1514.28 -238.19901 1.8403113e-38
2561.9199 1542.88 -236.97099 1.8403113e-38
2574.9399 1542.86 -237.52499 1.8403113e-38
-1897.05 2067.6599 -235.424 1.8403113e-38
2662.77 1488.54 -221.657 1.8403113e-38
2688.3401 1485.1 -221.511 1.8403113e-38
2706.3601 1488.1801 -223.395 1.8403113e-38
2732.9099 1484.42 -223.17599 1.8403113e-38
2751.9299 1487.51 -225.11 1.8403113e-38
2577.3201 1499.24 -221.86 1.8403113e-38
2657.71 1497.99 -224.854 1.8403113e-38
2727.3101 1493.67 -226.27699 1.8403113e-38
2773.22 1492.29 -227.75101 1.8403113e-38
2788.8899 1491.67 -228.19701 1.8403113e-38
2569.5 1505.22 -223.687 1.8403113e-38
2619.2 1501.4399 -224.452 1.8403113e-38
2634.1699 1502.78 -225.577 1.8403113e-38
2645.9299 1500.45 -225.239 1.8403113e-38
2564.7 1514.8101 -226.946 1.8403113e-38
-1900.96 2033.87 -223.045 1.8403113e-38
-4594.0298 2369.1899 -228.75101 1.8403113e-38
2668.3999 1479.75 -218.72301 1.8403113e-38
2576.21 1483.14 -215.992 1.8403113e-38
2760.6699 1425.3 -203 1.8403113e-38
2574.21 1466.41 -209.86 1.8403113e-38
-1884.8 1993.14 -209.015 1.8403113e-38
-1873.83 1954.71 -195.597 1.8403113e-38
-1992.9301 1960.3 -192.511 1.8403113e-38
2708.77 1369.21 -180.5 1.8403113e-38
2725.22 1345.36 -172.58501 1.8403113e-38
2724.1101 1356.76 -176.657 1.8403113e-38
2719.1001 1365.15 -179.47501 1.8403113e-38
2732.3501 1314.86 -161.866 1.8403113e-38
2727.77 1323.26 -164.707 1.8403113e-38
2724.6399 1332.8199 -168.028 1.8403113e-38
2735.21 1282.27 -150.21001 1.8403113e-38
2737.29 1295.16 -154.959 1.8403113e-38
2730.5601 1301.87 -157.095 1.8403113e-38
2745.8 1255.92 -141.14 1.8403113e-38
2739.3999 1262.72 -143.323 1.8403113e-38
2740.97 1274.96 -147.81599 1.8403113e-38
2753.6851 1233.7151 -133.455 1.8403113e-38
2743.1499 1243.23 -136.44 1.8403113e-38
2751.79 1205.97 -123.345 1.8403113e-38
2761.8999 1201.52 -122.168 1.8403113e-38
2754.99 1218.46 -127.994 1.8403113e-38
2773.8101 1167.02 -110.212 1.8403113e-38
2764.77 1172.22 -111.701 1.8403113e-38
2771.01 1185.97 -116.94 1.8403113e-38
2766.9099 1194 -119.668 1.8403113e-38
-1144.14 1648.28 -116.135 1.8403113e-38
2778.79 1149.51 -104.096 1.8403113e-38
2781.5801 1140.98 -101.132 1.8403113e-38
2769.8701 1154.8199 -105.631 1.8403113e-38
-1146.0601 1621.59 -106.406 1.8403113e-38
2797.3999 1119.15 -93.921799 1.8403113e-38
2782.49 1121.73 -94.214798 1.8403113e-38
2779.8999 1130.24 -97.179604 1.8403113e-38
2794.7 1088.85 -82.853104 1.8403113e-38
2805.8799 1084.24 -81.667702 1.8403113e-38
2797.8 1099.86 -86.963997 1.8403113e-38
2790.0901 1105.95 -88.834702 1.8403113e-38
2809.25 1057.24 -72.052696 1.8403113e-38
2817.51 1051.1899 -70.218597 1.8403113e-38
2810.95 1067.37 -75.785004 1.8403113e-38
2806.1899 1074.84 -78.282898 1.8403113e-38
2822.6201 1025.22 -61.052299 1.8403113e-38
2812.79 1035.375 -64.300102 1.8403113e-38
2824.1499 998.328 -51.397999 1.8403113e-38
2831.1899 1009.88 -55.876202 1.8403113e-38
2819.51 1014.9 -57.188702 1.8403113e-38
2813.51 968.08301 -40.010502 1.8403113e-38
2813.4099 976.867 -43.180801 1.8403113e-38
2817.8999 987.229 -47.118698 1.8403113e-38
2805.8601 948.349 -32.5499 1.8403113e-38
2805.96 957.02197 -35.688599 1.8403113e-38
2795.8601 928.44098 -24.925501 1.8403113e-38
2795.2 936.711 -27.8864 1.8403113e-38
2769.4299 896.73602 -12.3326 1.8403113e-38
2780.6101 907.71698 -16.781 1.8403113e-38
2782.0701 916.341 -19.960699 1.8403113e-38
-855.10999 1336.5699 -15.8658 1.8403113e-38
2757.825 874.04199 -3.6329651 1.8403113e-38
2769.6899 888.74799 -9.4565897 1.8403113e-38
-950.15601 1311.21 -2.6238201 1.8403113e-38
-872.51501 1317.1 -8.0845404 1.8403113e-38
-1279.6801 1359.48 -5.9394798 1.8403113e-38
2757.8999 838.94702 9.0487604 1.8403113e-38
2755.2 846.15997 6.5571098 1.8403113e-38
2754.3899 853.74597 3.8505599 1.8403113e-38
2756.4099 861.95801 0.79546398 1.8403113e-38
-1273.83 1331.28 4.0013599 1.8403113e-38
2763.6399 816.81299 16.8027 1.8403113e-38
2753.3 822.75 15.1002 1.8403113e-38
2759.5601 831.52698 11.6594 1.8403113e-38
-1271.62 1304.02 13.7596 1.8403113e-38
2804.97 775.67603 29.898399 1.8403113e-38
2844.71 771.90802 29.556101 1.8403113e-38
2760.1299 785.75098 28.179899 1.8403113e-38
2766.8 794.25702 24.8197 1.8403113e-38
2756.24 807.98102 20.312 1.8403113e-38
2766.47 801.87598 22.0797 1.8403113e-38
-1268.15 1276.65 23.504499 1.8403113e-38
2893.2 742.55798 38.084499 1.8403113e-38
2879.5 758.52698 32.900398 1.8403113e-38
2887.3799 750.67401 35.401001 1.8403113e-38
2873.54 766.45001 30.2925 1.8403113e-38
2766.24 778.91998 30.386999 1.8403113e-38
-1273.27 1251.02 32.987499 1.8403113e-38
2883.3201 716.448 47.945702 1.8403113e-38
2880.72 724.76501 45.051102 1.8403113e-38
2873.0601 732.73297 42.499401 1.8403113e-38
-1269.29 1223.77 42.6642 1.8403113e-38
2905.9399 682.992 59.067402 1.8403113e-38
2896.9648 695.677 54.867599 1.8403113e-38
2890.8301 708.28302 50.574501 1.8403113e-38
-1265.04 1196.63 52.2924 1.8403113e-38
2905.3701 657.17401 68.423599 1.8403113e-38
2906.3101 665.77197 65.275703 1.8403113e-38
2905.1699 674.37701 62.214401 1.8403113e-38
-1268.4301 1170.86 61.7519 1.8403113e-38
2909.1602 635.54797 76.077347 1.8403113e-38
2909.3501 648.495 71.3899 1.8403113e-38
-1271.5699 1145.0699 71.209 1.8403113e-38
2917.04 604.81799 86.846298 1.8403113e-38
2916.46 613.56403 83.710197 1.8403113e-38
2910.8101 622.51801 80.716202 1.8403113e-38
-1260.62 1117.26 80.788399 1.8403113e-38
2922.51 569.35602 99.429001 1.8403113e-38
2920.27 578.34601 96.275703 1.8403113e-38
2915.95 587.448 93.171097 1.8403113e-38
2912.55 596.40601 90.079597 1.8403113e-38
-1258.74 1064.9301 99.621597 1.8403113e-38
-1264.26 1091.6801 90.190903 1.8403113e-38
2927.72 542.258 109 1.8403113e-38
2929.72 550.92297 105.782 1.8403113e-38
2916.71 561.13599 102.649 1.8403113e-38
-1264.87 1039.71 108.999 1.8403113e-38
