# .PCD v0.7 - Point Cloud Data file format
VERSION 0.7
FIELDS x y z rgb
SIZE 4 4 4 4
TYPE F F F F
COUNT 1 1 1 1
WIDTH 343
HEIGHT 1
VIEWPOINT 0 0 0 1 0 0 0
POINTS 343
DATA ascii
-3514.1799 2349.01 -294.81601 1.8403113e-38
-2459.28 2439.1101 -295.724 1.8403113e-38
-2332.23 2453.02 -296.94199 1.8403113e-38
-2197.46 2463.4199 -296.65302 1.8403113e-38
-2076.52 2474.3799 -296.98801 1.8403113e-38
-1953.77 2483.02 -296.42499 1.8403113e-38
-1838.97 2491.3999 -296.005 1.8403113e-38
-1746.63 2502.98 -297.42499 1.8403113e-38
-1636.97 2509.04 -296.31799 1.8403113e-38
-1543.92 2517.3401 -296.52701 1.8403113e-38
-1469.3 2528.8 -298.43399 1.8403113e-38
-1383.21 2536.0901 -298.48499 1.8403113e-38
-1303.02 2543.5801 -298.78799 1.8403113e-38
-1228.6899 2551.4199 -299.39301 1.8403113e-38
-1147.8101 2556.1899 -298.68799 1.8403113e-38
-1072.8 2561.3999 -298.31601 1.8403113e-38
-1007.42 2568.3401 -298.86301 1.8403113e-38
-941.20001 2573.97 -298.91299 1.8403113e-38
-867.58099 2576.1499 -297.48599 1.8403113e-38
-810.11902 2582.51 -298.06201 1.8403113e-38
-752.763 2588 -298.32501 1.8403113e-38
-698.32397 2593.6001 -298.71701 1.8403113e-38
-638.41498 2596.3701 -297.91501 1.8403113e-38
-587.00598 2601.3101 -298.16 1.8403113e-38
-536.633 2605.8401 -298.284 1.8403113e-38
-480.85699 2607.45 -297.189 1.8403113e-38
-435.32999 2612.25 -297.56 1.8403113e-38
-393.556 2617.8799 -298.34201 1.8403113e-38
-350.04599 2622.1299 -298.573 1.8403113e-38
-300.302 2623.01 -297.39499 1.8403113e-38
-265.15399 2629.5 -298.68799 1.8403113e-38
-218.38499 2630.23 -297.54401 1.8403113e-38
-178.037 2633.1399 -297.38599 1.8403113e-38
-135.134 2634.21 -296.48199 1.8403113e-38
-103.901 2640.1899 -297.70999 1.8403113e-38
-62.131001 2640.53 -296.57401 1.8403113e-38
-29.2974 2644.6599 -297.08499 1.8403113e-38
6.0787501 2646.99 -296.86301 1.8403113e-38
45.692402 2646.53 -295.505 1.8403113e-38
78.222198 2649.2 -295.492 1.8403113e-38
114.098 2649.53 -294.53101 1.8403113e-38
136.13 2656.97 -296.56601 1.8403113e-38
175.19901 2654.45 -294.47601 1.8403113e-38
200.521 2659.22 -295.44101 1.8403113e-38
239.27901 2655.6799 -292.992 1.8403113e-38
261.91199 2661.1699 -294.29999 1.8403113e-38
294.51501 2660.22 -292.97601 1.8403113e-38
321.17099 2662.45 -292.979 1.8403113e-38
348.564 2663.78 -292.638 1.8403113e-38
375.03799 2665.28 -292.383 1.8403113e-38
397.35001 2669.1001 -293.099 1.8403113e-38
451.461 2669.27 -291.52802 1.8403113e-38
421.229 2671.55 -293.267 1.8403113e-38
475.14801 2671.03 -291.45401 1.8403113e-38
499.54599 2671.9199 -291.04099 1.8403113e-38
523.06 2673.05 -290.74301 1.8403113e-38
546.48499 2673.8701 -290.336 1.8403113e-38
650.81403 2682.55 -290.34 1.8403113e-38
-4085.4399 2269.9399 -283.34698 1.8403113e-38
-3865.95 2296.27 -286.28601 1.8403113e-38
-3657.3799 2320.3 -288.71899 1.8403113e-38
569.815 2674.3899 -289.82001 1.8403113e-38
594.59003 2673.4099 -288.72101 1.8403113e-38
618.47601 2672.71 -287.745 1.8403113e-38
633.88898 2678.3201 -289.31799 1.8403113e-38
681.18597 2675.48 -286.85999 1.8403113e-38
697.22101 2679.8101 -287.948 1.8403113e-38
713.97699 2683.3201 -288.71899 1.8403113e-38
738.01099 2680.3 -286.897 1.8403113e-38
753.92297 2684 -287.76001 1.8403113e-38
769.09399 2688.1599 -288.81299 1.8403113e-38
829.23199 2685.6699 -286.10001 1.8403113e-38
845.599 2687.6899 -286.33899 1.8403113e-38
786.39099 2690.1899 -289.03 1.8403113e-38
801.51801 2694 -289.95401 1.8403113e-38
855.04498 2696.28 -289.168 1.8403113e-38
872.06201 2697.29 -289.022 1.8403113e-38
893.065 2693.97 -287.18799 1.8403113e-38
908.578 2695.9399 -287.43201 1.8403113e-38
924.04797 2697.72 -287.61301 1.8403113e-38
945.37201 2693 -285.25699 1.8403113e-38
960.69202 2694.3799 -285.298 1.8403113e-38
1004.46 2699.6699 -285.897 1.8403113e-38
970.185 2702.02 -287.78201 1.8403113e-38
986.09998 2702.3799 -287.436 1.8403113e-38
1015.24 2705.49 -287.68301 1.8403113e-38
1034.67 2700.9099 -285.439 1.8403113e-38
1048.47 2702.76 -285.69501 1.8403113e-38
1059.83 2707.45 -287.05099 1.8403113e-38
1074.78 2707.52 -286.62701 1.8403113e-38
1089.66 2707.4299 -286.14499 1.8403113e-38
1104.48 2707.1699 -285.60501 1.8403113e-38
1119.8 2705.98 -284.71201 1.8403113e-38
1173.15 2709.6899 -284.45001 1.8403113e-38
1187.58 2708.49 -283.582 1.8403113e-38
1200.35 2709.51 -283.56799 1.8403113e-38
1128.25 2713.8501 -287.31299 1.8403113e-38
1144.04 2711.6001 -286.01999 1.8403113e-38
1158.63 2710.72 -285.263 1.8403113e-38
1210.48 2714.3899 -285.03201 1.8403113e-38
1221.15 2718.3799 -286.15601 1.8403113e-38
1233.87 2719.05 -286.01599 1.8403113e-38
1249.05 2715.54 -284.28699 1.8403113e-38
1277.12 2711.29 -281.89899 1.8403113e-38
1286.25 2717.1499 -283.75101 1.8403113e-38
1310.23 2718.71 -283.59399 1.8403113e-38
1258.21 2721.6299 -286.21899 1.8403113e-38
1294.98 2723.77 -285.88901 1.8403113e-38
1320.8101 2721.8201 -284.40201 1.8403113e-38
1333.63 2720.6399 -283.58899 1.8403113e-38
1343.3199 2725.22 -284.95801 1.8403113e-38
1355.2 2725.5 -284.70099 1.8403113e-38
1366.1899 2727.3501 -285.04401 1.8403113e-38
1379.66 2724 -283.422 1.8403113e-38
1389.38 2728.2 -284.65302 1.8403113e-38
1412.4301 2728.6101 -284.10699 1.8403113e-38
1426.76 2722.1599 -281.336 1.8403113e-38
1435.71 2727.72 -283.08099 1.8403113e-38
1457.37 2729.8701 -283.211 1.8403113e-38
1503.41 2725.05 -280.073 1.8403113e-38
1399.53 2731.47 -285.53101 1.8403113e-38
1445.45 2731.46 -284.14499 1.8403113e-38
1468.1801 2730.8101 -283.224 1.8403113e-38
1479.3101 2730.76 -282.87201 1.8403113e-38
1489.0699 2734.1399 -283.80499 1.8403113e-38
1510.59 2735.3401 -283.591 1.8403113e-38
1522.55 2732.23 -282.10199 1.8403113e-38
1532.3199 2735.26 -282.90701 1.8403113e-38
1552.79 2738.3799 -283.423 1.8403113e-38
1563.4399 2738.46 -283.13 1.8403113e-38
1573.8 2739.3501 -283.14001 1.8403113e-38
1595.24 2738.1299 -282.05301 1.8403113e-38
1605.3 2739.6499 -282.302 1.8403113e-38
1626.1 2739.7 -281.694 1.8403113e-38
1541.54 2740 -284.349 1.8403113e-38
1583.89 2741.05 -283.45401 1.8403113e-38
1615.59 2740.1799 -282.18301 1.8403113e-38
1636.36 2740.05 -281.51099 1.8403113e-38
1644.9399 2747.6499 -284.01001 1.8403113e-38
1656.23 2743.24 -282.07001 1.8403113e-38
1665.14 2749.78 -284.173 1.8403113e-38
1676.15 2746.1001 -282.509 1.8403113e-38
1686.37 2746.03 -282.172 1.8403113e-38
1696.09 2748.6399 -282.82599 1.8403113e-38
1736.8199 2747.1299 -281.052 1.8403113e-38
1756.7 2748.6599 -281.00699 1.8403113e-38
1796.5699 2749.79 -280.21899 1.8403113e-38
1705.99 2750.24 -283.11099 1.8403113e-38
1716.05 2750.8401 -283.02399 1.8403113e-38
1725.5601 2755.0701 -284.272 1.8403113e-38
1745.97 2753.99 -283.26501 1.8403113e-38
1766.29 2752.5701 -282.13699 1.8403113e-38
1776.5 2750.79 -281.185 1.8403113e-38
1786.5 2750.8 -280.888 1.8403113e-38
1806.1899 2754.3201 -281.57199 1.8403113e-38
1816.25 2753.1499 -280.84299 1.8403113e-38
1826.08 2755.6499 -281.453 1.8403113e-38
1835.99 2757.1201 -281.69101 1.8403113e-38
1845.91 2758.52 -281.89899 1.8403113e-38
1855.91 2757.96 -281.39301 1.8403113e-38
1865.92 2756.3701 -280.517 1.8403113e-38
1875.85 2758.47 -280.97699 1.8403113e-38
1895.8 2759.5901 -280.78201 1.8403113e-38
1915.76 2759.4399 -280.12701 1.8403113e-38
1925.98 2765.8201 -282.13501 1.8403113e-38
1935.97 2764.6001 -281.39099 1.8403113e-38
1946.3101 2769.8799 -282.99301 1.8403113e-38
1966.08 2764.21 -280.341 1.8403113e-38
1976.25 2765.47 -280.49399 1.8403113e-38
1986.45 2766.6599 -280.61499 1.8403113e-38
1996.87 2769.6299 -281.379 1.8403113e-38
2006.9301 2768.76 -280.763 1.8403113e-38
2016.98 2767.8201 -280.11801 1.8403113e-38
2027.75 2772.3999 -281.45401 1.8403113e-38
2049.1599 2778.47 -283.01401 1.8403113e-38
2059.29 2777.1799 -282.23999 1.8403113e-38
2090.3101 2776.52 -281.06601 1.8403113e-38
2154.1001 2779.28 -280.14499 1.8403113e-38
2039.14 2780.6101 -284.09201 1.8403113e-38
2101.7 2781.3799 -282.48401 1.8403113e-38
2122.79 2781.54 -281.90799 1.8403113e-38
2133.78 2783.3301 -282.22699 1.8403113e-38
2144.1599 2782.27 -281.52802 1.8403113e-38
2166.5601 2786.29 -282.31201 1.8403113e-38
2176.51 2783.1201 -280.86401 1.8403113e-38
2188.6799 2788.0901 -282.297 1.8403113e-38
2199.1499 2786.5601 -281.42899 1.8403113e-38
2233.05 2789.5901 -281.508 1.8403113e-38
2243.27 2786.8 -280.185 1.8403113e-38
2222.26 2790.5 -282.16 1.8403113e-38
2255.8601 2791.1101 -281.36899 1.8403113e-38
2278.8301 2792.2 -281.07599 1.8403113e-38
2291.3401 2795.27 -281.81201 1.8403113e-38
2315.25 2797.5 -281.89899 1.8403113e-38
2325.8799 2794.9099 -280.63901 1.8403113e-38
2339.3601 2799.28 -281.81699 1.8403113e-38
2363.28 2799.72 -281.259 1.8403113e-38
2304.6101 2800 -283.12601 1.8403113e-38
2353.3201 2804.3799 -283.25 1.8403113e-38
2387.74 2800.5901 -280.83801 1.8403113e-38
2427.6399 2807.04 -281.97299 1.8403113e-38
2478.1699 2806.7 -280.328 1.8403113e-38
2508.05 2813.75 -281.987 1.8403113e-38
2536.4399 2816.8401 -282.25299 1.8403113e-38
2546.8701 2811.5601 -280.021 1.8403113e-38
2576.5801 2815.46 -280.54099 1.8403113e-38
2565.6299 2820.1699 -282.57901 1.8403113e-38
2621.77 2820.1201 -280.87 1.8403113e-38
2714.75 2825.8 -280.13101 1.8403113e-38
2783.1001 2832.53 -280.51199 1.8403113e-38
-2367.25 2386.95 -274.03201 1.8403113e-38
1885.8199 2752.02 -278.33701 1.8403113e-38
1905.71 2755.79 -279.108 1.8403113e-38
1955.88 2761.9199 -279.81799 1.8403113e-38
2068.3201 2769.3 -279.10901 1.8403113e-38
2079.02 2771.5701 -279.60901 1.8403113e-38
2110.1299 2771.3301 -278.58701 1.8403113e-38
2208.8 2782.22 -279.565 1.8403113e-38
2266.0901 2788.1201 -279.978 1.8403113e-38
2373.5701 2795.8601 -279.54599 1.8403113e-38
2397.24 2794.79 -278.448 1.8403113e-38
2436.3 2799.22 -278.87601 1.8403113e-38
2411.96 2800.1299 -279.94199 1.8403113e-38
2450.02 2801.5701 -279.31601 1.8403113e-38
2463.3899 2802.9299 -279.40701 1.8403113e-38
2489.8701 2804.4099 -279.146 1.8403113e-38
2517.98 2807.8601 -279.55099 1.8403113e-38
2586.99 2809.8401 -278.19 1.8403113e-38
2603.02 2813.05 -278.87201 1.8403113e-38
2630.6201 2811.72 -277.55899 1.8403113e-38
2646.3701 2813.6399 -277.78 1.8403113e-38
2853.3601 2816.46 -272.56601 1.8403113e-38
2680.3301 2820.1101 -279.10199 1.8403113e-38
2698.05 2823.8401 -279.92099 1.8403113e-38
2729.8301 2825.25 -279.47699 1.8403113e-38
2745.54 2825.3101 -279.026 1.8403113e-38
2760.1399 2823.6699 -277.98999 1.8403113e-38
2793.04 2824.46 -277.28601 1.8403113e-38
2808.98 2823.8301 -276.577 1.8403113e-38
2844.78 2826.48 -276.46201 1.8403113e-38
2831.1399 2830.48 -278.323 1.8403113e-38
-5138.02 2140.48 -268.095 1.8403113e-38
2642.5801 2786.8201 -268.16599 1.8403113e-38
2868.27 2794.0601 -263.99301 1.8403113e-38
2863.75 2808.5701 -269.392 1.8403113e-38
-5230.3701 2087.76 -251.75301 1.8403113e-38
2870.1699 2757.9199 -250.827 1.8403113e-38
2868.7 2775.24 -257.15302 1.8403113e-38
2868.0701 2737.1101 -243.342 1.8403113e-38
-5341.23 2034.48 -235.76801 1.8403113e-38
-2023.58 2297.01 -231.05701 1.8403113e-38
2869.02 2719.9299 -237.084 1.8403113e-38
-2049.1799 2267.78 -221.224 1.8403113e-38
2870.8601 2686.47 -224.89 1.8403113e-38
2861.6101 2694.4299 -228.05701 1.8403113e-38
2873.1499 2654.6201 -213.267 1.8403113e-38
2871.77 2670.1699 -218.951 1.8403113e-38
-2057.76 2235.8301 -209.894 1.8403113e-38
2876.6899 2625 -202.418 1.8403113e-38
2875.72 2640.46 -208.05701 1.8403113e-38
-2045.29 2201.05 -196.905 1.8403113e-38
2877.27 2593.5801 -191.004 1.8403113e-38
2872.45 2604.9299 -195.267 1.8403113e-38
-4736.9502 1950.66 -187.16 1.8403113e-38
2873.98 2575.02 -184.37199 1.8403113e-38
2881.8201 2536.6201 -170.20799 1.8403113e-38
2879.8601 2549.8301 -175.05701 1.8403113e-38
2868.22 2554.6499 -177.15401 1.8403113e-38
2884.48 2509.6899 -160.356 1.8403113e-38
2883.6101 2523.45 -165.375 1.8403113e-38
-4488.1201 1888.21 -157.01401 1.8403113e-38
2886.4399 2482.9099 -150.586 1.8403113e-38
2878.3201 2490.4099 -153.55099 1.8403113e-38
-4615.21 1838.85 -142.938 1.8403113e-38
2885.3899 2454.52 -140.321 1.8403113e-38
2878.29 2462.6399 -143.47701 1.8403113e-38
-2055.3601 2038.01 -138.07001 1.8403113e-38
2885.96 2428.1599 -130.742 1.8403113e-38
2886.1499 2441.6201 -135.61501 1.8403113e-38
-4679.9302 1786.46 -125.884 1.8403113e-38
-2066.8101 2006.27 -126.902 1.8403113e-38
2885.8601 2402.01 -121.26 1.8403113e-38
2885.5901 2414.77 -125.896 1.8403113e-38
-2077.97 1974.38 -115.67 1.8403113e-38
2885.8999 2376.6499 -112.058 1.8403113e-38
2886.76 2389.8701 -116.829 1.8403113e-38
-4679.2202 1732.55 -106.308 1.8403113e-38
-4734.9902 1678.62 -88.426201 1.8403113e-38
2688.6599 2230.1599 -64.863403 1.8403113e-38
2448.6799 2060.1499 -10.4288 1.8403113e-38
-4701.1499 1462.4 -8.9797401 1.8403113e-38
-4795.3301 1404.35 9.2374001 1.8403113e-38
2384.1699 2005.0601 7.6118598 1.8403113e-38
2397.7 2019.91 2.6317 1.8403113e-38
2366.6499 1976.85 17.315201 1.8403113e-38
2377.845 1975.21 18.24795 1.8403113e-38
2371.51 1985.4399 14.3452 1.8403113e-38
2376.24 1994.14 11.3351 1.8403113e-38
-1265.67 1655.63 24.4168 1.8403113e-38
2366.3601 1944.4301 29.067101 1.8403113e-38
2372.26 1955.59 25.196499 1.8403113e-38
2375.3701 1965.47 21.7078 1.8403113e-38
-1271.5601 1629.67 33.655499 1.8403113e-38
2358.8799 1917.79 38.504448 1.8403113e-38
2363.6001 1927.62 35.081902 1.8403113e-38
2364 1932.88 33.1838 1.8403113e-38
2368.72 1940.49 30.566099 1.8403113e-38
-1259.23 1604.0699 43.311501 1.8403113e-38
2361.8899 1887.99 49.4039 1.8403113e-38
2354.3701 1898.78 45.264 1.8403113e-38
2363.605 1895.825 46.6134 1.8403113e-38
2352.3999 1902.6 43.817501 1.8403113e-38
2359.3501 1910.6899 41.094799 1.8403113e-38
2363.1201 1863.1951 58.435997 1.8403113e-38
2363.8733 1874.8833 54.217731 1.8403113e-38
2359.1299 1882.17 51.431499 1.8403113e-38
2367.145 1835.7251 68.521103 1.8403113e-38
2370.02 1836.63 68.279999 1.8403113e-38
2369.51 1849.76 63.5 1.8403113e-38
2370.98 1845.79 64.983498 1.8403113e-38
2367.22 1855.6851 61.283051 1.8403113e-38
-980.13397 1540.5601 74.754097 1.8403113e-38
2370 1806.39 79.244904 1.8403113e-38
2377.4751 1814.775 76.429245 1.8403113e-38
2367.9099 1827.25 71.616402 1.8403113e-38
2373.1499 1822.26 73.584198 1.8403113e-38
-963.97601 1517.9399 83.447502 1.8403113e-38
2379.8799 1787.46 86.410797 1.8403113e-38
2387.0898 1782.5249 88.417648 1.8403113e-38
2378.29 1795.6234 83.402496 1.8403113e-38
2373.98 1803.13 80.549301 1.8403113e-38
-958.59003 1494.84 91.987602 1.8403113e-38
2401.145 1754.795 98.897751 1.8403113e-38
2393.8901 1764.4767 95.169533 1.8403113e-38
2388.3501 1776.35 90.695503 1.8403113e-38
2395.05 1773.26 92.019302 1.8403113e-38
-939.21002 1449.55 108.999 1.8403113e-38
-947.00897 1472.27 100.523 1.8403113e-38
2426.21 1729.03 109 1.8403113e-38
2418.4199 1737.2 105.8 1.8403113e-38
2425.8201 1733.47 107.379 1.8403113e-38
2405.99 1748.9399 101.168 1.8403113e-38
2414.72 1743.4299 103.4315 1.8403113e-38
